ply
format ascii 1.0
comment Created by CloudCompare v2.10.1 (Zephyrus)
comment Created 1/30/20 6:09 PM
obj_info Generated by CloudCompare!
element vertex 2058
property float x
property float y
property float z
property uchar red
property uchar green
property uchar blue
end_header
372 790 453 147 142 145 
372 791 453 153 147 149 
373 790 453 148 143 145 
373 791 453 153 147 149 
373 790 454 149 144 146 
374 791 453 156 150 152 
374 790 454 152 146 148 
374 791 454 156 150 152 
375 790 454 152 146 147 
375 790 455 144 137 138 
375 791 454 158 151 151 
368 792 451 144 140 142 
368 793 451 153 147 150 
369 792 451 148 144 147 
369 793 451 156 151 153 
368 794 450 156 150 151 
368 794 451 159 152 153 
368 795 450 156 149 149 
369 794 451 160 154 155 
369 795 450 157 150 150 
369 795 451 159 152 153 
370 793 451 159 154 156 
370 794 451 161 154 155 
370 795 450 154 146 146 
370 795 451 154 146 146 
371 794 451 161 154 155 
371 795 451 146 137 138 
370 792 452 153 148 150 
370 793 452 159 153 156 
371 792 452 157 151 154 
371 793 452 162 156 158 
371 794 452 162 155 156 
368 796 449 145 138 138 
368 797 448 128 122 124 
368 797 449 135 128 129 
369 797 449 117 110 111 
368 796 450 149 142 142 
369 796 450 149 141 141 
369 797 450 132 124 124 
368 798 448 105 99 103 
369 798 448 89 83 88 
369 799 448 79 74 79 
370 797 449 90 80 84 
371 797 449 71 62 69 
370 796 450 131 122 123 
370 797 450 100 88 91 
371 796 450 95 83 87 
371 796 451 116 106 107 
371 797 450 75 64 71 
370 798 448 77 69 76 
370 798 449 79 71 78 
370 799 448 70 64 72 
371 798 449 62 56 65 
371 799 448 61 57 66 
371 799 449 58 54 64 
372 795 451 125 115 118 
373 795 451 87 71 82 
372 792 452 160 154 156 
372 792 453 158 152 154 
372 793 452 164 157 158 
373 792 453 158 151 152 
373 793 452 157 149 149 
373 793 453 160 153 153 
372 794 452 155 147 148 
373 794 452 134 123 126 
373 795 452 94 79 89 
374 792 453 157 150 151 
374 793 452 139 130 131 
374 793 453 146 138 138 
375 792 453 151 144 144 
375 793 453 123 112 115 
375 792 454 155 148 149 
374 794 452 100 85 92 
374 795 452 70 56 69 
375 794 452 78 64 75 
375 794 453 78 63 73 
375 795 452 61 52 65 
372 796 451 86 73 80 
372 797 450 65 58 66 
373 796 451 69 57 68 
373 797 450 57 56 63 
373 797 451 57 54 63 
372 798 449 57 53 63 
372 799 449 52 51 60 
373 799 449 49 49 57 
372 798 450 56 52 62 
373 798 450 51 50 59 
373 799 450 48 48 56 
374 796 451 59 52 64 
374 797 451 51 50 58 
375 797 451 47 46 52 
374 798 450 48 50 58 
374 798 451 47 48 55 
374 799 450 45 46 54 
374 799 451 45 46 52 
375 798 451 43 45 51 
375 799 451 43 45 52 
374 796 452 58 51 62 
375 796 452 53 50 59 
375 797 452 50 48 55 
376 790 454 144 136 136 
376 790 455 135 128 127 
376 791 454 150 142 142 
377 790 454 139 130 129 
377 790 455 142 134 134 
377 791 454 139 130 129 
378 790 455 152 145 144 
378 791 454 119 108 109 
378 791 455 139 130 130 
379 790 455 146 139 140 
379 791 454 98 86 89 
379 791 455 119 110 112 
380 790 455 125 118 119 
380 791 454 82 69 76 
380 791 455 97 86 91 
381 790 455 103 96 98 
381 791 454 73 66 71 
381 791 455 81 73 80 
382 790 455 87 78 83 
382 791 454 64 61 67 
382 791 455 72 65 74 
383 790 455 74 67 73 
383 791 454 57 55 60 
383 791 455 63 59 66 
380 790 456 151 143 143 
381 790 456 144 136 136 
376 792 453 131 122 124 
376 793 453 94 82 87 
377 793 453 70 58 67 
376 792 454 146 138 139 
377 792 454 111 99 103 
376 794 452 62 54 67 
376 794 453 69 57 68 
376 795 452 56 51 63 
377 794 453 57 52 62 
377 795 452 53 48 59 
378 793 453 63 55 62 
379 793 453 58 53 60 
378 792 454 89 74 80 
379 792 454 78 66 73 
379 793 454 60 56 62 
378 794 453 53 49 58 
378 795 452 50 47 57 
379 794 453 53 49 58 
379 795 452 49 46 57 
379 795 453 51 47 58 
376 798 451 42 43 49 
376 799 451 43 45 50 
376 796 452 51 49 56 
376 797 452 46 45 50 
377 796 452 49 46 53 
377 797 452 46 46 51 
376 798 452 42 43 49 
377 798 452 43 44 50 
377 799 452 43 46 52 
378 796 452 48 45 54 
378 797 452 46 47 51 
379 796 452 47 46 54 
379 797 452 47 48 52 
378 798 452 43 46 51 
378 799 452 44 48 54 
379 798 452 43 45 50 
379 798 453 44 47 51 
379 799 453 47 50 56 
380 793 453 57 55 61 
381 793 453 57 58 62 
380 792 454 68 61 67 
380 793 454 59 57 63 
381 792 454 63 60 64 
381 793 454 60 60 65 
380 794 453 55 52 59 
380 795 452 48 47 56 
380 795 453 50 49 56 
381 794 453 56 55 61 
381 795 453 51 51 57 
382 793 453 59 60 64 
383 793 453 61 62 66 
382 792 454 58 58 62 
382 793 454 59 60 64 
383 792 454 56 57 61 
382 794 453 59 58 63 
382 795 453 54 52 58 
383 794 453 58 57 62 
383 795 453 54 52 58 
380 796 452 47 47 54 
380 796 453 47 49 54 
380 797 452 48 49 53 
380 797 453 48 50 54 
381 796 453 48 50 55 
381 797 453 47 48 53 
380 798 453 44 47 52 
380 799 453 46 50 56 
381 798 453 42 44 50 
380 799 454 46 51 57 
381 799 454 41 47 53 
382 796 453 49 49 53 
382 797 453 45 46 50 
383 796 453 49 49 53 
383 797 453 45 47 51 
383 797 454 42 43 48 
382 798 453 41 42 48 
382 798 454 39 40 46 
382 799 454 41 45 50 
382 799 455 43 47 53 
383 798 454 39 41 45 
383 798 455 40 42 47 
383 799 455 42 45 50 
370 800 448 62 59 67 
371 800 448 61 60 69 
371 801 448 67 70 77 
372 800 448 66 69 76 
372 800 449 56 58 66 
372 801 448 78 81 88 
373 800 449 61 64 71 
373 801 449 90 93 99 
373 800 450 61 63 70 
373 801 450 92 94 100 
372 802 448 83 86 92 
372 803 448 81 84 91 
373 802 449 101 103 109 
373 803 448 89 91 97 
373 803 449 100 102 108 
374 800 450 55 57 63 
374 801 450 76 79 85 
375 800 451 49 52 58 
375 801 450 77 79 85 
375 801 451 73 75 81 
374 802 449 99 101 108 
374 803 449 101 102 108 
374 802 450 80 83 90 
374 803 450 82 85 91 
375 802 450 84 86 92 
375 802 451 91 93 99 
375 803 450 84 86 92 
375 803 451 93 95 100 
372 804 448 78 79 85 
373 804 448 89 90 96 
373 804 449 98 99 105 
373 805 448 83 84 90 
373 805 449 98 99 104 
373 806 448 81 83 89 
373 806 449 96 97 103 
373 807 448 85 88 95 
374 804 449 101 102 108 
374 805 449 97 98 104 
374 804 450 84 86 92 
374 805 450 84 87 93 
375 804 450 82 85 91 
375 804 451 93 95 101 
375 805 450 83 85 91 
375 805 451 96 96 101 
374 806 449 95 96 101 
374 807 448 92 94 101 
374 807 449 95 96 103 
374 806 450 86 87 93 
375 806 450 87 88 93 
375 806 451 95 96 101 
375 807 450 87 90 96 
373 808 448 90 93 101 
374 808 448 94 97 105 
374 808 449 95 98 106 
375 808 449 91 95 104 
375 809 448 99 102 110 
375 809 449 97 100 108 
375 808 450 86 89 97 
376 800 451 50 53 58 
376 801 451 69 72 78 
376 802 451 83 84 90 
376 803 451 87 89 94 
377 800 452 48 52 58 
377 801 452 63 66 72 
377 802 452 72 75 81 
377 803 452 74 77 83 
378 800 452 51 55 61 
378 800 453 52 56 62 
378 801 452 65 68 74 
378 801 453 69 72 78 
379 800 453 60 63 69 
379 801 453 72 75 81 
379 801 454 81 83 89 
378 802 453 69 73 79 
378 803 453 73 76 82 
379 802 453 69 72 78 
379 802 454 82 84 90 
379 803 454 78 80 86 
376 804 451 89 91 96 
376 805 451 92 94 99 
376 806 451 96 97 103 
376 807 451 96 98 105 
377 807 451 90 92 99 
377 804 452 79 82 88 
377 804 453 76 78 84 
377 805 452 84 87 95 
377 806 452 88 91 98 
377 807 452 93 95 102 
378 804 453 81 84 90 
378 805 453 86 89 97 
379 804 454 80 83 89 
379 805 454 83 86 93 
378 806 453 91 94 102 
378 807 452 99 101 108 
378 807 453 93 96 103 
379 806 454 85 88 96 
379 807 454 88 92 99 
380 800 453 65 69 74 
380 800 454 66 69 75 
380 801 454 84 86 93 
380 801 455 82 85 91 
381 800 454 56 60 66 
381 800 455 58 62 68 
381 801 455 76 78 84 
380 802 454 88 90 96 
380 802 455 82 85 91 
380 803 454 89 91 97 
380 803 455 84 86 92 
381 802 455 83 85 91 
381 803 455 84 86 91 
382 800 455 57 60 65 
383 800 455 50 54 59 
380 804 454 90 92 99 
380 804 455 86 89 96 
380 805 455 88 91 98 
381 804 455 81 84 90 
381 805 455 83 85 92 
380 806 455 91 93 100 
380 807 454 96 99 107 
380 807 455 92 95 103 
381 806 455 84 87 94 
381 807 455 88 92 99 
381 802 456 84 86 91 
381 803 456 86 88 94 
382 800 456 68 71 77 
382 801 456 76 79 85 
383 800 456 60 64 70 
383 801 456 71 75 82 
383 801 457 74 78 84 
382 802 456 81 84 90 
382 803 456 85 88 94 
382 803 457 82 85 92 
383 802 457 77 81 88 
383 803 457 80 83 91 
381 804 456 87 89 96 
381 805 456 88 91 98 
381 806 456 89 92 99 
381 807 456 94 97 104 
382 804 456 88 91 98 
382 804 457 88 91 97 
382 805 457 93 95 101 
383 804 457 84 86 93 
383 805 457 87 89 95 
383 804 458 82 85 92 
383 805 458 84 86 92 
382 806 456 98 100 107 
382 806 457 95 97 104 
382 807 456 100 102 109 
382 807 457 99 101 108 
383 806 457 89 91 98 
383 807 457 90 93 100 
383 806 458 85 87 94 
376 809 448 116 117 125 
376 809 449 111 114 122 
377 809 449 123 124 131 
376 808 450 100 103 111 
376 808 451 97 100 107 
377 808 450 105 108 117 
377 808 451 95 99 106 
377 809 450 114 116 124 
376 810 448 123 124 130 
377 810 448 125 125 130 
378 809 449 132 132 138 
378 808 451 109 113 121 
378 809 450 122 124 131 
378 809 451 118 120 128 
379 809 450 132 133 139 
379 809 451 124 125 133 
378 810 448 126 126 132 
378 810 449 133 133 138 
379 810 448 128 127 134 
379 810 449 131 130 136 
379 811 448 137 137 143 
378 810 450 137 138 145 
379 810 450 136 136 142 
378 808 452 109 111 119 
378 808 453 101 104 112 
379 808 452 108 111 119 
379 808 453 99 102 109 
379 809 452 111 114 121 
379 808 454 89 93 101 
380 809 451 134 135 142 
381 809 451 142 143 150 
380 810 449 130 130 137 
380 811 448 144 143 149 
380 811 449 134 134 140 
381 810 449 135 135 141 
381 811 448 141 139 143 
381 811 449 133 132 136 
380 810 450 133 132 139 
380 810 451 140 140 147 
381 810 450 142 141 146 
381 810 451 147 147 153 
382 811 448 121 117 121 
382 811 449 118 113 118 
383 811 449 82 67 79 
382 810 450 144 141 145 
382 810 451 150 148 153 
382 811 450 134 130 135 
383 810 451 140 136 138 
383 811 450 112 101 106 
380 808 453 97 100 108 
380 809 452 119 121 128 
380 809 453 105 108 115 
381 809 452 132 133 140 
381 809 453 117 120 127 
380 808 454 101 104 111 
381 808 454 100 104 112 
381 808 455 98 101 109 
381 809 454 109 112 120 
381 810 452 142 142 149 
382 809 452 138 138 145 
382 809 453 131 132 139 
383 809 453 136 136 142 
382 808 455 112 114 121 
382 809 454 119 122 129 
383 808 455 119 120 127 
383 809 454 130 131 137 
383 809 455 121 122 128 
382 810 452 142 142 148 
383 810 452 144 143 148 
383 810 453 134 134 140 
381 812 448 138 135 140 
382 812 448 111 107 112 
383 812 448 73 62 75 
382 808 456 106 108 115 
383 808 456 107 109 117 
383 808 457 94 97 105 
323 843 399 72 76 83 
323 844 399 73 77 83 
324 844 399 76 80 87 
324 845 399 75 78 85 
324 846 399 74 78 84 
324 847 399 74 79 85 
325 847 399 74 78 84 
320 832 401 82 86 93 
320 833 400 80 84 92 
320 833 401 81 86 93 
320 832 402 80 84 92 
320 833 402 81 85 93 
321 832 403 80 84 93 
321 833 402 79 83 92 
321 833 403 84 89 97 
320 834 400 78 82 90 
320 834 401 85 89 97 
320 835 400 75 79 87 
320 835 401 90 93 101 
320 834 402 88 91 99 
320 835 402 90 94 101 
321 834 402 83 88 95 
321 834 403 92 96 103 
321 835 402 93 96 104 
322 832 403 88 93 101 
322 833 403 99 103 110 
323 833 403 104 105 111 
322 834 403 101 103 110 
322 835 403 98 100 106 
323 834 403 90 90 96 
323 835 403 77 77 82 
323 832 404 104 106 114 
323 833 404 101 102 108 
323 834 404 74 74 78 
323 835 404 64 63 68 
320 836 400 76 79 87 
320 836 401 91 94 102 
320 837 400 72 75 83 
320 837 401 84 88 96 
321 836 401 94 98 105 
321 837 401 92 96 103 
321 836 402 98 101 108 
321 837 402 97 100 107 
320 838 400 70 75 83 
321 838 400 70 75 82 
321 838 401 86 89 97 
321 839 400 68 73 81 
321 839 401 86 90 97 
321 838 402 94 98 105 
321 839 402 94 97 105 
322 836 403 94 95 102 
322 837 403 90 92 99 
323 836 403 70 71 76 
323 837 403 69 71 77 
322 838 403 90 93 99 
322 839 402 92 95 103 
322 839 403 87 90 97 
323 838 403 70 72 78 
323 839 403 73 76 82 
323 836 404 62 63 68 
323 837 404 64 66 71 
323 838 404 63 65 71 
323 839 404 61 64 70 
324 832 404 102 103 110 
324 832 405 100 101 108 
324 833 404 78 78 83 
325 832 405 86 86 92 
325 833 404 64 65 70 
325 833 405 69 69 74 
324 834 404 66 65 70 
324 835 404 66 67 72 
325 834 404 67 68 73 
325 834 405 68 69 74 
325 835 404 69 71 76 
325 835 405 71 72 78 
326 832 405 82 81 87 
326 833 405 69 69 74 
326 832 406 81 80 86 
326 833 406 70 69 74 
327 832 406 81 81 87 
327 832 407 86 87 93 
327 833 406 72 72 76 
327 833 407 73 72 77 
326 834 405 70 71 76 
326 835 405 72 74 79 
327 834 406 73 73 78 
327 835 406 75 76 81 
324 836 404 68 70 75 
324 837 404 70 71 76 
325 836 404 72 74 79 
325 836 405 74 76 81 
325 837 405 76 77 82 
324 838 404 68 69 74 
324 839 404 62 63 69 
324 839 405 61 62 67 
325 838 405 74 74 78 
325 839 405 65 66 70 
326 836 405 73 75 80 
326 837 405 74 75 80 
327 836 406 80 81 86 
327 837 406 81 82 86 
327 837 407 79 79 83 
326 838 405 75 75 78 
326 839 405 67 67 71 
326 838 406 73 72 77 
326 839 406 62 62 66 
327 838 406 74 74 78 
327 838 407 73 72 77 
327 839 406 63 62 67 
327 839 407 59 59 64 
321 840 400 67 72 79 
321 840 401 84 88 95 
321 840 402 94 98 106 
322 840 401 89 93 101 
322 841 400 65 69 77 
322 841 401 79 83 91 
322 840 402 93 96 104 
322 840 403 89 93 101 
322 841 402 91 95 103 
322 841 403 91 95 103 
323 840 403 82 86 93 
323 841 403 89 93 101 
322 842 400 69 73 80 
322 842 401 73 77 85 
322 843 400 71 75 82 
322 843 401 72 76 84 
323 843 400 70 75 82 
323 843 401 72 76 83 
322 842 402 86 90 98 
323 842 402 86 90 98 
323 842 403 89 93 101 
323 843 402 84 87 95 
323 843 403 87 92 100 
323 840 404 70 74 80 
323 841 404 82 86 94 
323 842 404 86 91 100 
323 843 404 87 92 101 
323 844 400 71 74 80 
323 844 401 71 75 82 
323 845 400 69 72 79 
323 845 401 66 70 78 
323 844 402 80 83 91 
323 844 403 85 89 98 
323 845 402 72 76 84 
323 845 403 80 84 93 
323 844 404 87 92 101 
324 840 404 61 64 71 
324 840 405 55 59 65 
324 841 404 76 80 88 
324 841 405 70 75 82 
325 840 405 53 56 62 
325 841 405 61 66 74 
324 842 404 85 89 98 
324 842 405 82 87 95 
324 843 404 86 91 100 
324 843 405 85 90 99 
325 842 405 77 82 90 
325 843 405 82 87 96 
326 840 405 53 55 60 
326 840 406 50 53 59 
326 841 406 57 62 69 
327 840 406 50 52 58 
327 840 407 49 53 60 
327 841 407 64 69 76 
326 842 406 73 79 87 
326 843 406 81 87 96 
327 842 407 85 89 97 
327 843 407 91 95 104 
324 845 400 68 72 78 
324 845 401 64 69 76 
324 845 402 74 78 87 
324 845 403 82 86 95 
324 846 400 67 72 78 
324 846 401 61 67 74 
324 847 400 68 71 78 
324 847 401 59 64 72 
324 846 402 69 73 82 
324 846 403 79 84 93 
324 847 402 66 69 79 
324 847 403 77 83 92 
324 844 404 87 92 101 
324 844 405 87 92 101 
324 845 404 88 93 102 
324 845 405 90 95 104 
325 844 405 84 90 99 
325 845 405 88 93 102 
324 846 404 87 92 101 
324 847 404 87 92 102 
325 846 405 90 95 104 
325 847 405 90 95 105 
326 844 406 85 91 100 
326 845 406 88 94 103 
327 844 407 92 97 106 
327 845 407 96 100 109 
326 846 405 90 95 104 
326 847 405 92 97 106 
326 846 406 93 97 107 
326 847 406 98 103 112 
327 846 407 99 104 113 
327 847 407 105 109 117 
328 832 407 88 89 96 
328 833 407 72 72 78 
328 834 407 72 72 77 
328 835 407 70 71 75 
328 836 407 74 74 78 
328 837 407 75 75 79 
328 838 407 62 62 67 
328 839 407 54 55 62 
328 832 408 90 91 98 
328 833 408 77 78 85 
329 832 408 92 94 101 
329 832 409 97 98 104 
329 833 408 83 85 91 
329 833 409 94 96 102 
328 834 408 68 68 74 
329 834 408 72 73 78 
329 835 408 65 66 72 
330 832 409 108 109 115 
330 833 409 104 105 111 
330 832 410 114 115 121 
330 833 410 112 113 119 
331 832 411 117 118 123 
331 833 410 117 117 123 
331 833 411 119 119 125 
330 834 409 94 96 102 
330 835 409 91 93 99 
330 834 410 108 109 115 
330 835 410 108 109 115 
331 834 410 114 115 121 
331 834 411 119 120 126 
331 835 410 114 115 122 
331 835 411 119 120 126 
328 837 408 62 62 67 
329 836 408 60 62 68 
329 837 408 57 59 65 
328 838 408 59 59 64 
328 839 408 51 54 61 
329 838 408 56 59 66 
329 838 409 77 81 88 
329 839 408 56 61 68 
329 839 409 80 84 91 
330 836 409 85 87 94 
330 837 409 85 88 94 
330 836 410 108 110 116 
330 837 410 111 113 119 
331 836 410 117 118 125 
331 836 411 122 123 129 
331 837 410 120 121 127 
331 837 411 125 126 132 
330 838 409 100 102 109 
330 839 409 97 100 108 
330 838 410 112 113 120 
330 839 410 109 111 118 
331 838 410 120 121 127 
331 838 411 127 128 134 
331 839 410 117 118 125 
331 839 411 126 126 132 
332 832 411 120 121 127 
332 833 411 118 119 125 
332 834 411 122 123 129 
332 835 411 125 126 132 
332 832 412 122 123 129 
332 833 412 119 119 125 
333 832 412 124 125 131 
333 833 412 124 124 130 
332 834 412 123 124 130 
332 835 412 127 127 134 
333 834 412 125 126 132 
333 835 412 127 127 134 
334 832 412 124 124 130 
334 832 413 106 105 110 
334 833 412 124 123 129 
334 833 413 109 110 115 
335 832 413 83 82 86 
335 833 413 81 82 87 
335 833 414 79 81 86 
334 834 413 113 113 119 
334 835 413 120 120 127 
335 834 413 87 89 95 
335 835 413 95 97 103 
335 834 414 78 80 86 
335 835 414 92 94 100 
332 836 411 126 127 133 
332 837 411 129 129 135 
332 838 411 130 130 136 
332 839 411 129 129 135 
332 836 412 128 128 134 
332 837 412 130 130 136 
333 836 412 129 130 136 
333 837 412 131 131 137 
332 838 412 132 131 137 
332 839 412 130 130 136 
333 838 412 132 132 137 
333 839 412 131 131 137 
334 836 413 128 128 134 
334 837 413 134 133 138 
335 836 414 113 114 120 
335 837 414 130 130 135 
334 838 413 135 133 138 
334 839 413 134 133 138 
335 838 414 135 134 138 
335 839 414 136 134 139 
328 840 407 50 55 62 
328 841 407 77 81 89 
328 842 407 99 102 110 
328 843 407 100 103 111 
328 844 407 100 103 111 
328 845 407 101 104 113 
328 846 407 102 106 115 
328 847 407 107 110 118 
328 840 408 59 63 71 
328 841 408 87 91 98 
329 840 408 70 75 82 
329 840 409 93 96 104 
329 841 408 98 101 109 
329 841 409 106 109 117 
328 842 408 104 107 115 
328 843 408 103 106 114 
329 842 408 107 110 117 
329 842 409 109 112 119 
329 843 408 105 108 115 
329 843 409 106 109 116 
330 840 409 102 105 113 
330 841 409 110 113 120 
330 840 410 109 111 118 
330 841 410 113 115 123 
331 840 410 117 118 125 
331 840 411 124 125 131 
331 841 410 119 120 127 
331 841 411 124 125 131 
330 842 409 111 114 121 
330 843 409 111 114 121 
330 842 410 115 116 123 
330 843 410 117 118 125 
331 842 410 118 120 126 
331 842 411 123 124 131 
331 843 410 121 122 128 
331 843 411 122 123 129 
328 844 408 102 105 112 
328 845 408 102 106 114 
329 844 408 102 104 112 
329 844 409 102 105 112 
329 845 408 103 106 113 
328 846 408 105 108 117 
328 847 408 109 112 120 
329 846 408 108 111 119 
329 847 408 113 116 123 
330 844 409 109 111 117 
330 845 409 109 112 119 
330 844 410 121 122 128 
330 845 410 118 119 125 
331 844 410 125 125 130 
331 845 410 125 125 131 
330 846 409 112 114 121 
330 847 409 121 121 128 
330 846 410 117 118 124 
331 846 410 122 122 127 
331 847 410 129 128 133 
332 840 411 127 127 133 
332 841 411 127 127 133 
332 842 411 127 128 133 
332 843 411 126 126 131 
332 840 412 128 128 134 
332 841 412 128 128 134 
333 840 412 131 130 136 
333 840 413 133 132 137 
333 841 412 131 130 136 
333 841 413 134 133 138 
333 842 412 132 131 136 
333 843 412 132 131 136 
334 840 413 134 133 138 
334 841 413 136 135 139 
335 840 414 136 134 137 
335 841 414 137 135 139 
334 842 412 135 134 138 
334 842 413 137 135 139 
334 843 412 134 132 137 
334 843 413 135 132 137 
335 842 413 138 136 140 
335 843 413 136 134 137 
335 842 414 137 135 139 
335 843 414 133 131 135 
332 844 411 127 126 131 
332 845 411 132 130 135 
333 845 411 137 134 138 
332 846 411 132 130 134 
332 847 411 135 132 136 
333 846 411 137 134 138 
333 847 411 137 134 137 
333 844 412 134 132 136 
333 845 412 137 134 138 
333 846 412 137 134 138 
333 847 412 137 134 137 
334 844 412 135 133 137 
334 844 413 134 132 135 
334 845 412 136 134 138 
334 845 413 136 133 137 
335 844 413 134 132 136 
335 845 413 136 133 137 
335 844 414 133 131 135 
335 845 414 134 132 136 
334 846 412 137 134 137 
334 846 413 136 133 137 
334 847 412 137 134 137 
334 847 413 137 134 137 
335 846 413 135 132 136 
335 847 413 136 133 137 
335 846 414 132 130 134 
335 847 414 134 131 135 
325 848 399 74 77 83 
325 849 399 70 72 77 
325 850 399 64 66 71 
326 850 399 65 66 70 
326 851 399 56 59 63 
326 852 399 68 72 79 
327 852 399 73 77 86 
327 853 399 101 106 118 
328 853 399 109 114 126 
328 854 399 150 155 167 
329 854 398 147 152 163 
329 854 399 161 166 178 
329 855 399 165 170 182 
330 854 398 161 164 175 
330 855 398 167 170 180 
330 855 399 169 172 184 
331 855 398 171 173 183 
331 855 399 171 173 184 
332 855 398 174 175 184 
332 855 399 173 175 185 
333 855 398 174 175 184 
333 855 399 173 175 185 
335 855 397 174 175 184 
334 855 398 175 176 185 
334 855 399 172 174 184 
335 855 398 171 173 183 
335 855 399 168 170 181 
324 848 400 68 72 78 
324 848 401 59 63 70 
324 849 401 59 63 69 
325 848 400 70 73 78 
325 849 400 67 69 73 
325 849 401 61 64 69 
324 848 402 65 70 80 
324 848 403 78 83 92 
324 849 402 65 70 79 
324 849 403 80 85 93 
325 850 400 62 64 68 
325 850 401 59 62 70 
325 851 400 59 62 66 
325 851 401 64 68 77 
324 850 402 65 70 79 
325 850 402 67 72 81 
325 850 403 80 85 94 
325 851 402 69 75 84 
325 851 403 86 92 102 
326 851 400 62 65 71 
324 848 404 89 94 103 
325 848 404 90 95 105 
325 848 405 92 97 106 
325 849 404 92 96 105 
325 849 405 94 98 107 
325 850 404 91 96 105 
325 851 404 89 96 106 
326 849 405 94 98 107 
326 848 406 97 101 110 
326 849 406 96 100 109 
327 848 406 105 108 116 
327 848 407 108 111 119 
327 849 406 103 106 114 
327 849 407 107 110 118 
326 850 405 92 98 108 
326 851 404 90 97 108 
326 851 405 92 99 109 
327 851 405 98 105 116 
326 850 406 96 101 110 
327 850 406 103 106 115 
327 850 407 107 110 118 
327 851 406 99 105 114 
325 852 401 72 77 88 
325 852 402 87 94 105 
325 852 403 100 106 117 
326 852 400 77 80 93 
326 852 401 73 78 90 
326 853 400 95 99 116 
326 853 401 93 99 113 
327 853 400 114 119 134 
327 853 401 119 126 140 
326 852 402 87 94 105 
326 852 403 109 116 128 
326 853 402 115 122 134 
326 853 403 126 133 145 
327 854 400 145 152 166 
327 854 401 139 147 160 
326 854 402 136 142 155 
326 854 403 139 145 158 
327 854 402 137 144 156 
327 854 403 138 144 156 
325 852 404 97 104 116 
326 852 404 103 111 123 
326 852 405 109 116 127 
326 853 404 122 129 141 
327 852 405 118 124 135 
327 853 404 136 141 153 
327 853 405 134 139 150 
327 852 406 115 121 132 
327 854 404 139 144 155 
328 848 407 109 112 120 
328 849 407 112 115 122 
328 850 407 113 115 123 
328 851 406 110 115 125 
328 851 407 112 115 124 
329 851 407 118 121 129 
328 854 400 156 163 176 
328 854 401 147 154 168 
329 854 400 163 168 180 
329 855 400 162 167 180 
329 855 401 154 161 175 
328 854 402 135 142 155 
328 854 403 130 136 150 
329 855 402 140 147 161 
329 855 403 129 137 151 
330 855 400 165 170 182 
330 855 401 161 167 180 
331 855 400 167 171 183 
331 855 401 165 169 182 
330 855 402 156 162 175 
330 855 403 148 155 168 
331 855 402 164 169 182 
331 855 403 163 168 181 
328 853 405 143 147 157 
328 852 406 126 131 141 
328 852 407 123 128 138 
328 853 406 140 144 154 
329 852 407 132 135 144 
329 853 406 148 150 160 
329 853 407 143 146 155 
328 854 404 134 139 151 
328 854 405 142 146 157 
329 854 404 130 136 149 
329 854 405 143 146 157 
330 853 406 148 150 160 
330 853 407 141 143 151 
331 853 407 131 133 141 
330 854 404 144 150 163 
330 854 405 153 157 168 
330 855 404 150 156 170 
331 854 404 158 163 176 
331 854 405 161 166 178 
331 855 404 161 166 179 
331 855 405 162 167 180 
330 854 406 145 149 159 
331 854 406 146 150 161 
331 854 407 130 133 142 
332 855 400 169 173 184 
332 855 401 167 171 183 
333 855 400 169 173 184 
333 855 401 168 172 184 
332 855 402 167 171 183 
332 855 403 167 171 184 
333 855 402 167 171 183 
333 855 403 166 170 182 
334 855 400 169 172 183 
334 855 401 166 170 182 
335 855 400 164 167 178 
335 855 401 162 166 178 
334 855 402 164 168 180 
334 855 403 162 167 179 
335 855 402 160 164 177 
335 855 403 157 163 175 
332 854 405 166 170 182 
332 855 404 165 170 183 
332 855 405 166 170 183 
333 855 404 162 167 179 
333 855 405 162 166 178 
332 854 406 162 165 175 
332 854 407 141 144 154 
333 854 406 166 168 178 
333 854 407 155 157 167 
333 855 406 163 166 176 
334 855 404 158 163 175 
334 855 405 153 158 171 
335 855 404 155 161 174 
335 855 405 152 158 171 
334 854 407 150 153 163 
334 855 406 150 154 166 
334 855 407 146 150 161 
335 854 407 147 151 162 
335 855 406 148 154 166 
335 855 407 145 151 162 
328 848 408 113 115 122 
328 849 408 114 116 123 
329 848 408 119 120 127 
329 849 408 124 124 131 
329 850 408 124 125 131 
329 851 408 122 124 131 
330 848 409 128 127 133 
330 849 409 132 131 135 
331 848 410 135 133 137 
331 849 410 136 134 136 
330 850 408 129 129 134 
330 850 409 134 132 137 
330 851 408 130 131 137 
330 851 409 133 132 137 
331 851 409 140 138 142 
331 850 410 137 134 136 
331 851 410 140 137 140 
329 852 408 132 134 142 
330 852 408 145 145 151 
330 853 408 149 148 155 
331 852 408 155 153 158 
331 852 409 155 152 156 
331 853 408 144 144 151 
331 853 409 158 155 160 
332 848 411 139 135 138 
332 849 410 139 135 137 
332 849 411 140 135 137 
333 848 411 140 136 138 
333 849 411 140 136 137 
332 850 410 139 135 136 
332 850 411 140 136 137 
332 851 410 145 141 144 
332 851 411 140 136 138 
333 850 411 141 136 138 
333 851 411 146 142 144 
333 848 412 139 135 137 
333 849 412 140 136 137 
333 850 412 141 136 138 
334 848 412 138 135 137 
334 848 413 138 135 138 
334 849 412 139 135 137 
334 849 413 139 135 138 
335 848 413 138 135 138 
335 849 413 139 135 139 
335 848 414 137 134 138 
334 850 412 141 137 138 
334 850 413 141 136 138 
334 851 412 148 144 146 
334 851 413 143 139 141 
335 850 413 140 137 139 
335 851 413 148 144 147 
332 852 409 162 158 161 
332 853 408 134 135 142 
332 853 409 153 150 155 
333 853 409 146 145 150 
332 852 410 156 152 155 
333 852 410 158 154 157 
333 852 411 156 151 154 
333 853 410 160 156 159 
332 854 408 130 133 142 
333 854 408 145 147 156 
333 854 409 141 142 150 
334 853 409 158 156 162 
334 852 411 159 155 158 
334 853 410 166 162 166 
334 853 411 169 165 168 
335 853 410 174 170 174 
335 853 411 171 167 171 
334 854 408 158 159 169 
334 854 409 163 163 170 
335 854 408 154 156 166 
335 854 409 169 167 174 
334 852 412 157 153 156 
335 852 412 162 158 162 
336 832 414 96 95 99 
336 833 414 89 89 93 
337 832 414 107 105 108 
337 832 415 106 104 107 
337 833 414 101 99 103 
337 833 415 100 99 102 
336 834 414 78 79 84 
336 835 414 76 77 82 
337 834 414 85 84 88 
337 834 415 90 89 91 
337 835 415 76 76 80 
338 832 415 95 93 95 
338 833 415 93 92 95 
339 832 415 94 91 94 
338 834 415 92 91 93 
338 835 415 82 81 84 
336 836 414 90 92 98 
336 836 415 98 99 105 
336 837 414 125 125 130 
336 837 415 120 120 126 
337 836 415 78 80 86 
337 837 415 113 114 120 
336 838 414 133 132 137 
336 838 415 132 131 136 
336 839 414 136 134 138 
336 839 415 134 132 136 
337 838 415 129 128 133 
337 839 415 132 130 134 
336 840 414 136 133 137 
336 840 415 134 132 135 
336 841 414 137 135 139 
336 841 415 135 133 137 
337 840 415 132 130 133 
337 841 415 133 131 135 
336 842 414 136 134 138 
336 842 415 133 131 136 
336 843 414 130 128 132 
336 843 415 123 122 127 
337 842 415 130 129 134 
337 843 415 122 122 127 
338 843 415 121 122 128 
336 844 414 126 125 130 
336 845 414 127 126 130 
337 844 415 121 121 127 
337 845 415 118 118 124 
336 846 414 125 124 129 
336 847 414 130 128 133 
337 846 415 115 116 122 
337 847 414 128 128 133 
337 847 415 120 121 127 
338 844 415 115 117 124 
338 845 415 110 112 120 
339 844 415 108 111 118 
339 845 415 107 110 118 
338 846 415 104 108 116 
338 847 415 112 114 122 
339 846 415 104 107 115 
339 847 415 104 106 114 
341 843 415 56 56 60 
342 843 415 57 58 62 
343 842 415 48 50 56 
343 843 415 48 49 53 
340 844 415 74 77 84 
340 845 415 76 78 86 
341 844 415 46 47 52 
341 845 415 43 46 52 
340 846 415 74 76 83 
340 847 415 70 73 80 
341 846 415 44 47 53 
341 847 414 44 47 53 
341 847 415 43 46 53 
342 844 415 48 50 53 
342 845 414 45 46 50 
342 845 415 46 48 53 
343 844 414 49 50 54 
343 844 415 46 47 52 
343 845 414 49 50 54 
343 846 413 52 52 55 
343 847 413 52 52 55 
342 846 414 47 48 53 
342 847 414 46 48 53 
343 846 414 49 50 53 
343 847 414 50 50 54 
351 839 409 47 52 59 
351 839 410 48 52 59 
351 839 411 49 52 59 
348 839 415 51 53 60 
349 839 414 51 54 61 
349 839 415 51 54 61 
350 839 412 49 52 60 
350 839 413 50 54 61 
351 839 412 49 53 61 
351 839 413 52 56 63 
350 839 414 52 55 62 
350 839 415 53 56 64 
351 839 414 54 57 65 
351 839 415 56 60 67 
347 842 407 36 38 42 
347 843 407 37 38 42 
347 844 407 37 40 44 
348 841 407 37 40 44 
349 840 407 38 42 47 
349 841 407 37 41 45 
348 842 407 37 39 43 
348 844 406 36 38 42 
348 844 407 38 40 45 
348 845 406 38 41 45 
348 845 407 39 42 46 
348 846 406 40 42 45 
348 846 407 40 43 47 
348 847 406 39 41 44 
348 847 407 40 42 45 
347 841 411 45 47 52 
347 842 408 38 40 44 
347 842 409 37 40 44 
347 843 408 37 39 42 
347 843 409 37 40 44 
346 843 411 43 46 51 
347 842 410 39 42 47 
347 842 411 42 44 49 
347 843 410 37 40 45 
347 843 411 40 43 48 
344 841 415 50 53 59 
345 840 415 49 51 56 
345 841 414 52 54 58 
345 841 415 50 52 57 
345 843 413 53 53 57 
344 842 415 52 54 59 
344 843 414 55 56 59 
344 843 415 51 52 56 
345 842 414 53 55 59 
345 842 415 53 55 61 
345 843 414 55 55 58 
347 841 412 47 49 54 
347 841 413 50 52 57 
346 840 415 49 51 55 
346 841 414 51 53 57 
346 841 415 50 52 56 
347 840 414 48 50 56 
347 840 415 49 50 56 
347 841 414 50 52 57 
346 842 412 50 52 55 
346 842 413 53 54 58 
346 843 412 51 53 57 
346 843 413 53 53 57 
347 842 412 46 49 54 
346 842 414 52 53 57 
345 846 411 49 50 54 
345 847 411 48 49 51 
347 844 408 37 40 44 
347 844 409 37 40 44 
347 845 408 41 43 47 
347 845 409 40 42 46 
346 844 411 43 46 51 
346 845 410 38 41 46 
346 845 411 43 45 50 
347 844 410 36 40 45 
347 844 411 38 41 46 
347 845 410 38 40 45 
346 847 409 40 41 44 
347 846 408 41 43 47 
347 846 409 41 42 45 
347 847 408 39 40 44 
347 847 409 40 41 44 
346 846 410 39 41 45 
346 846 411 42 43 47 
346 847 410 41 42 45 
346 847 411 42 43 46 
344 844 413 54 54 56 
344 845 412 49 50 53 
344 845 413 53 52 54 
345 844 412 51 53 56 
345 844 413 53 53 56 
345 845 412 52 53 56 
344 844 414 53 54 57 
344 846 412 53 53 55 
344 846 413 52 52 54 
344 847 412 53 53 55 
344 847 413 52 52 55 
345 846 412 53 53 56 
345 847 412 55 55 57 
346 844 412 52 54 58 
348 841 408 37 40 45 
348 841 409 40 43 48 
349 840 408 39 43 48 
349 840 409 43 46 52 
348 841 410 43 45 50 
348 841 411 49 51 56 
349 840 410 46 49 54 
349 840 411 53 56 62 
348 842 408 37 40 44 
348 842 409 38 41 45 
350 840 408 44 48 55 
350 840 409 46 50 57 
350 840 410 49 52 58 
350 840 411 49 53 59 
348 840 413 48 51 57 
348 841 412 47 50 55 
348 841 413 48 50 56 
349 840 412 48 51 57 
349 840 413 49 52 59 
348 840 414 49 52 58 
348 840 415 50 53 59 
349 840 414 50 54 60 
349 840 415 51 54 61 
350 840 412 48 52 59 
350 840 413 49 53 60 
348 847 408 39 41 44 
336 855 397 170 172 181 
337 855 397 163 166 176 
336 855 398 165 168 178 
336 855 399 162 165 176 
337 855 398 157 161 172 
337 855 399 155 159 171 
338 855 398 152 157 168 
338 855 399 148 153 165 
339 855 398 145 150 162 
339 855 399 140 146 158 
340 855 399 131 137 149 
336 855 400 159 163 175 
336 855 401 157 162 174 
337 855 400 151 156 168 
337 855 401 148 154 166 
336 855 402 155 161 173 
336 855 403 154 160 173 
337 855 402 147 153 165 
337 855 403 146 152 165 
338 855 400 144 149 162 
338 855 401 139 145 158 
339 855 400 135 141 153 
339 855 401 130 137 149 
338 855 402 136 142 155 
338 855 403 133 140 153 
339 855 402 127 134 147 
339 855 403 126 133 145 
336 855 404 151 158 171 
336 855 405 148 154 168 
337 855 404 142 148 162 
337 855 405 138 145 159 
336 855 406 143 150 164 
336 855 407 140 147 160 
337 855 406 132 140 153 
337 855 407 130 137 151 
338 855 404 132 139 152 
338 855 405 130 137 150 
339 855 404 125 132 144 
339 855 405 124 130 143 
338 855 406 126 133 146 
338 855 407 122 128 140 
339 855 406 120 127 139 
339 855 407 117 124 135 
340 855 400 127 133 145 
340 855 401 123 129 141 
341 855 400 115 122 134 
341 855 401 112 119 131 
340 855 402 121 128 140 
340 855 403 119 126 139 
341 855 402 111 117 130 
341 855 403 110 117 129 
342 855 401 103 111 123 
342 855 402 102 110 122 
342 855 403 101 108 120 
343 855 402 98 106 118 
343 855 403 96 103 115 
340 855 404 118 125 137 
340 855 405 116 123 135 
341 855 404 108 115 128 
341 855 405 106 114 126 
340 855 406 113 121 133 
340 855 407 111 118 131 
341 855 406 106 113 125 
341 855 407 103 110 122 
342 855 404 99 107 119 
342 855 405 101 108 119 
343 855 404 95 102 114 
343 855 405 96 103 115 
342 855 406 100 107 119 
342 855 407 97 104 115 
343 854 407 91 97 108 
343 855 406 94 101 112 
343 855 407 92 99 110 
336 848 414 134 132 136 
336 849 414 135 133 137 
337 848 414 128 128 133 
337 848 415 124 124 131 
337 849 414 128 127 133 
337 849 415 122 123 129 
336 851 413 147 144 148 
337 851 413 144 143 149 
336 850 414 138 136 140 
336 851 414 141 139 143 
337 850 414 132 132 137 
337 851 414 139 138 144 
338 848 415 117 119 127 
338 849 415 118 121 128 
339 848 415 107 109 116 
339 849 415 108 110 117 
338 851 413 132 132 139 
338 850 414 125 125 132 
338 851 414 128 129 137 
339 850 414 115 117 126 
339 851 414 122 124 135 
336 853 410 169 166 170 
336 853 411 168 165 169 
337 853 411 145 146 153 
336 854 408 144 148 159 
336 854 409 153 154 162 
336 855 408 139 145 157 
337 854 408 135 140 151 
337 854 409 143 146 156 
337 855 408 133 139 150 
336 854 410 166 163 169 
337 854 410 149 150 158 
337 854 411 134 137 146 
338 853 411 122 126 137 
339 853 411 111 120 135 
338 854 408 124 129 141 
338 854 409 126 132 143 
338 855 408 121 127 139 
339 854 409 115 121 133 
339 855 408 116 122 134 
338 854 410 125 130 141 
338 854 411 120 125 137 
339 854 410 116 122 135 
339 854 411 115 122 137 
336 852 412 160 157 161 
336 852 413 154 152 156 
336 853 412 162 159 164 
337 852 412 151 150 156 
337 852 413 148 147 154 
337 853 412 143 143 150 
338 852 413 129 131 140 
338 853 412 124 128 138 
339 852 413 120 123 136 
339 853 412 110 119 134 
339 853 413 112 120 133 
343 851 411 49 50 54 
340 848 415 71 73 80 
340 849 414 64 66 75 
340 849 415 80 82 90 
341 848 414 43 46 53 
341 848 415 43 45 53 
341 849 414 44 47 54 
341 850 413 46 49 55 
341 851 413 54 58 67 
340 850 414 88 90 100 
340 851 414 100 102 113 
341 850 414 46 49 58 
341 851 414 50 54 64 
342 848 413 46 48 54 
342 849 413 47 48 53 
343 848 412 53 52 54 
343 848 413 52 52 55 
343 849 412 53 52 55 
343 849 413 51 52 55 
342 848 414 44 46 52 
342 849 414 44 46 53 
342 850 413 46 48 52 
342 851 412 47 50 57 
342 851 413 48 51 57 
343 850 412 52 52 55 
343 850 413 51 51 54 
343 851 412 48 50 55 
340 853 411 120 128 144 
341 853 411 109 111 126 
340 854 409 107 113 126 
340 855 408 108 115 128 
341 854 408 98 106 118 
341 854 409 100 107 120 
341 855 408 102 109 120 
340 854 410 112 118 133 
340 854 411 118 124 140 
341 854 410 105 110 124 
341 854 411 111 115 130 
342 853 411 69 73 86 
343 852 411 49 51 58 
343 853 410 66 70 81 
343 853 411 54 58 67 
342 854 408 96 102 115 
342 854 409 97 103 116 
342 855 408 96 102 114 
343 854 408 95 100 112 
343 854 409 88 92 104 
343 855 408 93 99 111 
342 854 410 93 98 113 
342 854 411 92 96 111 
343 854 410 83 86 101 
340 852 413 106 110 124 
340 853 412 117 124 140 
340 853 413 108 115 130 
341 852 412 57 61 71 
341 852 413 71 76 89 
341 853 412 92 95 108 
342 852 412 50 52 62 
342 853 412 60 61 72 
343 852 412 47 50 57 
347 851 407 45 47 51 
344 855 403 92 100 111 
345 855 403 88 96 107 
345 853 407 51 55 64 
344 855 404 91 99 110 
344 855 405 89 97 108 
345 854 404 84 90 101 
345 854 405 84 90 100 
345 855 404 87 94 106 
344 854 406 88 94 105 
344 854 407 91 96 107 
344 855 406 89 95 107 
345 854 406 78 84 94 
345 854 407 69 74 84 
346 853 405 52 57 65 
347 853 405 50 53 60 
346 852 407 47 49 53 
346 853 406 49 54 62 
346 853 407 48 51 57 
347 852 406 45 48 53 
347 852 407 45 48 52 
347 853 406 47 50 56 
346 854 404 76 82 92 
346 854 405 66 72 82 
347 854 405 60 66 76 
348 848 406 39 40 44 
348 848 407 38 40 44 
348 849 406 40 42 45 
348 849 407 41 42 45 
348 850 406 42 44 47 
348 850 407 44 45 48 
348 851 406 42 44 48 
348 851 407 46 46 50 
348 852 406 43 46 51 
344 848 411 58 56 57 
344 849 411 56 54 56 
345 848 410 45 45 47 
345 848 411 52 51 53 
345 849 410 47 46 48 
345 849 411 53 52 53 
345 851 409 44 45 49 
344 850 411 55 54 57 
344 851 411 49 50 53 
345 850 410 45 45 48 
345 850 411 52 51 54 
345 851 410 45 46 49 
345 851 411 50 49 52 
346 848 409 41 41 44 
346 849 409 43 44 47 
347 848 408 39 40 43 
347 848 409 39 40 43 
347 849 408 41 42 45 
346 848 410 43 43 46 
346 849 410 44 45 47 
346 850 409 45 45 49 
346 851 408 44 46 50 
346 851 409 43 44 48 
347 850 408 46 47 50 
347 851 408 47 47 51 
346 850 410 44 44 47 
344 848 412 55 54 55 
344 849 412 54 54 56 
345 848 412 57 55 57 
344 850 412 55 55 57 
344 853 409 55 60 68 
345 852 409 48 51 56 
345 853 408 51 55 64 
345 853 409 49 54 61 
344 852 410 48 52 58 
344 852 411 49 51 56 
344 853 410 51 54 63 
345 852 410 45 48 53 
344 854 408 81 85 97 
344 854 409 69 74 84 
345 854 408 66 71 81 
346 852 408 47 49 54 
346 852 409 46 48 52 
346 853 408 48 51 57 
347 852 408 45 47 51 
339 832 416 102 100 102 
339 833 416 102 100 103 
338 834 416 91 89 91 
338 835 416 77 77 81 
339 834 416 94 92 95 
339 835 416 81 80 84 
339 835 417 77 76 82 
337 836 416 85 87 93 
337 837 416 109 110 116 
337 838 416 126 125 130 
337 839 416 127 125 129 
338 836 416 76 78 83 
338 837 416 103 104 109 
339 836 416 76 78 84 
339 836 417 79 80 86 
339 837 417 101 102 108 
338 838 416 119 119 124 
338 839 416 114 114 118 
339 838 417 107 108 113 
339 839 416 98 98 103 
339 839 417 94 95 101 
340 832 416 108 106 109 
340 832 417 104 102 106 
340 833 416 106 104 107 
340 833 417 96 95 98 
341 832 417 92 92 95 
341 833 417 93 92 96 
341 832 418 78 78 83 
341 833 418 77 78 82 
340 834 417 93 91 94 
340 835 417 75 75 80 
341 834 417 78 78 82 
341 834 418 75 76 81 
341 834 419 84 85 90 
341 835 418 74 76 81 
341 835 419 89 90 96 
342 832 419 86 86 90 
342 833 419 85 85 89 
342 834 419 89 90 94 
342 835 419 89 89 94 
342 832 420 96 95 98 
342 833 420 94 93 97 
343 832 420 88 88 91 
343 832 421 64 63 67 
343 833 420 90 90 94 
343 833 421 57 58 62 
343 834 420 76 76 80 
343 834 421 52 52 56 
343 835 420 61 61 66 
340 836 417 81 83 88 
340 837 417 103 104 110 
341 836 418 92 93 99 
341 837 418 99 101 107 
340 838 417 109 110 116 
340 839 417 110 110 116 
341 838 417 104 104 109 
341 839 417 78 77 83 
341 838 418 80 81 86 
342 836 419 77 78 83 
342 837 418 61 63 69 
342 837 419 55 56 62 
343 836 419 56 57 62 
343 837 418 59 61 67 
343 837 419 59 61 67 
342 839 417 52 53 60 
343 839 417 56 58 64 
342 838 418 56 58 64 
343 838 418 66 68 73 
343 839 418 61 63 69 
343 836 420 49 51 55 
337 840 416 127 125 129 
337 841 416 129 128 133 
337 842 416 129 128 133 
338 840 416 107 107 112 
338 841 416 116 117 122 
339 840 416 80 82 90 
339 840 417 81 83 91 
339 841 416 95 98 106 
338 842 416 120 121 126 
338 843 416 118 119 125 
339 842 416 104 106 113 
339 843 416 104 106 113 
339 844 416 106 109 116 
340 840 416 94 96 104 
340 840 417 102 102 109 
340 841 416 94 95 101 
341 840 417 71 70 75 
341 841 416 75 73 78 
340 842 416 85 85 91 
340 843 416 74 75 82 
341 842 416 77 76 80 
341 843 416 61 61 66 
342 840 416 51 53 58 
342 840 417 50 52 57 
342 841 416 54 55 60 
343 840 416 49 52 58 
343 840 417 51 54 60 
343 841 416 49 52 58 
342 842 416 63 64 68 
342 843 416 70 70 73 
343 842 416 49 51 57 
340 844 416 73 76 82 
344 832 422 57 59 65 
344 832 423 63 66 72 
344 833 422 57 60 65 
345 832 423 62 66 73 
345 833 423 63 66 73 
344 834 421 48 49 54 
344 835 421 50 51 56 
344 834 422 55 57 62 
344 835 422 51 54 59 
345 834 422 61 64 69 
345 834 423 65 68 74 
345 835 422 56 59 64 
345 835 423 66 69 75 
346 835 423 68 70 76 
344 837 419 66 68 73 
345 837 419 64 66 72 
344 839 417 60 63 68 
345 839 416 56 58 62 
345 839 417 67 69 74 
344 838 418 70 72 77 
344 839 418 67 69 74 
345 838 418 77 78 84 
345 838 419 73 75 80 
345 839 418 73 74 79 
346 839 416 54 55 59 
346 839 417 67 68 73 
347 839 416 51 52 58 
347 839 417 61 63 68 
346 838 418 79 81 87 
346 838 419 83 84 89 
347 838 418 73 75 81 
347 838 419 78 80 86 
344 836 420 53 54 60 
344 836 421 52 54 58 
345 836 421 49 51 57 
345 837 420 57 60 65 
345 837 421 61 62 67 
345 836 422 55 57 62 
346 837 420 89 88 92 
346 837 421 90 88 92 
347 837 421 78 77 81 
346 836 422 67 67 71 
346 836 423 66 68 73 
346 837 422 81 79 83 
347 836 422 65 65 69 
347 836 423 66 68 73 
347 837 422 74 74 77 
346 838 420 86 86 90 
347 838 420 76 77 81 
348 839 416 51 53 60 
348 839 417 53 56 62 
349 838 417 52 55 62 
349 839 416 52 54 62 
349 839 417 52 55 62 
348 838 418 66 69 75 
348 838 419 73 76 83 
349 838 418 61 64 71 
349 838 419 73 76 83 
350 838 417 57 60 67 
350 839 416 55 57 65 
350 839 417 55 57 65 
351 838 416 62 65 73 
351 838 417 63 65 73 
351 839 416 61 64 71 
350 838 418 57 60 68 
350 838 419 69 72 79 
351 838 418 62 65 72 
351 838 419 65 69 76 
348 837 421 68 70 76 
348 836 423 69 71 78 
348 837 422 63 65 71 
348 837 423 62 64 71 
349 837 422 69 73 80 
349 837 423 56 60 67 
348 838 420 73 76 84 
348 838 421 72 76 84 
349 838 420 77 81 89 
349 838 421 78 81 89 
350 837 422 79 84 92 
350 837 423 67 71 79 
351 837 422 80 85 93 
351 837 423 77 80 89 
350 838 420 76 80 88 
350 838 421 80 84 92 
351 838 420 74 78 85 
351 838 421 79 83 91 
345 832 424 63 66 73 
345 833 424 62 66 73 
345 834 424 63 66 73 
346 832 425 63 66 73 
346 833 424 62 66 73 
346 833 425 63 66 72 
347 832 425 64 66 72 
347 833 425 63 67 73 
347 832 426 64 66 71 
347 833 426 64 67 72 
346 834 424 64 67 74 
346 834 425 64 67 74 
346 835 424 69 72 78 
346 835 425 64 68 75 
347 834 425 64 68 74 
347 835 425 68 72 78 
347 834 426 64 67 73 
347 835 426 67 71 77 
346 836 424 74 76 83 
347 836 424 75 78 84 
347 836 425 76 79 86 
348 832 427 59 60 65 
348 833 426 52 54 59 
348 833 427 58 61 66 
349 832 427 67 69 74 
349 833 427 67 70 76 
348 835 425 73 76 83 
348 834 426 55 59 65 
348 835 426 61 66 73 
349 834 426 55 60 67 
349 834 427 67 71 78 
349 835 426 77 80 87 
350 833 427 68 71 79 
350 834 427 73 77 84 
350 835 426 90 92 98 
350 835 427 83 85 92 
351 834 427 80 82 89 
351 835 426 86 87 92 
351 835 427 86 87 93 
349 832 428 67 69 75 
350 832 428 68 70 77 
350 833 428 68 71 78 
351 832 428 67 70 77 
351 833 428 72 75 82 
348 836 424 76 78 85 
348 836 425 79 81 88 
348 837 424 69 71 78 
349 836 424 76 77 83 
349 836 425 86 87 93 
349 837 424 66 68 75 
350 836 425 81 82 88 
350 837 424 64 67 74 
351 836 425 67 69 75 
351 837 424 63 66 74 
350 836 426 87 88 93 
351 836 426 83 83 88 
344 840 416 51 54 61 
344 841 416 49 53 59 
345 840 416 54 56 62 
346 840 416 50 52 56 
352 839 410 50 54 62 
352 839 411 51 56 63 
353 839 411 55 59 66 
352 839 412 53 58 65 
352 839 413 55 59 66 
353 838 413 63 67 75 
353 839 412 57 62 69 
353 839 413 60 64 72 
352 838 415 65 69 76 
352 839 414 58 62 69 
352 839 415 61 65 72 
353 838 414 64 68 75 
353 838 415 65 69 77 
353 839 414 64 68 75 
354 838 412 63 67 75 
354 838 413 64 68 76 
355 838 413 67 71 78 
354 838 414 66 70 77 
354 838 415 68 72 80 
355 838 414 68 72 80 
355 838 415 69 74 81 
357 837 415 77 81 89 
356 838 413 69 73 81 
356 838 414 70 74 82 
356 838 415 71 75 83 
357 838 414 73 77 85 
357 838 415 75 78 87 
358 837 415 78 82 90 
352 838 416 65 69 76 
352 838 417 66 69 77 
353 838 416 67 71 79 
353 838 417 68 72 80 
352 838 418 67 70 77 
352 838 419 65 69 77 
353 838 418 69 73 81 
353 838 419 69 73 81 
355 837 419 75 80 89 
354 838 416 69 73 81 
354 838 417 70 74 82 
355 838 416 70 74 82 
355 838 417 72 76 84 
354 838 418 71 75 84 
354 838 419 72 76 85 
355 838 418 74 77 86 
355 838 419 74 78 88 
352 837 421 79 84 92 
353 837 421 75 80 89 
352 837 422 81 86 94 
352 837 423 81 86 95 
353 837 422 80 85 94 
353 837 423 81 87 96 
352 838 420 70 74 82 
352 838 421 78 83 91 
353 838 420 68 73 81 
353 838 421 71 77 85 
354 837 420 71 76 85 
354 837 421 72 77 86 
355 837 420 75 80 89 
355 837 421 76 81 90 
354 836 423 82 87 96 
354 837 422 80 85 94 
354 837 423 82 88 97 
355 836 422 84 89 98 
355 836 423 81 87 96 
355 837 422 81 87 96 
354 838 420 71 75 84 
359 835 419 85 89 97 
356 835 423 79 84 93 
357 834 423 77 82 89 
357 835 422 78 83 92 
357 835 423 78 83 91 
359 832 423 77 80 86 
359 833 422 80 83 90 
359 833 423 78 81 88 
358 835 420 82 87 95 
358 835 421 79 84 92 
359 834 421 81 85 93 
359 835 420 82 86 94 
359 835 421 81 85 93 
358 834 422 79 82 90 
358 834 423 79 83 90 
358 835 422 78 83 91 
358 835 423 78 82 90 
359 834 422 80 84 91 
359 834 423 80 84 91 
356 837 416 75 79 88 
356 837 417 75 80 89 
357 837 416 77 81 90 
357 837 417 80 85 93 
356 837 418 77 81 90 
356 837 419 79 83 93 
357 836 419 86 91 100 
357 837 418 82 87 96 
357 837 419 84 89 98 
356 838 416 72 77 85 
356 838 417 73 77 86 
356 838 418 75 79 88 
356 838 419 75 79 88 
358 836 417 87 92 100 
358 837 416 82 86 94 
358 837 417 85 89 98 
359 836 416 89 93 101 
359 836 417 90 94 103 
359 837 416 85 89 98 
358 836 418 88 92 101 
358 836 419 86 91 99 
358 837 418 85 90 99 
359 836 418 90 94 103 
359 836 419 88 92 100 
356 836 421 84 89 97 
356 837 420 82 86 95 
356 837 421 82 87 96 
357 836 420 84 88 97 
357 836 421 82 86 95 
356 836 422 83 88 97 
356 836 423 80 85 94 
356 837 422 83 88 97 
357 836 422 81 86 94 
358 836 420 82 87 95 
352 833 427 76 77 82 
353 833 427 64 66 71 
353 835 425 64 68 77 
352 834 427 80 81 85 
352 835 426 73 73 79 
352 835 427 81 81 86 
353 834 427 61 63 68 
353 835 426 59 62 68 
354 832 427 52 55 61 
354 833 427 52 56 62 
355 832 426 69 72 78 
355 832 427 59 62 68 
355 833 426 69 73 80 
355 833 427 58 63 70 
354 835 425 71 76 84 
355 834 425 72 77 85 
355 835 425 75 79 87 
354 834 426 59 64 71 
354 834 427 53 57 63 
354 835 426 63 67 75 
355 834 426 70 74 82 
352 832 428 72 74 79 
352 833 428 76 77 83 
353 832 428 65 66 71 
353 833 428 69 69 74 
354 832 428 56 58 63 
352 836 424 76 81 90 
352 836 425 63 67 74 
352 837 424 74 78 86 
353 836 424 80 85 94 
353 836 425 69 74 82 
353 837 424 80 85 95 
352 836 426 77 78 83 
354 836 424 80 86 95 
354 836 425 75 80 89 
355 836 424 79 85 94 
355 836 425 77 82 91 
356 833 425 79 82 89 
357 832 425 76 79 85 
357 833 425 78 81 88 
356 832 426 73 76 82 
356 833 426 77 80 86 
357 832 426 77 80 86 
356 834 425 77 81 89 
356 835 424 77 82 90 
356 835 425 75 80 89 
357 834 424 77 81 89 
357 834 425 77 81 89 
357 835 424 77 82 90 
358 832 425 76 79 85 
358 833 424 77 80 87 
358 833 425 77 80 87 
359 832 424 77 80 87 
359 833 424 77 80 86 
358 834 424 78 82 89 
356 836 424 78 83 92 
360 835 417 90 94 103 
360 834 419 82 86 94 
360 835 418 87 92 100 
360 835 419 83 87 96 
361 834 419 81 86 94 
361 835 418 85 89 97 
361 835 419 82 86 95 
362 833 419 82 86 93 
363 833 419 85 87 94 
362 834 419 82 86 94 
360 833 421 80 84 91 
361 832 421 81 83 90 
361 833 421 80 84 91 
360 832 422 77 80 87 
360 832 423 77 80 87 
360 833 422 80 83 90 
360 833 423 77 80 87 
361 832 422 79 81 88 
361 833 422 79 82 89 
360 834 420 82 86 93 
360 834 421 81 84 92 
360 835 420 82 86 94 
361 834 420 80 84 92 
360 834 422 80 84 91 
362 832 420 85 87 94 
362 832 421 84 86 92 
362 833 420 82 85 92 
362 833 421 82 84 91 
363 832 420 86 88 94 
360 836 417 92 96 105 
360 836 418 90 95 103 
384 813 447 77 76 87 
384 814 447 92 93 102 
384 815 446 118 119 126 
384 815 447 104 105 113 
385 814 447 84 87 95 
385 815 447 100 102 109 
386 815 447 97 98 105 
384 822 437 158 158 166 
384 822 438 159 160 167 
384 822 439 146 147 155 
385 822 438 139 140 148 
385 822 439 109 111 122 
386 822 439 115 117 127 
384 816 445 120 119 125 
384 817 445 102 101 105 
384 816 446 113 113 119 
384 817 446 100 100 105 
385 816 446 106 106 111 
385 816 447 104 104 110 
385 817 446 99 99 104 
384 818 445 91 92 97 
384 819 444 88 90 97 
384 819 445 87 89 95 
385 819 445 86 89 95 
385 818 446 89 90 96 
385 819 446 83 85 91 
386 816 447 99 100 105 
386 817 446 94 94 99 
386 817 447 97 97 102 
387 816 447 98 98 103 
387 817 447 94 94 99 
