ply
format ascii 1.0
comment Created by CloudCompare v2.10.1 (Zephyrus)
comment Created 1/31/20 9:42 AM
obj_info Generated by CloudCompare!
element vertex 2168
property float x
property float y
property float z
property uchar red
property uchar green
property uchar blue
end_header
327 706 262 34 35 38 
327 706 263 34 35 37 
327 707 262 34 35 38 
327 707 263 35 35 37 
324 708 257 46 46 47 
324 709 257 47 47 48 
325 708 258 39 39 41 
325 708 259 35 37 39 
325 709 258 41 41 42 
325 709 259 37 37 40 
324 710 257 49 48 49 
324 711 257 50 49 49 
325 711 257 47 46 47 
325 710 258 40 41 43 
325 710 259 37 38 41 
325 711 258 43 42 44 
326 708 259 36 37 39 
326 709 259 37 38 40 
326 710 259 37 38 41 
326 711 258 41 42 44 
326 711 259 38 39 42 
326 708 260 35 36 39 
326 708 261 34 36 39 
326 709 260 35 37 39 
326 709 261 33 36 39 
327 708 261 34 36 39 
326 709 262 33 35 39 
326 709 263 34 35 38 
327 708 262 34 35 38 
327 708 263 34 35 37 
327 709 262 33 35 38 
327 709 263 34 36 38 
326 710 260 35 37 40 
326 710 261 34 36 40 
326 711 260 38 39 42 
326 711 261 39 40 42 
326 710 262 33 35 38 
326 710 263 35 36 39 
326 711 262 38 39 41 
326 711 263 39 40 43 
327 710 262 33 35 38 
327 711 262 38 39 41 
327 711 263 37 38 41 
326 704 264 31 32 35 
327 704 264 33 34 37 
327 704 265 38 38 40 
327 705 264 34 35 37 
327 705 265 37 37 39 
327 704 266 38 38 40 
327 704 267 42 42 43 
327 705 266 41 40 41 
327 705 267 45 44 45 
327 706 264 34 35 37 
327 706 265 38 38 40 
327 707 264 34 35 37 
327 707 265 41 41 42 
327 706 266 42 41 42 
327 706 267 46 45 45 
327 707 266 42 42 44 
327 707 267 47 46 47 
327 704 268 52 50 51 
327 705 268 51 50 50 
327 706 268 53 51 51 
327 707 268 54 52 52 
327 707 269 58 55 55 
327 707 270 58 55 55 
325 711 266 45 44 45 
325 711 267 44 43 45 
326 708 265 42 41 43 
326 709 264 35 36 38 
326 709 265 42 42 44 
327 708 264 35 35 37 
327 708 265 42 41 43 
326 708 266 45 44 46 
326 709 266 48 47 48 
326 709 267 52 50 51 
327 708 266 44 44 45 
327 708 267 48 47 48 
326 710 264 35 36 39 
326 710 265 39 39 41 
326 711 264 38 39 42 
326 711 265 39 40 42 
326 710 266 46 45 46 
326 710 267 46 45 46 
326 711 266 42 42 44 
326 711 267 45 44 46 
326 709 268 53 51 51 
327 708 268 55 52 53 
327 708 269 56 54 54 
327 709 268 54 52 52 
327 709 269 56 53 53 
327 708 270 57 55 54 
327 708 271 58 55 55 
327 709 270 56 54 53 
327 709 271 58 55 55 
326 710 268 50 49 49 
326 710 269 55 52 52 
326 711 268 50 48 48 
326 711 269 53 50 50 
327 710 268 54 52 52 
327 710 269 55 52 52 
326 711 270 52 50 49 
327 710 270 57 54 54 
327 710 271 58 55 54 
327 711 270 57 54 53 
327 711 271 58 55 54 
320 712 257 61 56 54 
320 713 257 62 57 54 
321 712 256 60 55 53 
321 712 257 59 55 52 
321 713 257 59 55 53 
320 712 258 61 56 53 
320 713 258 62 57 54 
320 713 259 61 56 53 
321 713 258 61 57 55 
321 714 257 57 54 53 
320 714 258 62 58 56 
320 714 259 60 55 53 
321 714 258 58 54 53 
321 714 259 57 53 52 
321 715 258 54 51 51 
321 715 259 52 49 49 
322 712 256 55 51 49 
322 713 256 56 52 51 
322 713 257 53 50 50 
323 712 256 51 48 48 
323 713 256 50 48 48 
322 714 256 54 51 51 
322 714 257 54 52 52 
322 715 256 50 48 49 
322 715 257 53 50 50 
323 714 256 50 48 48 
323 715 256 48 46 47 
323 715 257 46 45 46 
322 715 258 54 52 52 
320 714 260 60 55 52 
320 714 261 59 55 53 
320 715 261 53 50 49 
321 714 260 55 51 50 
321 714 261 54 50 49 
321 715 260 51 47 47 
321 715 261 50 47 46 
320 714 262 60 56 54 
320 714 263 61 57 56 
320 715 262 58 54 52 
320 715 263 57 53 52 
321 714 263 52 50 49 
321 715 262 52 49 49 
321 715 263 53 50 50 
322 715 261 49 47 47 
322 715 262 50 48 49 
322 715 263 50 48 49 
323 715 262 50 49 50 
323 715 263 49 48 49 
322 716 256 47 45 46 
322 716 257 47 46 47 
323 716 256 47 46 47 
323 716 257 47 46 47 
323 717 256 46 45 47 
323 717 257 45 44 46 
322 716 258 49 47 48 
322 716 259 49 48 48 
323 716 258 46 45 47 
323 716 259 47 46 47 
323 717 258 45 45 46 
322 716 260 50 48 48 
323 716 260 48 46 47 
323 716 261 50 48 49 
324 712 256 51 49 50 
324 712 257 51 49 50 
324 713 256 51 50 51 
325 712 257 48 47 49 
325 713 256 47 47 49 
325 713 257 46 46 48 
325 712 258 44 44 46 
324 714 256 51 49 50 
325 714 256 48 47 50 
326 713 257 47 47 48 
326 712 258 43 43 45 
326 712 259 41 41 44 
326 713 258 44 44 46 
326 713 259 46 46 47 
326 714 256 46 46 48 
326 714 257 47 47 49 
326 715 256 46 46 49 
326 715 257 46 46 49 
327 715 256 46 46 48 
327 715 257 48 47 49 
326 714 258 48 47 49 
326 714 259 51 49 50 
326 715 258 50 49 50 
326 715 259 52 50 51 
324 715 261 52 50 51 
325 715 261 55 53 53 
324 714 263 52 50 50 
324 715 262 51 49 50 
324 715 263 50 48 49 
325 714 262 53 51 51 
325 714 263 51 49 50 
325 715 262 54 51 51 
326 712 260 44 44 46 
326 712 261 46 45 47 
326 713 260 50 48 49 
326 713 261 49 48 49 
326 712 262 41 42 44 
326 712 263 45 45 46 
326 713 262 46 46 47 
326 713 263 48 47 48 
326 714 260 51 49 50 
326 714 261 51 49 49 
326 715 260 52 50 50 
326 715 261 54 51 51 
326 714 262 51 49 49 
324 717 256 45 45 47 
324 717 257 46 46 47 
324 716 259 49 48 49 
324 717 258 47 46 48 
324 717 259 49 47 49 
325 716 259 50 49 50 
325 717 258 49 48 49 
325 717 259 49 48 49 
324 718 256 45 45 47 
324 718 257 46 46 47 
325 718 256 48 47 49 
325 718 257 47 47 48 
325 719 256 48 47 49 
326 717 257 49 48 49 
327 716 256 46 46 49 
327 716 257 48 47 49 
327 717 256 48 47 49 
327 717 257 48 47 49 
326 716 258 49 48 50 
326 716 259 50 49 50 
326 717 258 49 48 50 
326 717 259 50 48 50 
327 716 258 50 49 51 
326 718 256 48 47 49 
326 718 257 49 48 49 
326 719 256 48 47 49 
327 718 256 48 47 49 
327 718 257 48 48 49 
324 716 260 50 48 49 
324 716 261 52 50 51 
325 716 260 51 50 50 
325 716 261 52 50 51 
320 714 264 61 57 56 
320 714 265 63 59 58 
321 714 264 53 51 51 
321 714 265 51 49 49 
321 715 264 56 53 53 
321 714 266 50 48 49 
321 714 267 50 47 47 
323 713 265 47 47 48 
323 713 266 51 50 51 
323 713 267 48 48 49 
322 714 264 49 48 49 
322 714 265 47 46 47 
323 714 264 47 46 47 
323 714 265 49 48 49 
322 714 266 48 47 49 
322 714 267 47 46 47 
323 714 266 49 48 50 
323 714 267 48 47 49 
321 714 268 51 49 49 
321 714 269 53 50 51 
321 715 270 55 52 53 
321 715 271 60 56 56 
323 713 268 49 48 50 
322 714 268 48 47 48 
322 714 269 49 47 49 
323 714 268 48 47 48 
323 714 269 45 44 46 
322 714 270 48 47 48 
322 715 270 51 49 51 
322 715 271 51 50 51 
323 714 270 44 43 45 
323 715 270 44 44 45 
323 715 271 43 43 46 
321 716 271 63 59 58 
323 716 271 43 43 46 
324 713 264 53 51 52 
324 713 265 52 51 52 
325 712 264 47 45 46 
325 712 265 47 46 47 
325 713 264 51 50 50 
325 713 265 53 51 52 
324 713 266 52 51 51 
324 713 267 50 49 51 
325 712 266 47 46 47 
325 712 267 49 47 48 
324 714 264 50 49 50 
324 714 265 49 48 49 
325 714 264 53 51 51 
326 712 264 45 44 45 
326 712 265 40 41 43 
326 713 264 49 48 49 
324 713 268 50 49 50 
324 713 269 47 47 48 
325 712 268 50 48 48 
325 712 269 50 48 47 
325 713 268 50 48 48 
325 713 269 49 47 48 
325 713 270 47 45 46 
324 714 269 44 43 45 
324 714 270 42 42 44 
324 715 270 44 44 46 
324 715 271 43 43 46 
325 714 270 43 42 44 
325 714 271 44 44 44 
325 715 271 43 43 44 
326 712 269 50 48 47 
326 712 270 50 48 47 
326 712 271 51 49 48 
326 713 270 49 46 46 
326 713 271 49 46 46 
327 712 271 53 50 49 
326 714 271 47 45 46 
326 715 271 46 44 45 
324 716 271 41 43 46 
325 716 271 42 42 44 
328 704 268 56 54 54 
328 704 269 61 58 58 
328 705 268 58 55 55 
328 705 269 60 57 57 
328 704 270 65 61 60 
328 704 271 67 63 61 
328 705 270 64 61 60 
328 705 271 65 61 60 
328 706 268 56 54 54 
328 706 269 59 57 56 
328 707 269 58 55 55 
328 706 270 63 60 59 
328 706 271 66 62 61 
328 707 270 60 57 57 
328 707 271 64 60 59 
328 708 271 63 59 58 
328 709 271 57 54 53 
328 710 271 58 55 55 
327 710 272 59 56 56 
327 711 272 59 56 55 
321 716 272 63 59 58 
321 717 272 61 58 58 
321 717 273 55 53 53 
320 718 273 63 60 59 
320 719 273 75 73 74 
321 718 273 61 59 58 
321 719 273 75 73 74 
320 719 274 74 71 71 
322 716 272 49 48 49 
322 717 272 49 46 47 
322 717 273 48 46 46 
323 716 272 43 43 45 
323 717 272 42 42 43 
322 718 272 44 43 43 
322 718 273 56 55 55 
322 719 273 73 72 73 
323 718 272 63 62 64 
323 718 273 56 54 55 
323 719 273 72 71 73 
325 715 272 45 44 45 
327 712 272 56 53 52 
327 713 272 52 49 48 
326 714 272 48 46 46 
326 715 272 50 49 49 
327 714 272 52 50 50 
327 715 272 58 55 54 
327 715 273 63 60 59 
324 716 272 42 43 46 
324 717 272 51 50 52 
325 716 272 46 45 47 
325 717 272 62 62 64 
324 718 272 74 74 77 
324 718 273 74 74 77 
324 719 273 74 73 76 
325 718 272 72 71 74 
325 719 273 72 71 73 
326 716 272 56 54 54 
326 717 272 73 73 76 
327 716 272 62 60 61 
327 716 273 58 56 56 
327 717 272 77 75 76 
327 717 273 76 74 75 
326 718 272 71 70 72 
326 718 273 71 70 72 
326 719 272 72 70 71 
327 718 273 76 74 75 
327 719 272 76 73 73 
328 704 272 69 64 63 
328 705 272 68 63 62 
329 704 272 69 64 63 
329 704 273 69 65 63 
329 705 273 67 63 61 
329 704 274 66 61 59 
329 704 275 69 64 62 
329 705 274 65 61 59 
329 705 275 68 63 61 
328 706 272 67 63 62 
328 706 273 66 62 61 
328 707 272 65 61 60 
328 707 273 67 63 62 
329 707 272 66 62 61 
328 706 274 71 66 65 
328 707 274 68 63 61 
328 707 275 68 64 62 
329 706 274 70 65 63 
329 706 275 67 62 60 
329 707 275 68 63 61 
329 704 276 71 67 65 
329 704 277 70 65 64 
329 705 276 69 64 62 
329 705 277 69 64 63 
329 704 278 65 61 60 
329 704 279 65 61 60 
329 705 278 67 62 61 
329 705 279 64 60 58 
328 707 277 66 62 61 
329 706 276 66 61 59 
329 706 277 68 63 61 
329 707 276 68 64 62 
329 707 277 68 64 63 
329 706 278 67 63 62 
329 706 279 67 63 61 
329 707 278 68 64 63 
329 707 279 67 63 62 
328 708 272 65 61 60 
328 708 273 66 62 60 
328 709 272 62 58 57 
328 709 273 66 61 60 
328 708 274 66 61 59 
328 708 275 67 62 61 
328 709 274 65 61 59 
328 709 275 65 61 60 
328 710 272 60 57 56 
328 710 273 63 59 59 
328 711 272 60 57 56 
328 711 273 61 58 57 
328 710 274 65 61 60 
328 710 275 65 62 61 
328 711 274 63 60 59 
328 711 275 64 60 59 
329 711 275 64 60 60 
328 708 276 65 62 60 
328 708 277 65 62 61 
328 709 276 67 63 62 
328 709 277 66 62 61 
329 709 277 65 61 60 
329 708 278 67 63 62 
329 708 279 68 64 63 
329 709 278 64 61 60 
329 709 279 65 62 61 
328 710 276 63 60 60 
329 710 276 62 60 59 
329 710 277 64 61 60 
329 711 276 64 61 60 
329 711 277 62 59 59 
329 710 278 66 62 61 
329 710 279 64 61 60 
329 711 278 66 63 62 
329 711 279 66 62 61 
330 711 278 62 59 59 
330 711 279 72 67 65 
335 704 278 69 63 59 
335 704 279 69 63 59 
335 705 279 69 62 58 
329 704 280 61 57 56 
329 704 281 61 57 55 
329 705 280 62 58 56 
329 705 281 63 58 56 
329 706 280 65 61 60 
329 706 281 68 64 63 
329 707 280 66 62 61 
329 707 281 67 63 62 
330 704 281 61 56 54 
330 705 281 62 57 55 
330 704 282 63 58 55 
330 705 282 63 57 55 
331 704 283 69 63 60 
331 705 282 68 62 59 
330 706 281 64 60 58 
330 707 281 67 62 60 
331 707 281 66 60 57 
330 706 282 66 60 58 
330 707 282 65 60 58 
331 706 282 69 63 59 
331 707 282 72 65 62 
329 708 280 68 64 63 
329 708 281 64 60 59 
329 709 280 65 61 60 
329 710 280 61 58 57 
330 708 281 66 62 60 
330 709 280 63 59 59 
330 709 281 68 63 61 
331 708 281 65 60 56 
330 708 282 67 62 59 
330 709 282 69 64 62 
331 708 282 74 67 64 
331 709 282 78 72 69 
330 710 280 69 64 63 
330 710 281 69 64 63 
330 711 280 73 68 66 
330 711 281 72 66 64 
331 711 281 76 70 66 
330 710 282 71 66 63 
331 710 282 80 74 71 
331 711 282 83 75 72 
333 704 281 66 60 56 
333 705 281 64 59 56 
332 704 282 66 60 56 
332 704 283 69 62 58 
332 705 282 68 61 58 
333 704 282 66 60 57 
333 705 282 66 59 57 
332 707 281 72 66 64 
333 706 281 67 62 59 
333 707 281 71 65 61 
332 706 282 71 65 62 
332 707 282 73 67 64 
333 706 282 69 63 59 
333 707 282 71 66 63 
334 704 280 66 61 58 
334 704 281 66 61 57 
334 705 280 66 61 59 
334 705 281 66 60 58 
335 704 280 68 63 60 
335 705 280 69 63 60 
334 706 281 69 63 60 
334 707 281 71 65 62 
335 706 280 70 64 61 
335 707 280 74 67 63 
335 707 281 74 68 64 
332 708 281 73 67 64 
333 708 281 74 68 65 
332 708 282 75 69 66 
332 709 282 79 72 69 
333 708 282 75 69 65 
333 709 282 79 72 68 
332 710 282 83 76 72 
332 711 282 86 79 75 
333 710 282 85 77 72 
333 711 282 87 79 74 
333 711 283 87 79 74 
334 708 281 77 71 67 
335 708 281 79 72 69 
335 709 281 85 78 73 
334 709 282 83 75 71 
335 709 282 86 78 74 
334 710 282 87 79 75 
334 711 282 89 80 75 
334 711 283 89 80 75 
335 710 282 90 82 77 
335 711 282 91 82 76 
328 712 273 61 58 57 
328 713 273 60 57 56 
328 712 274 62 59 58 
328 713 274 62 58 57 
329 712 275 69 65 63 
329 713 274 68 64 62 
329 713 275 72 67 65 
328 714 273 64 60 59 
328 715 273 70 67 67 
329 714 273 76 73 73 
329 715 273 81 77 77 
329 714 274 70 66 64 
330 713 275 76 71 69 
330 714 274 75 70 68 
330 714 275 74 70 68 
330 715 274 75 71 69 
331 714 275 75 69 67 
331 715 274 76 71 69 
331 715 275 75 70 68 
329 712 276 69 64 62 
329 712 277 65 61 60 
330 712 276 70 65 63 
330 712 277 69 64 63 
330 713 276 76 71 70 
330 713 277 76 71 69 
331 713 277 77 71 69 
330 712 278 72 67 65 
330 712 279 77 72 70 
331 713 278 78 72 70 
331 713 279 80 75 73 
331 714 276 74 69 67 
331 714 277 73 68 66 
328 716 273 81 79 80 
328 717 273 84 81 81 
329 716 273 86 83 82 
329 717 273 92 88 88 
328 718 273 82 79 79 
329 718 273 85 81 81 
330 717 273 92 88 87 
331 716 273 87 83 82 
331 717 273 93 88 88 
330 716 274 81 77 75 
331 716 274 80 75 74 
332 715 274 78 73 72 
332 715 275 75 71 69 
333 715 274 70 65 63 
333 715 275 70 65 62 
334 714 275 65 60 58 
334 715 274 68 63 60 
334 715 275 62 57 54 
335 714 275 57 53 52 
335 715 274 61 56 54 
335 715 275 57 53 51 
332 713 279 81 75 72 
332 714 276 74 68 65 
332 714 277 76 69 66 
333 714 276 76 70 68 
333 714 277 80 73 69 
332 714 278 78 72 69 
332 714 279 83 76 73 
333 714 278 82 75 70 
333 714 279 84 76 72 
334 714 276 73 68 66 
334 714 277 79 73 70 
335 714 276 67 61 58 
335 714 277 75 69 66 
334 714 278 82 76 73 
334 714 279 81 75 73 
335 714 278 78 71 68 
335 714 279 77 70 67 
332 717 273 89 84 82 
333 717 273 85 80 79 
332 716 274 80 75 73 
333 716 274 74 68 66 
334 716 274 70 64 62 
335 716 274 66 61 58 
330 712 280 75 70 67 
331 712 280 81 76 74 
331 712 281 78 72 68 
331 713 280 79 73 69 
331 713 281 79 73 70 
331 712 282 85 78 74 
332 713 280 80 73 70 
332 713 281 77 71 67 
332 712 282 86 79 74 
332 713 282 82 75 71 
333 712 283 87 78 73 
333 713 282 81 73 68 
333 713 283 85 77 71 
332 714 280 78 71 67 
332 714 281 80 73 69 
333 714 280 83 76 72 
333 714 281 84 77 73 
332 714 282 81 74 71 
333 714 282 84 77 72 
333 714 283 82 74 68 
335 713 280 85 76 70 
335 713 281 88 79 73 
334 712 283 89 81 75 
334 713 283 84 75 69 
335 712 282 92 83 77 
335 712 283 92 83 77 
335 713 282 87 78 72 
335 713 283 86 77 71 
334 714 280 82 74 69 
334 714 281 88 79 73 
335 714 280 82 74 69 
335 714 281 87 79 73 
334 714 282 84 76 71 
334 714 283 84 76 71 
335 714 282 85 77 72 
320 720 273 80 78 79 
321 720 273 78 76 77 
320 720 274 78 75 76 
322 720 273 73 71 72 
323 720 273 73 72 73 
336 704 277 66 60 56 
337 704 277 64 58 55 
337 705 277 63 57 53 
336 704 278 67 61 57 
336 705 278 66 60 56 
336 705 279 68 62 58 
337 704 278 65 59 55 
337 705 278 64 58 53 
336 706 279 68 61 57 
336 707 279 69 62 57 
337 706 278 64 57 53 
337 706 279 64 58 53 
337 707 279 66 59 54 
338 704 277 64 58 53 
338 705 277 64 58 54 
339 704 276 65 58 54 
339 704 277 64 58 54 
339 705 276 67 60 56 
339 705 277 67 61 57 
338 705 278 63 57 54 
339 706 277 70 64 60 
339 707 277 73 66 61 
338 706 278 65 59 55 
338 707 278 69 61 57 
338 707 279 67 60 55 
337 708 279 70 62 56 
337 711 279 95 85 79 
339 709 277 77 70 65 
338 708 278 73 66 60 
338 708 279 71 63 57 
338 709 278 76 68 63 
338 709 279 78 70 64 
339 708 278 74 66 61 
339 709 278 77 69 64 
338 711 277 83 75 71 
339 710 276 77 69 65 
339 710 277 79 72 67 
339 711 276 75 68 64 
339 711 277 80 72 68 
338 710 278 82 74 69 
338 710 279 85 77 72 
338 711 278 87 79 75 
338 711 279 89 81 77 
339 710 278 79 71 66 
340 704 276 65 58 53 
340 705 276 67 61 56 
341 704 276 64 57 52 
341 705 276 66 60 55 
340 706 276 71 64 59 
340 706 277 71 64 60 
340 707 276 72 65 60 
340 707 277 73 66 61 
340 708 276 75 68 64 
340 708 277 76 68 64 
340 709 276 76 69 64 
340 709 277 77 69 65 
340 710 276 75 67 63 
336 706 280 70 64 60 
336 707 280 74 67 63 
336 708 280 76 68 63 
336 708 281 80 72 68 
336 709 280 81 73 68 
336 709 281 86 78 73 
337 709 280 78 69 64 
337 709 281 82 73 68 
336 710 281 89 80 75 
337 710 280 88 79 74 
337 710 281 91 82 76 
337 711 280 94 85 80 
337 711 281 96 87 81 
336 710 282 91 82 77 
336 711 282 95 85 79 
336 714 275 58 54 51 
336 715 274 59 55 53 
336 715 275 56 53 52 
337 714 275 60 55 52 
337 715 274 61 56 54 
337 715 275 59 55 53 
338 713 275 67 60 56 
339 712 275 69 63 61 
339 713 274 68 62 59 
339 713 275 68 62 58 
338 714 275 65 59 56 
338 715 274 63 58 56 
339 714 274 67 61 58 
339 715 274 68 62 60 
336 713 277 72 65 61 
337 712 277 77 69 65 
337 713 276 66 58 53 
337 713 277 72 65 60 
336 713 278 76 69 65 
336 713 279 82 74 69 
337 712 278 84 75 71 
337 712 279 90 80 75 
337 713 278 78 71 66 
337 713 279 85 77 73 
336 714 276 63 58 54 
336 714 277 70 64 60 
337 714 276 62 57 53 
336 714 278 78 72 69 
338 712 276 75 67 62 
338 712 277 79 71 67 
338 713 276 71 63 59 
339 712 276 74 67 62 
338 712 278 84 77 74 
338 714 276 66 59 54 
336 716 274 64 58 56 
336 712 280 88 79 73 
336 712 281 93 83 77 
336 713 280 84 75 68 
336 713 281 88 78 72 
337 712 280 93 84 78 
337 712 281 98 89 84 
336 712 282 93 84 77 
327 667 237 69 66 64 
327 668 237 68 64 63 
327 668 238 67 63 62 
327 668 239 67 63 62 
327 669 238 64 60 58 
327 669 239 64 60 58 
327 670 239 59 55 53 
327 671 239 54 51 50 
329 656 234 73 70 71 
329 657 234 70 68 69 
329 657 235 69 67 68 
329 658 234 70 67 67 
329 658 235 70 68 68 
329 659 234 71 68 67 
329 659 235 71 68 68 
330 659 234 70 67 67 
329 660 234 71 68 68 
329 660 235 71 68 67 
329 661 234 72 69 69 
329 661 235 70 68 67 
328 662 234 70 67 67 
328 662 235 70 67 67 
328 663 234 67 64 63 
328 663 235 67 64 63 
329 662 234 71 68 68 
329 663 234 68 65 64 
330 660 234 71 68 68 
330 661 234 72 69 68 
330 662 234 72 69 68 
328 664 234 66 63 62 
328 664 235 68 64 63 
328 665 235 71 67 66 
329 664 234 74 70 68 
329 665 234 76 72 71 
329 665 235 72 68 67 
328 666 235 75 71 69 
328 667 235 74 70 69 
329 666 234 76 72 70 
329 666 235 76 72 70 
329 667 235 72 69 67 
330 665 234 78 74 73 
330 666 234 76 72 71 
330 667 234 73 69 68 
330 667 235 73 69 68 
331 667 234 76 72 70 
328 665 236 69 65 63 
328 666 236 72 68 66 
328 667 236 71 67 65 
328 667 237 66 62 60 
329 667 236 70 66 65 
329 668 235 72 67 65 
330 668 235 76 71 70 
330 669 235 73 69 66 
331 668 234 77 72 70 
331 668 235 77 73 71 
331 669 235 70 65 63 
331 670 235 65 61 58 
328 668 236 69 65 63 
328 668 237 68 64 62 
328 669 237 68 64 61 
329 668 236 71 67 65 
329 669 236 74 69 67 
329 669 237 70 66 64 
328 669 238 65 61 58 
329 670 236 67 62 60 
329 670 237 61 57 55 
329 671 237 58 55 53 
328 670 238 60 57 55 
328 671 238 51 48 47 
328 671 239 53 50 49 
329 670 238 58 54 52 
329 671 238 50 47 46 
330 669 236 74 69 67 
330 670 236 64 60 58 
330 671 236 60 56 54 
330 671 237 54 51 50 
331 670 236 62 58 56 
331 671 236 58 54 51 
331 671 237 55 52 51 
332 669 235 67 62 60 
332 670 235 62 57 55 
333 670 235 59 55 52 
333 671 235 59 55 54 
332 670 236 57 53 50 
332 671 236 56 52 50 
332 671 237 51 49 48 
333 671 236 55 52 51 
334 671 236 57 54 53 
327 672 239 47 45 44 
327 673 239 44 42 41 
327 674 239 42 40 40 
328 672 239 47 44 43 
328 673 239 42 40 40 
329 672 238 45 43 42 
329 672 239 43 41 40 
329 673 238 42 40 39 
329 673 239 41 39 39 
328 674 239 39 38 38 
329 674 239 39 38 38 
329 675 239 36 36 37 
331 672 237 50 48 48 
330 672 238 48 46 46 
330 673 238 44 42 42 
330 673 239 43 41 41 
331 672 238 48 46 46 
331 673 238 44 42 42 
330 674 239 40 39 40 
330 675 239 36 35 36 
331 674 239 42 40 40 
331 675 239 38 37 38 
332 672 237 50 48 47 
333 672 236 54 52 51 
333 672 237 53 51 51 
333 673 237 50 48 48 
332 672 238 48 46 45 
332 673 238 44 41 41 
333 672 238 50 47 47 
333 673 238 45 43 41 
332 674 238 41 38 37 
332 674 239 40 38 38 
333 674 239 41 39 38 
334 672 236 60 58 58 
334 672 237 58 56 56 
334 673 237 59 56 56 
335 672 237 63 60 60 
335 673 237 61 57 56 
334 673 238 52 49 47 
334 673 239 51 47 45 
335 673 238 58 54 52 
335 673 239 54 50 46 
334 674 239 45 42 41 
335 674 239 56 51 49 
326 673 240 46 44 43 
327 673 240 44 42 41 
326 674 240 45 43 43 
326 674 241 46 44 43 
326 675 240 40 38 38 
326 675 241 43 41 41 
327 674 240 42 41 41 
327 675 240 37 36 37 
326 676 240 38 37 38 
326 676 241 33 33 34 
326 677 241 33 33 33 
327 676 240 34 33 34 
327 676 241 32 32 33 
327 677 241 31 31 32 
326 678 241 32 32 34 
327 678 241 32 32 33 
326 678 242 32 32 33 
326 678 243 32 32 33 
327 678 242 31 32 33 
327 678 243 32 32 32 
327 679 243 31 31 32 
326 678 244 33 34 35 
326 679 244 32 33 35 
326 679 245 33 32 33 
327 679 244 31 31 33 
327 679 245 31 31 32 
326 679 246 32 32 33 
326 679 247 32 32 33 
327 679 246 31 31 31 
327 679 247 32 32 33 
326 679 248 32 33 34 
327 680 247 32 32 33 
324 686 247 31 32 36 
324 687 247 33 34 37 
325 686 247 33 34 36 
325 687 247 33 34 35 
326 680 248 31 30 32 
326 680 249 31 31 32 
326 681 249 32 32 34 
327 680 248 30 30 30 
327 681 248 32 32 33 
327 681 249 32 33 34 
327 682 249 32 33 34 
326 682 250 33 33 35 
326 683 250 32 33 36 
326 683 251 32 33 35 
327 682 250 32 33 35 
327 683 250 30 32 34 
327 683 251 31 33 35 
325 685 249 32 33 35 
325 684 250 32 33 35 
325 684 251 33 34 36 
325 685 250 32 33 35 
324 687 248 32 34 36 
324 687 249 32 33 36 
325 686 248 32 33 35 
325 686 249 32 33 35 
325 687 248 32 33 35 
325 687 249 32 33 35 
325 686 250 32 33 36 
325 686 251 32 33 36 
325 687 250 32 34 36 
325 687 251 33 34 37 
326 684 251 33 34 36 
326 685 250 32 33 35 
326 685 251 32 34 36 
327 684 251 31 32 35 
326 686 250 30 31 34 
326 686 251 32 34 36 
325 687 252 32 34 37 
325 687 253 32 34 37 
326 684 252 32 33 36 
326 685 252 32 33 36 
326 685 253 30 33 36 
327 684 252 31 32 35 
327 684 253 30 32 36 
327 685 253 30 32 36 
327 685 254 31 33 37 
326 686 252 32 34 37 
326 686 253 31 34 37 
326 687 252 32 35 38 
326 687 253 31 34 38 
326 686 254 31 34 38 
326 687 254 32 35 39 
326 687 255 32 35 38 
327 686 254 30 33 37 
327 686 255 32 34 38 
327 687 255 33 35 39 
328 674 240 38 37 38 
328 675 240 34 33 34 
329 675 240 33 32 34 
330 675 240 34 33 35 
331 675 240 35 35 36 
328 676 240 31 31 33 
328 676 241 30 31 33 
328 677 241 30 31 32 
329 676 240 31 31 33 
329 676 241 31 31 33 
329 677 241 31 31 33 
328 677 242 30 31 32 
329 677 242 30 31 32 
328 678 241 31 32 33 
328 678 242 31 32 34 
328 678 243 31 31 32 
328 679 243 32 32 33 
329 678 242 31 31 33 
329 678 243 30 31 32 
329 679 242 31 31 32 
330 676 240 31 32 33 
330 676 241 31 32 33 
330 677 241 31 31 33 
331 676 240 32 32 34 
331 676 241 31 31 33 
330 677 242 31 31 33 
330 677 243 31 32 34 
331 676 242 31 31 33 
331 677 242 31 33 36 
331 677 243 36 36 38 
330 678 243 35 36 38 
328 678 244 30 30 31 
328 679 244 31 31 32 
328 679 245 33 32 32 
329 678 244 33 33 34 
329 679 244 36 35 36 
329 679 245 36 36 37 
328 679 246 33 32 32 
328 679 247 33 32 33 
329 679 246 37 37 38 
330 678 244 34 35 37 
330 678 245 35 35 37 
330 679 244 35 35 37 
330 679 245 36 36 37 
331 678 244 35 35 38 
331 678 245 35 36 38 
331 679 245 36 36 37 
330 679 246 37 38 39 
330 679 247 39 39 40 
331 679 246 38 37 39 
331 679 247 38 38 39 
332 675 240 39 38 40 
332 675 241 34 34 35 
333 674 240 43 41 41 
333 675 240 42 40 41 
333 675 241 41 40 41 
334 674 240 44 41 41 
334 675 241 43 42 43 
335 674 240 55 52 51 
335 675 240 53 50 49 
335 675 241 52 50 49 
332 676 241 33 34 36 
333 676 241 37 36 37 
332 676 242 33 34 37 
332 677 242 33 35 37 
332 677 243 33 34 37 
333 676 242 40 40 43 
333 676 243 39 39 41 
333 677 243 39 40 43 
334 676 242 47 47 49 
334 676 243 45 46 49 
335 676 242 52 52 54 
335 676 243 52 52 55 
332 677 244 36 36 38 
333 676 244 41 41 44 
333 677 244 38 39 41 
333 677 245 39 39 42 
332 678 244 36 35 37 
332 678 245 35 34 36 
332 679 245 38 36 37 
333 678 245 36 36 38 
332 678 246 37 35 36 
332 679 246 39 38 39 
332 679 247 39 38 40 
333 678 246 38 38 39 
333 679 246 38 38 40 
333 679 247 41 40 41 
334 676 244 46 47 50 
334 677 244 40 40 43 
334 677 245 40 40 41 
335 676 244 51 51 54 
335 677 244 48 48 50 
335 677 245 45 45 46 
334 678 246 41 40 41 
334 678 247 46 45 46 
334 679 247 43 42 42 
335 678 246 49 48 48 
335 678 247 52 50 50 
335 679 247 51 49 49 
333 679 248 43 42 41 
334 679 248 48 46 45 
335 679 248 53 52 51 
335 679 249 56 54 53 
328 680 246 33 32 32 
328 680 247 33 32 33 
329 680 246 38 38 39 
329 680 247 38 38 40 
330 680 247 39 39 41 
331 680 247 37 38 39 
328 681 248 33 32 34 
329 680 248 38 38 39 
329 681 248 34 34 36 
328 682 248 31 32 33 
328 682 249 31 32 33 
328 683 249 30 32 34 
329 682 249 33 33 35 
329 683 249 33 34 36 
328 683 250 29 31 34 
328 683 251 29 31 34 
329 683 250 32 33 36 
330 680 248 39 39 40 
330 681 248 37 37 39 
331 680 248 38 38 40 
331 681 248 38 39 40 
330 682 248 35 36 38 
330 682 249 38 38 41 
330 683 249 37 38 40 
331 682 249 40 40 42 
331 683 249 40 40 42 
330 682 250 36 37 39 
330 683 250 37 38 40 
330 683 251 38 39 41 
331 683 250 42 41 42 
331 683 251 42 41 42 
331 683 252 44 43 43 
328 684 251 29 31 35 
329 684 251 32 33 35 
330 684 251 38 39 41 
331 684 251 42 41 43 
328 684 252 29 31 35 
328 684 253 32 33 35 
328 685 253 31 33 36 
329 684 252 32 33 35 
329 684 253 33 34 36 
329 685 253 38 38 40 
328 685 254 35 35 38 
329 685 254 41 40 41 
329 685 255 42 41 42 
328 686 255 38 39 42 
329 686 255 43 42 42 
330 684 252 41 41 42 
330 684 253 43 42 43 
330 685 253 42 42 43 
331 684 252 45 44 44 
331 684 253 47 45 45 
331 685 253 45 43 44 
330 685 254 45 44 44 
330 685 255 48 45 45 
331 684 254 51 48 46 
331 685 254 49 47 45 
331 685 255 51 48 47 
330 686 255 46 44 44 
332 680 248 39 38 40 
332 681 248 38 38 40 
332 681 249 40 40 41 
333 680 248 40 39 40 
333 680 249 46 45 46 
333 681 249 44 44 45 
333 681 250 49 48 49 
332 682 249 41 41 42 
332 682 250 41 40 41 
332 682 251 41 40 41 
332 683 250 41 40 41 
332 683 251 43 42 43 
333 682 250 45 45 46 
333 682 251 46 46 47 
334 680 248 47 45 44 
334 680 249 48 47 47 
334 681 249 49 48 48 
335 680 248 50 48 48 
335 680 249 52 50 50 
334 681 250 50 49 50 
335 680 250 54 51 51 
335 681 250 53 51 51 
335 681 251 55 53 53 
334 682 251 53 52 52 
335 682 251 56 54 55 
332 683 252 44 43 43 
332 683 253 48 46 46 
333 682 252 49 48 49 
333 683 252 48 47 48 
333 683 253 50 49 49 
335 681 252 60 58 59 
334 682 252 55 53 54 
334 682 253 57 55 54 
334 683 252 51 50 51 
334 683 253 53 51 51 
335 682 252 59 56 57 
335 682 253 61 58 58 
334 683 254 53 51 51 
334 683 255 57 55 54 
335 683 254 60 57 56 
335 683 255 59 56 56 
332 684 253 48 46 46 
332 684 254 52 49 48 
332 684 255 52 49 48 
332 685 255 52 49 47 
333 684 254 51 49 50 
333 684 255 51 49 50 
334 684 254 54 53 53 
334 684 255 55 53 54 
323 693 251 42 41 41 
323 694 251 44 43 43 
323 695 251 49 46 46 
323 693 252 39 39 39 
323 694 252 42 41 41 
323 695 252 47 45 45 
323 695 253 43 41 42 
324 688 249 32 33 35 
324 688 250 33 34 36 
324 688 251 33 34 36 
325 688 250 31 32 34 
325 688 251 32 33 35 
324 689 252 33 33 35 
325 688 252 32 34 37 
325 688 253 33 35 37 
325 689 252 33 34 36 
325 689 253 33 34 37 
325 688 254 34 36 39 
325 689 254 33 35 38 
325 689 255 33 35 38 
324 690 252 34 34 36 
324 690 253 33 34 36 
324 691 252 34 35 37 
324 691 253 33 34 36 
325 690 253 33 35 37 
325 690 254 34 36 38 
325 690 255 34 35 38 
325 691 254 34 35 38 
325 691 255 34 36 38 
326 688 253 32 35 39 
326 688 254 32 35 39 
326 688 255 33 36 39 
326 689 255 33 35 38 
326 690 255 32 35 38 
324 692 252 35 35 37 
324 692 253 34 35 37 
324 693 252 36 37 38 
324 693 253 35 36 38 
324 692 254 33 35 37 
324 692 255 33 34 37 
324 693 254 33 35 38 
324 693 255 34 36 39 
325 692 254 33 35 37 
325 692 255 34 35 38 
325 693 255 34 36 39 
324 694 253 35 36 38 
324 695 253 41 40 41 
324 694 254 33 35 38 
324 694 255 34 36 39 
324 695 254 37 37 39 
324 695 255 35 36 39 
325 694 255 34 36 39 
325 695 255 34 36 39 
324 696 255 34 35 38 
325 696 255 34 35 37 
336 673 237 65 62 62 
336 673 238 63 60 59 
337 673 238 66 64 63 
336 674 239 64 60 59 
337 674 238 67 65 66 
337 674 239 69 67 68 
338 673 238 70 69 71 
338 674 238 67 66 68 
338 674 239 66 65 66 
338 675 239 65 66 68 
339 674 239 68 69 71 
339 675 239 69 70 73 
340 674 239 69 69 72 
340 675 239 70 70 73 
336 674 240 63 60 60 
336 675 240 66 63 64 
336 675 241 59 57 57 
337 674 240 70 68 68 
337 675 240 70 67 68 
337 675 241 68 66 65 
336 675 242 60 58 58 
337 675 242 68 64 64 
338 674 240 70 68 69 
338 675 240 66 66 68 
338 675 241 66 65 67 
339 675 240 68 69 72 
339 675 241 69 69 72 
338 675 242 66 65 67 
339 675 242 66 67 69 
339 675 243 67 68 70 
336 676 242 59 57 58 
336 676 243 62 60 60 
337 676 243 69 65 64 
338 676 242 68 66 67 
338 676 243 69 68 69 
339 676 242 71 71 74 
339 676 243 69 69 72 
336 676 244 62 60 61 
336 677 244 63 60 60 
336 677 245 60 59 59 
337 676 244 69 66 65 
337 677 245 68 65 64 
336 677 246 61 59 58 
337 677 246 68 65 65 
337 677 247 68 66 67 
336 678 246 57 55 55 
336 678 247 60 58 58 
336 679 247 56 54 54 
337 678 247 64 62 62 
338 676 244 71 70 71 
338 676 245 72 71 73 
338 677 245 73 71 72 
339 676 244 70 70 73 
339 676 245 68 67 69 
338 677 246 72 70 72 
338 677 247 71 69 70 
339 676 246 67 66 67 
339 677 246 68 67 68 
339 677 247 68 67 68 
338 678 247 68 66 67 
340 675 240 72 73 76 
340 675 241 74 74 77 
341 675 240 77 78 82 
341 675 241 77 77 80 
341 676 241 78 79 82 
340 676 242 74 75 78 
340 676 243 75 76 79 
341 676 242 79 79 82 
341 676 243 80 80 83 
342 676 241 80 81 84 
343 676 241 81 82 86 
342 676 242 81 82 85 
342 676 243 82 82 85 
343 676 242 83 84 87 
343 676 243 83 83 86 
343 677 242 85 85 88 
343 677 243 85 85 88 
340 676 244 78 79 82 
340 676 245 77 78 80 
341 676 244 81 81 84 
341 676 245 80 80 82 
341 677 245 83 82 84 
340 676 246 72 71 72 
340 677 246 73 71 72 
340 677 247 73 70 72 
341 677 246 80 78 79 
341 677 247 82 79 80 
342 676 244 83 83 85 
342 677 244 83 82 85 
342 677 245 86 84 86 
343 677 244 86 86 88 
343 677 245 89 89 91 
342 677 246 87 85 86 
342 677 247 86 83 84 
343 677 246 89 87 89 
342 678 247 87 84 85 
343 678 246 87 85 86 
343 678 247 87 84 85 
336 679 248 56 54 54 
336 679 249 56 53 53 
337 678 248 63 61 61 
337 679 248 60 58 59 
337 679 249 59 57 57 
336 679 250 53 51 50 
337 679 250 59 56 56 
339 677 248 67 66 68 
338 678 248 68 66 67 
338 678 249 66 64 65 
338 679 249 65 63 63 
339 678 248 69 67 69 
339 678 249 73 71 72 
339 679 249 73 70 71 
338 679 250 69 66 66 
339 679 250 76 73 72 
339 679 251 77 74 74 
340 677 248 74 72 73 
341 677 248 83 80 80 
340 678 248 76 75 76 
340 678 249 79 77 77 
341 678 248 84 81 81 
341 678 249 85 82 83 
340 678 250 81 78 77 
340 679 250 82 79 78 
340 679 251 83 80 80 
341 678 250 85 83 83 
341 679 250 85 82 83 
341 679 251 84 82 82 
342 678 248 88 85 85 
342 678 249 91 88 88 
343 678 248 88 85 85 
343 678 249 91 87 87 
342 678 250 91 87 87 
342 679 250 89 86 85 
342 679 251 85 82 82 
343 678 250 92 88 88 
343 679 250 92 88 87 
343 679 251 86 83 82 
340 679 252 82 79 79 
341 679 252 78 75 75 
342 679 252 78 75 75 
343 679 252 79 75 74 
336 680 250 54 52 51 
336 680 251 58 56 56 
336 681 251 57 55 56 
337 680 250 57 54 54 
337 680 251 62 59 58 
338 680 250 68 65 64 
338 680 251 69 66 66 
339 680 251 77 74 74 
336 681 252 62 60 60 
336 681 253 66 64 64 
337 680 252 65 61 61 
337 681 252 65 61 61 
337 681 253 66 63 63 
337 681 254 64 60 59 
336 682 253 65 62 62 
336 682 254 66 64 64 
336 682 255 68 65 65 
336 683 254 64 62 61 
336 683 255 66 63 62 
337 682 254 66 63 63 
337 682 255 67 63 63 
338 680 252 67 63 62 
338 680 253 67 63 62 
338 681 253 65 61 60 
339 680 252 74 71 70 
339 680 253 72 68 67 
339 681 253 70 66 64 
338 681 254 63 59 57 
338 681 255 64 59 57 
339 681 254 66 61 59 
339 681 255 66 61 58 
338 682 255 65 61 59 
340 680 251 81 78 78 
340 680 252 78 75 75 
340 680 253 72 69 68 
340 681 253 71 66 65 
341 680 253 70 66 66 
340 681 254 68 63 62 
340 681 255 65 61 59 
341 681 254 66 62 60 
341 681 255 66 62 60 
341 682 255 67 63 61 
342 680 253 73 69 69 
342 681 253 66 62 61 
343 680 252 77 74 73 
343 680 253 75 72 72 
343 681 253 72 68 67 
342 681 254 64 59 57 
342 681 255 65 61 59 
343 681 254 67 62 60 
343 681 255 66 62 60 
342 682 255 66 61 59 
343 682 255 68 63 62 
347 675 245 96 95 98 
347 675 246 97 96 99 
347 675 247 97 97 100 
344 677 242 86 87 90 
344 677 243 88 88 91 
345 677 242 89 89 93 
345 677 243 90 90 94 
346 677 243 92 92 95 
344 677 244 89 89 92 
344 677 245 88 88 91 
345 677 244 91 92 95 
345 677 245 91 91 95 
344 677 246 87 86 88 
344 677 247 88 87 89 
345 677 246 92 92 95 
345 677 247 91 91 94 
344 678 246 86 84 86 
344 678 247 87 85 86 
345 678 247 89 87 89 
346 676 245 94 94 97 
346 677 244 93 93 96 
346 677 245 93 93 97 
347 676 244 95 94 98 
347 676 245 95 95 98 
346 676 247 94 94 97 
346 677 246 95 95 98 
346 677 247 93 93 97 
347 676 246 97 97 100 
347 676 247 96 96 100 
347 675 248 94 94 97 
347 675 249 88 88 90 
347 675 250 84 83 84 
345 677 248 90 90 92 
344 678 248 87 85 86 
344 678 249 88 85 85 
345 678 248 89 88 90 
345 678 249 90 87 88 
344 678 250 89 85 86 
344 679 250 89 86 85 
344 679 251 86 82 81 
345 678 250 92 88 89 
345 679 250 93 89 90 
345 679 251 88 84 84 
346 676 248 92 92 95 
346 677 248 90 90 92 
346 677 249 88 87 89 
347 676 248 93 93 96 
347 676 249 87 86 89 
346 677 250 84 81 82 
347 676 250 81 80 81 
347 676 251 77 75 76 
346 678 250 88 86 86 
346 678 251 87 84 84 
346 679 251 89 85 85 
344 679 252 80 76 74 
345 679 252 84 79 78 
346 679 252 83 79 78 
344 680 252 78 74 73 
344 680 253 73 69 67 
344 681 253 71 67 66 
345 680 252 75 71 69 
345 680 253 70 66 65 
345 681 253 68 64 63 
344 681 254 71 68 66 
345 681 254 69 65 64 
344 682 254 71 67 66 
344 682 255 72 68 66 
345 682 254 68 65 65 
345 682 255 68 65 64 
346 680 252 74 70 69 
346 681 253 70 67 67 
326 687 256 32 35 38 
327 687 256 37 38 41 
327 687 257 39 40 42 
328 686 256 40 41 43 
328 686 257 41 41 43 
328 687 256 41 41 43 
328 687 257 39 40 42 
329 686 256 43 41 42 
329 686 257 44 42 43 
329 687 257 43 41 42 
328 687 258 37 38 40 
329 687 258 39 39 41 
329 687 259 40 40 42 
331 685 256 50 46 45 
331 685 257 49 46 44 
330 686 256 48 45 44 
330 686 257 47 45 44 
331 686 257 49 45 44 
330 686 258 47 45 44 
330 686 259 47 44 43 
330 687 258 46 43 42 
330 687 259 46 44 43 
331 686 258 48 45 43 
331 686 259 47 44 43 
331 687 259 47 44 44 
329 687 260 41 41 42 
330 687 260 45 44 44 
330 687 261 46 45 45 
331 686 260 47 44 44 
331 687 260 46 44 45 
331 687 261 47 45 45 
331 687 262 51 48 48 
335 683 256 60 57 57 
332 685 256 51 48 47 
332 685 257 50 46 45 
333 684 256 52 50 50 
333 684 257 54 52 53 
333 685 256 50 48 48 
333 685 257 52 50 50 
332 685 258 48 45 44 
333 685 258 52 50 50 
333 685 259 53 51 51 
332 686 258 47 44 43 
332 686 259 50 47 45 
333 686 259 53 50 50 
334 684 256 58 56 56 
334 684 257 59 57 57 
335 684 256 59 57 57 
335 684 257 62 59 59 
334 684 258 57 55 55 
334 685 258 56 54 54 
334 685 259 56 54 54 
335 684 258 60 57 57 
335 684 259 59 56 54 
333 685 260 56 53 53 
333 685 261 58 54 53 
332 686 260 52 49 47 
332 686 261 54 51 49 
332 687 261 51 48 48 
333 686 260 56 53 51 
333 686 261 60 56 54 
332 687 262 60 56 56 
332 687 263 67 63 63 
333 686 262 66 62 61 
333 687 262 69 66 65 
333 687 263 72 67 66 
334 685 260 57 55 54 
334 685 261 62 58 57 
335 684 260 61 57 56 
335 685 260 61 57 55 
335 685 261 66 61 59 
335 685 262 70 66 64 
334 686 261 62 58 57 
334 686 262 69 66 65 
334 686 263 73 70 69 
334 687 263 73 69 68 
335 686 262 72 68 67 
335 686 263 73 69 68 
335 687 263 72 67 66 
333 687 264 69 65 63 
334 687 264 70 65 63 
335 687 264 68 64 63 
325 690 256 33 35 38 
325 691 256 33 35 38 
326 688 256 36 37 40 
326 689 256 34 36 39 
326 689 257 36 38 40 
327 688 256 36 38 41 
327 688 257 39 40 43 
327 689 257 37 38 41 
327 688 258 39 39 42 
327 689 258 38 39 42 
327 689 259 40 40 43 
326 690 256 33 35 38 
326 690 257 33 35 38 
326 691 257 33 35 39 
326 690 258 34 35 38 
326 691 258 35 36 38 
326 691 259 35 35 37 
327 690 258 35 36 39 
327 690 259 38 38 40 
327 691 259 36 36 38 
327 690 260 40 39 40 
327 690 261 39 39 41 
327 691 260 35 35 36 
327 691 261 38 37 39 
327 691 262 41 40 41 
327 691 263 43 41 42 
325 692 256 34 36 39 
325 692 257 33 35 38 
325 693 256 34 36 39 
325 693 257 33 35 39 
325 694 256 34 36 39 
325 694 257 33 35 39 
325 695 256 34 36 39 
325 695 257 32 35 38 
325 694 258 32 35 38 
325 695 258 32 34 38 
326 692 257 32 35 38 
326 692 258 33 34 37 
326 692 259 32 33 36 
326 693 258 32 34 37 
326 693 259 32 33 36 
326 694 258 32 34 38 
326 694 259 32 34 37 
326 695 258 32 34 38 
326 695 259 32 34 37 
326 692 260 34 34 36 
326 693 260 34 35 36 
326 693 261 37 37 38 
327 692 260 37 37 38 
327 692 261 38 38 39 
327 693 261 39 39 39 
327 692 262 41 40 40 
327 692 263 44 42 42 
327 693 262 42 41 41 
327 693 263 43 41 41 
326 694 260 33 34 37 
326 694 261 36 36 37 
326 695 260 32 33 36 
326 695 261 34 35 36 
326 694 262 37 37 38 
326 695 262 37 37 38 
327 694 262 40 39 39 
327 694 263 42 40 41 
327 695 263 41 40 40 
327 692 264 45 43 42 
327 693 264 44 42 42 
327 694 264 43 41 41 
327 694 265 44 42 42 
327 695 264 43 41 41 
327 695 265 44 42 42 
325 696 256 34 35 38 
325 696 257 33 35 38 
325 696 258 32 34 37 
326 696 258 32 33 36 
326 696 259 32 33 36 
326 696 260 31 32 35 
326 696 261 32 33 35 
326 696 262 34 34 36 
326 696 263 38 37 38 
327 696 263 40 38 39 
327 696 264 43 41 41 
327 696 265 46 44 44 
327 696 266 46 44 44 
327 697 266 47 45 45 
328 688 258 37 38 40 
328 688 259 37 38 41 
328 689 259 39 40 42 
329 688 259 37 38 41 
328 688 260 36 37 40 
328 689 260 39 39 41 
328 689 261 38 39 41 
329 688 260 39 39 41 
329 688 261 39 39 40 
329 689 261 38 38 40 
328 689 262 42 42 43 
329 688 262 43 41 42 
329 689 262 43 43 44 
329 689 263 48 46 46 
328 690 261 41 40 42 
328 690 262 43 42 43 
328 690 263 46 44 45 
328 691 262 43 42 43 
328 691 263 45 43 44 
329 690 263 49 47 48 
330 688 261 43 42 43 
330 688 262 47 45 44 
330 688 263 51 49 48 
330 689 263 50 48 47 
331 688 262 51 48 48 
331 688 263 56 54 53 
328 692 263 45 43 42 
332 688 263 64 61 61 
329 689 264 51 48 48 
328 691 264 49 46 46 
328 691 265 50 48 47 
329 690 264 53 51 50 
329 690 265 55 52 52 
329 691 264 51 48 48 
329 691 265 53 51 50 
329 691 266 55 52 51 
330 689 264 52 49 48 
331 688 264 59 56 56 
331 689 264 58 55 54 
331 689 265 57 54 52 
331 689 266 59 55 53 
330 690 265 53 50 48 
330 690 266 56 52 51 
330 691 266 56 53 51 
330 691 267 56 52 51 
331 690 266 58 54 52 
331 690 267 60 56 54 
331 691 267 58 54 52 
331 691 268 66 62 60 
328 692 264 48 45 45 
328 692 265 49 46 45 
328 693 265 47 44 43 
328 692 266 51 48 47 
328 693 266 49 46 45 
329 692 266 53 50 49 
329 692 267 58 55 55 
329 693 266 52 49 48 
329 693 267 55 53 52 
328 694 265 46 43 42 
328 694 266 47 45 44 
328 694 267 49 47 46 
328 695 266 46 44 44 
328 695 267 48 46 46 
329 694 267 52 49 48 
329 695 267 52 50 51 
330 692 267 56 53 51 
330 693 267 58 55 55 
331 692 267 57 53 50 
329 694 268 55 53 52 
329 695 268 57 55 55 
330 693 268 60 57 57 
331 692 268 60 57 55 
331 692 269 63 59 57 
331 693 268 59 55 54 
331 693 269 62 58 57 
330 694 268 63 61 61 
330 694 269 66 63 63 
330 695 268 60 58 57 
330 695 269 60 57 57 
331 694 269 66 62 62 
330 695 270 59 56 56 
331 694 270 63 59 58 
331 694 271 62 58 56 
331 695 270 62 59 59 
331 695 271 63 60 59 
332 688 264 66 63 62 
332 688 265 64 60 59 
332 689 265 61 57 55 
333 688 264 69 65 64 
333 688 265 66 61 60 
333 689 265 64 60 58 
332 689 266 63 58 56 
332 689 267 64 59 57 
333 688 266 64 59 57 
333 689 266 65 61 58 
333 689 267 68 63 61 
332 690 266 60 56 54 
332 690 267 64 59 57 
334 688 265 65 61 59 
335 688 264 65 62 61 
335 688 265 65 61 59 
334 688 266 65 60 58 
334 689 266 65 61 59 
334 689 267 68 64 61 
335 688 266 66 62 61 
335 689 266 66 62 60 
335 689 267 71 67 65 
332 690 268 66 61 59 
332 691 268 66 62 60 
332 691 269 68 63 61 
333 690 268 71 66 63 
333 690 269 71 66 63 
333 691 269 72 66 64 
334 689 268 75 70 68 
334 690 268 75 70 68 
334 690 269 75 70 68 
334 691 269 75 70 67 
335 690 268 76 71 69 
335 690 269 76 71 69 
335 691 269 74 69 66 
334 691 270 77 71 69 
335 691 270 75 70 67 
332 692 269 67 62 60 
332 693 269 64 59 57 
333 692 269 70 65 62 
332 692 270 64 59 57 
332 693 270 64 59 57 
332 693 271 67 62 60 
333 692 270 71 66 63 
333 692 271 72 67 64 
333 693 271 70 65 62 
332 694 271 62 59 57 
334 692 270 77 71 69 
334 692 271 75 70 67 
334 693 271 76 70 68 
335 692 271 76 71 68 
335 693 271 77 72 70 
328 696 266 47 45 45 
328 696 267 48 46 46 
328 697 266 50 48 48 
328 697 267 51 49 49 
329 696 267 51 49 49 
328 697 268 51 48 49 
329 696 268 55 53 53 
329 696 269 56 53 54 
329 697 268 52 49 50 
329 697 269 54 52 51 
329 697 270 54 52 51 
330 696 269 56 53 53 
330 696 270 56 54 53 
330 696 271 61 58 58 
330 697 270 56 53 53 
330 697 271 60 58 57 
331 696 271 62 58 57 
331 695 272 63 60 59 
331 695 273 66 62 61 
333 693 272 70 65 63 
332 694 272 65 61 60 
332 694 273 67 63 62 
332 695 272 65 61 61 
332 695 273 66 62 62 
333 694 272 69 65 63 
333 694 273 71 66 64 
332 695 274 68 64 63 
333 695 274 70 65 64 
333 695 275 72 67 65 
334 693 272 75 70 68 
335 693 272 77 71 69 
334 694 273 75 70 68 
335 694 272 77 72 69 
335 694 273 78 73 70 
335 695 273 77 72 69 
334 694 274 75 70 68 
334 695 274 75 70 68 
334 695 275 75 70 67 
335 695 274 77 71 69 
335 695 275 76 70 68 
330 696 272 64 61 60 
330 697 272 64 61 60 
330 697 273 66 63 62 
331 696 272 63 60 60 
331 696 273 66 62 61 
331 697 273 67 63 62 
331 696 274 66 63 62 
331 696 275 66 62 61 
331 697 274 67 63 62 
331 697 275 65 61 61 
330 698 276 63 60 60 
331 698 276 62 59 59 
331 698 277 64 60 59 
331 698 278 65 61 59 
332 696 274 66 63 62 
332 696 275 67 63 62 
333 696 275 71 67 65 
334 696 275 74 69 66 
335 696 275 74 69 66 
335 697 275 75 69 66 
332 696 276 66 62 61 
332 697 276 65 61 60 
332 697 277 68 63 61 
333 696 276 71 66 64 
333 697 276 71 66 64 
333 697 277 70 66 64 
332 698 276 63 59 58 
332 698 277 65 61 59 
332 698 278 67 63 60 
333 698 278 69 64 61 
334 696 276 74 68 65 
334 697 276 73 68 65 
334 697 277 73 67 64 
335 697 276 72 66 63 
335 697 277 71 65 62 
334 698 277 72 67 64 
335 698 276 70 65 62 
335 698 277 71 65 62 
334 698 278 70 65 62 
336 683 256 64 62 61 
336 683 257 65 62 61 
337 682 256 67 63 62 
337 682 257 66 62 61 
337 683 256 65 62 61 
337 683 257 66 61 60 
336 683 258 65 61 60 
337 683 258 66 62 61 
337 683 259 66 62 59 
338 681 256 68 64 62 
339 681 256 67 62 60 
338 682 256 68 64 63 
338 682 257 68 64 62 
338 683 257 69 65 63 
339 682 256 68 63 61 
339 682 257 70 66 64 
338 683 258 70 65 63 
338 683 259 73 68 65 
339 683 258 76 71 69 
339 683 259 80 75 74 
336 684 258 64 60 59 
336 684 259 64 60 57 
337 684 259 67 62 60 
338 684 259 72 67 65 
339 684 259 80 75 73 
336 684 260 65 60 57 
336 685 261 69 64 62 
337 684 260 67 62 60 
337 685 261 71 65 62 
336 685 262 74 69 67 
337 685 262 74 69 67 
336 686 262 74 70 68 
336 686 263 73 69 68 
336 687 263 66 62 61 
337 686 262 72 68 67 
337 686 263 71 67 66 
337 687 263 64 60 59 
338 684 260 74 69 66 
338 685 261 70 65 62 
339 684 260 76 71 68 
339 685 260 70 65 62 
339 685 261 69 64 62 
338 685 262 74 69 67 
339 686 261 72 67 65 
338 686 262 71 67 66 
338 687 262 67 63 62 
338 687 263 65 61 61 
339 686 262 71 65 64 
339 687 262 69 64 62 
339 687 263 67 64 63 
340 682 256 66 62 60 
340 682 257 69 65 63 
340 683 257 71 67 66 
341 682 256 65 61 59 
341 682 257 66 62 60 
341 683 257 69 65 63 
340 683 258 78 74 73 
340 683 259 80 76 74 
341 683 258 72 67 65 
341 683 259 76 71 69 
342 682 256 66 62 60 
342 682 257 66 62 60 
342 683 257 69 65 62 
343 682 256 70 66 64 
343 683 256 70 65 63 
343 683 257 69 65 62 
342 683 258 70 65 63 
343 683 258 71 67 64 
340 684 259 80 75 73 
341 684 259 73 67 65 
342 684 258 70 65 62 
342 684 259 72 67 64 
342 685 259 74 68 65 
343 684 258 74 69 67 
343 684 259 74 68 66 
343 685 259 71 66 63 
340 684 260 80 75 74 
340 685 260 70 65 63 
340 685 261 69 64 62 
341 684 260 79 74 72 
341 685 260 70 65 61 
341 685 261 70 64 62 
340 686 261 71 66 64 
340 687 261 69 64 62 
341 686 260 68 63 60 
341 686 261 69 64 62 
341 687 261 64 60 57 
340 687 262 68 64 62 
342 685 260 68 63 59 
343 685 260 69 63 59 
342 686 260 67 61 58 
342 687 260 62 57 54 
342 687 261 60 55 52 
343 686 260 66 60 57 
343 687 260 61 56 54 
336 687 264 65 61 60 
338 687 264 64 61 60 
344 682 256 72 68 67 
344 683 256 72 68 67 
344 683 257 71 67 65 
345 683 256 69 65 63 
345 683 257 69 65 63 
344 684 257 71 66 64 
345 684 257 68 64 61 
344 684 258 72 67 64 
344 684 259 73 67 64 
344 685 258 71 65 62 
344 685 259 71 65 62 
345 684 258 68 63 60 
345 685 258 67 62 59 
345 685 259 67 62 59 
344 686 259 66 60 57 
344 687 259 61 56 54 
345 686 259 65 60 57 
344 687 260 59 55 53 
338 688 263 67 63 62 
339 688 263 70 66 64 
341 688 261 64 60 59 
340 688 262 66 62 61 
340 688 263 68 64 62 
340 689 263 68 64 62 
341 688 262 65 61 59 
341 689 262 64 60 58 
341 689 263 66 62 61 
342 688 260 58 54 51 
342 688 261 60 56 54 
342 689 261 58 54 52 
343 688 260 57 52 50 
343 689 260 58 54 53 
343 689 261 57 53 52 
342 689 262 59 55 53 
342 689 263 64 60 58 
343 689 262 57 53 51 
342 690 263 61 57 56 
343 690 262 57 54 53 
343 690 263 61 57 56 
336 688 264 64 60 59 
336 688 265 65 61 59 
337 688 264 64 61 59 
337 688 265 68 64 62 
337 689 265 72 67 66 
336 688 266 68 64 63 
336 689 266 70 66 65 
336 689 267 75 70 68 
337 689 266 73 69 67 
337 689 267 78 73 71 
336 690 267 77 72 71 
337 690 267 78 73 72 
338 688 264 68 64 62 
338 689 265 74 70 68 
339 688 264 71 66 65 
339 689 264 73 68 66 
339 689 265 76 71 69 
338 689 266 78 73 70 
339 689 266 80 74 72 
338 690 266 80 75 73 
338 690 267 80 75 72 
338 691 267 79 74 71 
339 690 266 80 75 72 
339 690 267 80 75 72 
339 691 267 78 72 69 
336 690 268 77 72 70 
336 690 269 77 72 70 
336 691 269 75 70 68 
337 690 268 77 72 69 
337 691 268 77 72 69 
337 691 269 75 69 67 
336 691 270 75 70 67 
338 691 268 76 70 67 
338 691 269 74 69 65 
339 691 268 75 69 66 
337 692 269 72 67 63 
336 692 270 76 71 68 
336 692 271 77 72 69 
336 693 271 76 71 69 
337 692 270 74 69 66 
337 693 270 73 67 64 
337 693 271 73 68 66 
337 694 271 71 66 63 
338 692 269 72 66 63 
338 693 269 70 65 62 
339 692 268 73 67 64 
339 692 269 70 64 60 
339 693 269 69 63 59 
338 693 270 70 64 61 
338 693 271 69 64 61 
339 693 270 69 63 59 
338 694 271 69 63 60 
338 695 271 68 62 59 
339 694 270 70 64 61 
339 694 271 69 64 60 
339 695 271 71 65 61 
340 689 264 71 67 65 
340 689 265 75 70 68 
340 690 264 72 67 64 
340 690 265 76 71 69 
341 690 264 68 64 61 
341 690 265 70 65 62 
341 691 265 67 62 60 
340 690 266 78 73 70 
340 691 266 75 70 68 
340 691 267 74 68 65 
341 691 266 68 63 60 
342 690 264 64 60 58 
342 691 264 62 58 56 
342 691 265 63 59 57 
343 690 264 62 59 57 
343 691 264 64 60 59 
343 691 265 63 59 58 
342 691 266 64 59 57 
340 692 267 71 65 62 
341 692 266 66 61 58 
341 692 267 65 59 56 
341 693 267 65 59 56 
342 692 266 63 58 56 
342 692 267 63 59 56 
342 693 267 63 59 56 
343 692 266 62 58 56 
343 692 267 63 59 58 
343 693 267 62 58 57 
340 692 268 71 65 62 
340 693 268 69 64 61 
340 693 269 69 63 59 
341 693 268 65 60 56 
340 694 269 69 64 60 
341 694 269 66 61 58 
340 694 270 70 64 61 
340 695 270 71 65 62 
340 695 271 72 66 63 
341 694 270 66 61 58 
341 695 270 69 63 60 
341 695 271 70 65 61 
342 693 268 62 58 56 
343 693 268 63 60 58 
342 694 269 63 59 57 
343 694 269 63 60 59 
342 694 270 64 60 59 
342 695 270 65 61 59 
342 695 271 66 62 60 
343 694 270 64 60 60 
343 695 271 63 60 59 
341 696 271 70 65 62 
342 696 271 67 62 60 
343 696 271 64 60 59 
344 688 259 56 52 51 
344 689 259 54 51 50 
344 688 260 56 52 51 
344 689 260 55 52 51 
344 689 261 55 52 52 
344 690 260 56 53 52 
344 690 261 56 53 52 
344 690 262 58 55 54 
344 690 263 59 56 55 
344 690 264 61 59 57 
