ply
format ascii 1.0
comment Created by CloudCompare v2.10.1 (Zephyrus)
comment Created 1/31/20 9:42 AM
obj_info Generated by CloudCompare!
element vertex 1710
property float x
property float y
property float z
property uchar red
property uchar green
property uchar blue
end_header
280 742 281 109 102 101 
281 742 281 110 104 103 
281 743 281 109 102 101 
281 742 282 111 105 104 
282 741 283 121 114 112 
283 741 282 115 109 108 
283 741 283 119 112 110 
282 742 281 109 103 102 
282 743 281 108 102 101 
283 742 281 111 105 103 
282 742 282 113 107 106 
283 742 282 114 108 106 
283 740 284 128 121 119 
283 740 285 132 124 122 
283 741 284 117 110 108 
285 739 283 115 109 107 
286 739 281 108 102 102 
287 738 281 110 105 105 
287 739 281 110 105 104 
286 739 282 110 105 105 
286 739 283 112 106 105 
287 738 282 115 109 108 
287 738 283 113 107 106 
287 739 282 112 107 107 
284 739 285 119 111 107 
285 739 284 120 113 111 
285 739 285 127 119 116 
284 739 286 129 120 119 
285 738 286 124 115 112 
285 739 286 127 118 116 
285 739 287 95 86 82 
287 737 285 131 123 120 
287 737 286 134 124 120 
287 737 287 105 94 86 
286 738 284 116 109 107 
286 738 285 120 111 108 
286 739 284 118 111 109 
287 738 284 117 110 108 
287 738 285 129 120 118 
286 738 286 133 124 121 
286 738 287 101 91 86 
287 738 286 136 127 125 
287 738 287 102 91 83 
284 741 281 110 104 103 
285 741 281 109 103 102 
284 740 283 117 110 109 
284 741 282 113 107 106 
284 741 283 119 112 111 
285 740 282 109 104 103 
285 740 283 115 109 108 
285 741 282 114 108 107 
284 742 281 110 104 103 
286 740 281 107 102 101 
286 740 282 109 104 104 
284 740 284 117 110 109 
284 740 285 121 113 111 
285 740 284 118 111 109 
280 745 280 108 102 101 
281 745 280 107 101 100 
287 737 288 101 89 81 
287 737 289 101 89 80 
287 737 290 105 93 85 
286 738 288 94 81 75 
286 738 289 94 82 74 
287 738 288 96 84 76 
287 738 289 97 85 75 
287 738 290 99 87 79 
293 726 282 91 86 84 
293 727 282 91 85 84 
294 727 282 97 91 89 
294 727 283 91 86 85 
295 727 283 100 94 92 
290 735 281 113 107 106 
291 735 281 114 108 106 
290 735 282 119 112 110 
290 735 283 123 115 113 
291 734 282 120 112 110 
291 735 282 119 112 110 
291 735 283 125 118 116 
291 735 284 134 126 124 
291 735 285 136 127 124 
291 735 286 111 102 100 
291 735 287 91 83 79 
294 728 282 106 99 97 
295 728 282 108 101 99 
295 728 283 110 103 100 
295 729 282 109 102 99 
295 730 282 123 115 113 
295 730 283 130 122 119 
295 731 282 127 120 117 
295 731 283 128 120 118 
293 733 282 123 115 113 
293 733 283 126 117 114 
292 734 282 122 114 112 
292 734 283 128 120 117 
293 734 283 127 118 115 
294 732 282 127 119 117 
294 733 282 123 115 113 
294 733 283 126 117 114 
295 732 282 127 119 117 
295 732 283 128 120 118 
293 733 284 128 119 115 
293 733 285 125 116 112 
292 734 284 133 125 122 
292 734 285 130 121 119 
292 735 284 136 127 125 
292 735 285 134 126 124 
293 734 284 129 121 117 
293 734 285 122 112 109 
292 734 286 103 94 91 
292 735 286 110 101 98 
292 735 287 91 82 78 
293 734 286 100 91 86 
293 734 287 94 84 77 
294 733 284 126 117 113 
294 733 285 115 105 100 
295 732 284 126 117 114 
295 732 285 114 104 98 
295 733 284 124 115 112 
295 733 285 110 100 94 
294 733 286 100 90 84 
294 733 287 101 89 80 
295 733 286 103 93 87 
295 733 287 105 92 83 
294 734 286 99 89 83 
294 734 287 99 87 78 
296 726 284 89 84 83 
296 727 284 107 100 98 
297 726 284 97 92 90 
297 727 284 110 102 99 
299 725 284 102 95 93 
298 726 284 111 104 100 
298 726 285 94 88 87 
298 727 284 113 105 102 
299 726 284 112 104 100 
299 727 284 118 109 105 
301 726 283 125 117 114 
301 727 283 127 118 116 
302 726 283 124 116 113 
302 727 283 127 119 116 
300 725 284 113 105 101 
300 725 285 106 99 97 
301 725 284 118 109 106 
300 726 284 113 105 102 
300 727 284 119 111 108 
301 726 284 119 111 108 
301 727 284 127 119 116 
302 724 284 120 111 108 
302 724 285 118 110 106 
302 725 284 123 115 111 
303 724 284 123 114 111 
303 724 285 122 114 110 
303 725 284 124 116 113 
302 726 284 120 112 109 
302 727 284 127 119 117 
303 726 284 124 115 112 
303 727 284 124 116 114 
303 727 285 120 112 108 
296 728 283 111 104 101 
296 729 283 125 118 116 
297 729 283 130 122 119 
296 730 283 130 122 120 
296 731 283 129 121 119 
297 730 283 131 123 120 
297 731 283 128 120 118 
297 728 284 121 113 110 
297 729 284 129 121 118 
297 731 284 129 121 119 
298 728 284 126 117 114 
298 729 284 130 121 118 
299 728 284 122 113 109 
299 729 284 125 116 112 
298 730 284 129 120 117 
298 731 284 127 119 117 
298 731 285 118 109 106 
299 730 284 127 118 114 
299 730 285 124 114 110 
299 731 284 123 114 110 
299 731 285 111 101 95 
298 731 286 103 92 86 
299 731 286 102 91 85 
299 731 287 103 92 85 
296 732 283 129 121 119 
296 732 284 125 117 114 
296 732 285 111 101 96 
297 732 284 127 119 117 
297 732 285 108 99 94 
296 732 286 106 95 89 
296 732 287 111 99 90 
296 733 286 108 96 90 
296 733 287 110 97 88 
297 732 286 105 94 88 
297 732 287 110 99 92 
298 732 285 105 95 90 
298 732 286 100 89 82 
298 732 287 107 96 90 
299 732 287 105 94 87 
300 728 284 121 112 109 
300 729 284 122 113 110 
301 728 284 122 114 111 
301 729 284 121 112 109 
301 729 285 119 109 105 
300 730 284 122 112 108 
300 730 285 117 107 102 
301 730 285 115 106 101 
300 730 286 103 92 86 
300 731 286 102 90 84 
300 731 287 101 89 81 
301 730 286 105 95 88 
301 730 287 102 90 82 
301 731 287 103 91 82 
302 728 284 124 116 113 
302 729 284 120 111 107 
302 729 285 118 108 104 
303 728 284 122 114 111 
303 728 285 120 111 107 
303 729 285 109 99 93 
302 729 286 111 99 92 
303 729 286 110 98 91 
303 729 287 115 101 91 
302 730 286 108 97 91 
302 730 287 108 96 86 
303 730 287 112 98 88 
311 719 285 92 86 85 
312 719 285 93 87 85 
313 719 285 93 87 85 
313 719 286 91 85 83 
314 719 286 90 83 81 
315 718 286 86 80 78 
315 719 286 89 83 81 
316 718 286 85 79 77 
316 719 286 87 81 79 
317 718 287 82 76 74 
317 719 286 88 82 79 
317 719 287 85 78 76 
319 717 287 81 75 73 
318 718 287 82 76 74 
318 719 287 84 78 75 
319 718 287 82 76 73 
319 719 287 83 76 73 
304 723 285 119 111 108 
305 723 285 121 113 109 
306 722 285 109 101 98 
306 723 285 114 107 103 
307 722 285 106 99 96 
307 723 285 111 103 100 
304 724 284 124 115 112 
304 724 285 124 115 112 
304 725 284 125 117 114 
304 725 285 127 118 115 
305 724 285 124 115 112 
305 725 285 123 115 112 
304 726 284 124 116 113 
304 727 284 121 113 111 
304 727 285 120 111 107 
305 726 284 127 119 116 
305 726 285 120 111 108 
305 727 285 111 101 95 
305 727 286 100 89 81 
306 724 285 121 112 109 
306 725 285 121 112 108 
307 724 285 119 110 107 
307 725 285 116 108 103 
306 726 285 107 97 91 
307 726 285 110 100 95 
306 726 286 96 85 77 
306 727 286 99 87 80 
306 727 287 111 100 92 
307 726 286 95 84 77 
307 727 287 107 96 90 
308 721 285 97 91 89 
309 720 285 94 87 85 
309 721 285 100 93 91 
308 722 285 106 98 96 
308 723 285 111 103 99 
309 722 285 109 101 98 
309 723 285 112 104 101 
310 720 285 95 89 86 
310 721 285 102 95 93 
311 720 285 96 90 87 
311 721 285 103 96 93 
310 722 285 108 101 98 
310 723 285 112 105 102 
311 722 285 109 102 99 
311 723 285 112 104 101 
308 724 285 118 110 106 
308 725 285 115 106 101 
309 724 285 118 109 106 
309 725 285 119 110 106 
308 726 285 106 96 89 
308 726 286 95 84 78 
308 726 287 101 90 84 
308 727 287 107 97 91 
309 726 286 95 83 77 
309 726 287 102 91 86 
310 724 285 116 108 105 
310 725 285 114 104 101 
311 724 285 115 107 103 
311 725 285 118 110 106 
310 725 286 104 95 90 
311 725 286 111 102 99 
310 726 286 95 85 80 
310 726 287 99 89 85 
311 726 286 96 87 83 
311 726 287 98 89 86 
304 728 285 110 100 94 
304 728 286 106 94 86 
304 728 287 114 102 93 
304 729 287 116 103 93 
305 728 286 106 94 86 
305 728 287 114 101 93 
312 720 285 96 90 87 
312 721 285 103 96 93 
313 720 285 96 89 87 
313 721 285 102 96 93 
312 722 285 109 102 99 
312 723 285 113 105 102 
313 722 285 109 101 98 
313 723 285 112 104 101 
314 720 285 94 88 85 
314 721 285 102 95 91 
314 720 286 92 86 83 
315 720 286 93 86 84 
315 721 286 105 98 95 
314 722 285 108 100 96 
314 723 285 111 103 100 
314 723 286 110 101 97 
315 722 286 116 109 107 
315 723 286 111 104 102 
312 724 285 114 106 103 
313 724 285 111 103 100 
312 725 286 106 98 95 
313 724 286 110 102 99 
313 725 286 100 92 88 
313 725 287 92 84 80 
312 726 287 97 88 85 
313 726 287 102 93 89 
314 724 286 105 97 92 
314 725 286 98 89 85 
314 725 287 96 87 82 
315 724 286 109 101 99 
315 724 287 111 103 101 
315 725 287 101 93 89 
316 720 286 92 86 83 
316 721 286 113 106 104 
317 720 286 91 84 81 
317 721 286 107 100 96 
316 722 286 117 110 108 
316 723 286 116 109 106 
317 722 286 112 104 100 
317 723 286 112 103 99 
317 723 287 110 101 96 
318 720 286 98 91 87 
318 720 287 87 80 76 
318 721 286 104 95 91 
319 720 287 93 86 82 
319 721 286 102 94 90 
318 722 286 105 96 92 
318 722 287 102 93 89 
318 723 287 103 94 89 
319 722 286 101 92 88 
319 722 287 100 92 87 
319 723 287 99 91 86 
316 724 286 110 103 100 
316 724 287 110 102 99 
316 725 287 103 95 92 
317 724 287 108 99 94 
318 724 287 101 92 87 
319 724 287 96 87 81 
291 735 288 99 88 82 
291 735 289 100 89 82 
290 735 290 101 90 82 
291 735 290 99 88 81 
291 735 291 99 87 79 
293 733 290 101 90 80 
292 735 288 94 83 76 
292 735 289 96 86 79 
293 734 288 94 82 73 
293 734 289 97 86 78 
293 735 288 95 83 75 
292 734 290 96 86 78 
292 735 290 94 83 76 
293 734 290 99 88 80 
293 734 291 97 86 79 
294 733 288 105 92 83 
294 733 289 104 92 82 
295 733 288 106 93 84 
295 733 289 109 97 88 
294 733 290 106 93 84 
295 732 290 112 99 91 
295 733 290 110 97 88 
294 734 288 102 89 80 
294 734 289 100 88 79 
297 731 290 113 101 93 
298 731 289 110 97 89 
299 731 288 107 95 86 
299 731 289 107 95 85 
298 731 290 110 98 90 
299 730 290 105 93 84 
299 731 290 107 95 86 
296 732 288 112 99 90 
296 732 289 112 99 91 
296 733 288 110 97 88 
296 733 289 112 99 90 
297 732 288 112 100 92 
297 732 289 113 101 93 
296 732 290 114 101 93 
297 732 290 113 101 94 
298 732 288 111 98 90 
298 732 289 112 99 90 
299 732 288 107 95 87 
300 731 288 102 89 80 
300 731 289 103 90 80 
301 730 288 105 93 84 
301 730 289 104 91 83 
301 731 288 104 91 82 
301 731 289 104 92 83 
300 730 290 104 92 84 
300 731 290 104 91 82 
301 730 290 103 91 83 
301 730 291 102 91 83 
303 729 289 111 99 91 
302 729 290 106 94 86 
302 729 291 103 92 85 
303 729 290 110 99 91 
303 729 291 105 95 89 
302 730 288 108 94 85 
302 730 289 108 95 86 
303 730 288 113 100 92 
303 730 289 111 98 90 
302 730 290 106 93 85 
302 730 291 104 92 84 
303 730 290 109 97 89 
306 727 288 116 104 96 
307 727 288 114 102 94 
307 727 289 113 101 94 
306 727 291 98 89 84 
307 727 290 107 97 91 
307 727 291 95 86 82 
308 727 288 111 99 92 
308 727 289 110 98 91 
309 726 288 108 96 89 
309 726 289 108 97 89 
309 727 288 109 98 90 
309 727 289 107 96 88 
308 726 290 99 89 83 
308 726 291 89 81 77 
308 727 290 103 93 85 
308 727 291 96 87 81 
309 726 290 100 90 83 
309 726 291 89 81 77 
310 725 290 92 85 80 
310 725 291 86 79 76 
311 725 290 99 90 86 
311 725 291 86 80 77 
310 726 288 109 97 90 
310 726 289 107 96 90 
311 726 288 108 98 92 
311 726 289 110 99 93 
310 726 290 103 92 86 
311 726 290 106 96 90 
304 729 288 114 101 92 
304 729 289 113 101 93 
305 728 288 115 103 94 
305 728 289 114 102 94 
305 729 288 116 103 94 
305 729 289 113 101 94 
304 729 290 113 101 94 
304 729 291 106 96 90 
305 728 290 112 101 94 
305 728 291 108 98 92 
305 729 290 112 100 93 
306 728 288 116 104 96 
306 728 289 114 102 95 
306 728 290 111 101 94 
306 728 291 106 97 92 
304 729 292 101 92 87 
306 728 292 97 89 85 
313 725 289 111 100 94 
312 724 291 82 75 73 
312 725 290 102 93 88 
312 725 291 89 83 80 
313 724 291 88 82 79 
313 725 290 103 94 91 
312 726 288 108 98 92 
312 726 289 110 99 94 
313 726 288 109 98 91 
313 726 289 110 99 93 
314 725 288 108 98 92 
314 725 289 109 98 92 
315 725 288 106 96 91 
315 725 289 104 94 89 
314 724 291 97 90 87 
314 725 290 102 93 89 
314 725 291 99 92 90 
315 724 291 100 93 91 
315 725 290 99 90 86 
315 725 291 99 92 89 
314 726 288 108 98 91 
314 724 292 93 87 84 
315 724 292 98 91 89 
315 724 293 95 89 87 
316 725 288 105 96 91 
316 725 289 101 93 88 
317 725 288 109 99 95 
317 725 289 102 96 95 
316 725 290 93 85 82 
316 725 291 94 87 85 
317 725 290 90 85 84 
317 725 291 89 83 81 
318 724 288 101 91 86 
318 725 288 105 95 89 
318 725 289 106 98 94 
319 724 288 97 89 85 
319 725 288 106 97 93 
319 725 289 106 96 90 
318 725 290 94 88 87 
318 725 291 89 82 80 
319 725 290 98 91 89 
319 725 291 88 81 81 
319 726 290 94 88 86 
319 726 291 85 80 78 
316 724 292 96 90 89 
316 724 293 93 87 86 
316 725 292 93 87 86 
317 724 293 85 79 77 
317 725 292 89 83 80 
317 725 293 82 76 74 
317 724 294 77 72 70 
317 725 294 77 72 71 
318 725 292 88 80 77 
318 725 293 84 77 75 
319 725 292 86 78 74 
318 725 294 71 66 64 
318 725 295 63 58 56 
318 726 293 82 74 71 
319 726 292 82 75 72 
319 726 293 81 73 70 
318 726 294 75 69 66 
318 726 295 64 59 58 
319 726 294 76 69 66 
319 726 295 66 61 59 
319 727 294 80 73 70 
319 727 295 72 66 63 
318 726 296 61 56 54 
318 726 297 60 54 51 
318 727 297 62 56 54 
319 726 296 62 57 55 
319 727 296 66 61 58 
319 727 297 65 59 57 
318 727 298 64 59 56 
319 728 295 75 68 63 
319 728 296 72 66 62 
319 728 297 75 68 65 
319 729 297 84 76 73 
318 728 299 77 71 69 
319 728 298 76 70 67 
319 728 299 85 78 74 
319 729 298 91 83 80 
319 729 299 94 87 83 
319 730 299 99 92 88 
319 729 300 98 91 89 
319 730 300 98 92 90 
319 730 301 90 84 84 
319 730 302 66 61 60 
319 733 305 56 52 51 
319 734 306 60 55 53 
319 735 306 70 64 61 
319 735 307 67 62 59 
288 737 281 112 106 105 
289 736 281 116 109 108 
289 737 281 114 108 106 
288 737 282 116 110 108 
288 737 283 114 107 105 
289 736 282 119 113 111 
289 736 283 115 108 106 
289 737 282 117 111 110 
289 737 283 116 109 106 
288 738 281 113 107 106 
288 738 282 115 109 108 
288 738 283 113 106 104 
290 736 281 115 109 108 
290 736 282 120 113 112 
290 736 283 119 112 110 
288 737 284 119 111 107 
288 737 285 128 119 115 
289 736 284 121 113 110 
289 736 285 132 123 119 
288 737 286 127 116 111 
288 737 287 106 94 86 
289 736 286 119 108 103 
289 736 287 100 87 83 
289 737 287 102 89 84 
288 738 284 108 100 98 
290 736 284 125 117 115 
290 736 285 133 123 119 
290 736 286 115 105 102 
290 736 287 97 86 83 
291 736 286 95 86 84 
291 736 287 91 81 78 
288 737 288 105 92 83 
288 737 289 107 94 85 
289 736 288 103 90 82 
289 736 289 111 97 89 
289 737 288 105 91 83 
289 737 289 110 98 89 
288 737 290 111 99 91 
288 737 291 113 100 92 
289 736 290 113 101 92 
289 736 291 112 100 91 
289 737 290 114 101 94 
290 736 288 100 87 79 
290 736 289 108 95 87 
291 736 288 98 87 80 
291 736 289 103 92 84 
290 736 290 108 96 87 
290 736 291 107 95 86 
319 736 306 76 70 66 
319 736 307 73 67 64 
319 737 306 81 74 71 
319 737 307 78 72 69 
319 738 306 85 77 74 
319 738 307 82 75 71 
319 739 307 86 78 75 
317 739 311 57 52 49 
318 737 309 59 55 53 
319 736 308 70 64 62 
319 737 308 75 69 66 
319 737 309 77 71 68 
319 738 308 77 71 68 
319 738 309 70 64 61 
319 739 308 82 75 71 
319 739 309 73 66 63 
318 738 310 59 54 52 
318 739 310 66 60 57 
318 739 311 58 53 51 
319 738 310 58 54 52 
319 740 307 89 81 77 
319 741 307 93 85 81 
317 740 311 61 56 52 
317 741 311 69 63 58 
319 740 308 86 78 74 
319 740 309 79 72 69 
319 741 308 91 83 79 
319 741 309 86 78 74 
318 740 310 70 64 60 
318 740 311 64 58 54 
318 741 310 78 70 66 
318 741 311 72 65 61 
319 740 310 76 69 65 
319 741 310 80 73 69 
319 742 309 89 82 78 
318 742 311 78 70 65 
318 743 311 83 75 70 
319 742 310 84 77 72 
319 742 311 84 76 72 
319 743 310 90 83 79 
319 743 311 88 80 75 
317 740 312 59 53 50 
317 741 312 65 59 55 
317 741 313 61 55 51 
317 742 312 70 63 59 
317 742 313 66 59 55 
317 743 312 74 66 62 
317 743 313 71 64 60 
317 742 314 62 56 52 
317 743 314 68 61 57 
317 743 315 66 60 56 
318 742 312 76 69 64 
318 743 312 81 73 69 
318 743 313 78 70 66 
319 744 311 90 83 79 
315 745 316 66 60 57 
315 746 316 70 63 59 
315 746 317 65 59 56 
315 747 316 72 65 61 
315 747 317 70 63 59 
315 748 317 72 65 60 
315 749 317 75 67 63 
315 748 318 70 63 59 
315 750 317 77 69 64 
315 751 317 79 70 64 
317 744 313 78 71 66 
316 744 315 69 62 58 
316 745 315 71 64 60 
317 744 314 73 66 62 
317 745 314 76 69 64 
316 746 315 75 67 63 
316 747 315 77 69 64 
317 746 314 79 72 67 
317 746 315 78 70 65 
317 747 314 83 74 69 
317 747 315 82 74 69 
318 744 312 84 76 71 
318 744 313 80 72 68 
318 745 313 83 75 70 
319 744 312 88 80 76 
319 745 312 89 80 75 
318 746 313 86 77 71 
319 746 313 89 80 74 
318 746 314 83 75 70 
318 747 314 87 78 72 
319 747 314 92 82 76 
319 747 315 92 82 75 
316 744 316 62 57 53 
316 747 316 74 67 62 
319 745 318 83 73 65 
319 746 317 84 74 66 
319 747 316 88 77 69 
319 747 317 86 75 68 
318 746 319 80 70 62 
318 747 319 81 71 64 
319 746 318 82 72 65 
319 746 319 81 71 64 
319 747 318 83 73 66 
319 747 319 82 72 65 
316 748 315 80 72 67 
317 748 315 85 77 71 
317 749 315 86 77 71 
317 750 315 86 76 71 
318 748 314 89 80 74 
318 748 315 88 79 72 
318 749 315 89 79 73 
319 748 315 91 81 74 
319 749 315 91 81 74 
318 750 315 87 78 71 
316 748 316 77 69 64 
316 749 316 80 72 67 
317 749 316 84 75 69 
316 750 316 82 73 67 
316 750 317 81 73 67 
316 751 317 81 72 65 
317 750 316 85 75 70 
317 751 316 84 75 69 
317 751 317 83 73 67 
319 748 316 90 80 72 
319 748 317 87 76 69 
319 749 316 90 80 73 
319 749 317 87 77 70 
318 748 319 83 72 64 
318 749 319 84 74 67 
319 748 318 85 75 67 
319 748 319 84 74 67 
319 749 318 86 76 69 
319 749 319 86 76 69 
318 750 316 87 77 71 
318 750 317 86 76 70 
318 751 317 84 74 68 
319 750 316 89 79 72 
319 750 317 87 77 71 
318 750 318 86 76 70 
318 750 319 86 76 69 
318 751 318 84 74 67 
318 751 319 85 74 66 
319 750 318 86 76 70 
316 752 317 80 71 65 
317 752 317 80 70 63 
317 752 318 81 72 65 
317 753 318 83 74 69 
318 752 319 84 74 67 
318 753 319 86 77 71 
318 747 320 80 70 62 
318 748 320 82 71 63 
318 748 321 82 71 63 
318 749 320 82 72 64 
318 749 321 83 73 64 
318 750 320 84 73 64 
318 751 320 84 73 66 
318 752 320 85 75 68 
320 716 287 80 74 72 
320 717 287 81 75 73 
321 716 287 84 79 77 
321 717 287 85 79 76 
320 718 287 81 75 72 
320 719 287 82 75 72 
321 718 287 84 78 75 
321 719 287 83 76 73 
322 716 287 87 82 81 
322 717 287 88 82 80 
323 716 287 87 82 81 
323 717 287 88 82 81 
322 718 287 86 80 77 
322 719 287 93 88 86 
323 718 287 87 81 79 
323 719 287 104 98 97 
325 715 287 75 70 69 
326 715 287 74 69 68 
327 714 287 72 68 68 
327 715 287 73 68 67 
324 716 287 82 77 76 
324 717 286 85 79 76 
324 717 287 85 78 76 
325 716 287 78 73 71 
325 717 286 82 76 73 
325 717 287 81 75 73 
324 718 286 92 87 85 
324 718 287 89 83 81 
324 719 286 101 94 90 
325 718 286 106 102 103 
325 719 286 112 110 111 
326 716 286 76 70 67 
326 716 287 76 70 68 
326 717 286 86 81 79 
327 716 286 75 69 66 
327 716 287 74 69 66 
327 717 286 82 77 75 
326 718 285 113 110 111 
326 719 285 112 108 108 
327 718 285 104 98 97 
327 719 285 105 99 98 
326 718 286 112 110 111 
326 719 286 113 110 112 
327 718 286 104 101 101 
327 719 286 106 100 99 
328 714 287 70 66 65 
328 715 286 73 68 66 
328 715 287 73 68 66 
329 714 287 74 69 68 
329 715 286 79 72 69 
330 713 287 74 68 65 
331 713 287 79 72 68 
331 715 285 86 77 72 
330 714 286 76 70 67 
330 714 287 76 70 68 
330 715 286 82 73 69 
331 714 286 82 74 71 
331 714 287 81 74 69 
331 715 286 83 75 71 
328 717 285 82 75 72 
329 717 285 83 75 72 
328 716 286 81 75 71 
328 717 286 88 83 82 
329 716 286 84 76 71 
329 717 286 85 76 73 
328 718 285 86 80 78 
328 719 285 95 89 88 
329 718 285 84 75 71 
329 719 285 88 81 77 
328 718 286 89 84 83 
330 716 285 85 76 71 
330 717 285 89 80 75 
331 716 285 84 74 70 
331 717 285 85 76 71 
330 716 286 83 75 70 
330 717 286 88 79 74 
330 718 285 86 77 72 
330 719 285 86 77 72 
331 718 285 88 79 73 
331 719 285 90 79 73 
332 713 287 81 73 68 
333 713 287 80 72 67 
332 715 285 85 76 71 
332 714 286 83 75 70 
332 714 287 82 74 69 
332 715 286 86 76 72 
333 714 286 83 74 69 
333 714 287 82 74 69 
333 715 286 87 77 72 
333 715 287 89 79 74 
334 714 287 83 74 69 
334 715 287 87 78 72 
332 716 285 86 77 71 
332 717 285 90 79 73 
332 716 286 89 79 74 
333 716 286 89 79 74 
333 717 286 93 81 75 
333 717 287 92 81 74 
332 718 285 91 81 74 
332 719 286 92 81 75 
333 718 286 94 82 76 
333 718 287 94 82 75 
333 719 286 93 83 76 
333 719 287 95 83 77 
334 716 287 89 79 73 
334 717 287 92 81 73 
320 720 287 98 91 88 
320 721 287 105 97 93 
321 720 287 107 100 98 
321 721 287 109 102 99 
320 722 287 103 94 90 
320 723 287 102 93 88 
321 722 287 108 101 97 
321 723 287 104 97 92 
322 720 287 105 99 98 
322 721 286 106 100 98 
322 721 287 106 100 98 
323 720 286 105 99 97 
323 720 287 105 99 97 
323 721 286 105 99 96 
322 722 287 107 101 98 
322 723 287 105 98 94 
323 722 286 104 98 95 
323 722 287 104 98 95 
323 723 287 103 97 94 
320 724 287 100 91 86 
321 724 287 104 95 91 
322 724 287 103 95 92 
323 724 287 101 94 91 
324 720 286 100 92 88 
324 721 286 103 96 93 
325 720 286 104 97 94 
325 721 286 101 93 90 
324 722 286 99 91 88 
324 723 287 98 91 88 
325 722 286 98 90 87 
325 723 287 95 88 85 
326 720 285 110 105 104 
327 720 285 105 98 95 
327 721 285 104 98 96 
326 720 286 109 104 103 
326 721 286 103 96 94 
327 720 286 106 98 95 
327 721 286 103 95 92 
326 722 286 100 93 89 
326 723 287 90 83 79 
327 722 286 102 94 90 
327 722 287 86 78 75 
327 723 287 84 76 72 
328 720 285 100 94 92 
328 721 285 101 93 90 
329 720 285 91 85 82 
329 721 285 93 85 81 
328 721 286 97 89 86 
329 721 286 90 83 79 
328 722 286 91 84 81 
328 722 287 79 71 66 
328 723 287 74 65 61 
329 722 286 87 78 73 
329 722 287 80 71 67 
329 723 287 71 61 55 
330 720 285 85 77 72 
330 721 285 86 78 73 
331 720 285 87 77 71 
330 721 286 88 79 72 
331 720 286 89 78 72 
331 721 286 87 77 71 
331 721 287 88 78 71 
330 722 286 88 79 74 
330 722 287 82 73 67 
331 722 287 85 75 69 
332 720 286 91 80 73 
332 720 287 94 84 77 
332 721 287 90 80 74 
322 716 288 87 82 81 
323 716 288 86 81 80 
324 715 288 81 76 75 
325 715 288 77 73 71 
326 714 288 73 69 69 
326 715 288 74 70 69 
327 714 288 70 66 66 
327 715 288 73 69 68 
324 716 288 83 78 77 
328 713 288 69 65 64 
329 713 288 70 66 64 
328 714 288 68 64 64 
330 713 288 73 67 63 
330 713 289 71 65 61 
331 713 288 77 70 66 
331 718 295 103 91 82 
331 719 295 107 95 85 
332 712 288 78 71 67 
332 712 289 77 70 66 
332 713 288 80 72 68 
333 712 289 78 70 65 
333 713 288 80 72 67 
333 713 289 79 71 66 
333 712 290 77 70 65 
333 713 290 78 69 62 
333 713 291 76 67 60 
333 714 291 77 67 60 
333 715 291 82 73 66 
334 713 288 81 73 67 
334 713 289 81 72 66 
334 714 288 82 74 69 
334 714 289 82 73 67 
334 715 288 86 77 71 
334 715 289 84 74 67 
334 714 290 80 70 63 
334 715 290 82 72 64 
333 714 292 77 68 61 
333 715 292 81 72 66 
333 715 293 87 77 70 
333 717 289 88 77 69 
333 716 290 87 77 70 
333 716 291 87 78 71 
333 717 290 87 77 70 
333 717 291 89 80 73 
333 718 288 87 77 70 
333 718 289 87 77 70 
333 719 288 93 83 76 
333 719 289 91 80 74 
332 718 291 91 80 76 
332 719 290 92 80 76 
332 719 291 93 81 76 
333 718 290 88 77 72 
333 718 291 90 80 75 
333 719 290 90 78 74 
334 716 288 89 78 71 
334 716 289 85 75 66 
334 717 288 90 79 70 
334 717 289 86 76 68 
334 716 290 86 76 68 
332 716 293 91 80 73 
332 717 293 94 83 77 
333 716 292 89 79 72 
333 716 293 92 82 75 
333 717 292 92 82 77 
332 716 294 92 81 74 
332 717 294 95 84 77 
332 717 295 96 85 78 
332 718 292 93 81 78 
332 718 293 95 83 79 
332 719 292 96 84 79 
332 719 293 102 90 82 
333 718 292 92 81 76 
332 718 294 99 88 80 
332 718 295 98 86 78 
332 719 294 105 93 84 
331 719 296 109 97 88 
320 724 288 101 91 86 
320 725 288 107 98 93 
320 725 289 107 96 91 
321 724 288 111 102 98 
321 725 288 115 105 100 
321 725 289 111 100 94 
320 725 290 104 95 91 
320 726 290 96 88 86 
320 726 291 80 75 75 
321 726 290 100 93 89 
321 726 291 78 75 76 
321 727 291 74 72 75 
322 724 288 111 104 101 
322 725 288 118 109 105 
322 725 289 115 106 101 
323 724 288 112 104 100 
323 725 288 120 112 108 
323 725 289 116 108 105 
323 725 290 112 105 103 
322 726 290 104 96 93 
322 726 291 94 87 85 
322 727 291 81 77 77 
323 726 290 104 97 94 
323 726 291 96 88 84 
323 727 291 85 80 79 
320 726 292 75 69 68 
320 727 292 72 66 64 
320 727 293 76 68 66 
321 727 292 71 66 66 
320 727 294 83 74 73 
322 727 292 76 72 73 
323 727 292 76 73 73 
327 723 288 85 77 74 
324 724 288 109 101 97 
324 725 289 119 112 110 
325 724 288 102 93 89 
325 725 289 115 107 104 
324 725 290 115 109 108 
325 725 290 115 109 108 
324 726 290 103 96 93 
324 726 291 99 91 87 
324 727 291 85 80 80 
325 726 290 107 100 97 
325 726 291 100 94 91 
325 727 291 92 86 84 
326 724 288 96 88 84 
326 724 289 104 96 91 
326 725 289 103 95 90 
327 724 288 89 81 77 
327 724 289 91 83 79 
327 725 289 96 88 83 
326 725 290 102 94 91 
327 725 290 89 82 77 
326 726 291 96 90 89 
326 727 291 87 82 83 
327 726 291 84 78 76 
327 727 291 87 80 77 
324 727 292 74 71 74 
325 727 292 99 93 94 
326 727 292 98 92 91 
327 727 292 89 82 81 
320 728 293 72 64 60 
321 728 293 70 64 62 
321 729 293 71 64 61 
320 728 294 81 72 69 
320 728 295 81 73 68 
320 729 295 86 77 72 
321 728 294 74 67 63 
321 729 294 77 69 65 
321 729 295 86 77 72 
321 730 295 87 79 74 
322 728 292 73 67 67 
322 728 293 67 63 63 
322 729 293 70 64 62 
323 728 292 72 66 67 
323 728 293 64 59 59 
323 729 293 64 59 58 
322 729 294 70 64 61 
323 729 294 65 58 56 
322 730 294 71 64 61 
322 730 295 81 73 69 
323 730 294 67 60 55 
323 730 295 72 64 59 
323 731 295 77 67 61 
324 728 292 72 68 70 
324 728 293 67 61 63 
324 729 293 67 61 61 
325 728 292 81 73 73 
325 728 293 73 63 64 
325 729 293 71 65 67 
324 729 294 69 62 60 
325 729 294 72 63 63 
324 730 294 68 59 59 
324 730 295 69 60 59 
324 731 295 79 70 66 
325 730 294 74 64 66 
325 730 295 78 69 70 
325 731 295 84 76 73 
326 728 292 93 85 85 
326 728 293 81 74 73 
327 728 293 89 81 81 
326 729 294 80 73 72 
327 729 294 89 80 78 
326 730 294 83 73 71 
326 730 295 88 78 78 
326 731 295 92 84 81 
327 730 294 89 79 77 
327 730 295 102 92 87 
320 728 296 78 70 65 
320 729 296 88 79 73 
320 729 297 88 79 74 
320 730 296 92 83 78 
320 730 297 93 83 77 
320 731 297 96 86 80 
321 730 296 92 83 78 
321 730 297 94 85 79 
321 731 296 94 84 79 
321 731 297 96 87 81 
320 730 298 96 88 84 
320 730 299 99 93 91 
320 731 298 96 87 81 
320 731 299 97 89 84 
321 731 298 99 89 82 
322 730 296 89 81 76 
322 731 296 91 82 77 
322 731 297 97 88 82 
323 731 296 84 74 68 
320 731 300 95 88 85 
320 731 301 89 84 83 
320 730 302 65 61 60 
320 731 302 65 61 62 
320 731 303 56 53 53 
320 732 299 97 87 81 
321 732 298 101 91 85 
321 732 299 101 91 85 
321 733 299 105 95 89 
321 734 299 106 96 91 
322 732 297 101 91 85 
323 732 296 87 77 70 
323 732 297 95 85 79 
323 733 297 103 93 87 
322 732 298 102 92 86 
322 733 298 107 98 92 
323 733 298 106 96 91 
322 734 299 111 101 96 
322 735 299 114 104 98 
323 734 298 109 100 95 
323 734 299 112 103 98 
323 735 299 114 104 99 
320 732 300 96 86 81 
320 732 301 86 79 77 
320 733 301 87 79 76 
321 733 300 102 92 85 
321 733 301 94 85 80 
320 732 302 74 69 69 
320 732 303 60 57 57 
320 733 302 81 75 72 
320 733 303 74 68 66 
321 734 300 105 96 90 
321 734 301 101 92 87 
321 735 301 106 96 91 
321 734 302 91 83 80 
321 734 303 82 75 72 
321 735 302 102 93 88 
321 735 303 95 87 84 
322 734 300 110 100 94 
322 735 300 112 102 97 
322 735 301 110 101 95 
323 735 300 118 108 103 
324 731 296 84 75 70 
325 731 296 90 82 79 
326 731 296 100 92 87 
327 730 296 117 105 97 
327 731 296 108 99 94 
327 731 297 119 108 101 
327 731 298 128 115 107 
327 731 299 126 112 106 
327 731 300 112 99 93 
327 731 301 108 96 90 
327 730 303 102 91 84 
327 731 302 102 90 82 
327 731 303 103 91 85 
324 732 296 88 78 74 
324 732 297 94 85 80 
324 733 297 98 89 83 
325 732 296 94 86 82 
325 732 297 98 90 85 
325 733 297 102 92 86 
324 733 298 102 92 85 
325 733 298 102 92 85 
325 733 299 104 94 89 
324 734 298 105 94 88 
324 734 299 107 97 90 
324 735 299 110 100 93 
325 734 299 103 93 87 
326 732 297 107 98 93 
326 733 297 104 95 91 
327 732 297 113 103 98 
326 732 298 110 100 94 
326 732 299 106 96 89 
326 733 298 106 97 92 
326 733 299 105 95 89 
327 732 298 121 111 105 
327 732 299 110 98 91 
324 735 300 104 93 86 
325 734 300 104 95 89 
325 734 301 105 94 87 
325 735 300 105 94 87 
325 735 301 102 91 84 
325 734 303 101 89 81 
325 735 302 100 88 80 
325 735 303 103 91 83 
326 733 300 102 91 85 
326 733 301 102 91 84 
327 732 300 103 91 85 
327 732 301 103 91 86 
327 733 301 104 93 87 
326 732 303 101 89 80 
326 733 302 102 91 84 
326 733 303 98 86 77 
327 732 302 104 92 84 
327 732 303 104 93 85 
326 734 300 102 92 86 
326 734 301 104 93 87 
326 734 302 101 90 83 
326 734 303 99 88 80 
328 723 288 78 70 68 
329 723 288 68 59 56 
331 721 288 86 75 68 
331 721 289 93 82 73 
330 722 288 76 66 60 
330 723 288 72 62 58 
330 723 289 76 66 62 
331 722 288 81 70 63 
331 722 289 84 72 65 
330 723 290 75 63 57 
331 722 290 87 76 68 
331 722 291 98 84 78 
331 723 290 79 67 63 
331 723 291 89 76 73 
331 720 295 108 97 89 
331 721 295 107 95 90 
331 722 292 105 90 84 
331 723 292 101 86 81 
331 723 293 110 97 90 
331 722 294 109 97 90 
331 722 295 97 85 79 
331 723 294 105 94 87 
331 723 295 84 72 66 
328 724 288 79 71 68 
328 724 289 83 76 73 
329 724 289 75 67 66 
328 725 290 83 75 71 
328 725 291 77 70 67 
329 724 290 86 78 74 
329 725 290 80 73 71 
329 725 291 74 67 65 
328 726 291 74 68 66 
329 726 291 64 57 56 
330 724 289 78 68 65 
330 724 290 78 68 65 
330 725 290 75 67 65 
330 725 291 68 59 56 
331 724 290 74 63 61 
331 724 291 79 68 65 
331 725 291 72 62 59 
328 726 292 68 62 62 
328 727 292 79 73 71 
328 727 293 83 77 76 
329 726 292 58 52 51 
329 727 292 64 59 59 
329 727 293 65 60 59 
329 727 294 72 66 64 
330 725 292 58 48 46 
331 724 292 89 75 72 
331 724 293 95 83 78 
331 725 292 69 59 56 
331 725 293 69 58 56 
331 724 294 92 82 78 
331 724 295 74 63 59 
331 725 294 68 58 56 
331 725 295 71 63 58 
330 726 292 54 47 46 
330 726 293 55 46 45 
331 726 293 54 43 41 
330 726 294 63 56 52 
330 726 295 79 70 65 
330 727 294 71 64 61 
330 727 295 91 83 82 
331 726 294 61 52 50 
331 726 295 74 65 61 
332 720 288 92 81 75 
332 720 289 96 84 76 
332 721 288 89 78 71 
332 721 289 96 85 77 
332 720 290 99 86 79 
332 720 291 99 87 79 
332 721 290 102 89 81 
332 721 291 106 93 84 
332 722 290 96 84 76 
332 722 291 103 89 81 
332 720 292 101 90 82 
332 720 293 104 92 84 
332 721 292 107 94 85 
332 721 293 107 94 86 
332 720 294 107 94 85 
332 720 295 108 95 87 
332 721 294 110 96 90 
332 722 292 109 96 88 
332 722 293 113 99 91 
332 722 294 111 98 90 
331 720 296 107 95 88 
331 720 297 91 77 72 
331 721 296 95 83 79 
331 721 297 73 61 59 
331 721 298 61 50 48 
331 721 299 58 49 45 
331 722 296 77 66 60 
331 722 297 61 52 48 
331 723 296 69 58 53 
331 723 297 62 53 49 
330 722 299 71 62 56 
330 723 298 75 65 58 
330 723 299 82 72 66 
331 722 298 60 50 46 
331 722 299 66 58 52 
331 723 298 69 60 55 
330 723 300 97 86 80 
329 727 297 131 118 109 
329 726 299 138 124 115 
329 727 298 138 124 114 
329 727 299 139 124 115 
330 725 297 93 82 76 
331 724 296 65 55 53 
331 724 297 70 60 58 
331 725 296 73 64 60 
331 725 297 78 68 63 
330 724 298 85 74 67 
330 724 299 99 89 83 
330 725 298 108 96 88 
330 725 299 119 107 99 
330 726 296 93 84 77 
330 726 297 110 99 91 
330 727 296 111 101 96 
330 727 297 127 115 107 
330 726 298 128 114 104 
330 726 299 134 120 110 
330 727 298 135 121 111 
329 725 301 131 117 109 
329 725 302 128 114 106 
329 726 300 136 122 113 
329 726 301 133 117 109 
329 727 300 135 120 111 
329 727 301 132 116 107 
328 726 302 127 113 104 
328 727 302 129 114 105 
328 727 303 124 107 100 
329 726 302 129 113 105 
329 727 302 131 114 106 
330 724 300 110 99 92 
330 724 301 121 109 101 
330 725 300 125 112 105 
330 725 301 128 115 108 
328 728 293 90 84 83 
328 728 294 92 84 83 
328 729 294 102 94 90 
328 729 295 114 104 98 
329 728 294 93 86 84 
329 728 295 104 96 93 
329 729 295 119 109 103 
328 729 296 125 111 103 
328 729 297 134 120 112 
329 728 296 121 110 103 
329 728 297 135 121 112 
329 729 296 127 114 107 
329 729 297 136 121 113 
328 729 298 140 124 114 
328 729 299 140 124 114 
329 728 298 139 124 115 
329 728 299 139 124 114 
329 729 298 141 126 116 
328 730 296 119 107 99 
328 730 297 132 119 111 
328 730 298 137 123 114 
328 730 299 133 116 108 
328 731 299 128 113 108 
328 729 300 132 118 108 
328 729 301 128 114 105 
329 728 300 135 120 111 
329 728 301 133 119 111 
328 728 302 127 112 103 
328 728 303 121 106 102 
328 729 302 124 110 102 
328 729 303 114 100 95 
328 730 300 130 115 106 
328 730 301 125 111 104 
328 731 300 125 112 106 
328 731 301 117 104 99 
328 730 302 112 98 91 
328 730 303 103 89 83 
328 731 302 102 89 80 
320 732 304 54 52 51 
320 733 304 61 57 56 
320 733 305 57 53 52 
320 734 304 71 65 63 
320 734 305 65 60 59 
320 735 305 76 70 67 
321 734 304 80 74 71 
321 735 304 84 77 74 
320 734 306 65 60 58 
320 735 306 73 66 64 
326 729 305 100 89 84 
327 728 304 110 97 91 
327 729 304 103 91 85 
327 729 305 104 92 87 
326 730 305 97 87 81 
326 731 305 96 85 77 
327 730 304 101 90 84 
327 730 305 99 89 81 
327 731 304 99 88 81 
327 731 305 98 88 80 
326 730 306 97 86 80 
326 731 306 94 84 76 
326 731 307 94 84 76 
325 734 304 104 93 86 
325 734 305 109 98 92 
325 735 304 111 99 92 
325 735 305 117 105 97 
325 734 306 111 99 92 
325 734 307 109 98 90 
325 735 306 116 103 95 
325 735 307 116 104 95 
326 732 304 95 83 74 
326 732 305 92 81 72 
326 733 304 96 84 75 
326 733 305 99 88 80 
327 732 304 100 89 81 
326 732 306 95 84 76 
326 732 307 96 86 78 
326 733 306 100 89 81 
326 733 307 102 91 84 
326 734 304 100 89 81 
326 734 305 108 97 90 
326 734 306 107 95 87 
326 734 307 107 95 87 
325 733 308 101 90 82 
324 734 308 111 100 92 
324 734 309 106 95 87 
324 735 308 119 107 99 
324 735 309 118 106 97 
325 734 308 109 97 90 
325 734 309 105 94 87 
325 735 308 119 107 100 
324 735 310 116 104 95 
328 729 304 104 91 85 
321 736 302 107 98 93 
321 736 303 101 92 88 
321 737 303 104 96 91 
321 738 303 112 103 99 
322 736 301 114 104 99 
323 736 300 117 107 102 
323 736 301 118 108 102 
323 737 301 119 109 103 
322 736 302 111 101 97 
322 737 302 113 104 99 
322 737 303 110 101 96 
323 736 302 118 108 103 
323 737 302 118 107 101 
322 738 303 115 106 101 
322 739 303 120 110 106 
323 738 302 123 112 105 
323 738 303 120 109 103 
323 739 303 122 111 105 
324 736 300 113 102 96 
324 736 301 112 101 93 
324 737 301 115 104 97 
325 736 301 103 92 85 
324 736 302 113 101 94 
324 736 303 118 105 97 
324 737 302 117 104 96 
324 737 303 123 111 103 
325 736 302 106 95 87 
325 736 303 112 99 92 
324 738 303 124 111 103 
320 736 305 82 75 72 
320 737 305 87 80 76 
321 736 304 90 83 79 
321 737 304 99 91 86 
321 737 305 95 87 83 
320 736 306 78 71 68 
320 737 306 82 75 72 
320 738 305 93 85 81 
320 739 305 99 90 86 
321 738 304 106 97 92 
321 738 305 101 92 88 
321 739 304 109 101 96 
321 739 305 104 95 91 
320 738 306 89 81 77 
320 739 306 94 86 82 
320 739 307 88 80 76 
321 739 306 101 93 89 
322 739 304 117 108 103 
323 739 304 123 111 104 
323 736 309 130 117 109 
323 737 309 131 119 111 
323 736 310 127 115 108 
323 736 311 120 108 104 
323 737 310 127 115 109 
323 737 311 108 95 92 
323 738 309 126 113 106 
323 738 310 113 101 95 
323 738 311 91 78 77 
323 739 310 94 82 76 
323 739 311 76 65 64 
321 740 304 117 108 103 
321 740 305 111 102 98 
321 741 305 115 106 103 
320 740 306 100 92 88 
320 740 307 94 86 82 
320 741 306 100 92 88 
320 741 307 98 90 86 
321 740 306 104 95 92 
321 741 306 108 99 95 
320 742 307 98 90 87 
321 742 306 113 105 101 
321 742 307 107 99 95 
321 743 307 110 102 99 
322 740 304 122 112 107 
322 741 305 122 112 108 
323 740 304 123 112 106 
323 740 305 125 113 107 
323 741 305 123 111 106 
323 741 306 110 97 91 
322 742 305 119 110 105 
322 742 306 116 106 103 
322 742 307 110 101 97 
322 743 307 111 103 99 
323 742 306 104 93 88 
323 742 307 93 82 77 
320 741 308 95 87 83 
320 742 308 96 88 85 
320 742 309 94 87 84 
320 743 308 99 91 88 
320 743 309 96 88 85 
321 743 308 109 101 97 
321 743 309 104 96 93 
320 743 310 92 85 82 
322 743 308 111 102 98 
322 743 309 114 105 101 
323 742 308 88 78 73 
323 742 309 85 75 67 
323 743 308 93 83 76 
323 743 309 97 86 79 
323 743 310 94 83 74 
323 743 311 91 80 71 
324 736 304 125 113 105 
324 736 305 124 110 102 
324 737 304 127 114 105 
324 737 305 131 116 109 
325 736 304 119 107 100 
325 736 305 122 109 101 
324 737 306 131 115 109 
324 737 307 135 121 112 
325 736 306 123 110 102 
325 736 307 123 110 102 
325 737 306 128 113 106 
325 737 307 128 114 106 
324 738 304 124 111 103 
324 738 305 132 118 110 
324 739 304 125 112 104 
324 739 305 125 112 103 
324 738 306 132 118 111 
324 738 307 133 120 112 
324 739 306 129 116 109 
324 739 307 130 118 110 
324 736 308 125 113 105 
324 736 309 126 113 104 
324 737 308 131 118 109 
324 737 309 133 120 111 
325 736 308 127 115 107 
324 736 310 121 108 99 
324 738 308 132 119 111 
324 738 309 128 116 108 
324 739 308 122 109 103 
324 739 309 103 91 84 
324 739 310 80 67 63 
324 739 311 70 59 59 
324 740 305 120 107 100 
324 740 306 122 111 105 
324 740 307 115 103 96 
324 741 307 99 85 79 
324 742 307 89 77 73 
324 740 308 95 82 76 
324 740 309 79 68 63 
324 741 308 81 69 66 
324 741 309 73 64 61 
324 740 310 70 58 58 
324 740 311 68 56 57 
324 741 310 69 59 56 
324 741 311 73 63 59 
324 742 308 82 71 66 
324 742 309 77 68 61 
324 742 310 79 69 63 
324 742 311 83 73 66 
323 737 312 86 75 73 
323 738 312 74 64 64 
323 738 313 69 60 57 
323 739 313 67 59 56 
323 739 314 72 64 59 
321 743 315 85 74 67 
323 740 315 83 74 67 
323 741 315 85 74 65 
323 742 313 88 77 68 
323 743 312 90 79 71 
323 743 313 88 77 69 
322 742 315 85 74 66 
322 743 314 86 76 67 
322 743 315 85 75 67 
323 742 314 87 76 67 
323 742 315 85 74 65 
323 743 314 86 75 67 
321 743 317 82 72 65 
323 741 316 83 73 65 
322 742 316 84 74 66 
322 742 317 83 73 65 
322 743 316 84 74 66 
322 743 317 83 73 65 
323 742 316 84 73 65 
322 743 318 82 72 64 
324 739 312 66 58 56 
324 739 313 70 62 58 
324 739 314 75 67 61 
324 739 315 79 70 64 
324 740 312 70 62 58 
324 740 313 77 69 63 
324 741 312 81 72 66 
324 741 313 85 76 69 
324 740 314 82 74 67 
324 740 315 83 74 68 
324 741 314 86 75 68 
324 741 315 85 75 67 
324 742 312 89 77 69 
324 742 313 87 77 68 
324 743 312 89 78 69 
320 744 309 97 90 86 
321 744 309 108 100 96 
320 744 310 95 88 85 
320 744 311 95 87 84 
320 745 311 96 88 84 
321 744 310 103 95 91 
321 744 311 101 92 88 
321 745 311 103 95 90 
322 744 309 112 103 98 
323 744 309 106 96 89 
322 744 310 107 98 92 
322 744 311 98 88 81 
323 744 310 102 91 83 
323 744 311 95 84 76 
320 745 312 95 86 82 
320 745 313 99 89 84 
321 744 312 100 90 84 
321 745 312 100 91 86 
321 745 313 98 88 82 
321 744 315 86 76 67 
321 745 314 92 81 73 
321 745 315 87 76 68 
320 746 313 95 85 80 
320 746 314 95 85 78 
320 746 315 91 80 72 
320 747 314 94 84 78 
320 747 315 93 82 74 
321 746 314 92 82 74 
321 746 315 89 77 69 
322 744 312 91 81 74 
322 744 313 90 80 72 
322 745 312 96 86 79 
322 744 314 87 77 69 
322 744 315 86 76 68 
322 745 314 92 81 73 
320 745 316 86 75 67 
320 745 317 84 74 67 
321 744 316 85 74 67 
321 744 317 83 73 65 
321 745 316 86 75 67 
320 744 318 82 72 64 
320 745 318 83 73 65 
320 745 319 81 71 64 
321 744 318 82 72 64 
320 746 316 87 76 68 
320 746 317 85 75 67 
320 747 316 89 78 70 
