ply
format ascii 1.0
comment Created by CloudCompare v2.10.1 (Zephyrus)
comment Created 1/30/20 6:08 PM
obj_info Generated by CloudCompare!
element vertex 2106
property float x
property float y
property float z
property uchar red
property uchar green
property uchar blue
end_header
370 644 272 104 101 102 
370 644 273 105 102 103 
370 645 272 105 102 104 
370 645 273 104 101 102 
371 644 272 104 101 103 
371 644 273 106 103 105 
371 645 272 106 103 104 
370 644 274 103 100 101 
370 644 275 96 92 93 
370 645 274 101 98 99 
371 644 274 106 102 103 
368 645 277 81 76 75 
369 644 276 80 76 76 
369 644 277 80 75 74 
369 645 276 81 77 76 
369 645 277 80 75 74 
368 645 278 85 79 76 
368 645 279 93 88 86 
369 644 278 85 80 78 
369 644 279 97 92 91 
369 645 278 83 78 76 
369 645 279 95 89 88 
368 646 276 79 74 71 
368 646 277 82 76 74 
368 646 278 88 82 80 
368 646 279 91 85 83 
370 644 276 86 82 83 
370 644 277 87 83 82 
370 644 278 91 85 84 
373 641 275 95 92 93 
372 643 272 98 94 95 
372 643 273 99 96 97 
373 642 273 95 93 94 
373 643 272 94 91 92 
373 643 273 92 90 91 
372 642 275 95 92 94 
372 643 274 99 96 97 
372 643 275 100 97 98 
373 642 274 93 91 92 
373 642 275 92 89 91 
373 643 274 92 90 92 
375 641 273 93 90 91 
374 641 274 95 92 93 
374 641 275 95 93 94 
375 641 274 93 91 92 
375 641 275 93 90 91 
374 642 272 95 93 94 
374 642 273 96 93 94 
375 642 272 93 91 92 
375 642 273 94 91 92 
374 642 274 96 94 94 
373 641 276 92 89 90 
373 641 277 93 90 91 
372 641 278 104 101 102 
372 641 279 107 104 105 
373 640 278 98 96 97 
373 640 279 103 100 101 
373 641 278 99 96 97 
373 641 279 105 102 103 
372 642 276 94 92 93 
372 642 277 98 94 95 
373 642 276 91 88 90 
372 642 278 103 99 100 
372 642 279 107 103 104 
374 640 277 97 95 97 
374 641 276 95 92 93 
374 641 277 94 91 93 
375 640 276 94 91 93 
375 640 277 95 93 95 
375 641 276 95 92 93 
374 640 278 97 95 97 
374 640 279 101 99 100 
375 640 278 98 97 99 
375 640 279 101 99 102 
372 644 272 95 90 90 
370 643 280 100 97 97 
370 643 281 103 100 101 
371 642 280 105 102 103 
371 642 281 107 103 104 
371 643 280 103 100 101 
371 643 281 105 102 102 
370 643 282 107 102 102 
370 643 283 107 102 102 
371 642 282 109 104 104 
371 642 283 110 104 104 
371 643 282 109 104 104 
371 643 283 109 103 103 
370 643 284 108 103 103 
371 642 284 110 104 103 
371 642 285 108 102 100 
371 643 284 110 104 103 
371 643 285 110 103 102 
368 645 280 99 93 92 
368 645 281 101 96 95 
369 644 280 100 95 95 
369 644 281 101 98 98 
369 645 280 100 95 94 
369 645 281 102 97 97 
368 645 282 104 99 99 
369 644 282 105 101 102 
369 644 283 108 103 103 
369 645 282 106 101 101 
369 645 283 108 103 103 
368 646 280 92 86 84 
368 646 281 94 88 86 
368 646 282 100 94 92 
368 646 283 106 101 99 
368 647 283 97 90 87 
370 644 282 107 102 103 
370 644 283 108 103 103 
369 645 284 108 103 102 
368 646 284 108 102 100 
368 647 284 101 94 92 
368 647 285 103 97 95 
369 646 284 108 103 102 
369 646 285 105 99 97 
369 647 285 104 98 96 
369 647 286 100 93 91 
370 644 284 108 103 102 
370 644 285 108 102 101 
370 645 284 108 102 102 
370 645 285 108 102 101 
371 644 285 109 102 101 
371 645 285 109 103 101 
371 644 286 109 102 101 
371 645 286 109 103 101 
370 646 285 106 100 98 
370 646 286 105 99 97 
370 647 286 98 92 90 
371 646 286 107 101 99 
371 647 286 100 93 91 
371 647 287 103 96 94 
372 641 280 108 105 105 
372 641 281 109 105 105 
373 640 280 108 104 104 
373 640 281 106 102 102 
373 641 280 109 105 106 
373 641 281 108 104 105 
372 641 282 110 105 106 
372 641 283 110 105 105 
373 640 282 101 97 96 
373 640 283 100 96 95 
373 641 282 106 101 101 
373 641 283 104 99 99 
374 640 280 104 100 101 
374 640 281 103 99 99 
375 640 280 102 99 101 
375 640 281 102 98 99 
374 640 282 98 93 93 
374 640 283 96 92 91 
372 641 284 108 102 101 
372 641 285 100 94 93 
373 640 284 102 98 97 
373 640 285 104 99 99 
373 641 284 103 98 97 
373 641 285 101 96 95 
373 640 286 103 99 98 
373 641 286 100 95 94 
373 641 287 102 97 96 
372 642 285 104 97 96 
372 643 285 108 101 100 
372 642 286 101 94 92 
372 642 287 101 95 94 
372 643 286 107 101 99 
372 643 287 103 97 95 
373 642 286 99 94 92 
373 642 287 101 95 94 
374 640 284 99 94 94 
374 640 285 99 95 94 
374 640 286 98 93 92 
374 640 287 94 89 87 
374 641 287 104 99 99 
375 640 286 91 86 84 
375 640 287 89 84 83 
372 644 286 109 102 100 
372 644 287 105 99 97 
372 645 286 109 103 101 
372 645 287 107 100 99 
372 646 287 106 100 98 
372 647 287 103 96 95 
368 648 285 100 94 92 
368 649 285 90 84 81 
369 648 285 102 96 94 
368 649 286 91 85 82 
369 648 286 98 92 89 
369 649 286 93 87 85 
368 650 286 99 94 93 
368 651 286 98 93 92 
368 651 287 97 91 90 
369 650 286 97 92 90 
369 650 287 100 94 93 
369 651 287 100 95 94 
370 648 286 96 90 87 
370 649 286 98 92 90 
370 649 287 98 92 91 
371 648 286 96 89 87 
371 648 287 100 93 91 
371 649 287 99 93 91 
370 650 287 100 94 93 
370 651 287 101 95 94 
371 650 287 99 93 91 
368 652 287 92 86 84 
368 653 287 92 86 84 
369 652 287 98 92 91 
372 648 287 101 94 92 
372 649 287 99 92 90 
376 641 272 98 95 96 
376 641 273 96 93 93 
377 641 272 101 98 99 
377 641 273 102 99 101 
376 640 274 93 90 91 
376 640 275 92 89 90 
376 641 274 93 90 91 
376 641 275 91 88 89 
377 640 274 96 94 95 
377 640 275 93 91 92 
377 641 274 101 98 99 
376 642 272 96 93 94 
377 642 272 99 96 97 
378 641 272 99 97 99 
378 641 273 101 99 101 
379 640 273 100 97 98 
379 641 272 102 99 101 
379 641 273 101 98 100 
378 640 274 94 92 93 
378 640 275 92 89 91 
379 640 274 94 91 92 
379 640 275 91 88 89 
376 640 276 92 90 91 
376 640 277 91 89 91 
377 640 276 92 90 91 
376 640 278 93 92 94 
376 640 279 99 97 98 
380 640 272 108 105 107 
380 640 273 105 103 104 
380 641 272 108 105 106 
381 640 272 108 105 107 
381 640 273 106 103 104 
381 641 272 109 107 108 
380 640 274 100 97 98 
381 640 274 104 101 101 
382 640 272 107 104 105 
382 640 273 103 99 99 
383 640 272 102 99 99 
367 654 288 92 86 83 
367 655 288 92 86 84 
356 663 288 90 84 83 
356 663 289 90 84 83 
357 662 288 90 85 83 
357 663 288 90 85 83 
357 663 289 91 85 84 
357 663 290 92 86 85 
358 661 288 91 86 84 
358 661 289 92 87 85 
359 660 288 92 86 85 
359 661 288 93 88 86 
359 661 289 94 89 88 
358 662 288 91 86 84 
358 662 289 93 88 86 
358 663 289 92 87 85 
359 662 289 96 90 89 
358 663 290 94 89 87 
358 663 291 92 87 86 
359 662 290 96 91 89 
359 663 290 95 90 88 
359 663 291 91 86 85 
355 665 288 89 83 80 
355 665 289 90 84 82 
355 665 290 95 89 87 
355 666 288 89 82 80 
355 666 289 92 85 83 
355 667 288 82 75 71 
355 667 289 84 77 72 
355 666 290 98 92 90 
355 667 290 94 87 84 
355 667 291 102 95 94 
355 667 292 102 97 96 
354 668 288 80 72 68 
354 668 289 77 69 64 
354 669 288 86 79 76 
354 669 289 81 73 69 
355 668 288 77 70 64 
355 668 289 78 70 64 
354 669 290 84 77 73 
354 669 291 93 85 82 
355 668 290 86 78 73 
355 668 291 97 90 87 
355 669 290 86 78 74 
355 669 291 95 88 85 
354 670 288 93 86 84 
354 670 289 90 83 80 
354 671 288 94 88 85 
354 671 289 93 87 85 
354 670 290 92 85 82 
354 670 291 96 89 86 
354 671 290 95 89 87 
354 671 291 97 91 89 
355 670 291 98 91 89 
355 671 291 98 91 89 
355 668 292 101 95 93 
355 669 292 99 93 91 
355 669 293 96 90 88 
355 670 292 100 93 91 
355 670 293 98 92 89 
355 671 292 100 93 91 
355 671 293 98 91 89 
356 664 288 89 84 81 
356 664 289 90 84 82 
356 664 290 92 86 84 
356 665 290 94 89 87 
356 665 291 94 88 87 
357 664 290 93 87 86 
357 664 291 91 86 85 
357 665 291 90 85 85 
356 666 290 99 93 91 
356 666 291 96 91 89 
358 664 290 92 87 86 
358 664 291 90 85 84 
358 665 291 88 84 83 
359 664 291 88 84 83 
357 665 292 86 82 81 
356 666 292 91 86 85 
356 667 292 94 90 89 
356 667 293 93 88 86 
357 666 292 86 81 80 
357 666 293 85 80 78 
357 667 293 89 84 82 
357 667 294 96 90 89 
358 665 292 85 80 79 
358 665 293 83 78 76 
359 664 292 86 81 80 
359 665 292 83 79 77 
359 665 293 82 77 76 
358 666 292 83 78 77 
358 666 293 85 80 78 
359 666 293 86 81 78 
358 667 294 95 89 87 
359 666 294 91 85 83 
359 667 294 101 95 93 
356 668 293 97 91 89 
356 669 293 96 89 87 
356 669 294 95 88 85 
357 668 294 100 94 92 
357 669 294 96 90 87 
356 670 293 95 88 86 
356 670 294 95 88 85 
356 671 294 97 90 87 
357 670 294 94 87 84 
357 671 294 94 87 84 
358 668 294 101 95 93 
358 669 294 95 88 85 
359 668 294 103 96 93 
359 669 294 95 88 84 
358 670 294 91 84 80 
358 671 294 90 83 80 
359 670 294 90 83 79 
359 671 294 87 80 76 
360 659 288 90 85 83 
361 658 288 88 82 80 
361 659 288 88 82 80 
362 657 288 88 83 81 
363 657 288 86 81 79 
362 658 288 85 79 78 
362 659 288 83 77 76 
363 658 288 82 77 75 
363 659 288 79 74 72 
360 660 288 91 85 83 
360 660 289 93 87 86 
360 661 289 96 91 90 
361 660 288 86 80 78 
361 660 289 87 81 79 
361 661 289 91 86 85 
360 662 289 96 91 90 
361 662 289 94 89 88 
360 662 290 94 89 88 
360 663 290 93 88 87 
360 663 291 91 86 85 
361 662 290 93 88 87 
361 663 290 92 87 86 
361 663 291 89 85 84 
362 660 288 82 77 75 
362 660 289 82 77 75 
362 661 289 86 81 80 
363 660 288 80 75 73 
363 660 289 83 77 76 
363 661 289 87 82 81 
362 662 289 90 85 85 
362 662 290 90 85 84 
362 663 290 90 86 85 
362 663 291 88 84 83 
363 662 290 89 84 83 
363 663 291 86 82 81 
362 663 292 86 81 80 
363 663 292 82 78 77 
364 657 288 85 80 78 
365 656 288 84 78 76 
365 657 288 83 78 76 
364 658 288 81 76 73 
364 659 288 80 74 72 
365 658 288 80 74 72 
365 659 288 80 74 72 
365 659 289 81 75 73 
366 656 288 86 80 77 
366 657 288 84 78 75 
367 656 288 93 87 85 
367 657 288 89 83 81 
367 657 289 91 85 82 
366 658 288 81 75 72 
366 659 289 81 75 72 
367 658 288 83 76 73 
367 658 289 84 78 74 
367 659 289 83 76 73 
367 659 290 86 80 77 
364 660 288 83 78 76 
364 660 289 86 81 80 
364 661 289 89 84 83 
365 660 289 86 81 79 
365 661 289 88 83 82 
364 661 290 88 83 82 
365 661 290 87 82 80 
364 662 290 87 82 81 
364 662 291 85 80 78 
364 663 291 85 80 78 
365 662 290 86 80 79 
365 662 291 85 79 78 
365 663 291 84 79 77 
366 660 289 85 79 76 
366 660 290 87 81 79 
366 661 290 87 81 80 
366 661 291 86 80 78 
367 660 290 87 81 79 
367 660 291 87 81 80 
367 661 290 88 82 80 
367 661 291 86 80 78 
366 662 291 85 79 77 
364 663 292 81 76 75 
365 663 292 80 76 74 
365 663 293 74 69 67 
367 661 292 82 77 74 
366 662 292 81 76 74 
366 663 292 77 72 69 
366 663 293 68 63 59 
367 662 292 81 76 74 
367 662 293 74 68 64 
367 663 293 68 61 56 
366 663 294 66 59 55 
367 663 294 69 62 56 
367 663 295 73 66 60 
360 664 291 87 83 82 
360 664 292 83 79 78 
360 665 293 85 81 79 
361 664 292 84 80 78 
361 664 293 83 79 77 
361 665 293 90 85 83 
361 665 294 98 93 91 
360 666 294 95 89 87 
360 667 294 99 92 89 
361 666 294 100 93 91 
361 667 294 96 88 85 
362 664 292 84 80 79 
362 664 293 84 79 77 
362 665 293 94 88 86 
363 664 292 82 77 76 
363 664 293 80 75 72 
362 665 294 96 90 88 
363 665 294 89 82 79 
362 666 294 101 95 92 
362 667 294 94 87 83 
363 666 294 97 90 87 
363 666 295 93 86 82 
363 667 295 90 82 78 
360 668 294 103 96 92 
360 669 294 99 91 88 
361 668 294 101 93 89 
361 669 294 98 91 88 
360 670 294 95 88 84 
360 671 294 89 82 79 
361 670 294 95 88 85 
361 671 294 88 81 78 
362 668 294 96 88 84 
362 668 295 91 83 79 
362 669 294 95 88 85 
362 669 295 89 82 78 
363 668 295 79 71 65 
363 669 295 75 67 62 
362 670 294 93 86 83 
362 670 295 87 81 78 
362 671 294 85 78 75 
363 670 295 73 66 61 
363 671 294 81 75 72 
363 671 295 77 70 67 
364 664 293 75 70 67 
365 664 293 72 67 63 
364 664 294 80 74 70 
364 665 294 84 76 72 
364 665 295 82 74 70 
365 664 294 76 70 66 
365 665 294 81 73 68 
365 665 295 81 73 68 
364 666 295 85 78 73 
364 667 295 80 72 66 
365 666 295 80 71 66 
365 667 295 74 65 59 
366 664 294 69 62 57 
366 664 295 76 69 64 
366 665 295 80 72 67 
367 664 295 73 65 59 
364 668 295 69 60 54 
364 669 295 66 57 51 
364 670 295 65 56 51 
364 671 295 69 62 58 
365 667 296 73 64 58 
366 665 296 78 70 65 
367 664 296 74 66 60 
367 665 296 75 66 60 
367 665 297 68 59 53 
367 665 298 64 57 51 
366 666 296 77 68 62 
366 667 296 72 62 56 
366 667 297 69 59 52 
367 666 296 72 62 56 
367 666 297 69 60 54 
367 667 297 68 59 53 
367 666 298 67 59 55 
367 666 299 68 61 56 
367 667 298 69 62 57 
367 667 299 73 66 63 
367 664 303 106 100 99 
367 665 302 105 99 97 
367 665 303 107 101 100 
367 666 300 89 83 81 
367 666 301 101 95 93 
367 667 300 90 85 83 
367 667 301 101 95 94 
367 666 302 104 98 97 
367 666 303 106 100 99 
367 667 302 105 99 97 
367 667 303 106 100 99 
365 668 296 69 60 54 
365 669 296 67 58 52 
364 670 296 64 56 51 
364 671 296 64 57 52 
365 670 296 67 58 53 
365 670 297 68 60 54 
365 671 296 67 59 54 
365 671 297 67 58 52 
366 668 296 70 60 54 
366 668 297 70 61 55 
366 669 296 69 60 54 
366 669 297 68 60 54 
366 668 298 68 60 54 
366 668 299 71 64 59 
366 669 298 67 59 53 
366 669 299 72 64 59 
367 668 298 68 61 55 
367 668 299 72 65 61 
366 670 297 68 60 54 
366 671 297 68 59 53 
366 670 298 68 59 53 
366 670 299 74 66 61 
366 671 298 67 59 52 
366 671 299 72 64 58 
365 671 302 104 97 95 
365 671 303 107 101 99 
366 668 301 102 96 95 
366 669 300 92 86 84 
366 669 301 101 96 94 
367 668 300 91 85 83 
367 668 301 101 95 94 
366 668 302 104 98 96 
366 668 303 107 101 99 
366 669 302 104 98 96 
366 669 303 108 101 100 
367 668 302 104 98 96 
367 668 303 106 100 99 
366 670 300 94 87 85 
366 670 301 101 95 93 
366 671 300 88 80 77 
366 671 301 98 91 89 
366 670 302 104 98 96 
366 670 303 106 100 99 
366 671 302 103 97 94 
366 671 303 106 100 99 
367 663 304 103 97 96 
367 663 305 102 97 96 
367 662 307 99 94 93 
367 663 306 100 95 94 
367 663 307 101 95 95 
367 661 308 97 92 91 
367 661 309 95 90 89 
367 660 310 92 88 88 
367 660 311 96 91 90 
367 661 310 92 87 87 
367 661 311 93 88 87 
367 662 308 99 94 94 
367 662 309 96 91 90 
367 663 308 99 95 94 
367 663 309 96 91 91 
367 662 310 92 88 87 
367 662 311 92 88 87 
367 663 310 93 88 88 
367 663 311 93 88 88 
367 659 316 106 101 101 
367 659 317 105 100 100 
367 659 318 102 97 97 
367 659 319 103 98 97 
367 660 312 100 95 94 
367 660 313 103 98 97 
367 661 312 98 93 92 
367 661 313 102 97 96 
367 660 314 104 99 99 
367 660 315 107 101 101 
367 661 314 104 99 97 
367 661 315 105 100 99 
367 662 312 96 91 91 
367 662 313 100 95 93 
367 663 312 97 93 92 
367 663 313 99 94 92 
367 662 314 102 97 96 
367 662 315 104 99 98 
367 663 314 101 95 94 
367 663 315 103 97 96 
367 660 316 107 102 101 
367 660 317 105 100 100 
367 661 316 106 101 100 
367 661 317 105 100 99 
367 660 318 102 97 97 
367 660 319 104 99 98 
367 661 318 102 98 97 
367 661 319 105 100 100 
366 662 317 105 99 98 
366 663 316 105 99 98 
366 663 317 105 100 99 
367 662 316 105 99 98 
367 662 317 105 100 99 
367 663 316 105 99 98 
367 663 317 106 100 100 
366 662 318 104 98 98 
366 662 319 106 101 101 
366 663 318 104 99 98 
366 663 319 108 103 102 
367 662 318 103 98 97 
367 662 319 107 102 102 
367 664 304 106 101 100 
367 664 305 106 100 100 
367 665 304 107 102 101 
367 665 305 106 101 101 
366 665 306 105 100 99 
366 665 307 104 99 99 
367 664 306 105 100 99 
367 664 307 103 98 98 
367 665 306 106 101 100 
367 665 307 104 99 99 
366 666 305 105 100 99 
366 667 304 106 100 99 
366 667 305 105 99 98 
367 666 304 107 101 100 
367 666 305 106 100 100 
367 667 304 107 101 100 
366 666 306 104 99 99 
366 666 307 104 99 98 
366 667 306 104 98 97 
366 667 307 104 99 98 
366 664 308 100 95 95 
366 664 309 98 93 93 
366 665 308 103 98 98 
366 665 309 101 97 97 
367 664 308 100 95 94 
367 664 309 96 91 91 
366 664 310 95 90 90 
366 664 311 93 89 89 
366 665 310 99 95 95 
366 665 311 94 90 90 
367 664 310 94 90 89 
366 666 308 104 99 99 
366 666 309 103 98 98 
366 667 308 104 98 98 
366 667 309 104 99 98 
366 666 310 100 96 96 
366 666 311 95 91 91 
366 667 310 102 97 97 
366 667 311 96 92 92 
365 671 304 108 102 101 
365 671 305 105 99 99 
365 671 306 105 99 99 
366 668 304 106 100 99 
366 668 305 104 98 96 
366 669 304 106 100 99 
366 669 305 105 99 98 
366 668 306 103 97 96 
366 668 307 104 98 97 
366 669 306 104 98 97 
366 669 307 105 99 98 
366 670 304 106 100 99 
366 670 305 105 99 99 
366 671 304 106 101 100 
366 671 305 105 99 99 
366 670 306 105 100 99 
366 670 307 107 101 100 
366 671 306 106 101 100 
366 671 307 107 102 102 
365 669 311 101 97 97 
365 670 309 105 99 99 
365 671 309 105 100 100 
365 670 310 103 98 98 
365 670 311 103 98 98 
365 671 310 104 99 99 
365 671 311 105 100 99 
366 668 308 104 99 98 
366 668 309 105 99 98 
366 669 308 106 100 99 
366 669 309 105 99 98 
366 668 310 103 97 97 
366 668 311 97 93 92 
366 669 310 103 98 98 
366 669 311 101 96 96 
366 670 308 107 101 101 
366 670 309 105 100 99 
366 671 308 107 102 102 
366 670 310 104 99 99 
366 664 312 96 92 92 
366 664 313 97 93 93 
366 665 312 92 88 88 
366 665 313 94 90 90 
367 664 313 99 94 93 
366 664 314 98 93 93 
366 664 315 104 99 97 
366 665 314 99 94 94 
366 665 315 104 99 98 
367 664 314 100 95 95 
367 664 315 103 98 96 
367 665 315 103 98 97 
366 666 312 91 86 86 
366 666 313 91 86 86 
366 667 312 92 88 87 
366 667 313 90 86 85 
366 666 314 97 92 91 
366 666 315 103 98 97 
366 667 314 96 91 90 
366 667 315 103 98 97 
365 665 319 109 103 102 
365 667 317 102 97 96 
365 666 318 104 99 97 
365 666 319 108 102 101 
365 667 318 104 98 97 
365 667 319 108 102 102 
366 664 316 105 99 98 
366 664 317 105 100 99 
366 665 316 106 100 99 
366 665 317 105 99 98 
366 664 318 104 99 98 
366 664 319 108 102 102 
366 665 318 105 99 98 
366 665 319 110 104 103 
366 666 316 105 100 99 
366 666 317 104 99 98 
366 667 316 104 98 97 
366 667 317 103 98 97 
366 666 318 104 98 97 
365 668 312 97 92 92 
365 668 313 97 92 92 
365 669 312 100 95 95 
365 669 313 101 96 95 
365 668 314 101 96 95 
365 669 314 103 98 97 
365 669 315 104 98 97 
365 670 312 105 99 99 
365 670 313 105 100 100 
365 671 312 107 101 101 
365 671 313 107 101 100 
365 670 314 106 100 99 
365 670 315 105 99 98 
365 671 314 105 99 98 
365 671 315 105 99 98 
366 668 312 94 89 89 
366 668 313 93 89 88 
366 668 314 99 93 93 
366 668 315 103 98 97 
365 668 316 104 98 97 
365 668 317 102 96 95 
365 669 316 103 97 96 
365 669 317 102 97 96 
365 668 318 103 97 96 
365 668 319 108 102 102 
365 669 318 104 98 98 
365 669 319 107 102 101 
365 670 316 104 98 97 
365 670 317 104 99 98 
365 671 316 106 100 99 
365 671 317 107 102 101 
364 671 319 107 101 100 
365 670 318 105 100 99 
365 670 319 107 102 101 
365 671 318 107 102 101 
365 671 319 107 101 101 
366 668 316 103 98 97 
373 641 288 102 97 97 
372 643 288 101 95 92 
373 642 288 101 96 95 
373 642 289 99 94 93 
373 643 288 100 94 91 
373 643 289 99 94 92 
373 643 290 99 94 94 
374 640 288 92 87 86 
374 641 288 102 98 98 
374 641 289 99 94 94 
375 640 288 87 83 82 
375 640 289 84 79 78 
375 641 288 94 90 89 
375 641 289 88 84 83 
374 641 290 89 85 83 
375 641 290 85 79 77 
375 641 291 90 84 80 
374 642 289 96 92 92 
374 642 290 91 87 86 
374 643 290 97 92 92 
374 643 291 94 89 87 
375 642 291 96 90 87 
375 643 291 98 92 89 
374 643 292 95 89 86 
375 642 292 105 99 97 
375 643 292 101 95 93 
375 643 293 104 98 96 
372 644 288 100 93 91 
372 645 288 101 94 92 
372 645 289 95 88 85 
373 644 289 96 90 87 
373 645 289 92 85 82 
373 644 290 95 90 88 
373 644 291 92 87 86 
373 645 290 90 84 82 
373 645 291 91 85 82 
372 646 288 102 95 93 
372 646 289 92 85 83 
372 647 288 101 95 93 
372 647 289 90 84 81 
372 646 290 85 78 74 
372 647 290 81 74 70 
372 647 291 82 74 70 
373 646 290 89 82 79 
373 646 291 88 81 78 
373 647 291 83 75 71 
374 644 291 93 87 86 
373 645 292 91 85 83 
372 647 292 84 77 73 
373 646 292 89 83 79 
373 646 293 89 82 79 
373 647 292 85 78 74 
373 647 293 93 86 83 
373 647 294 106 100 98 
374 644 292 93 87 85 
374 644 293 96 90 88 
374 645 292 92 85 83 
374 645 293 94 89 86 
375 644 293 101 96 94 
375 645 293 99 93 91 
375 644 294 104 98 97 
375 645 294 102 96 95 
375 645 295 97 92 91 
374 646 293 94 88 85 
374 646 294 101 95 93 
374 646 295 104 98 97 
374 647 294 106 100 98 
374 647 295 105 99 98 
375 646 294 101 96 94 
375 646 295 99 93 92 
375 647 295 103 97 96 
375 646 296 87 81 79 
375 647 296 96 91 90 
375 647 297 91 85 84 
375 647 298 94 88 87 
371 649 288 100 93 91 
370 651 288 102 96 94 
371 650 288 101 95 93 
371 650 289 99 93 91 
371 651 288 103 97 95 
371 651 289 102 95 94 
371 650 290 88 81 78 
371 650 291 84 76 70 
371 651 290 93 86 84 
371 651 291 84 77 72 
371 650 292 96 89 84 
371 651 292 90 82 77 
371 651 293 103 96 93 
371 651 294 107 100 98 
368 653 288 97 91 89 
369 652 288 101 95 94 
369 653 288 100 95 93 
368 654 288 98 92 90 
368 655 288 98 92 90 
369 654 288 101 95 94 
369 654 289 99 93 91 
369 655 289 98 91 89 
370 652 288 102 96 94 
370 652 289 101 95 93 
370 653 288 102 96 95 
370 653 289 100 93 91 
371 652 289 102 96 94 
370 653 290 94 87 85 
370 653 291 87 81 78 
371 652 290 95 89 87 
371 652 291 82 75 71 
371 653 290 91 85 83 
371 653 291 82 75 72 
370 654 289 98 91 89 
370 654 290 92 85 82 
370 654 291 84 77 74 
370 655 290 90 83 79 
370 655 291 80 73 69 
371 652 292 80 71 66 
371 652 293 90 82 78 
371 653 292 75 67 63 
371 653 293 75 68 62 
371 652 294 101 94 91 
371 652 295 104 97 95 
371 653 294 85 77 73 
371 653 295 91 84 80 
370 654 292 78 71 68 
370 655 292 75 68 64 
370 655 293 70 62 57 
371 654 292 75 68 65 
371 654 293 72 64 59 
371 655 292 74 67 64 
371 655 293 70 63 58 
370 655 294 68 61 54 
370 655 295 74 65 59 
371 654 294 77 69 64 
371 654 295 80 72 67 
371 655 294 72 64 58 
371 655 295 76 68 62 
372 648 288 99 93 91 
372 648 289 89 83 81 
372 649 288 98 91 89 
372 649 289 93 86 83 
372 648 290 83 76 73 
372 648 291 88 81 78 
372 649 290 89 82 79 
372 649 291 96 89 87 
372 650 289 99 92 90 
372 650 290 88 80 77 
372 650 291 91 84 80 
372 648 292 94 87 85 
372 648 293 100 94 92 
372 649 292 104 97 95 
372 649 293 108 102 100 
373 648 293 101 95 93 
373 649 293 109 103 101 
372 649 294 110 103 101 
373 648 294 108 102 100 
373 649 294 109 103 101 
373 649 295 108 101 99 
372 650 292 101 94 91 
372 650 293 108 101 98 
372 650 294 110 103 100 
372 650 295 108 101 99 
372 651 294 108 101 99 
372 651 295 107 101 99 
373 650 294 110 103 100 
373 650 295 107 101 98 
374 648 294 109 102 100 
374 648 295 107 100 98 
374 649 295 107 100 98 
371 652 296 100 94 91 
371 653 296 86 78 73 
371 653 297 77 69 64 
371 653 298 73 66 61 
371 653 299 70 63 58 
370 655 296 77 69 63 
370 655 297 79 71 65 
371 654 296 79 71 65 
371 654 297 79 70 65 
371 655 296 78 70 64 
371 655 297 80 72 66 
370 655 299 86 80 76 
371 654 298 75 67 62 
371 654 299 71 64 59 
371 655 298 82 75 70 
371 655 299 80 73 68 
371 653 300 72 65 60 
371 653 302 89 83 81 
371 653 303 81 75 72 
370 655 300 84 77 74 
370 655 301 90 84 82 
371 654 300 76 69 63 
371 654 301 88 82 79 
371 655 300 77 70 65 
371 655 301 89 83 80 
370 655 302 96 91 89 
370 655 303 95 89 88 
371 654 302 93 87 86 
371 654 303 89 83 81 
371 655 302 96 91 89 
371 655 303 92 87 85 
373 649 296 104 97 94 
372 651 296 98 91 89 
372 651 297 79 72 68 
373 650 296 99 92 89 
373 650 297 80 73 68 
373 651 296 89 83 79 
373 651 297 76 69 65 
373 651 298 74 67 63 
373 651 299 82 75 71 
374 648 296 99 93 91 
374 649 296 98 92 89 
374 649 297 90 83 80 
375 648 296 97 92 90 
375 648 297 93 87 84 
375 649 297 90 84 80 
374 649 298 87 80 76 
375 648 298 91 85 82 
375 648 299 83 77 74 
375 649 298 87 80 76 
375 649 299 81 74 70 
374 650 296 92 85 82 
374 650 297 82 75 70 
374 650 298 82 75 70 
374 650 299 82 75 70 
374 651 298 80 73 69 
374 651 299 84 77 73 
373 651 300 85 78 73 
373 651 301 81 74 70 
373 651 302 79 73 69 
373 651 303 77 72 70 
375 648 300 73 66 62 
375 649 300 73 67 62 
375 649 301 66 60 57 
375 649 302 64 59 56 
375 649 303 67 63 62 
374 650 300 81 73 69 
374 650 301 77 71 68 
374 651 300 81 74 69 
374 651 301 79 72 68 
375 650 300 78 71 67 
375 650 301 72 66 62 
374 650 302 74 69 67 
374 650 303 71 67 66 
374 651 303 78 74 72 
375 650 302 65 60 58 
375 650 303 70 67 66 
372 652 296 93 86 83 
372 652 297 76 69 65 
372 653 297 76 69 64 
372 652 298 72 65 60 
372 652 299 78 72 68 
372 653 298 72 65 61 
372 653 299 73 67 62 
373 652 299 80 73 70 
372 652 300 95 88 85 
372 652 301 96 90 88 
372 653 300 86 79 76 
372 653 301 95 89 86 
373 652 300 93 86 83 
373 652 301 90 84 81 
372 652 302 86 80 78 
372 652 303 76 70 67 
372 653 302 89 83 81 
372 653 303 77 71 68 
373 652 302 81 75 72 
376 640 288 91 87 87 
376 640 289 90 85 84 
376 640 290 91 85 83 
376 641 290 83 76 72 
376 641 291 87 81 78 
377 640 290 99 94 93 
377 640 291 100 94 94 
376 641 292 93 87 85 
377 640 292 96 90 88 
377 641 292 91 85 82 
377 641 293 88 81 78 
376 642 292 100 94 93 
376 642 293 102 96 94 
376 643 293 105 100 99 
377 642 293 94 88 85 
376 643 294 97 92 90 
376 643 295 83 77 75 
377 642 294 84 77 74 
377 642 295 75 68 65 
377 643 294 84 79 76 
377 643 295 71 65 61 
378 640 292 100 95 94 
378 640 293 90 84 81 
378 641 293 85 79 75 
379 640 293 87 81 79 
378 641 294 89 83 80 
378 641 295 90 84 82 
379 640 294 86 80 77 
379 641 294 89 83 80 
379 641 295 91 85 84 
378 642 294 87 81 78 
378 642 295 86 80 78 
376 644 294 102 96 95 
376 644 295 91 86 85 
376 645 295 96 91 91 
380 640 293 80 74 70 
380 640 294 81 75 72 
380 640 295 86 80 77 
380 641 295 90 85 83 
381 640 294 82 76 73 
381 640 295 90 84 83 
382 640 295 96 91 89 
377 643 296 67 60 56 
377 643 297 67 61 57 
379 641 296 92 87 85 
378 642 296 83 77 75 
378 643 296 70 64 61 
378 643 297 82 76 74 
379 642 296 91 85 84 
379 642 297 90 85 83 
379 643 297 88 83 81 
379 643 298 88 83 81 
379 643 299 89 83 81 
376 644 296 80 75 73 
376 645 296 77 72 70 
376 645 297 67 61 57 
377 644 296 72 66 63 
377 644 297 65 59 55 
377 645 297 68 62 58 
377 645 298 70 64 60 
377 645 299 70 64 60 
376 646 296 72 67 63 
376 646 297 78 72 69 
376 646 298 88 83 82 
376 647 298 93 89 88 
376 647 299 88 82 81 
377 646 298 80 75 72 
377 646 299 77 71 69 
377 647 299 84 78 76 
378 644 297 75 69 66 
378 644 298 76 70 67 
378 644 299 81 75 72 
378 645 299 69 62 58 
379 644 299 87 82 80 
376 647 300 71 65 61 
377 646 300 66 59 54 
377 647 300 67 60 56 
377 647 301 62 55 51 
377 647 302 62 57 54 
377 647 303 68 64 62 
378 645 300 74 67 63 
378 645 301 68 61 57 
379 644 300 86 81 79 
379 644 301 83 78 75 
379 645 300 78 72 69 
379 645 301 74 68 65 
379 645 302 75 69 64 
379 645 303 75 69 66 
378 646 300 64 57 51 
378 646 301 63 57 52 
378 647 301 62 56 51 
378 646 302 63 58 54 
378 646 303 65 59 55 
379 646 303 67 61 57 
380 641 296 96 90 89 
380 641 297 95 90 89 
381 640 296 102 97 97 
381 641 296 99 95 95 
381 641 297 95 91 90 
381 641 298 89 84 84 
380 642 297 91 86 85 
381 642 297 90 86 85 
380 642 298 90 85 83 
380 643 298 90 84 82 
380 643 299 89 84 82 
381 642 298 88 84 83 
381 642 299 88 84 83 
381 643 299 89 84 82 
382 640 296 104 100 99 
382 640 297 103 99 98 
382 641 297 97 92 92 
383 640 296 104 99 98 
383 640 297 103 98 98 
382 641 298 94 90 89 
382 641 299 93 88 88 
383 640 298 105 101 101 
383 641 298 102 98 98 
383 641 299 102 97 97 
382 642 299 91 86 84 
380 643 300 89 83 81 
381 642 300 90 85 83 
381 643 300 90 84 83 
381 643 301 89 83 82 
380 643 303 78 72 68 
381 643 302 82 77 75 
381 643 303 79 73 70 
383 641 300 100 96 95 
383 641 301 94 90 89 
383 641 302 88 84 82 
383 641 303 82 77 74 
382 642 300 93 88 87 
382 642 301 90 85 83 
383 642 301 91 86 84 
382 642 302 83 77 75 
382 642 303 78 73 70 
383 642 302 83 78 75 
383 642 303 79 74 71 
380 644 300 88 83 81 
380 644 301 88 82 80 
381 644 301 86 81 78 
380 644 302 84 78 75 
380 644 303 79 73 70 
381 644 302 83 77 74 
381 644 303 80 74 70 
376 648 299 79 73 70 
376 648 300 68 62 57 
376 648 301 62 56 52 
376 648 302 60 55 52 
376 648 303 69 65 64 
376 649 302 62 57 55 
376 649 303 70 66 65 
377 648 303 68 63 62 
375 647 311 108 104 106 
374 647 313 99 96 98 
375 646 312 104 101 103 
375 646 313 102 99 100 
375 647 312 103 100 102 
375 647 313 101 98 100 
374 646 315 99 96 96 
374 647 314 99 95 96 
374 647 315 98 94 95 
375 646 314 100 96 97 
375 646 315 100 97 97 
375 647 314 100 97 98 
373 647 316 98 94 94 
373 647 317 101 96 96 
373 647 318 105 100 99 
373 647 319 107 102 102 
375 645 316 103 98 98 
375 645 317 104 99 99 
374 645 318 106 101 101 
374 645 319 110 105 105 
375 645 318 106 101 101 
375 645 319 111 106 106 
374 646 316 100 96 96 
374 646 317 103 98 98 
374 647 316 98 94 94 
374 647 317 100 95 95 
375 646 316 101 96 97 
374 646 318 107 102 102 
374 646 319 109 104 104 
371 654 304 76 70 68 
371 654 305 80 76 74 
371 655 304 82 77 75 
371 655 305 87 82 81 
371 655 306 94 89 88 
371 655 307 100 95 94 
371 654 309 101 96 96 
371 655 308 103 98 97 
371 655 309 102 97 97 
370 655 311 101 96 95 
371 654 310 100 95 94 
371 654 311 100 96 95 
371 655 310 101 96 96 
371 655 311 101 96 95 
375 648 304 78 75 75 
375 649 304 74 70 70 
375 649 305 78 75 74 
375 649 306 85 82 82 
375 649 307 99 95 96 
374 650 304 73 69 69 
374 651 304 74 70 69 
374 651 305 78 74 73 
375 650 304 73 69 68 
375 650 305 81 77 77 
375 651 305 83 79 78 
375 650 306 94 90 91 
375 650 307 101 97 97 
375 651 306 96 93 93 
375 651 307 100 96 96 
373 651 311 95 92 94 
375 648 308 104 101 102 
375 648 309 108 105 106 
375 649 308 104 100 101 
375 649 309 103 99 99 
374 649 311 94 90 90 
375 648 310 107 104 104 
375 648 311 104 101 101 
375 649 310 99 95 96 
375 649 311 98 94 94 
375 650 308 100 96 96 
375 650 309 97 93 93 
375 651 308 98 94 94 
375 651 309 97 93 93 
374 650 311 95 91 91 
374 651 310 95 92 92 
374 651 311 94 91 92 
375 650 310 95 91 91 
375 650 311 93 90 90 
375 651 310 96 92 92 
372 652 304 71 66 63 
372 653 304 71 66 63 
372 653 305 78 73 72 
373 652 304 71 67 65 
373 652 305 73 69 68 
373 653 304 72 68 66 
373 653 305 83 79 78 
373 653 306 93 89 88 
372 654 304 73 68 65 
372 654 305 84 80 78 
372 654 306 92 87 86 
372 654 307 98 93 92 
372 655 306 93 88 87 
372 655 307 99 94 93 
373 654 306 95 91 90 
373 654 307 97 92 91 
374 652 305 81 77 76 
375 652 305 88 84 84 
374 652 306 95 91 90 
374 653 306 95 90 90 
374 653 307 98 93 93 
375 652 306 96 92 92 
375 652 307 99 95 95 
374 654 307 97 93 92 
373 653 309 97 93 93 
372 652 311 102 98 99 
372 653 311 101 97 98 
373 652 311 100 97 98 
373 653 310 99 95 95 
373 653 311 101 97 98 
372 654 308 99 94 94 
372 654 309 99 94 94 
372 655 308 101 96 95 
373 654 308 97 92 92 
373 654 309 97 92 92 
372 654 310 99 95 94 
372 654 311 99 95 95 
374 652 309 98 95 96 
374 653 308 97 92 92 
374 653 309 98 94 94 
375 652 308 98 95 95 
375 652 309 98 94 95 
374 652 310 99 95 96 
374 652 311 97 94 95 
374 653 310 99 96 96 
371 651 317 102 98 98 
371 651 318 105 101 102 
371 651 319 106 102 102 
369 655 314 103 99 98 
369 655 315 103 98 98 
371 652 313 100 96 96 
371 653 312 101 97 97 
371 653 313 101 97 97 
370 653 314 100 96 96 
370 653 315 97 93 93 
371 652 314 92 89 89 
371 652 315 92 89 89 
371 653 314 97 93 93 
371 653 315 95 91 90 
370 654 312 101 97 96 
370 654 313 102 97 97 
370 655 312 102 97 97 
370 655 313 103 98 98 
371 654 312 101 97 96 
371 654 313 101 97 97 
370 654 314 101 97 97 
370 654 315 100 96 96 
370 655 314 102 98 98 
370 655 315 102 97 97 
369 655 316 104 99 99 
369 655 317 105 100 100 
369 655 318 106 102 101 
369 655 319 106 102 102 
370 653 316 99 95 94 
370 653 317 104 99 99 
371 652 316 97 93 93 
371 652 317 101 97 97 
371 653 316 97 93 93 
371 653 317 102 98 98 
370 653 318 107 102 102 
370 653 319 106 101 101 
371 652 318 105 101 101 
371 652 319 106 101 101 
371 653 318 106 101 101 
371 653 319 106 101 101 
370 654 316 101 97 97 
370 654 317 104 99 99 
370 655 316 103 99 98 
370 655 317 104 100 99 
370 654 318 106 102 102 
370 654 319 107 103 102 
373 649 313 95 91 91 
373 648 314 97 94 94 
373 648 315 97 93 94 
373 649 314 96 92 92 
373 649 315 95 92 92 
372 651 313 94 91 92 
373 650 312 93 90 91 
373 650 313 94 90 90 
373 651 312 94 91 92 
373 651 313 93 90 92 
372 650 314 93 89 90 
372 650 315 93 89 89 
372 651 314 93 90 91 
372 651 315 94 90 90 
373 650 314 94 90 90 
373 650 315 93 89 89 
374 648 312 101 97 98 
374 648 313 100 97 98 
374 649 312 96 93 93 
374 649 313 98 94 94 
375 648 312 101 98 99 
374 648 314 97 94 95 
374 648 315 97 93 94 
374 650 312 93 90 90 
372 649 317 100 96 96 
373 648 316 98 94 94 
373 648 317 99 95 95 
373 649 316 96 92 93 
373 649 317 99 94 94 
372 649 318 105 100 99 
372 649 319 107 102 101 
373 648 318 103 99 98 
373 648 319 106 101 100 
373 649 318 102 97 97 
372 650 316 95 91 92 
372 650 317 100 96 96 
372 651 316 97 93 93 
372 651 317 102 98 98 
373 650 316 94 91 91 
372 650 318 105 101 101 
372 650 319 107 103 103 
372 651 318 106 102 102 
372 651 319 106 102 102 
372 652 312 99 96 97 
372 652 313 96 93 94 
372 653 312 102 98 98 
373 652 312 97 94 95 
372 652 314 93 90 91 
379 643 310 99 95 94 
379 643 311 107 102 102 
377 645 307 75 71 70 
376 647 305 69 66 65 
377 646 305 60 57 54 
377 647 304 72 68 67 
377 647 305 67 64 62 
376 647 306 66 63 62 
376 647 307 76 73 72 
377 646 306 63 59 58 
377 646 307 71 67 66 
377 647 306 64 60 59 
378 645 305 64 59 56 
379 644 305 70 65 62 
379 645 304 72 66 63 
379 645 305 69 64 61 
378 645 306 67 63 60 
378 645 307 71 67 64 
379 644 306 69 64 61 
379 644 307 71 66 63 
379 645 306 67 62 59 
379 645 307 68 63 60 
378 646 304 63 58 54 
378 646 305 63 58 55 
379 646 304 66 61 57 
378 646 306 64 59 57 
377 645 308 83 79 78 
377 645 309 98 94 94 
377 645 310 104 100 100 
377 645 311 105 102 102 
376 646 308 96 93 93 
376 646 309 106 103 103 
376 647 308 97 93 94 
376 647 309 108 105 106 
377 646 308 90 86 86 
377 646 309 101 97 98 
376 646 310 111 107 108 
376 646 311 109 105 107 
376 647 310 111 107 108 
376 647 311 109 106 108 
377 646 310 108 104 105 
377 646 311 109 106 107 
378 644 308 83 79 78 
378 644 309 92 87 86 
378 645 308 79 75 74 
378 645 309 92 88 87 
379 644 308 77 73 71 
379 644 309 87 82 80 
378 644 310 101 96 95 
378 644 311 106 101 101 
378 645 310 102 97 97 
379 644 310 97 92 91 
379 644 311 105 100 100 
380 643 304 76 70 67 
380 643 305 75 69 67 
381 643 304 77 71 68 
381 643 305 76 70 67 
380 643 306 74 69 67 
380 643 307 74 69 66 
381 642 307 79 74 73 
381 643 306 76 70 68 
381 643 307 76 71 69 
383 641 304 74 68 64 
383 641 305 77 70 66 
383 641 306 81 75 72 
383 641 307 83 78 75 
382 642 304 75 70 66 
382 642 305 74 68 64 
383 642 304 76 69 65 
383 642 305 74 67 62 
382 642 306 75 70 68 
382 642 307 80 75 74 
383 642 306 77 72 68 
383 642 307 81 76 74 
380 643 308 75 69 66 
380 643 309 81 75 73 
381 642 308 78 74 72 
381 642 309 76 72 70 
381 643 308 78 74 71 
381 643 309 77 72 70 
380 643 310 91 86 85 
380 643 311 102 98 98 
381 642 310 78 74 73 
381 642 311 91 87 88 
383 641 308 83 79 79 
383 641 309 81 77 76 
383 641 310 78 75 75 
383 641 311 83 80 80 
382 642 308 78 74 73 
382 642 309 71 68 66 
383 642 308 79 75 74 
383 642 309 73 69 68 
382 642 310 71 68 66 
382 642 311 86 83 83 
383 642 310 73 71 70 
383 642 311 87 84 85 
380 644 304 75 69 65 
380 644 305 73 67 65 
380 644 306 73 68 65 
380 644 307 72 68 65 
380 644 308 73 68 64 
379 643 312 110 105 106 
379 643 313 110 106 106 
378 643 314 108 104 104 
378 643 315 109 105 105 
379 643 314 110 106 106 
379 643 315 110 106 106 
378 643 316 110 106 106 
378 643 317 112 108 109 
379 643 316 112 107 108 
379 643 317 114 110 111 
378 643 318 115 111 112 
379 643 318 116 113 114 
379 643 319 116 113 114 
376 645 313 102 98 99 
377 644 312 105 101 101 
377 644 313 105 101 100 
377 645 312 105 100 100 
377 645 313 103 99 99 
376 645 314 103 99 99 
376 645 315 104 100 99 
377 644 314 108 104 104 
377 644 315 111 106 106 
376 646 312 104 101 103 
376 646 313 101 98 99 
376 646 314 101 97 97 
378 644 312 105 101 101 
378 644 313 107 102 103 
378 644 314 108 104 104 
378 644 315 109 104 105 
376 644 316 108 103 102 
376 644 317 108 103 103 
376 645 316 104 100 99 
376 645 317 105 101 100 
377 644 316 109 105 105 
377 644 317 109 104 104 
376 644 318 108 103 103 
376 644 319 108 103 103 
376 645 318 108 103 103 
376 645 319 110 106 105 
377 644 318 110 105 105 
377 644 319 109 105 105 
378 644 316 110 105 105 
378 644 317 111 107 107 
378 644 318 113 109 110 
378 644 319 113 110 111 
380 643 312 110 107 108 
380 643 313 114 111 112 
381 642 312 108 105 106 
381 642 313 118 115 116 
380 643 314 113 110 111 
380 643 315 113 109 109 
381 642 314 118 114 115 
381 642 315 115 112 113 
381 643 315 114 110 111 
382 642 312 105 103 104 
382 642 313 118 115 117 
383 642 312 106 103 103 
383 642 313 120 116 117 
382 642 314 120 116 118 
382 642 315 117 114 116 
383 642 314 122 119 121 
383 642 315 121 118 120 
380 643 316 113 110 110 
380 643 317 115 111 112 
381 642 316 113 110 112 
381 642 317 113 110 112 
381 643 316 113 110 111 
381 643 317 113 110 112 
380 643 318 117 114 115 
380 643 319 118 115 117 
381 642 318 116 113 115 
381 642 319 118 115 117 
381 643 318 115 112 114 
381 643 319 118 115 117 
382 642 316 115 113 114 
382 642 317 114 111 113 
383 642 316 117 115 116 
383 642 317 116 114 115 
382 642 318 117 114 115 
382 642 319 119 116 118 
383 642 318 118 115 116 
383 642 319 120 117 118 
376 648 304 78 75 76 
376 648 305 76 73 73 
376 649 304 77 73 73 
376 649 305 78 75 75 
376 648 306 73 70 71 
376 648 307 86 83 84 
376 648 308 102 99 100 
376 648 309 109 105 106 
368 656 288 98 92 90 
368 656 289 98 92 89 
368 657 289 95 89 86 
369 656 289 97 90 87 
369 657 289 95 88 86 
369 656 290 89 82 78 
369 657 290 87 80 77 
369 657 291 74 66 62 
368 658 289 92 85 83 
368 658 290 86 80 77 
368 659 290 86 80 77 
368 659 291 82 75 72 
369 658 290 83 76 73 
369 658 291 74 67 63 
369 659 291 75 68 64 
370 656 290 84 77 73 
370 656 291 74 67 62 
370 657 291 73 65 60 
369 657 292 69 62 57 
368 659 292 79 73 69 
369 658 292 72 65 61 
369 658 293 77 71 67 
369 659 292 78 71 68 
369 659 293 81 75 72 
369 659 294 77 70 66 
369 659 295 72 65 60 
370 656 292 74 67 63 
370 656 293 72 65 60 
370 657 292 74 66 62 
370 657 293 76 69 65 
370 656 294 69 61 55 
370 656 295 72 64 57 
370 657 294 71 64 59 
370 657 295 69 61 54 
370 658 293 75 68 63 
370 658 294 73 66 62 
370 658 295 68 60 55 
368 660 291 85 79 77 
368 660 292 80 74 71 
368 661 292 82 76 73 
368 661 293 83 76 73 
369 660 292 78 72 69 
369 660 293 77 71 67 
369 661 293 81 74 70 
369 660 294 79 73 69 
369 660 295 77 70 67 
369 661 294 85 78 75 
369 661 295 85 78 76 
368 662 293 77 70 66 
368 662 294 80 74 69 
368 662 295 87 80 77 
368 663 294 76 69 65 
368 663 295 82 75 71 
369 662 295 88 81 78 
369 658 296 79 72 67 
369 658 297 97 90 87 
369 659 296 81 74 70 
369 659 297 97 90 87 
369 658 298 103 96 94 
369 658 299 102 96 94 
369 659 298 103 97 95 
369 659 299 103 97 95 
370 656 296 78 70 64 
370 656 297 83 75 69 
370 657 296 74 66 60 
370 657 297 84 76 71 
370 656 298 88 81 77 
370 656 299 92 85 83 
370 657 298 89 82 78 
370 657 299 89 81 77 
370 658 296 76 68 62 
370 658 297 91 84 80 
369 658 300 98 92 90 
369 658 301 93 87 85 
369 659 300 100 94 92 
369 659 301 93 87 85 
369 658 302 85 80 78 
369 658 303 84 78 75 
369 659 302 87 81 79 
369 659 303 90 84 82 
370 656 300 90 84 81 
370 656 301 88 82 80 
370 657 300 88 81 78 
370 657 301 84 78 75 
370 656 302 92 86 85 
370 656 303 89 84 83 
370 657 302 80 73 70 
370 657 303 79 73 70 
369 660 296 79 71 68 
369 660 297 88 80 76 
369 661 296 81 74 70 
369 661 297 79 71 65 
368 661 299 95 87 84 
369 660 298 96 89 86 
369 660 299 96 89 86 
369 661 298 86 77 72 
369 661 299 92 85 81 
368 662 296 87 80 78 
368 662 297 85 78 74 
368 663 296 85 79 77 
368 663 297 85 79 77 
369 662 296 85 79 75 
369 662 297 83 75 70 
368 662 298 83 76 71 
368 662 299 90 83 80 
368 663 298 82 75 72 
368 663 299 80 73 69 
368 661 300 92 85 82 
368 661 301 87 81 79 
369 660 300 91 84 81 
369 660 301 88 82 79 
369 661 300 86 79 75 
369 661 301 84 77 74 
368 661 302 96 90 88 
368 661 303 100 94 93 
369 660 302 88 83 81 
369 660 303 95 90 88 
369 661 302 93 87 86 
369 661 303 98 92 91 
368 662 300 92 86 84 
368 662 301 93 87 86 
368 663 300 85 79 76 
368 663 301 95 89 87 
368 662 302 97 92 91 
368 662 303 100 95 93 
368 663 302 100 95 93 
368 663 303 101 96 94 
368 664 296 76 69 66 
368 664 297 71 64 60 
368 665 297 61 52 45 
368 664 298 70 63 59 
368 664 299 70 64 59 
368 665 298 58 50 43 
368 665 299 61 54 48 
368 666 299 67 60 55 
368 664 300 84 78 75 
368 664 301 98 92 91 
368 665 300 85 79 76 
368 665 301 100 94 92 
368 664 302 103 97 96 
368 664 303 103 98 96 
368 665 302 103 97 96 
368 666 300 75 69 65 
369 657 306 104 99 98 
369 657 307 104 99 98 
369 658 304 94 89 87 
369 658 305 102 96 96 
369 659 304 96 91 90 
369 659 305 100 95 94 
368 659 307 100 94 92 
369 658 306 103 98 97 
369 658 307 102 97 96 
369 659 306 102 96 95 
369 659 307 101 96 95 
370 656 304 86 81 79 
370 656 305 93 88 87 
370 657 304 89 84 82 
370 657 305 99 94 93 
371 656 305 94 89 88 
370 656 306 100 95 94 
370 656 307 102 97 96 
370 657 306 102 97 96 
370 657 307 104 99 98 
371 656 306 97 92 91 
371 656 307 100 95 94 
369 657 308 104 99 98 
369 657 309 104 99 98 
369 656 311 101 96 95 
369 657 310 103 98 97 
369 657 311 102 96 96 
368 658 309 100 95 94 
368 659 308 98 92 91 
368 659 309 97 91 90 
369 658 308 101 96 95 
369 658 309 102 97 96 
368 658 310 100 95 94 
368 658 311 99 94 94 
368 659 310 97 92 91 
368 659 311 98 93 93 
369 658 310 102 96 96 
369 658 311 100 95 95 
370 656 308 104 99 98 
370 656 309 104 99 98 
370 657 308 104 99 98 
370 657 309 104 99 98 
370 656 310 103 98 97 
370 656 311 101 96 95 
368 661 304 98 92 91 
368 661 305 96 90 88 
369 660 304 97 92 90 
369 660 305 96 91 89 
369 661 304 98 92 91 
368 660 306 97 91 89 
368 660 307 98 92 91 
368 661 306 95 90 88 
368 661 307 96 91 89 
369 660 306 98 92 91 
368 662 304 98 93 91 
368 662 305 98 92 90 
368 663 304 101 95 94 
368 663 305 99 94 92 
368 662 306 98 92 91 
368 662 307 98 93 92 
368 660 308 96 91 90 
368 660 309 95 90 89 
368 661 308 97 92 91 
368 660 310 94 89 89 
368 660 311 96 92 91 
368 657 313 102 97 96 
369 656 312 102 97 97 
369 656 313 103 98 98 
369 657 312 101 96 95 
369 657 313 102 97 96 
368 657 314 104 99 99 
368 657 315 106 101 101 
369 656 314 104 100 99 
369 656 315 104 100 100 
369 657 314 104 99 99 
369 657 315 105 100 100 
368 658 312 100 95 94 
368 658 313 102 97 96 
368 659 312 101 96 95 
368 659 313 103 98 97 
368 658 314 104 99 99 
368 658 315 106 101 101 
368 659 314 105 100 99 
368 659 315 106 101 101 
370 656 312 102 98 97 
368 657 316 106 102 102 
368 657 317 106 101 101 
369 656 316 105 100 100 
369 656 317 105 100 100 
368 657 318 105 100 100 
368 657 319 105 100 99 
369 656 318 105 101 100 
369 656 319 106 101 101 
369 657 318 105 100 100 
369 657 319 105 100 100 
368 658 316 107 102 102 
368 658 317 106 101 101 
368 659 316 106 101 101 
368 659 317 105 100 100 
368 658 318 104 99 98 
368 658 319 104 99 98 
368 659 318 103 98 98 
368 659 319 104 99 98 
368 660 312 101 96 95 
368 664 304 104 98 97 
352 673 256 112 107 107 
352 673 257 111 106 106 
353 672 256 107 102 102 
353 672 257 106 101 101 
353 673 257 110 105 104 
352 673 258 111 106 105 
352 673 259 110 105 105 
353 672 258 106 101 101 
353 673 258 107 103 102 
353 673 259 107 102 102 
352 674 258 110 105 105 
352 674 259 111 106 105 
354 672 256 100 95 95 
354 672 257 100 95 95 
354 672 258 100 95 95 
354 672 259 99 95 94 
352 673 260 109 104 104 
352 673 261 107 102 102 
353 673 260 106 101 101 
353 673 261 104 99 98 
352 673 262 106 101 100 
353 673 262 102 97 96 
353 673 263 101 96 95 
352 674 260 110 105 104 
352 674 261 109 104 103 
352 674 262 108 103 102 
352 674 263 106 101 101 
354 672 260 98 93 92 
354 672 261 98 93 92 
354 672 262 97 93 92 
354 672 263 96 92 91 
353 673 264 99 94 94 
353 673 265 99 94 94 
353 673 266 98 93 93 
353 673 267 97 92 91 
352 674 264 105 100 100 
352 674 265 104 99 99 
352 675 264 105 100 100 
352 675 265 103 98 98 
353 674 264 103 99 98 
353 674 265 102 97 97 
352 675 266 102 97 97 
352 675 267 102 97 96 
353 674 266 101 96 96 
353 674 267 99 94 93 
353 675 267 101 96 96 
354 672 264 96 91 90 
354 672 265 95 91 90 
354 673 265 97 92 91 
354 672 266 95 90 89 
354 672 267 95 90 89 
354 673 266 97 92 91 
354 673 267 96 91 90 
352 675 268 101 96 95 
352 675 269 100 95 94 
353 674 268 97 92 91 
353 674 269 96 91 90 
353 675 268 100 95 95 
353 675 269 99 94 93 
353 674 270 96 91 90 
353 675 270 98 92 91 
353 675 271 97 92 91 
354 672 268 95 89 88 
354 672 269 94 89 87 
354 673 268 96 91 90 
354 673 269 96 90 89 
355 672 269 94 88 87 
354 672 270 94 88 87 
354 673 270 95 90 89 
354 673 271 94 89 88 
355 672 270 94 88 87 
355 672 271 94 88 86 
354 674 269 96 91 90 
354 674 270 96 91 90 
354 674 271 96 91 89 
352 676 266 100 95 94 
352 676 267 98 94 93 
352 676 268 99 94 93 
352 676 269 99 94 93 
352 677 268 96 91 90 
352 677 269 96 91 90 
352 676 270 98 93 92 
352 676 271 97 92 91 
352 677 270 95 91 90 
352 677 271 96 91 90 
353 676 270 98 93 93 
353 676 271 97 92 91 
352 678 270 92 87 86 
352 678 271 92 87 86 
353 675 272 96 91 90 
353 675 273 95 90 89 
353 675 275 95 89 88 
354 673 272 94 89 88 
355 672 272 94 88 86 
355 673 272 94 88 87 
355 673 273 94 88 86 
355 672 275 95 88 86 
355 673 274 94 88 86 
355 673 275 94 88 85 
354 674 272 95 90 89 
354 674 273 94 89 87 
354 675 272 96 91 89 
354 675 273 95 90 89 
355 674 273 94 88 86 
354 674 274 93 88 86 
354 674 275 93 88 86 
354 675 274 95 90 89 
354 675 275 94 89 87 
355 674 274 94 88 86 
355 674 275 93 87 85 
353 675 276 94 88 87 
353 675 277 94 88 87 
353 675 278 94 88 87 
353 675 279 94 88 87 
354 672 277 94 88 86 
354 673 276 94 88 86 
354 673 277 94 88 87 
355 672 276 94 88 86 
355 672 277 94 88 86 
355 673 276 94 88 86 
355 673 277 94 88 87 
354 672 278 93 87 86 
354 672 279 88 83 81 
354 673 278 94 88 87 
354 673 279 92 87 85 
354 674 276 93 88 86 
354 674 277 93 88 86 
354 675 276 93 88 86 
354 674 278 94 88 87 
354 674 279 93 88 86 
352 676 272 97 91 90 
352 677 272 96 91 91 
352 677 273 97 92 91 
353 676 272 96 91 90 
353 676 273 96 91 90 
352 677 274 96 91 90 
352 677 275 96 90 89 
353 676 274 96 91 90 
353 676 275 96 90 89 
353 677 275 96 90 89 
352 678 272 93 88 87 
352 678 273 94 89 88 
352 679 273 91 86 85 
352 678 274 95 90 89 
352 678 275 95 89 88 
352 679 274 92 86 85 
352 679 275 93 87 86 
352 677 276 95 90 88 
352 677 277 94 89 88 
353 676 276 95 89 88 
353 676 277 94 89 88 
353 677 276 96 90 88 
353 677 277 94 89 88 
353 676 278 95 89 88 
353 676 279 95 89 87 
353 677 278 95 89 88 
353 677 279 96 90 88 
352 678 276 94 89 87 
352 678 277 95 89 88 
352 679 276 92 87 85 
352 679 277 92 87 85 
352 678 278 95 90 89 
352 678 279 96 91 89 
352 679 278 95 89 88 
352 679 279 95 90 88 
353 678 278 95 90 88 
353 678 279 96 90 89 
356 672 272 95 89 87 
356 672 273 95 89 87 
356 672 274 95 89 87 
356 672 275 95 89 87 
353 672 281 78 72 70 
353 672 282 80 74 72 
353 675 280 93 87 86 
353 675 281 93 87 85 
353 675 282 90 85 83 
354 672 280 82 77 75 
354 672 281 79 74 71 
354 673 280 87 81 79 
354 673 281 83 77 74 
354 672 282 81 75 72 
354 672 283 84 77 73 
354 673 282 84 77 74 
354 673 283 86 79 75 
354 674 280 91 86 84 
354 674 281 89 83 81 
354 674 282 86 79 76 
354 674 283 87 81 78 
354 675 282 87 81 78 
354 675 283 84 77 74 
353 675 287 82 76 73 
354 672 284 83 75 70 
354 672 285 81 73 67 
354 673 284 80 73 68 
354 673 285 75 67 61 
354 672 286 84 76 72 
354 672 287 91 84 82 
354 673 286 78 70 66 
354 673 287 86 80 77 
354 674 284 84 77 73 
354 674 285 78 71 66 
354 675 284 83 77 74 
354 675 285 83 76 74 
354 674 286 78 71 66 
354 674 287 77 71 67 
354 675 286 81 75 72 
354 675 287 78 71 68 
353 676 280 94 88 86 
353 676 281 94 88 87 
353 677 280 96 90 88 
353 677 281 95 89 87 
353 676 282 92 86 84 
353 676 283 87 81 78 
353 677 282 93 88 86 
353 677 283 91 85 83 
352 679 280 96 90 89 
352 679 281 97 91 89 
353 678 280 97 91 88 
353 678 281 96 90 88 
353 679 280 97 91 89 
353 679 281 97 91 89 
352 679 282 97 91 89 
352 679 283 96 91 89 
353 678 282 96 90 88 
353 678 283 93 88 86 
353 679 282 97 91 90 
353 679 283 96 90 89 
354 676 283 83 76 73 
353 676 284 85 79 76 
353 676 285 81 75 72 
353 677 284 87 81 78 
353 677 285 84 78 76 
353 676 286 80 74 71 
353 676 287 85 79 76 
353 677 286 86 81 79 
353 677 287 87 82 80 
352 679 284 96 90 88 
352 679 285 92 87 85 
353 678 284 88 83 80 
353 678 285 87 81 79 
