ply
format ascii 1.0
comment Created by CloudCompare v2.10.1 (Zephyrus)
comment Created 1/31/20 9:42 AM
obj_info Generated by CloudCompare!
element vertex 1980
property float x
property float y
property float z
property uchar red
property uchar green
property uchar blue
end_header
277 729 282 84 79 78 
277 730 282 81 76 75 
278 728 282 83 78 77 
278 729 282 82 78 77 
278 729 283 80 76 75 
279 728 282 83 78 77 
279 729 282 83 78 77 
279 729 283 81 77 76 
278 730 283 80 76 75 
279 729 284 81 77 75 
279 730 284 80 75 74 
282 727 282 82 78 76 
283 727 282 83 78 77 
283 727 283 82 78 77 
284 726 282 83 79 79 
284 727 282 83 79 78 
284 727 283 82 78 78 
285 726 282 83 79 79 
285 727 283 82 78 78 
286 726 282 82 78 77 
286 726 283 82 77 76 
286 727 283 81 77 76 
287 726 282 84 79 77 
287 726 283 84 79 78 
284 727 284 83 79 79 
284 727 285 84 80 80 
285 727 284 83 79 79 
285 727 285 83 79 79 
284 727 286 86 82 81 
284 727 287 86 82 82 
285 727 286 83 79 78 
285 727 287 84 80 80 
286 726 284 81 76 75 
286 727 284 82 77 76 
286 727 285 82 77 76 
287 726 284 83 78 77 
287 726 285 84 79 78 
287 727 285 82 78 76 
286 727 286 80 76 75 
286 727 287 82 78 77 
287 726 286 82 77 76 
287 726 287 83 78 77 
287 727 287 82 77 76 
280 728 282 81 77 76 
280 729 283 80 76 75 
281 728 282 81 77 76 
281 728 283 80 75 75 
282 728 282 80 76 75 
282 728 283 81 77 76 
283 728 283 82 78 77 
280 729 284 81 76 75 
280 729 285 79 75 74 
281 728 284 79 75 74 
281 729 284 80 76 75 
281 729 285 80 76 76 
281 729 286 80 76 75 
282 728 284 81 76 75 
282 728 285 82 78 77 
282 729 285 82 78 77 
283 728 284 83 79 78 
283 728 285 83 79 78 
282 728 286 85 80 79 
282 728 287 81 77 76 
282 729 286 82 78 77 
282 729 287 81 77 76 
283 728 286 85 81 80 
283 728 287 83 79 79 
284 728 284 84 80 80 
284 728 285 85 81 80 
284 728 286 85 81 81 
284 728 287 87 82 82 
285 727 288 82 78 78 
286 727 288 81 77 76 
286 727 289 79 75 74 
287 726 288 84 79 78 
287 727 288 82 77 76 
287 727 289 79 74 72 
287 727 290 75 70 67 
282 729 288 82 77 76 
283 728 288 84 80 79 
283 728 289 83 78 78 
284 728 288 86 82 82 
284 728 289 85 81 81 
285 728 288 85 81 81 
285 728 289 83 79 79 
284 728 290 85 81 80 
284 729 290 84 79 79 
285 728 290 82 78 77 
285 728 291 77 73 72 
285 729 291 74 69 68 
286 728 289 77 73 72 
286 728 290 75 70 69 
286 728 291 72 67 65 
287 728 290 73 68 66 
287 728 291 71 66 64 
286 729 292 69 65 64 
287 728 292 70 65 63 
287 729 292 70 66 64 
287 729 293 71 67 66 
302 719 287 75 70 69 
288 726 282 84 79 77 
288 726 283 85 80 78 
289 726 282 79 74 72 
289 726 283 82 76 74 
290 725 282 77 72 70 
290 725 283 79 74 72 
291 725 282 74 69 67 
291 725 283 79 74 72 
290 726 282 77 72 70 
290 726 283 80 74 72 
291 726 282 76 71 69 
291 726 283 83 78 76 
289 725 286 79 73 71 
289 725 287 77 71 69 
288 726 284 86 81 79 
288 726 285 85 79 77 
289 726 284 82 77 75 
289 726 285 82 77 75 
288 726 286 84 78 77 
288 726 287 84 79 77 
289 726 286 81 75 73 
289 726 287 79 74 72 
290 725 284 79 74 72 
290 725 285 78 73 71 
291 725 284 81 76 74 
291 725 285 78 74 73 
290 725 286 77 72 71 
290 725 287 77 72 69 
291 725 286 80 75 74 
291 725 287 82 77 77 
290 726 284 80 75 73 
291 726 285 78 73 72 
293 723 287 85 81 80 
294 723 287 86 82 81 
295 723 286 83 78 77 
295 723 287 84 79 78 
292 725 283 83 79 77 
292 726 282 85 80 79 
292 726 283 87 82 81 
293 726 283 89 84 83 
294 726 283 89 84 82 
292 725 284 84 79 78 
292 725 285 82 78 77 
293 724 285 85 81 80 
293 725 284 84 79 78 
293 725 285 84 80 79 
292 724 286 86 81 80 
292 724 287 87 82 82 
292 725 286 84 80 79 
293 724 286 86 81 80 
293 724 287 87 83 82 
293 726 284 85 80 79 
294 724 285 86 81 81 
294 725 284 85 81 79 
294 725 285 85 80 79 
295 724 285 84 79 78 
295 725 284 86 81 80 
295 725 285 85 80 79 
294 724 286 85 80 79 
294 724 287 86 81 80 
295 724 286 84 80 79 
294 726 284 87 82 81 
295 726 284 88 83 82 
296 723 285 84 79 78 
297 723 285 87 82 80 
296 722 287 84 79 78 
296 723 286 84 79 78 
296 723 287 84 79 77 
297 722 287 87 82 80 
297 723 286 86 81 80 
299 721 287 85 80 78 
298 723 285 89 84 82 
299 723 285 91 86 84 
298 722 286 87 82 80 
298 722 287 87 82 80 
298 723 286 88 82 81 
299 722 286 88 82 80 
299 722 287 86 81 79 
299 723 286 89 84 82 
296 724 285 85 80 79 
296 725 285 88 83 81 
297 724 285 88 83 81 
297 725 285 89 84 83 
297 726 285 90 85 83 
298 724 285 90 85 83 
298 725 285 92 87 85 
299 724 285 92 87 85 
299 725 285 96 90 89 
300 721 287 83 78 77 
301 720 287 79 74 73 
301 721 286 86 81 80 
301 721 287 83 78 77 
300 723 285 94 89 87 
301 723 285 96 91 89 
300 722 286 89 84 82 
300 723 286 93 88 86 
301 722 286 92 86 85 
303 721 285 91 85 83 
302 720 286 82 77 76 
302 720 287 77 73 72 
302 721 286 87 82 81 
303 720 286 83 78 76 
303 720 287 78 73 72 
303 721 286 88 83 82 
302 722 285 96 90 89 
302 723 285 100 94 92 
303 722 285 97 91 89 
303 723 285 113 105 103 
302 722 286 92 86 85 
300 724 285 97 91 89 
301 724 285 104 97 95 
304 719 287 79 75 73 
305 719 287 82 77 75 
306 718 287 80 75 74 
306 719 286 86 81 79 
306 719 287 82 77 76 
307 718 287 80 75 74 
307 719 286 87 81 80 
307 719 287 83 78 77 
308 718 287 80 75 73 
308 719 286 84 79 77 
309 718 286 82 78 76 
309 718 287 79 74 73 
309 719 286 86 81 79 
310 717 287 80 75 75 
311 717 286 82 78 76 
311 717 287 81 76 75 
310 719 285 92 86 84 
310 718 286 85 80 79 
310 718 287 81 77 76 
310 719 286 87 82 80 
311 718 286 86 81 80 
311 719 286 91 86 84 
312 716 287 80 75 73 
312 717 286 84 78 76 
312 717 287 81 76 74 
313 716 287 80 75 73 
313 717 286 84 78 76 
313 717 287 82 76 74 
312 718 286 87 82 80 
312 719 286 91 85 83 
313 718 286 87 81 79 
314 716 287 80 75 74 
314 717 286 84 79 77 
314 717 287 83 78 76 
315 717 286 84 78 76 
315 717 287 83 77 75 
314 718 286 87 81 79 
316 717 287 83 77 75 
317 717 287 81 75 73 
316 718 287 84 78 76 
318 717 287 81 75 73 
304 721 285 93 87 85 
305 721 285 94 88 85 
304 720 286 87 82 81 
304 720 287 81 76 75 
304 721 286 89 83 82 
305 720 286 87 82 80 
305 720 287 84 79 77 
304 722 285 99 93 90 
305 722 285 105 98 95 
306 720 285 93 87 84 
306 721 285 95 89 87 
307 720 285 94 88 86 
307 721 285 97 91 89 
306 720 286 87 82 80 
307 720 286 91 85 83 
308 720 285 94 88 86 
308 720 286 91 85 84 
302 719 288 75 71 70 
302 719 289 74 69 68 
303 719 288 75 70 69 
303 719 289 73 69 68 
302 719 290 72 68 67 
302 719 291 70 66 66 
303 719 290 73 69 67 
303 719 291 72 68 67 
303 719 292 70 66 65 
303 719 293 71 67 65 
289 725 288 74 69 67 
288 726 288 85 80 78 
288 726 289 83 78 76 
288 727 289 82 77 75 
289 726 288 80 75 73 
289 726 289 82 77 75 
288 727 290 76 71 69 
288 727 291 73 68 65 
289 726 290 81 76 75 
289 727 290 78 73 72 
289 727 291 74 69 67 
290 725 288 77 72 70 
290 725 289 80 75 74 
291 725 288 83 78 77 
291 725 289 85 81 81 
291 725 290 85 81 80 
290 726 288 78 73 72 
290 726 289 80 75 73 
290 726 290 77 72 71 
290 726 291 74 69 68 
290 727 291 73 68 67 
291 726 290 80 76 76 
291 726 291 75 70 69 
291 727 291 73 68 66 
290 727 292 73 68 67 
291 727 292 72 68 66 
293 723 288 84 79 78 
294 723 288 86 81 80 
294 723 289 82 77 76 
295 722 288 83 78 76 
295 723 288 84 79 77 
295 723 289 81 77 75 
294 723 290 79 74 73 
295 723 290 77 73 71 
292 724 288 88 83 83 
292 724 289 86 82 81 
292 725 289 88 84 83 
293 724 288 86 81 80 
293 724 289 83 79 77 
292 725 290 83 78 78 
292 725 291 75 71 70 
293 725 290 78 73 72 
293 725 291 73 69 68 
292 726 291 73 69 68 
293 726 291 72 68 66 
294 724 289 80 76 74 
294 724 290 76 72 70 
294 725 290 75 71 69 
294 725 291 72 68 67 
295 724 290 75 70 69 
295 724 291 73 69 67 
295 725 291 72 67 66 
292 726 292 70 66 65 
292 727 292 71 66 65 
292 727 293 73 68 66 
293 726 292 70 65 64 
293 727 292 71 67 65 
293 727 293 73 68 67 
294 725 292 73 69 68 
295 725 292 72 68 66 
294 726 292 72 68 66 
294 726 293 75 70 69 
294 727 293 77 72 70 
295 726 293 75 71 69 
295 727 293 82 76 75 
288 728 291 72 67 64 
289 728 291 71 67 65 
290 728 291 74 69 67 
288 728 292 72 67 65 
288 729 292 72 68 66 
288 729 293 72 68 67 
289 728 292 73 68 66 
289 729 292 75 70 67 
289 729 293 76 71 69 
288 730 293 74 70 68 
289 730 293 77 72 70 
288 730 294 75 70 69 
288 731 294 77 72 70 
289 730 294 78 73 71 
289 731 294 81 75 73 
290 728 292 72 67 65 
290 728 293 73 68 65 
290 729 293 75 69 67 
291 728 292 73 68 66 
291 728 293 74 69 67 
291 729 293 78 72 70 
291 729 294 80 75 73 
290 730 293 78 73 70 
290 730 294 80 75 72 
290 731 294 84 78 76 
291 730 294 82 76 74 
291 731 294 92 84 81 
290 735 291 103 91 82 
291 734 291 98 86 79 
289 732 294 92 86 83 
289 733 294 98 90 86 
288 735 292 110 98 91 
289 734 293 101 90 84 
289 735 292 106 94 86 
289 735 293 106 95 87 
289 734 294 101 92 85 
290 733 293 99 89 84 
291 732 293 97 88 83 
291 733 292 97 87 82 
291 733 293 98 89 83 
290 732 294 96 89 85 
290 733 294 99 90 86 
291 732 294 96 88 83 
290 734 292 98 88 81 
290 734 293 100 89 83 
290 735 292 102 91 83 
291 734 292 97 87 80 
292 728 293 76 71 69 
293 728 293 78 72 70 
293 729 293 83 78 76 
292 729 294 82 77 75 
293 729 294 96 89 86 
293 731 293 100 91 87 
292 730 294 93 86 83 
292 731 294 97 89 86 
293 730 294 99 91 87 
293 731 294 98 90 87 
294 728 293 83 77 75 
295 728 293 93 86 84 
295 729 293 109 101 97 
294 729 294 102 94 91 
295 728 294 101 94 91 
295 729 294 107 99 96 
294 730 293 107 98 94 
294 731 293 105 96 91 
295 730 293 110 101 97 
295 731 292 110 100 94 
295 731 293 109 99 94 
294 730 294 105 96 92 
293 733 291 100 89 83 
292 734 291 96 86 79 
294 733 291 108 96 89 
295 732 291 110 98 91 
292 732 293 99 89 84 
292 733 292 98 88 82 
292 733 293 97 87 81 
293 732 292 101 91 86 
293 732 293 100 91 85 
293 733 292 101 91 85 
292 734 292 96 85 80 
294 732 292 106 96 90 
294 732 293 103 93 88 
294 733 292 104 93 88 
295 732 292 111 100 94 
296 722 288 83 78 76 
296 722 289 82 77 76 
296 723 289 81 76 75 
297 722 288 87 82 80 
297 722 289 84 79 78 
296 723 290 78 73 71 
296 723 291 73 68 65 
297 722 290 79 74 72 
297 722 291 75 70 69 
297 723 290 78 73 71 
297 723 291 75 71 69 
298 721 288 85 80 78 
298 721 289 82 77 76 
299 721 288 83 78 76 
299 721 289 80 75 73 
298 721 290 76 71 69 
299 721 290 74 69 67 
299 721 291 70 65 63 
298 722 288 89 84 82 
298 722 289 80 75 73 
298 722 290 75 71 69 
298 722 291 72 67 66 
298 723 291 70 66 65 
299 722 291 70 65 62 
297 723 292 72 68 66 
298 722 292 70 65 64 
298 723 292 69 66 65 
298 723 293 71 67 67 
299 722 292 70 66 64 
299 722 293 71 67 65 
299 723 292 70 65 64 
299 723 293 72 68 66 
296 724 291 72 67 65 
296 724 292 73 68 66 
296 725 292 72 68 66 
296 725 293 73 68 66 
297 724 292 72 68 67 
297 724 293 73 68 67 
297 725 293 73 69 67 
296 726 293 76 71 69 
296 727 293 87 81 79 
297 726 293 77 72 70 
296 726 294 79 74 72 
296 727 294 88 82 81 
297 726 294 79 74 72 
297 727 294 91 84 82 
298 724 293 72 68 67 
298 725 293 74 70 68 
299 724 293 74 69 67 
298 725 294 76 71 69 
299 724 294 75 70 68 
299 725 294 76 71 69 
298 726 294 83 77 75 
298 727 294 94 87 85 
299 726 294 85 79 77 
299 727 294 96 89 87 
300 720 288 79 74 73 
300 720 289 77 72 70 
300 721 288 81 75 74 
301 720 288 76 71 70 
301 720 289 73 68 67 
300 720 290 72 68 66 
300 721 290 73 68 66 
300 721 291 70 65 63 
301 720 290 69 65 63 
301 720 291 68 64 63 
301 721 291 69 64 63 
302 720 288 76 71 70 
302 720 289 73 68 67 
302 720 290 69 65 64 
302 720 291 69 65 64 
300 721 292 70 65 63 
301 721 292 69 65 64 
301 721 293 71 66 65 
300 722 292 68 63 61 
300 722 293 71 66 65 
300 723 293 72 67 66 
301 722 293 71 67 65 
300 723 294 74 69 67 
301 722 294 74 69 67 
301 723 294 75 70 68 
301 723 295 76 71 68 
302 720 292 69 64 63 
302 720 293 69 65 64 
302 721 292 69 65 63 
302 721 293 71 66 64 
303 720 292 69 65 64 
303 720 293 71 66 65 
302 721 294 73 68 66 
303 720 294 73 69 67 
303 721 294 74 69 67 
303 721 295 76 71 68 
302 722 294 75 69 67 
302 722 295 76 71 68 
302 723 295 80 74 72 
303 722 295 79 73 71 
303 723 295 85 80 77 
300 724 294 76 71 69 
300 725 294 83 77 75 
301 724 294 80 75 73 
301 724 295 83 77 74 
301 725 294 90 84 82 
300 727 293 100 93 91 
301 727 293 97 90 87 
300 726 294 92 86 84 
300 727 294 100 94 92 
301 726 294 99 93 91 
301 727 294 100 93 92 
302 724 295 87 81 79 
302 725 294 98 92 91 
302 725 295 94 88 86 
303 724 295 96 90 89 
303 725 294 94 88 87 
303 725 295 99 93 92 
302 727 293 89 83 80 
303 727 293 86 80 77 
302 726 294 98 92 90 
302 727 294 93 86 85 
303 726 294 89 82 80 
296 731 291 112 101 95 
297 731 291 112 102 96 
298 730 291 108 98 93 
298 731 291 110 100 94 
299 730 291 106 95 88 
296 729 293 111 102 99 
297 728 293 104 97 94 
297 729 293 108 100 97 
296 728 294 99 92 90 
296 729 294 106 99 96 
297 728 294 100 93 91 
296 730 293 112 103 98 
296 731 292 112 102 96 
297 730 292 112 102 97 
297 730 293 112 103 98 
297 731 292 112 102 96 
298 728 293 105 97 95 
298 729 293 109 101 98 
299 728 293 104 97 94 
299 729 292 103 95 90 
299 729 293 105 97 94 
298 728 294 101 94 92 
299 728 294 101 94 92 
298 730 292 109 101 96 
298 730 293 111 102 99 
299 730 292 105 96 91 
296 732 291 112 101 94 
301 729 291 101 90 83 
300 730 291 104 93 86 
300 728 293 100 92 90 
300 729 292 101 92 88 
300 729 293 100 92 88 
301 728 293 94 87 84 
301 729 292 97 88 83 
301 729 293 96 88 84 
300 730 292 102 93 87 
302 728 292 92 84 80 
302 728 293 91 83 79 
302 729 292 97 88 82 
303 728 292 94 86 82 
303 728 293 90 82 79 
303 729 292 99 89 84 
304 718 289 76 71 69 
304 719 288 76 72 70 
304 719 289 75 71 69 
305 718 288 77 72 71 
305 718 289 76 71 69 
305 719 288 77 73 71 
304 718 290 76 71 69 
304 718 291 75 70 69 
304 719 290 75 71 69 
304 719 291 74 70 68 
305 718 290 75 70 68 
305 718 291 75 70 68 
306 717 288 74 70 69 
306 717 289 73 69 68 
307 716 289 72 67 66 
307 717 288 75 71 69 
307 717 289 72 68 67 
306 717 290 74 70 69 
306 717 291 75 71 70 
307 716 290 72 68 67 
307 716 291 73 68 67 
306 718 288 77 73 72 
306 718 289 74 70 70 
307 718 288 77 72 71 
306 718 290 74 70 70 
306 718 291 74 70 70 
304 719 292 74 69 67 
304 719 293 72 68 67 
305 718 292 73 69 67 
305 718 293 73 68 67 
305 719 293 74 69 67 
304 719 294 74 69 68 
305 718 294 74 69 67 
305 719 294 75 70 69 
305 719 295 75 71 69 
306 717 292 75 70 69 
306 717 293 74 70 68 
307 716 292 74 70 68 
307 716 293 77 72 70 
307 717 293 76 71 69 
306 717 294 74 69 67 
307 717 294 76 71 70 
307 717 295 76 70 68 
306 718 292 74 70 69 
306 718 293 73 69 67 
306 718 294 74 70 68 
306 718 295 74 69 67 
306 719 295 78 73 71 
307 718 295 76 71 68 
307 719 295 81 76 74 
309 715 291 73 69 68 
310 715 290 73 70 69 
310 715 291 73 70 69 
311 715 290 75 71 70 
311 715 291 73 69 68 
309 715 292 73 69 68 
309 715 293 73 69 68 
309 715 294 73 68 67 
310 715 292 72 69 68 
310 715 293 72 68 67 
311 715 292 72 69 68 
311 715 293 72 68 67 
310 715 294 72 68 67 
311 715 294 72 68 66 
308 716 289 73 68 66 
308 717 288 75 71 69 
308 717 289 74 69 68 
309 716 288 74 70 69 
309 716 289 73 69 68 
309 717 288 76 72 70 
309 717 289 74 70 68 
308 716 290 71 67 65 
308 716 291 72 68 66 
309 716 290 72 68 67 
309 716 291 72 68 67 
308 718 288 78 73 72 
310 716 288 76 72 71 
310 716 289 74 70 69 
310 717 288 78 73 72 
311 716 288 77 73 71 
311 716 289 76 71 70 
311 717 288 79 74 74 
310 716 290 74 70 69 
311 716 290 75 71 70 
308 716 292 75 70 68 
308 716 293 77 72 70 
309 716 293 75 70 69 
308 716 294 76 72 70 
308 717 294 77 72 71 
308 717 295 77 72 70 
309 716 294 76 71 70 
309 716 295 76 72 70 
309 717 295 77 73 71 
308 718 295 79 73 71 
308 719 295 84 79 76 
309 718 295 78 73 72 
309 719 295 84 78 77 
310 716 294 73 69 68 
310 716 295 75 70 69 
310 717 295 76 72 71 
311 716 294 72 68 67 
311 716 295 74 70 69 
311 717 295 76 71 70 
310 718 295 77 73 72 
310 719 295 81 76 75 
311 718 295 77 72 71 
311 719 295 81 76 75 
312 715 289 77 72 71 
313 715 289 78 74 72 
312 715 290 76 71 70 
312 715 291 74 70 68 
313 714 291 75 70 69 
313 715 290 76 72 71 
313 715 291 75 71 70 
314 715 289 79 74 73 
315 715 288 78 74 72 
315 715 289 77 73 72 
314 714 291 76 72 70 
314 715 290 77 73 72 
314 715 291 75 71 70 
315 714 290 76 71 70 
315 714 291 76 72 71 
315 715 290 76 72 70 
312 715 292 74 70 68 
312 715 293 72 68 67 
313 714 292 74 70 69 
313 714 293 74 70 68 
313 715 293 73 69 67 
312 715 294 70 66 65 
313 715 294 70 65 63 
314 714 292 75 70 69 
314 714 293 75 70 69 
315 714 292 78 74 73 
315 714 293 76 72 71 
314 715 294 69 65 63 
315 714 294 72 67 66 
315 715 294 68 63 61 
315 715 295 68 63 62 
312 716 288 77 73 71 
312 716 289 77 72 71 
313 716 288 79 74 72 
313 716 289 78 73 71 
314 716 288 81 76 75 
315 716 288 79 74 73 
312 716 294 72 68 67 
312 716 295 73 69 68 
312 717 295 75 71 69 
313 716 294 71 67 65 
313 716 295 72 68 66 
313 717 295 74 69 68 
312 718 295 76 72 70 
312 719 295 79 74 73 
313 718 295 75 71 70 
313 719 295 79 75 73 
314 716 294 71 66 64 
314 716 295 71 66 65 
314 717 295 72 68 66 
315 716 294 68 63 62 
315 716 295 65 60 58 
315 717 295 70 65 63 
314 718 295 78 73 72 
314 719 295 82 78 76 
315 718 295 79 74 73 
315 719 295 88 83 82 
316 715 288 77 73 71 
316 715 289 76 72 71 
317 715 288 78 73 71 
317 715 289 77 73 71 
316 714 290 75 71 70 
316 714 291 78 74 73 
316 715 290 76 72 71 
317 714 290 77 72 71 
317 714 291 78 73 72 
317 715 290 77 72 71 
318 715 288 78 73 71 
318 715 289 79 74 73 
319 715 288 80 75 73 
319 715 289 79 74 73 
318 714 290 79 74 73 
318 714 291 77 73 72 
318 715 290 80 76 74 
319 714 290 78 74 73 
319 714 291 75 71 70 
316 714 292 77 73 72 
316 714 293 75 70 70 
317 714 292 75 70 70 
317 714 293 71 67 66 
316 714 294 68 64 62 
316 715 294 65 60 58 
316 715 295 61 57 55 
317 714 294 66 61 60 
317 714 295 61 57 56 
317 715 295 59 55 53 
318 714 292 74 70 69 
318 714 293 69 65 64 
319 714 292 73 69 68 
319 714 293 68 63 62 
318 714 294 65 61 60 
318 714 295 64 60 59 
319 714 294 64 60 59 
319 714 295 66 62 61 
316 716 288 80 74 73 
316 717 288 81 76 74 
317 716 288 79 74 72 
318 716 288 80 74 73 
319 716 288 80 75 73 
316 716 295 60 56 54 
316 717 295 64 59 57 
316 718 295 75 71 70 
316 719 295 81 76 75 
317 714 296 62 58 56 
317 715 296 59 55 53 
317 715 297 59 55 54 
318 714 296 66 62 60 
318 714 297 68 64 63 
318 715 297 63 59 58 
319 714 296 68 64 63 
319 714 297 66 62 61 
318 715 298 60 56 54 
318 715 299 59 55 54 
319 714 298 61 57 55 
319 714 299 59 56 55 
319 715 299 59 56 54 
319 714 300 61 58 57 
319 715 300 61 57 56 
319 715 301 63 60 59 
316 716 296 56 51 50 
316 717 296 59 55 53 
317 716 296 55 50 48 
317 716 297 56 52 50 
317 717 296 58 53 52 
317 717 297 56 52 51 
317 716 298 56 52 51 
317 717 298 56 52 50 
316 719 296 72 67 66 
317 718 296 65 61 59 
317 718 297 58 54 52 
317 719 296 61 56 54 
318 716 298 57 53 51 
318 716 299 58 54 52 
318 717 298 57 53 51 
318 717 299 58 54 52 
318 718 297 58 53 51 
318 719 297 58 53 51 
318 718 298 56 52 50 
318 718 299 59 54 52 
318 719 298 57 53 51 
318 719 299 58 54 52 
318 716 300 60 56 55 
318 717 300 61 57 55 
319 716 300 61 58 56 
319 716 301 65 61 61 
319 717 301 63 59 58 
319 716 302 67 63 62 
319 717 302 63 59 58 
319 717 303 62 58 58 
318 718 300 60 56 54 
318 718 301 60 56 54 
318 719 300 59 55 53 
318 719 301 59 55 54 
319 718 301 60 56 54 
319 719 300 60 55 53 
318 719 302 59 56 55 
318 719 303 56 53 53 
319 718 302 60 56 55 
319 718 303 57 55 54 
319 719 302 59 55 55 
319 719 303 56 53 53 
319 718 304 55 53 53 
319 719 304 53 51 51 
319 719 305 50 48 49 
319 719 306 45 44 44 
304 720 294 74 69 67 
304 720 295 75 70 68 
304 721 295 79 74 72 
305 720 295 78 73 71 
305 721 295 83 78 76 
304 722 295 85 79 77 
304 723 295 93 87 86 
305 722 295 90 84 83 
305 723 295 94 88 87 
306 720 295 83 78 76 
306 721 295 89 83 82 
307 720 295 86 80 78 
307 721 295 90 85 83 
307 723 293 66 60 58 
306 722 295 90 85 84 
306 723 294 80 74 72 
306 723 295 90 85 84 
307 722 294 77 71 69 
307 722 295 87 81 80 
307 723 294 69 64 62 
305 725 293 75 68 65 
304 724 295 96 90 89 
304 725 294 86 81 79 
305 724 294 81 75 73 
305 724 295 92 87 86 
305 725 294 80 74 72 
304 726 293 81 75 73 
304 727 293 84 77 74 
305 726 293 77 70 68 
305 727 292 84 77 73 
305 727 293 81 74 71 
304 726 294 83 77 75 
306 724 293 70 64 60 
306 725 293 71 64 61 
307 724 292 64 58 55 
307 724 293 64 58 55 
307 725 292 68 62 59 
307 725 293 67 61 57 
306 724 294 74 68 66 
306 726 292 76 69 65 
306 726 293 75 68 64 
306 727 292 89 81 77 
306 727 293 80 73 69 
307 726 292 79 72 68 
310 723 291 69 64 63 
311 723 291 74 69 66 
308 720 295 91 86 84 
308 721 294 79 73 71 
308 721 295 87 82 80 
309 720 295 93 88 86 
309 721 294 85 80 78 
308 722 293 65 58 56 
308 723 293 63 56 54 
309 722 293 66 60 59 
309 723 292 62 57 55 
309 723 293 61 56 54 
308 722 294 70 64 62 
310 721 293 88 81 80 
311 721 293 87 80 78 
310 720 294 92 87 85 
310 720 295 89 84 82 
310 721 294 93 87 87 
311 720 294 90 84 83 
311 721 294 94 88 87 
310 722 292 70 65 63 
310 722 293 73 67 66 
310 723 292 66 61 59 
311 722 292 74 67 64 
311 723 292 72 66 63 
308 725 291 79 72 69 
309 724 291 73 66 65 
309 725 291 81 74 71 
310 724 291 74 69 67 
311 724 291 79 73 71 
308 724 292 64 58 56 
308 724 293 61 56 53 
308 725 292 72 66 63 
309 724 292 64 59 58 
308 726 292 81 74 71 
310 724 292 67 63 62 
304 728 292 96 87 82 
304 728 293 89 82 78 
305 728 292 97 88 83 
312 723 291 76 70 67 
312 721 293 82 76 73 
313 721 293 74 68 65 
312 720 294 86 81 79 
312 721 294 92 86 84 
313 720 294 80 75 74 
313 720 295 77 72 71 
313 721 294 77 71 69 
312 722 292 73 66 62 
312 722 293 75 68 64 
312 723 292 74 67 63 
313 722 292 72 66 62 
313 722 293 72 66 63 
313 723 292 77 70 67 
314 720 295 80 74 72 
314 721 294 77 70 67 
314 721 295 78 72 69 
315 720 295 81 76 74 
315 721 294 78 72 69 
315 721 295 76 70 67 
314 722 293 79 72 69 
314 723 292 82 76 73 
314 723 293 82 76 74 
315 723 292 90 84 81 
315 723 293 89 83 81 
314 722 294 81 74 71 
315 722 294 85 78 76 
315 723 294 92 85 83 
313 724 292 84 77 75 
316 720 295 73 67 65 
316 721 295 68 63 60 
316 722 295 74 69 66 
316 723 294 91 85 83 
316 723 295 76 70 68 
317 722 295 65 60 57 
317 723 295 66 61 59 
316 724 294 86 80 79 
317 724 295 62 57 55 
316 720 296 63 58 56 
316 721 296 60 55 52 
317 720 296 60 55 52 
317 721 296 60 55 52 
317 722 296 61 55 53 
317 723 296 59 54 52 
318 720 297 58 53 51 
318 721 296 58 53 49 
318 721 297 57 52 50 
318 720 298 57 53 51 
318 720 299 58 54 51 
318 721 298 57 53 51 
318 721 299 57 53 51 
318 722 296 59 53 50 
318 722 297 57 51 49 
318 723 296 56 51 48 
318 723 297 57 52 49 
318 722 298 56 52 50 
318 722 299 58 53 52 
318 723 298 57 52 50 
318 723 299 57 53 51 
317 722 302 62 57 55 
317 722 303 64 59 57 
317 723 302 64 59 56 
317 723 303 69 63 60 
318 720 300 59 55 52 
318 720 301 60 55 53 
318 721 300 58 54 51 
318 721 301 59 55 52 
319 720 300 60 55 53 
318 720 302 57 54 53 
318 720 303 55 52 52 
318 721 302 58 54 53 
318 721 303 57 53 52 
318 722 300 58 54 51 
318 722 301 59 54 52 
318 723 300 58 54 51 
318 723 301 61 56 53 
318 722 302 60 56 54 
318 722 303 62 57 56 
318 724 296 57 52 49 
318 724 297 57 51 47 
318 725 296 58 53 50 
318 725 297 58 52 48 
318 724 298 58 52 49 
318 724 299 57 52 50 
318 725 298 58 52 48 
318 725 299 59 54 51 
318 726 298 61 55 52 
318 726 299 63 58 56 
318 727 299 69 63 62 
317 724 301 64 59 56 
317 725 301 70 65 62 
317 724 302 69 63 60 
317 724 303 76 70 66 
317 725 302 77 70 66 
317 725 303 85 78 75 
317 726 302 85 78 75 
317 726 303 91 84 81 
318 724 300 60 55 52 
318 724 301 63 57 55 
318 725 300 63 58 56 
318 725 301 70 64 62 
318 725 302 81 74 70 
318 726 300 71 66 64 
318 726 301 81 74 72 
318 727 300 79 73 71 
318 727 301 90 84 81 
318 726 302 91 84 81 
318 726 303 94 88 85 
318 727 302 94 89 87 
318 727 303 91 85 83 
318 728 300 86 80 78 
318 728 301 92 87 86 
319 728 300 92 85 83 
319 728 301 93 88 86 
319 729 301 91 85 84 
318 728 302 92 87 86 
319 728 302 87 81 80 
319 728 303 75 68 66 
319 729 302 76 69 68 
319 729 303 59 53 51 
317 722 304 60 56 55 
317 722 305 56 52 51 
317 723 304 71 66 63 
317 723 305 70 65 63 
317 722 306 54 51 50 
317 723 306 66 62 60 
318 720 304 51 49 49 
318 720 305 47 46 47 
318 721 304 53 51 51 
318 721 305 48 47 47 
319 720 305 47 46 47 
318 721 306 45 44 45 
319 720 306 45 44 45 
319 721 306 46 45 46 
319 721 307 50 48 48 
318 722 305 50 48 48 
318 722 306 51 49 48 
318 722 307 54 51 50 
318 723 306 61 56 54 
318 723 307 60 55 53 
319 722 307 55 51 50 
319 723 307 56 52 49 
317 724 304 80 74 72 
317 724 305 81 76 74 
317 725 304 90 84 82 
317 725 305 89 83 81 
317 724 306 77 72 70 
317 726 304 93 87 84 
318 725 305 87 81 79 
318 724 306 75 70 68 
318 724 307 65 59 56 
318 725 306 77 71 68 
318 725 307 70 65 62 
319 724 307 58 53 50 
319 725 307 55 50 47 
318 726 304 89 82 79 
318 726 305 76 69 67 
318 727 304 78 72 69 
318 727 305 65 59 56 
319 727 304 61 54 50 
319 727 305 57 51 47 
318 726 306 68 62 59 
319 726 306 58 53 50 
319 726 307 53 48 46 
319 727 306 56 50 48 
319 727 307 53 47 46 
319 728 304 62 55 52 
319 728 305 56 50 47 
319 729 304 55 50 48 
319 729 305 56 51 48 
319 728 306 57 51 48 
319 732 306 56 52 50 
319 732 307 57 53 51 
319 733 306 55 51 49 
319 733 307 56 51 49 
319 734 307 59 54 52 
319 732 308 61 56 54 
319 732 309 63 59 56 
319 733 308 59 54 51 
319 733 309 64 60 57 
319 732 310 68 63 61 
319 733 310 65 60 58 
319 733 311 65 61 59 
318 735 309 62 57 55 
319 734 308 61 56 54 
319 734 309 63 59 57 
319 735 308 66 61 58 
319 735 309 62 58 56 
318 734 310 65 61 59 
318 735 310 64 60 58 
318 735 311 62 58 57 
319 734 310 67 62 60 
319 734 311 64 59 58 
319 733 312 63 59 58 
319 733 313 63 59 58 
319 733 314 63 58 56 
319 733 315 62 56 54 
318 735 312 60 56 55 
318 735 313 59 55 53 
319 734 312 63 59 58 
319 734 313 61 57 56 
319 735 313 59 55 54 
318 735 314 57 54 53 
318 735 315 56 52 52 
319 734 314 57 54 53 
319 734 315 59 54 52 
319 735 314 57 53 52 
319 732 316 60 55 52 
319 733 316 62 57 53 
318 735 316 57 53 52 
319 734 316 60 55 52 
319 734 317 60 55 53 
319 735 316 58 54 53 
319 735 317 59 55 53 
288 736 291 115 103 94 
288 736 292 114 102 95 
289 736 292 111 99 91 
318 736 309 63 58 57 
319 736 309 68 63 60 
318 736 310 59 55 53 
318 736 311 57 53 51 
318 737 310 56 52 50 
318 737 311 55 51 49 
319 737 310 58 53 51 
318 738 311 55 50 48 
315 743 316 60 55 52 
315 743 317 57 52 49 
315 743 318 57 52 50 
315 743 319 54 50 49 
317 736 313 56 52 50 
317 737 312 55 50 48 
317 737 313 55 50 48 
317 737 314 54 50 48 
317 737 315 52 49 49 
316 739 313 54 49 46 
317 738 312 54 49 46 
317 738 313 54 48 45 
317 739 312 55 49 46 
317 739 313 54 49 46 
316 739 314 54 50 47 
316 739 315 53 49 47 
317 738 314 53 48 46 
317 738 315 52 48 46 
317 739 314 55 50 48 
317 739 315 52 48 46 
318 736 312 57 53 51 
318 736 313 57 53 51 
318 737 312 56 51 49 
318 736 314 56 52 52 
318 736 315 54 51 51 
318 737 315 51 48 48 
318 738 312 54 50 48 
317 738 316 50 47 47 
317 739 316 51 47 46 
317 739 317 50 48 47 
317 739 318 51 49 48 
318 736 316 53 50 50 
318 737 316 50 47 47 
318 737 317 51 49 49 
319 736 316 57 54 53 
319 736 317 57 53 53 
319 737 317 53 51 51 
319 737 318 54 51 51 
318 738 316 48 46 46 
318 738 317 48 46 46 
318 739 317 48 46 46 
318 738 318 48 46 46 
318 739 318 50 48 48 
318 739 319 53 51 50 
319 738 318 52 50 49 
319 739 318 50 48 47 
319 739 319 54 50 49 
316 740 313 55 51 48 
316 741 313 59 54 50 
317 740 313 57 52 49 
316 740 314 54 49 47 
316 740 315 53 49 47 
316 741 314 57 52 49 
316 741 315 55 50 48 
317 741 314 57 52 49 
317 741 315 56 51 48 
316 743 315 62 56 53 
317 742 315 59 54 51 
316 740 316 52 48 46 
316 741 316 53 49 47 
316 741 317 53 49 48 
317 740 317 51 48 47 
317 741 317 53 49 49 
317 740 318 51 49 49 
317 740 319 53 51 50 
317 741 318 52 50 49 
317 741 319 53 50 50 
316 742 316 56 51 49 
316 742 317 55 51 49 
316 743 316 59 54 51 
316 743 317 56 51 49 
316 742 318 54 50 49 
316 742 319 53 50 49 
316 743 318 56 52 50 
316 743 319 53 50 49 
317 742 318 53 50 49 
317 742 319 52 50 50 
318 740 318 51 49 49 
318 740 319 55 52 52 
319 740 319 56 52 51 
314 745 317 61 56 53 
315 744 316 62 57 53 
315 744 317 59 54 51 
315 745 317 60 55 52 
314 744 318 58 53 51 
314 745 318 60 55 52 
315 744 318 58 53 51 
315 744 319 55 51 49 
315 745 318 61 56 53 
315 746 318 63 57 54 
319 745 319 80 71 63 
317 741 320 54 52 52 
316 742 320 52 50 49 
316 743 320 52 49 50 
316 743 321 52 50 50 
317 742 320 54 52 52 
317 742 321 56 54 54 
317 743 321 56 53 53 
318 741 320 57 54 54 
319 740 320 57 54 53 
319 741 320 58 55 54 
319 741 321 59 56 55 
318 742 320 58 56 56 
318 742 321 59 56 55 
318 743 321 60 56 55 
319 742 321 61 57 55 
319 743 321 63 58 55 
317 744 321 59 55 54 
317 745 320 72 64 59 
317 745 321 64 58 54 
317 746 320 78 69 61 
317 746 321 76 67 61 
317 747 320 80 70 62 
318 744 321 67 60 56 
318 745 320 73 65 59 
319 744 320 75 67 61 
319 744 321 68 62 58 
319 745 320 78 69 62 
318 746 320 78 69 62 
320 714 289 81 77 76 
320 715 288 81 76 75 
320 715 289 80 75 75 
321 714 289 83 78 78 
321 715 288 82 77 76 
321 715 289 82 77 77 
320 714 290 80 75 74 
320 714 291 77 73 73 
321 714 290 81 77 76 
321 714 291 80 76 77 
322 714 289 85 81 81 
322 715 288 88 83 82 
322 715 289 78 74 74 
323 714 289 83 79 80 
323 715 288 85 80 80 
323 715 289 84 80 80 
322 714 290 84 80 80 
322 714 291 81 78 78 
323 714 290 81 77 78 
323 714 291 78 74 74 
321 713 294 59 55 54 
321 713 295 60 56 54 
320 714 292 74 70 70 
320 714 293 68 65 64 
321 714 292 75 71 71 
321 714 293 65 61 61 
320 714 294 62 58 56 
320 714 295 64 60 58 
321 714 294 60 56 55 
321 714 295 62 58 56 
322 713 293 63 60 59 
323 713 292 66 63 62 
323 713 293 60 57 56 
322 713 294 58 54 52 
322 713 295 58 54 52 
323 713 294 57 53 51 
323 713 295 57 52 50 
322 714 292 77 73 73 
322 714 293 70 66 66 
323 714 292 71 68 68 
320 716 288 81 75 74 
321 716 288 83 78 76 
324 713 291 66 62 62 
325 713 290 65 62 62 
325 713 291 62 59 58 
324 714 289 77 73 73 
324 715 289 77 73 73 
325 714 289 75 71 71 
324 714 290 73 70 70 
324 714 291 69 66 66 
325 714 290 68 65 65 
327 713 289 66 62 62 
326 713 290 64 60 60 
326 713 291 59 55 54 
327 712 291 59 54 52 
327 713 290 63 58 57 
327 713 291 58 54 52 
326 714 289 70 66 66 
327 714 289 66 63 63 
326 714 290 67 64 64 
324 713 292 61 57 56 
324 713 293 57 52 50 
325 712 293 55 51 49 
325 713 292 57 53 52 
325 713 293 55 51 49 
324 712 295 57 53 52 
324 713 294 56 52 50 
324 713 295 57 53 52 
325 712 294 57 53 51 
325 712 295 56 52 51 
326 712 292 57 53 51 
326 712 293 57 52 51 
326 713 292 57 52 50 
326 713 293 56 51 49 
327 712 292 59 54 53 
327 712 293 59 55 54 
326 712 294 57 53 51 
326 712 295 54 51 50 
327 712 294 56 52 51 
327 712 295 55 52 50 
321 713 296 59 54 53 
321 713 297 58 55 54 
320 714 296 66 62 60 
320 714 297 64 59 58 
321 714 296 61 57 55 
321 714 297 58 55 54 
320 714 298 59 56 54 
320 714 299 61 58 57 
321 714 298 58 55 54 
321 714 299 61 58 57 
322 713 296 57 53 52 
322 713 297 56 53 52 
323 713 296 55 51 50 
323 713 297 54 51 50 
322 713 298 54 52 52 
323 713 298 54 51 51 
323 713 299 54 52 51 
322 714 298 57 55 54 
322 714 299 59 56 56 
323 714 299 55 53 52 
320 714 300 63 60 59 
320 714 301 61 58 56 
320 715 300 64 61 60 
320 715 301 63 59 58 
321 714 300 61 58 57 
321 714 301 58 55 54 
321 715 301 56 53 52 
320 715 302 63 60 59 
321 715 302 54 51 50 
321 715 303 52 49 48 
322 714 300 57 54 54 
322 714 301 53 50 49 
323 714 300 54 51 51 
323 714 301 53 50 49 
322 715 302 51 48 47 
322 715 303 54 51 50 
323 714 302 53 50 49 
323 715 302 54 51 50 
323 715 303 63 60 59 
320 716 302 63 60 59 
320 716 303 60 57 56 
320 717 303 60 57 57 
321 716 303 56 53 52 
322 716 303 61 58 58 
323 716 303 67 65 65 
324 713 296 53 50 49 
324 713 297 53 50 48 
325 712 296 54 50 49 
325 713 296 53 50 49 
325 713 297 54 51 50 
324 713 298 55 52 50 
324 713 299 56 53 53 
325 713 298 58 55 54 
325 713 299 60 57 57 
326 712 296 53 50 48 
326 712 297 55 51 50 
326 713 297 54 51 50 
327 712 296 55 51 49 
327 712 297 57 53 52 
326 713 298 56 53 52 
326 713 299 59 55 55 
327 712 298 59 56 55 
327 713 298 60 56 55 
327 713 299 57 54 53 
324 713 300 57 54 54 
325 713 300 59 57 57 
324 714 300 58 55 55 
324 714 301 56 54 54 
325 714 301 57 55 55 
324 714 302 58 55 55 
324 715 302 58 55 54 
324 715 303 62 59 59 
325 714 302 58 55 55 
325 715 302 57 54 54 
325 715 303 61 57 56 
326 713 300 58 55 55 
326 713 301 56 54 53 
327 713 300 55 52 51 
327 713 301 55 52 51 
326 714 301 58 55 54 
327 714 301 55 52 51 
326 714 302 58 55 55 
326 715 302 58 54 54 
326 715 303 58 55 53 
327 714 302 55 52 51 
327 715 302 54 51 50 
327 715 303 54 51 50 
326 716 303 58 54 53 
327 716 303 55 51 50 
328 713 289 64 60 59 
329 713 289 67 62 60 
328 712 290 62 58 56 
328 712 291 63 58 56 
328 713 290 63 58 56 
329 712 290 67 61 59 
329 712 291 67 62 59 
330 712 289 71 65 60 
331 712 289 76 69 65 
330 712 290 70 65 61 
330 712 291 69 64 61 
331 712 290 75 68 64 
331 712 291 75 68 64 
328 712 292 63 58 57 
328 712 293 60 56 55 
329 712 292 64 60 57 
329 712 293 59 54 52 
328 712 294 56 52 50 
328 712 295 55 51 50 
329 712 294 56 52 50 
329 712 295 58 53 52 
329 713 295 63 57 54 
330 712 292 67 62 59 
330 712 293 62 58 55 
330 713 293 67 61 57 
331 712 292 75 67 63 
331 713 292 76 68 62 
331 713 293 73 66 61 
330 712 294 61 56 53 
330 713 294 67 61 57 
330 713 295 65 59 56 
331 714 293 77 69 63 
330 714 295 75 68 64 
331 714 294 77 69 64 
331 714 295 81 73 67 
331 715 294 85 75 69 
331 715 295 89 79 73 
331 716 294 91 80 73 
331 716 295 94 84 77 
331 717 295 96 85 77 
332 712 290 77 69 63 
332 712 291 76 68 62 
332 713 291 77 67 60 
332 713 292 76 67 61 
332 714 292 77 68 61 
332 714 293 78 69 62 
332 715 293 83 73 66 
332 715 294 86 76 69 
328 712 296 56 52 51 
328 712 297 57 54 52 
329 712 296 58 54 52 
329 712 297 59 55 54 
329 713 296 64 59 56 
329 713 297 64 60 57 
328 712 298 57 53 51 
328 713 298 60 56 54 
328 713 299 59 55 53 
329 713 298 61 57 54 
329 714 297 72 66 62 
329 714 298 72 65 62 
329 714 299 69 63 60 
329 715 299 79 71 67 
330 713 296 69 63 59 
330 714 296 78 70 65 
330 714 297 79 72 67 
330 715 297 90 80 75 
331 714 296 83 75 69 
331 715 296 89 80 73 
331 715 297 90 81 75 
330 714 298 82 75 71 
330 715 298 87 78 74 
330 715 299 85 77 72 
328 713 300 58 54 53 
328 714 300 60 55 53 
328 714 301 58 54 52 
328 715 301 62 56 53 
329 714 300 64 58 56 
329 715 300 72 66 62 
329 715 301 69 62 58 
328 715 302 57 53 51 
329 716 299 84 76 71 
330 716 297 95 85 78 
331 716 296 93 82 76 
331 716 297 93 82 76 
331 717 296 97 86 79 
331 717 297 98 87 79 
330 716 298 93 84 77 
330 716 299 89 80 74 
330 717 298 99 88 80 
330 717 299 92 82 76 
331 717 298 98 87 78 
331 718 296 105 92 83 
331 718 297 104 91 83 
331 719 297 100 88 81 
330 718 298 93 82 74 
330 718 299 81 71 63 
330 719 299 73 63 59 
331 718 298 93 82 74 
331 719 298 82 70 65 
331 719 299 72 62 59 
328 716 301 62 56 52 
329 716 300 79 71 65 
329 716 301 70 63 58 
329 717 300 79 71 66 
329 717 301 72 65 60 
328 716 302 60 54 49 
328 716 303 52 47 45 
328 717 302 59 53 49 
328 717 303 57 51 47 
329 717 302 65 58 54 
329 717 303 63 56 52 
329 718 301 67 59 54 
329 719 301 65 57 50 
329 718 302 68 60 55 
329 718 303 68 61 57 
329 719 302 72 64 58 
329 719 303 74 67 62 
330 716 300 83 74 69 
330 717 300 80 72 66 
330 717 301 74 66 62 
330 718 300 74 65 59 
330 718 301 70 61 56 
330 719 300 64 56 50 
330 719 301 66 58 52 
320 717 304 58 55 54 
321 716 304 62 59 59 
321 717 304 61 59 59 
321 717 305 57 55 55 
320 718 304 55 53 52 
320 718 305 50 48 49 
321 718 305 49 48 49 
320 719 306 45 44 45 
321 718 306 46 45 46 
321 719 306 46 45 46 
321 719 307 51 49 49 
322 716 304 66 63 63 
322 717 304 63 61 61 
322 717 305 56 54 55 
323 716 304 65 62 63 
323 717 304 61 59 58 
323 717 305 57 54 53 
322 718 305 50 47 48 
322 718 306 47 45 44 
322 719 306 49 47 47 
322 719 307 53 49 48 
323 718 306 57 52 50 
323 719 307 58 53 50 
324 716 304 64 61 61 
324 717 304 61 58 58 
324 717 305 62 59 57 
325 716 304 60 57 56 
325 717 304 60 57 57 
325 717 305 62 58 57 
325 718 305 63 59 58 
324 718 306 64 60 59 
324 719 307 69 64 62 
325 718 306 65 61 59 
325 719 307 67 62 60 
326 716 304 58 54 53 
326 717 304 58 54 53 
326 717 305 57 53 51 
327 716 304 52 48 47 
327 717 304 47 44 42 
327 717 305 46 43 41 
326 718 305 55 52 50 
327 718 305 46 43 40 
326 718 306 53 49 48 
326 719 307 56 52 50 
327 718 306 45 41 39 
327 719 306 57 53 51 
327 719 307 59 55 53 
328 717 304 53 48 45 
328 718 304 58 53 50 
328 718 305 55 51 48 
328 719 305 70 64 61 
329 718 304 66 60 56 
329 719 304 74 67 63 
329 719 305 74 68 65 
328 719 306 69 64 62 
320 730 303 56 52 52 
330 720 299 64 55 51 
330 721 299 60 52 46 
331 720 298 73 61 57 
331 720 299 68 59 55 
329 720 302 79 71 64 
329 720 303 85 76 70 
329 721 303 97 86 79 
329 722 303 109 97 89 
329 723 302 114 102 94 
329 723 303 117 104 97 
330 720 300 63 54 50 
330 720 301 71 62 57 
330 721 300 69 60 54 
330 721 301 80 70 64 
330 720 302 75 66 60 
330 721 302 91 80 73 
330 722 300 81 72 65 
330 722 301 95 85 78 
330 723 301 108 97 89 
330 722 302 103 92 84 
330 723 302 113 102 94 
328 724 303 117 104 96 
328 725 302 126 112 104 
328 725 303 122 108 99 
329 724 302 122 110 102 
329 724 303 120 108 99 
329 725 303 122 108 99 
328 726 303 125 110 102 
320 720 306 46 44 44 
320 720 307 46 44 45 
320 721 307 49 46 45 
321 720 307 52 50 50 
321 721 307 51 47 46 
320 722 307 52 48 47 
322 720 307 59 56 54 
323 720 307 63 58 55 
321 721 308 53 49 48 
320 722 308 50 46 44 
320 723 308 50 46 43 
321 722 308 51 46 45 
321 723 308 50 45 43 
322 721 308 61 57 56 
323 720 308 68 63 60 
323 721 308 67 62 59 
322 722 308 62 58 57 
322 723 308 61 57 56 
323 722 308 67 62 61 
323 723 308 67 62 61 
323 723 309 67 63 61 
320 726 307 50 45 44 
320 727 307 54 49 47 
320 724 308 50 45 43 
320 725 308 52 47 44 
321 724 308 52 48 45 
321 725 308 54 49 46 
321 725 309 59 55 53 
320 726 308 54 49 47 
320 727 308 58 53 51 
321 726 308 58 54 51 
321 726 309 62 58 55 
321 727 309 63 59 57 
322 724 309 61 57 56 
322 725 309 66 62 60 
323 724 309 65 61 60 
323 725 309 64 59 57 
322 726 309 67 62 60 
322 727 309 65 62 61 
323 726 309 64 58 56 
322 727 310 63 59 58 
323 726 310 60 55 52 
323 727 310 58 54 51 
324 720 307 70 65 63 
325 720 307 65 60 56 
326 720 307 64 59 57 
326 721 307 68 63 59 
327 720 307 68 63 61 
327 721 307 74 69 66 
327 723 305 101 91 84 
326 722 307 75 68 64 
326 723 306 85 77 72 
326 723 307 78 70 66 
327 722 306 89 80 75 
327 722 307 80 72 68 
327 723 306 93 84 80 
327 723 307 86 78 73 
324 720 308 71 65 62 
324 721 308 70 65 63 
325 720 308 67 62 59 
325 721 308 67 62 59 
324 722 308 68 63 61 
324 723 308 65 60 57 
325 722 308 69 64 60 
325 723 308 68 62 59 
326 720 308 65 59 56 
326 721 308 68 62 59 
326 722 308 73 66 63 
326 723 308 74 68 64 
325 724 307 73 67 63 
325 725 307 77 70 66 
325 726 307 78 71 66 
325 727 307 83 76 71 
327 724 304 110 98 90 
327 724 305 106 95 89 
327 725 304 115 103 95 
327 725 305 106 95 87 
326 724 306 87 79 74 
326 724 307 81 74 69 
326 725 306 96 86 80 
326 725 307 85 77 72 
327 724 306 98 88 83 
326 726 305 104 94 86 
326 727 305 101 90 83 
327 726 304 113 100 93 
327 726 305 109 98 92 
327 727 304 115 102 96 
327 727 305 108 97 90 
326 726 306 95 85 79 
326 726 307 85 77 72 
326 727 306 94 84 78 
326 727 307 89 81 76 
324 724 308 65 60 57 
324 724 309 63 59 56 
324 725 308 65 60 58 
324 725 309 64 59 56 
325 724 308 69 63 60 
325 725 308 70 64 61 
324 726 309 65 60 57 
324 727 309 64 59 57 
325 726 308 73 66 63 
325 727 308 76 70 66 
320 729 304 56 51 51 
320 729 305 57 52 50 
320 728 306 58 53 50 
320 728 307 58 53 51 
320 729 306 58 53 50 
320 729 307 59 54 52 
320 730 304 56 53 53 
320 730 305 56 52 50 
320 731 304 55 52 52 
320 731 305 54 50 49 
320 730 306 56 51 49 
320 730 307 57 52 50 
320 731 306 54 49 47 
320 731 307 58 54 51 
320 728 308 61 57 55 
320 729 308 63 57 55 
320 729 309 67 62 60 
321 728 309 66 62 60 
321 729 309 69 64 63 
321 729 310 63 59 57 
320 730 308 66 61 59 
320 730 309 73 67 65 
320 731 308 64 59 56 
320 731 309 68 63 60 
320 730 310 70 64 61 
320 731 310 71 65 62 
321 730 310 68 63 61 
321 730 311 63 58 56 
321 731 310 65 60 57 
321 731 311 63 58 56 
322 728 310 62 58 56 
322 729 310 56 52 51 
322 729 311 57 53 52 
323 728 310 56 52 50 
323 729 310 53 48 46 
323 729 311 52 49 47 
322 730 311 59 55 53 
322 731 311 58 54 52 
323 730 311 59 55 53 
323 731 311 65 59 57 
320 732 305 53 49 48 
320 732 306 55 51 49 
320 732 307 57 53 51 
320 732 308 62 57 54 
320 732 310 67 62 60 
320 732 311 64 59 57 
320 733 310 67 62 60 
320 733 311 65 60 58 
323 732 311 76 68 65 
323 733 311 90 81 77 
323 734 311 101 90 84 
323 735 311 114 103 96 
325 728 307 91 82 77 
325 729 307 95 85 80 
326 728 305 99 88 81 
327 728 305 102 91 84 
326 728 306 96 87 82 
326 728 307 94 85 80 
326 729 306 97 87 81 
326 729 307 97 88 82 
326 730 307 93 82 75 
324 728 309 65 59 56 
324 729 309 65 59 54 
325 728 308 80 73 69 
325 729 308 84 75 70 
325 729 309 71 64 58 
324 728 310 56 51 48 
324 729 310 58 52 48 
324 730 309 73 66 61 
325 730 308 86 77 70 
325 730 309 80 72 67 
325 731 308 93 83 76 
325 731 309 89 80 75 
324 730 310 68 61 57 
324 730 311 67 61 58 
324 731 310 79 71 66 
324 731 311 73 66 62 
326 731 308 94 84 76 
324 733 309 100 89 82 
325 732 308 96 86 79 
325 732 309 91 81 74 
325 733 309 96 86 78 
324 732 310 85 76 70 
324 732 311 79 71 66 
324 733 310 95 85 79 
324 733 311 91 81 76 
324 734 310 105 94 86 
324 734 311 104 93 87 
320 731 313 61 57 55 
321 731 312 61 56 54 
321 731 313 62 58 56 
320 731 314 64 59 57 
320 731 315 64 60 58 
321 731 314 62 58 57 
321 731 315 64 60 58 
322 731 312 60 56 54 
322 731 313 60 56 55 
323 731 312 62 57 55 
320 732 312 63 58 55 
320 732 313 62 58 55 
320 733 312 63 59 57 
320 733 313 64 60 59 
320 732 314 62 58 56 
320 732 315 63 58 56 
321 732 314 64 60 58 
321 732 315 66 61 59 
321 733 315 70 65 63 
322 732 313 64 59 57 
322 733 313 71 65 63 
323 732 312 69 63 60 
323 732 313 63 58 56 
323 733 312 83 75 72 
323 733 313 75 69 66 
322 732 314 65 60 58 
322 733 314 71 66 63 
322 733 315 71 66 63 
323 734 312 95 85 81 
323 734 313 89 80 77 
323 735 312 106 96 91 
323 735 313 95 86 81 
322 734 314 80 74 71 
322 734 315 74 68 65 
322 735 314 82 74 71 
322 735 315 75 69 66 
323 735 314 88 79 75 
320 732 316 63 58 57 
320 733 316 64 58 56 
321 732 316 64 60 58 
321 733 316 68 63 60 
320 734 316 64 58 56 
320 734 317 63 58 56 
320 735 317 63 59 57 
321 734 316 69 64 61 
321 735 316 71 65 63 
321 735 317 69 64 62 
322 735 316 72 66 63 
328 721 305 93 84 79 
329 720 304 86 77 72 
329 720 305 84 76 72 
329 721 304 98 88 81 
329 721 305 91 82 76 
328 720 306 77 71 68 
328 721 306 86 79 75 
328 722 304 107 96 89 
328 722 305 100 90 84 
328 723 304 111 99 92 
328 723 305 105 94 87 
329 722 304 106 95 87 
328 722 306 94 85 80 
328 724 304 113 101 93 
328 725 304 116 103 94 
323 736 312 104 93 89 
323 736 313 90 80 76 
323 737 313 76 66 63 
322 736 314 73 65 63 
322 736 315 69 63 60 
322 737 315 69 63 61 
323 736 314 79 71 67 
323 737 314 69 61 58 
323 737 315 69 62 60 
323 738 314 69 61 57 
323 738 315 72 66 61 
323 739 315 79 71 65 
320 736 317 60 56 55 
321 736 317 67 63 61 
321 737 317 67 63 62 
320 737 318 58 55 55 
321 737 318 65 61 60 
320 738 318 58 55 54 
320 739 319 58 54 53 
321 738 318 68 64 63 
321 739 318 72 67 66 
321 739 319 66 62 60 
322 736 316 69 64 62 
322 737 316 68 63 61 
322 737 317 71 67 66 
323 737 316 70 63 60 
322 738 316 73 67 64 
322 738 317 75 69 67 
322 739 317 77 70 67 
323 738 316 74 67 64 
323 738 317 75 68 65 
323 739 316 80 72 67 
323 739 317 79 72 68 
322 738 318 74 70 69 
322 739 318 74 69 66 
320 740 319 57 53 52 
321 740 319 68 62 60 
321 741 319 70 64 61 
321 742 319 76 68 63 
321 743 318 80 70 63 
321 743 319 79 70 63 
322 740 317 76 68 63 
322 741 317 80 71 63 
323 740 316 81 72 66 
323 740 317 79 69 63 
323 741 317 80 70 63 
322 740 318 74 68 64 
322 741 318 79 70 63 
322 741 319 75 67 63 
322 742 318 80 71 64 
322 742 319 77 69 63 
320 744 319 79 70 63 
320 740 320 59 55 53 
320 741 320 61 58 56 
320 741 321 61 57 56 
321 741 320 65 60 58 
320 742 321 64 60 59 
320 743 320 74 67 63 
320 743 321 66 61 59 
321 742 320 73 67 63 
321 743 320 75 68 63 
320 744 320 74 67 62 
