ply
format ascii 1.0
comment Created by CloudCompare v2.10.1 (Zephyrus)
comment Created 1/30/20 6:09 PM
obj_info Generated by CloudCompare!
element vertex 2114
property float x
property float y
property float z
property uchar red
property uchar green
property uchar blue
end_header
428 802 451 68 69 73 
428 800 453 57 58 62 
428 801 452 67 69 72 
428 801 453 60 61 65 
429 800 453 53 55 58 
429 801 453 53 55 58 
428 800 454 52 53 57 
429 800 454 54 55 58 
429 800 455 56 56 60 
429 801 454 53 54 58 
428 802 452 70 70 74 
428 803 452 71 71 74 
429 802 452 64 64 68 
429 802 453 56 57 60 
429 803 452 69 69 72 
429 803 453 56 58 61 
430 800 454 56 56 59 
430 800 455 57 57 61 
430 801 454 55 56 59 
431 800 455 61 62 65 
431 801 454 60 60 63 
431 801 455 61 62 66 
430 802 453 51 53 57 
430 803 453 51 53 57 
430 802 454 55 56 60 
430 803 454 52 54 58 
431 802 454 61 61 65 
431 802 455 64 65 68 
431 803 454 59 60 63 
431 803 455 65 65 69 
428 804 452 72 72 74 
428 804 453 67 68 71 
428 805 453 63 64 68 
429 804 453 55 56 60 
429 805 453 51 54 59 
429 804 454 47 50 55 
429 805 454 47 51 57 
428 806 453 58 59 63 
428 806 454 51 54 59 
428 807 454 56 62 69 
428 807 455 86 89 96 
429 806 454 52 55 60 
429 806 455 63 67 73 
429 807 455 75 79 86 
430 804 453 50 52 56 
430 804 454 51 53 57 
430 805 454 55 57 61 
430 805 455 63 64 68 
431 804 454 58 58 62 
431 804 455 66 66 69 
431 805 455 66 67 70 
430 806 455 64 67 72 
431 806 455 68 69 73 
430 800 456 57 58 61 
431 800 456 58 59 63 
431 800 457 55 57 61 
431 801 456 58 59 62 
429 807 456 105 106 112 
431 805 456 70 71 75 
430 806 456 73 75 80 
430 807 456 91 94 100 
430 807 457 105 106 113 
431 806 456 69 72 77 
431 806 457 60 65 71 
431 807 456 76 78 84 
431 807 457 75 79 87 
431 807 458 80 84 91 
424 808 451 87 90 96 
424 808 452 122 122 126 
424 808 453 130 127 131 
424 809 453 129 125 127 
425 808 453 121 120 124 
424 809 454 104 99 103 
424 809 455 87 82 88 
425 808 454 122 120 123 
425 809 454 114 111 115 
425 809 455 100 97 100 
424 810 455 80 75 82 
426 808 454 114 113 118 
426 808 455 120 118 121 
426 809 455 117 114 117 
427 808 454 94 96 102 
427 808 455 120 119 123 
428 808 455 115 115 120 
425 809 456 94 92 95 
424 810 456 73 71 75 
424 810 457 77 75 78 
424 811 457 65 65 69 
425 810 456 92 89 90 
425 810 457 96 93 96 
424 811 458 96 95 99 
425 810 458 104 102 106 
425 811 458 107 105 110 
425 811 459 105 105 110 
426 809 456 111 108 110 
426 809 457 110 107 110 
427 808 456 126 125 128 
427 809 456 118 116 119 
427 809 457 111 109 112 
427 809 458 107 105 109 
426 810 457 106 104 106 
426 810 458 107 105 109 
426 811 458 107 106 111 
426 811 459 97 98 104 
427 810 458 106 105 109 
427 810 459 93 94 99 
427 811 459 90 91 97 
426 811 460 84 86 92 
427 811 460 70 71 78 
427 811 461 55 57 66 
424 812 458 107 105 109 
424 812 459 107 105 109 
424 813 459 100 99 103 
425 812 459 101 101 107 
424 813 460 99 97 101 
425 812 460 95 95 100 
425 813 460 93 93 98 
425 813 461 90 90 94 
424 814 460 88 87 90 
424 815 460 73 73 76 
424 815 461 70 69 72 
425 814 460 89 88 92 
425 814 461 83 82 86 
425 815 461 70 70 73 
425 815 462 66 66 69 
426 812 460 82 84 90 
426 812 461 78 80 86 
426 813 461 86 86 91 
427 812 461 61 64 70 
427 813 461 79 79 84 
427 812 462 57 59 65 
427 813 462 76 76 80 
426 814 461 83 82 85 
426 814 462 81 80 84 
426 815 462 69 69 71 
427 814 462 79 78 82 
427 814 463 76 76 80 
427 815 462 72 72 75 
427 815 463 67 67 70 
428 808 456 125 123 128 
428 808 457 120 118 123 
428 809 457 113 111 116 
429 808 456 119 118 123 
429 808 457 120 120 125 
428 809 458 107 106 109 
429 808 458 115 114 119 
429 809 458 111 109 113 
429 809 459 100 98 102 
428 810 459 92 91 96 
429 810 459 86 85 89 
430 808 457 115 115 120 
430 808 458 111 110 115 
430 809 458 114 112 116 
430 809 459 105 103 106 
431 808 458 107 106 110 
431 808 459 115 114 117 
431 809 459 107 105 108 
428 810 460 66 64 72 
428 811 460 59 58 67 
428 811 461 49 49 59 
429 810 460 63 60 67 
429 810 461 51 45 57 
429 811 461 47 43 56 
428 811 462 44 45 55 
429 811 462 42 42 54 
430 809 460 72 70 74 
431 808 460 103 101 105 
431 809 460 85 84 88 
431 809 461 62 59 64 
430 810 460 60 56 63 
430 810 461 53 46 57 
431 810 461 51 45 55 
430 810 462 45 40 53 
430 811 462 39 41 51 
430 811 463 52 54 62 
431 810 462 46 44 52 
431 810 463 45 47 52 
431 811 462 39 41 50 
431 811 463 46 49 55 
428 812 462 46 49 56 
428 812 463 54 57 62 
428 813 463 67 68 72 
429 812 462 41 45 54 
429 812 463 57 59 66 
429 813 463 70 71 76 
428 814 463 76 76 80 
430 812 463 73 75 80 
427 815 464 63 63 66 
431 811 464 69 70 74 
429 813 464 75 75 79 
428 814 464 75 75 78 
428 815 464 65 65 69 
428 815 465 62 62 65 
429 814 464 77 76 79 
429 814 465 72 71 74 
429 815 465 63 63 66 
430 812 464 76 77 80 
430 813 464 76 76 79 
430 813 465 78 77 80 
431 812 464 83 83 87 
431 812 465 86 85 88 
431 813 465 82 81 83 
431 813 466 82 81 83 
430 814 465 73 73 76 
430 815 465 65 65 68 
430 814 466 69 69 72 
430 815 466 61 62 65 
431 814 466 72 71 74 
431 814 467 66 66 69 
431 815 466 64 64 67 
431 815 467 60 61 65 
431 815 468 58 60 65 
416 816 454 73 73 76 
416 816 455 72 71 74 
416 817 454 67 68 72 
416 817 455 65 66 71 
417 816 455 73 71 72 
416 818 455 65 67 72 
416 817 456 62 64 68 
417 816 456 73 71 72 
417 817 456 62 63 66 
417 817 457 62 63 67 
416 818 456 83 83 85 
416 818 457 92 90 93 
416 819 457 120 117 119 
417 818 457 71 71 75 
416 819 458 135 132 134 
416 819 459 157 152 155 
417 818 458 86 86 89 
417 819 458 115 113 116 
417 819 459 126 124 128 
418 816 456 70 69 72 
418 816 457 66 67 70 
418 817 457 63 64 68 
419 816 457 66 66 69 
418 817 458 61 62 67 
419 816 458 65 65 69 
419 817 458 61 61 66 
418 818 458 77 77 81 
418 818 459 95 94 98 
418 819 459 104 104 109 
419 818 458 68 68 72 
419 818 459 88 87 91 
416 819 460 154 150 153 
416 819 461 134 132 137 
417 819 460 122 121 126 
417 819 461 114 115 121 
417 819 462 120 122 129 
418 819 460 109 110 115 
418 819 461 117 118 124 
419 818 460 106 105 110 
419 819 460 113 113 119 
419 819 461 121 122 128 
418 819 462 129 129 135 
418 819 463 135 135 141 
419 819 462 133 132 138 
419 819 463 142 142 147 
416 820 460 164 160 163 
416 820 461 145 143 147 
416 820 462 112 113 120 
416 820 463 106 108 117 
417 820 462 117 119 126 
417 820 463 126 128 136 
418 820 463 135 136 143 
420 816 458 64 65 68 
420 816 459 64 64 67 
420 817 458 58 59 63 
420 817 459 62 63 66 
421 816 459 66 66 68 
421 817 459 62 63 67 
420 818 459 74 73 76 
422 816 459 69 68 70 
421 817 460 58 60 64 
420 818 460 89 88 92 
420 818 461 99 99 104 
420 819 461 117 117 122 
421 818 460 61 63 66 
421 818 461 73 74 77 
420 819 462 129 128 132 
420 819 463 142 141 146 
421 818 462 94 94 98 
421 819 462 112 111 115 
421 819 463 121 120 125 
422 816 460 66 65 68 
422 817 460 62 62 66 
422 817 461 56 59 63 
423 816 460 66 66 68 
423 816 461 63 61 63 
423 817 461 58 59 62 
423 817 462 59 61 66 
422 818 461 62 63 68 
422 818 462 78 79 83 
422 818 463 89 89 94 
422 819 463 98 99 104 
423 818 462 70 71 76 
423 818 463 91 92 97 
424 816 461 66 64 66 
424 816 462 64 63 65 
424 817 462 59 60 65 
424 817 463 63 65 70 
425 816 462 63 62 65 
425 817 463 57 59 64 
424 818 463 82 83 87 
426 816 462 63 62 64 
426 816 463 61 60 63 
426 817 463 54 56 61 
427 816 463 62 61 63 
419 819 464 147 147 154 
417 820 464 129 131 140 
418 820 464 139 141 149 
418 820 465 145 146 155 
419 820 464 148 149 156 
419 820 465 148 149 158 
419 820 466 133 135 144 
420 819 464 143 142 148 
420 819 465 129 129 136 
421 819 464 119 119 125 
421 819 465 108 109 117 
420 819 467 116 119 128 
421 819 466 120 123 131 
421 819 467 121 124 133 
422 819 464 99 102 109 
422 819 465 111 112 119 
423 818 464 99 101 108 
423 819 464 100 103 110 
423 819 465 111 113 120 
422 819 466 122 123 131 
422 819 467 124 127 135 
423 819 466 123 124 131 
423 819 467 134 135 142 
422 819 468 134 137 146 
423 819 468 145 145 152 
423 819 469 147 148 156 
420 820 465 128 130 139 
420 820 466 109 113 123 
420 820 467 110 114 123 
421 820 466 114 118 127 
421 820 467 120 124 133 
425 817 464 60 64 69 
424 818 464 92 94 100 
424 818 465 99 102 109 
424 819 465 111 113 121 
425 818 464 68 72 78 
425 818 465 92 94 101 
425 819 465 113 114 120 
424 819 466 128 129 136 
424 819 467 139 139 146 
425 819 466 119 120 126 
425 819 467 125 127 134 
426 817 464 53 57 62 
426 817 465 58 62 68 
427 816 464 58 59 61 
427 816 465 56 57 60 
427 817 464 53 56 61 
427 817 465 56 59 64 
427 817 466 69 72 77 
426 818 465 76 80 86 
427 818 465 71 74 81 
426 818 466 97 100 107 
426 818 467 98 102 110 
426 819 466 108 110 118 
426 819 467 105 108 116 
427 818 466 85 88 94 
427 818 467 100 102 109 
424 819 468 141 141 148 
424 819 469 127 129 137 
425 819 468 117 120 128 
425 819 469 113 116 124 
424 819 470 114 117 126 
425 819 470 129 131 139 
425 819 471 134 136 143 
426 819 468 105 109 117 
426 819 469 120 122 131 
427 818 468 107 110 117 
427 819 468 108 111 119 
427 819 469 123 125 133 
426 819 470 130 133 140 
426 819 471 134 136 144 
427 819 470 138 140 148 
427 819 471 151 151 159 
428 816 464 60 60 62 
428 816 465 58 58 60 
428 817 465 55 56 60 
429 816 465 59 59 61 
428 817 466 62 65 70 
428 817 467 76 78 83 
429 816 466 56 56 60 
429 817 466 54 56 61 
429 817 467 62 64 69 
428 818 467 90 92 97 
430 816 466 58 59 62 
430 816 467 54 56 59 
430 817 467 51 53 57 
431 816 467 56 57 61 
429 817 468 70 72 76 
428 818 468 103 105 111 
428 818 469 120 121 127 
428 819 469 134 135 142 
429 818 468 90 91 96 
429 818 469 119 119 125 
428 819 470 151 151 158 
428 819 471 158 158 165 
429 818 470 135 135 141 
429 819 470 148 147 153 
429 819 471 148 147 154 
430 817 468 62 64 69 
430 817 469 76 79 84 
431 816 468 54 56 59 
431 816 469 53 55 60 
431 817 468 52 54 59 
431 817 469 68 71 76 
431 817 470 91 92 98 
430 818 469 100 102 107 
431 818 469 94 95 101 
430 818 470 119 120 126 
430 818 471 115 116 122 
430 819 471 129 129 135 
431 818 470 102 104 110 
431 818 471 112 114 120 
426 819 472 150 151 159 
427 819 472 154 155 162 
428 819 472 149 149 157 
428 819 473 118 121 130 
429 819 472 127 128 136 
429 819 473 119 121 130 
429 819 474 133 134 141 
430 819 472 122 123 130 
430 819 473 138 139 146 
431 818 472 125 126 132 
431 819 472 137 137 143 
431 819 473 147 147 152 
430 819 474 147 148 155 
430 819 475 149 150 157 
431 819 474 154 153 160 
431 819 475 164 163 170 
431 819 476 170 168 175 
432 802 455 65 66 69 
432 803 455 67 68 71 
432 804 455 70 70 73 
432 800 456 56 58 62 
432 800 457 55 57 61 
432 801 456 58 59 63 
432 801 457 55 57 61 
433 801 457 52 53 58 
432 800 458 54 56 60 
433 800 458 53 55 59 
433 800 459 54 56 59 
433 801 458 52 54 58 
432 802 456 64 64 68 
432 803 456 67 67 70 
433 802 456 58 59 62 
433 802 457 51 53 57 
433 803 456 61 61 64 
433 803 457 52 52 55 
434 800 458 55 56 60 
434 800 459 56 57 61 
434 801 458 56 57 61 
434 801 459 58 58 62 
435 800 459 61 62 65 
435 801 459 65 65 68 
434 802 457 52 54 58 
434 803 457 54 54 58 
434 802 458 57 58 62 
435 802 458 62 63 66 
435 802 459 66 67 70 
435 803 458 64 64 67 
435 803 459 68 67 70 
434 800 460 57 58 61 
434 800 461 56 57 61 
435 800 460 59 60 63 
435 800 461 57 58 62 
435 801 460 61 61 65 
435 800 462 57 58 62 
432 804 456 68 68 71 
432 805 456 67 68 72 
432 805 457 54 57 62 
433 804 456 61 61 63 
433 804 457 52 53 55 
433 805 457 50 52 56 
433 805 458 52 54 58 
432 806 457 53 58 65 
432 806 458 48 53 64 
432 807 458 66 70 77 
432 807 459 105 105 110 
433 806 458 56 60 66 
433 806 459 70 72 77 
433 807 459 96 97 101 
434 804 457 54 54 56 
434 804 458 59 59 62 
434 805 458 58 59 63 
434 805 459 65 66 69 
435 804 458 66 66 69 
435 804 459 68 68 70 
435 805 459 67 68 72 
434 806 459 71 72 77 
433 807 460 110 110 115 
435 805 460 64 66 70 
434 806 460 76 78 84 
434 807 460 100 101 107 
434 807 461 102 103 109 
435 806 460 66 69 74 
435 806 461 62 66 73 
435 807 461 77 80 87 
435 807 462 85 87 93 
436 802 459 65 66 69 
436 803 459 66 67 70 
436 800 461 56 58 61 
436 801 460 58 59 63 
436 801 461 57 58 62 
437 801 461 56 57 62 
436 800 462 56 58 62 
437 800 462 58 60 65 
437 800 463 57 59 64 
437 801 462 58 59 64 
436 802 460 62 64 67 
436 803 460 61 62 66 
437 802 460 54 56 60 
437 802 461 53 55 60 
437 803 460 52 54 59 
437 803 461 51 53 58 
438 800 463 57 59 63 
438 801 462 60 61 65 
438 801 463 61 62 66 
439 801 463 65 66 69 
438 802 461 55 57 61 
438 803 461 53 56 60 
438 802 462 59 59 63 
438 803 462 58 60 64 
439 802 462 61 62 66 
439 802 463 65 66 69 
439 803 462 65 66 69 
436 804 459 68 68 71 
436 804 460 60 61 65 
436 805 460 56 59 64 
436 805 461 49 54 60 
437 804 460 54 56 60 
437 804 461 50 53 58 
437 805 461 50 54 60 
436 806 461 50 56 63 
437 806 461 51 56 63 
436 806 462 54 59 66 
436 807 462 78 81 87 
436 807 463 105 105 111 
437 806 462 61 64 71 
437 807 462 80 82 87 
437 807 463 100 101 107 
438 804 461 52 55 60 
438 805 461 55 58 63 
438 804 462 60 62 66 
438 805 462 60 62 67 
438 805 463 65 68 74 
439 804 462 64 66 70 
439 804 463 65 68 72 
439 805 463 64 67 73 
438 806 462 65 67 73 
438 806 463 78 81 86 
438 807 463 99 100 106 
432 808 459 113 112 117 
432 808 460 105 105 109 
432 808 461 91 91 95 
432 809 461 76 76 80 
433 808 460 112 112 117 
433 808 461 101 100 105 
432 809 462 64 63 67 
433 808 462 93 92 96 
433 809 462 80 79 82 
433 809 463 83 82 86 
432 810 462 57 57 61 
432 810 463 61 61 65 
433 810 463 79 79 83 
434 808 461 108 108 114 
434 808 462 100 100 104 
434 808 463 99 98 102 
434 809 462 95 94 97 
434 809 463 94 93 97 
435 808 462 103 103 108 
435 808 463 102 102 106 
436 808 463 106 106 111 
440 802 463 66 67 70 
440 803 463 65 66 70 
440 804 463 63 65 69 
440 805 463 60 63 69 
438 800 464 58 60 64 
438 800 465 57 59 63 
439 800 465 62 64 68 
439 801 464 63 64 68 
439 801 465 63 64 68 
439 800 466 63 65 70 
437 807 464 107 108 114 
438 806 464 90 92 99 
438 807 464 103 105 111 
438 807 465 97 98 104 
439 806 464 73 77 84 
439 806 465 63 69 78 
439 807 465 81 84 92 
439 807 466 98 98 103 
432 811 464 80 80 84 
432 811 465 96 96 100 
433 810 464 88 88 93 
433 811 464 90 91 95 
433 811 465 98 98 102 
434 809 464 95 95 99 
435 808 464 97 97 102 
435 809 464 96 96 101 
435 809 465 92 93 98 
434 810 464 95 95 99 
434 810 465 94 94 99 
434 811 465 94 94 98 
435 810 465 84 85 90 
434 811 466 81 82 87 
434 811 467 68 70 75 
435 810 466 68 68 75 
435 811 466 66 67 74 
435 811 467 58 61 67 
435 811 468 57 60 65 
432 812 465 97 96 99 
433 812 465 98 97 101 
432 812 466 93 91 94 
432 813 466 85 84 86 
432 813 467 78 77 80 
433 812 466 90 90 93 
433 812 467 86 86 90 
433 813 467 79 79 83 
432 814 467 71 70 73 
432 815 467 61 61 64 
434 812 466 86 86 90 
434 812 467 77 78 83 
434 813 467 79 79 83 
432 814 468 65 64 67 
432 815 468 59 60 64 
432 815 469 56 57 62 
433 814 468 67 66 69 
433 815 468 59 60 62 
433 815 469 57 58 61 
434 812 468 71 73 78 
434 813 468 74 74 78 
434 813 469 71 72 76 
435 812 468 64 66 71 
435 812 469 65 67 72 
435 813 469 70 70 74 
434 814 468 69 69 72 
434 814 469 64 65 68 
434 815 469 58 59 62 
435 814 469 66 66 70 
434 815 470 56 58 61 
435 814 470 63 63 66 
435 815 470 57 58 62 
435 815 471 56 57 61 
436 808 464 100 100 105 
436 808 465 97 98 103 
436 809 465 87 88 93 
437 808 464 103 104 109 
437 808 465 96 97 102 
437 809 465 85 86 92 
436 809 466 62 64 70 
437 808 466 74 75 80 
437 809 466 62 64 70 
437 809 467 50 51 60 
436 810 466 57 59 66 
436 810 467 49 51 59 
436 811 467 49 52 59 
437 810 467 46 46 56 
438 808 465 96 96 101 
438 808 466 82 82 86 
438 808 467 66 65 70 
438 809 467 54 53 62 
439 808 466 93 93 97 
439 808 467 81 81 87 
436 810 468 46 49 56 
436 811 468 50 53 59 
436 811 469 53 57 63 
437 810 468 47 48 56 
437 811 469 57 61 66 
438 809 468 49 47 55 
438 809 469 47 46 57 
439 808 468 69 67 75 
439 809 468 52 50 59 
439 809 469 61 60 69 
438 810 468 48 47 55 
438 810 469 49 51 58 
438 811 469 66 68 72 
439 810 469 52 54 60 
438 810 470 59 60 66 
438 811 470 78 79 84 
438 811 471 85 86 92 
439 810 470 67 68 73 
439 810 471 86 87 92 
439 811 471 86 87 93 
436 812 469 63 65 69 
436 813 469 70 71 74 
436 813 470 71 71 74 
437 812 470 73 73 78 
437 813 470 72 73 76 
437 813 471 71 71 75 
436 814 470 65 64 67 
436 814 471 61 61 64 
436 815 471 57 58 61 
437 814 471 65 65 67 
437 815 471 59 59 62 
438 812 470 81 81 87 
438 812 471 75 76 82 
438 813 471 71 71 75 
439 811 472 88 89 94 
436 815 472 55 57 61 
437 814 472 63 63 66 
437 815 472 56 58 61 
438 812 472 75 77 83 
438 813 472 69 70 75 
439 812 472 80 81 86 
439 813 472 73 73 78 
439 813 473 68 69 74 
438 814 472 62 63 66 
438 814 473 60 61 66 
438 815 472 57 58 62 
438 815 473 56 58 62 
439 814 473 62 63 68 
439 815 473 57 59 63 
439 815 474 56 57 61 
440 800 465 62 63 67 
440 801 464 61 62 66 
440 801 465 62 63 67 
441 801 465 62 63 67 
440 800 466 63 65 69 
441 800 466 64 65 69 
441 800 467 61 62 67 
440 802 464 61 62 66 
441 802 464 56 57 61 
441 802 465 56 58 62 
441 803 464 57 58 62 
442 801 465 63 64 68 
442 800 466 64 65 69 
442 800 467 62 64 68 
442 801 466 64 65 69 
443 800 467 63 65 70 
443 801 466 64 66 69 
442 802 465 60 62 66 
442 803 464 55 57 61 
442 803 465 60 62 66 
443 803 465 63 64 69 
442 802 466 63 64 68 
443 802 466 63 64 68 
443 803 466 63 64 68 
443 800 468 63 65 70 
440 805 464 54 58 64 
441 804 464 54 56 60 
441 805 464 51 54 59 
441 805 465 55 57 61 
440 806 464 54 60 67 
440 806 465 60 66 74 
440 807 465 79 83 91 
441 806 465 65 69 75 
440 807 466 97 99 105 
440 807 467 102 102 107 
441 806 466 87 89 95 
441 807 466 98 100 106 
441 807 467 105 106 112 
442 804 465 60 61 65 
442 805 465 64 64 68 
442 804 466 64 65 69 
442 805 466 62 65 70 
443 804 466 61 63 68 
443 805 466 59 63 68 
443 805 467 58 62 69 
442 806 466 77 80 86 
442 806 467 92 94 100 
442 807 467 105 107 113 
443 806 467 73 77 83 
441 807 468 103 104 110 
441 807 469 101 101 106 
442 806 468 98 100 107 
442 807 468 101 103 109 
442 807 469 97 98 103 
443 806 468 79 83 89 
443 806 469 77 80 86 
443 807 469 94 95 100 
442 807 470 101 102 107 
443 807 470 104 105 111 
443 807 471 101 103 109 
444 800 467 64 65 70 
444 801 466 63 64 68 
444 801 467 60 62 66 
445 801 467 56 57 61 
444 802 466 58 59 63 
444 802 467 56 57 61 
444 803 466 56 57 61 
445 802 467 54 55 59 
445 803 467 52 53 57 
444 800 468 63 65 70 
445 800 468 61 62 67 
445 800 469 64 65 69 
445 801 468 56 57 60 
445 802 468 53 54 57 
445 803 468 51 53 56 
446 800 468 66 66 70 
446 800 469 68 68 71 
446 801 468 64 65 67 
447 800 469 67 67 69 
447 801 469 67 67 69 
447 800 470 68 68 70 
446 802 468 60 61 64 
446 803 468 59 60 64 
447 802 469 66 66 69 
447 803 469 65 65 68 
444 804 466 56 58 63 
444 804 467 55 57 63 
444 805 467 53 57 64 
445 804 467 51 52 58 
444 805 468 51 57 64 
445 804 468 50 53 58 
445 805 468 53 57 64 
445 805 469 60 63 68 
444 806 468 58 63 71 
444 806 469 81 83 88 
444 807 469 102 102 108 
445 806 469 77 79 84 
444 807 470 105 105 112 
444 807 471 103 105 111 
445 806 470 99 101 107 
445 807 470 107 108 115 
445 807 471 105 108 115 
446 804 468 57 59 63 
446 804 469 63 64 68 
446 805 469 66 68 73 
447 804 469 63 64 68 
447 805 469 61 64 68 
446 805 470 70 73 78 
447 805 470 65 68 74 
446 806 470 90 92 99 
446 806 471 102 105 112 
446 807 471 104 107 114 
447 806 470 84 87 93 
447 806 471 92 96 103 
444 807 472 99 101 107 
445 807 472 99 101 108 
446 807 472 98 101 108 
446 807 473 80 80 87 
447 806 472 93 96 104 
447 807 472 95 98 105 
447 807 473 92 93 99 
447 807 474 79 79 84 
440 808 467 94 95 100 
440 808 468 90 90 95 
440 808 469 86 86 90 
440 809 469 83 82 87 
441 808 468 99 99 105 
441 808 469 97 96 101 
440 809 470 91 91 96 
440 809 471 99 98 103 
441 808 470 97 97 101 
441 809 470 98 98 102 
441 809 471 101 100 105 
440 810 471 97 97 102 
442 808 469 98 98 103 
442 808 470 97 98 104 
442 808 471 97 98 104 
442 809 471 98 99 104 
443 808 471 99 100 106 
441 809 472 101 101 106 
440 810 472 99 99 104 
440 811 472 95 96 101 
440 811 473 89 90 95 
441 810 472 95 96 101 
441 810 473 76 79 85 
441 811 472 94 95 101 
441 811 473 86 88 94 
442 808 472 93 94 99 
442 809 472 83 84 90 
442 809 473 60 64 72 
443 808 472 82 83 90 
443 808 473 55 56 67 
443 809 473 50 53 63 
443 809 474 47 50 57 
442 810 473 65 68 75 
442 811 473 70 73 79 
442 810 474 56 60 67 
442 811 474 66 68 74 
442 811 475 66 68 74 
443 810 474 45 49 55 
443 810 475 41 45 51 
443 811 475 52 55 61 
440 812 473 82 83 88 
440 813 473 72 73 78 
441 812 473 84 86 92 
440 813 474 71 72 77 
441 812 474 81 83 88 
441 813 474 75 76 81 
440 814 474 64 65 69 
440 815 474 58 59 62 
440 815 475 54 56 59 
441 814 474 67 68 73 
441 814 475 63 63 67 
441 815 475 56 57 60 
442 812 474 78 80 85 
442 812 475 74 76 80 
442 813 475 73 73 78 
443 812 475 69 71 76 
442 814 475 63 64 68 
442 815 475 58 59 62 
441 815 476 51 53 57 
443 812 476 68 69 74 
443 813 476 69 70 75 
442 814 476 61 62 65 
442 815 476 55 57 60 
442 815 477 53 54 57 
443 814 476 60 62 66 
443 814 477 58 59 63 
443 815 476 57 58 62 
443 815 477 55 56 59 
443 815 478 52 54 57 
444 808 472 82 84 91 
444 808 473 52 51 64 
444 809 473 47 47 59 
445 808 472 83 85 93 
445 808 473 60 58 69 
444 808 474 44 44 55 
444 809 474 44 47 56 
444 809 475 45 48 55 
445 808 474 46 44 55 
445 808 475 42 41 50 
445 809 475 42 45 52 
444 810 475 42 45 51 
444 811 475 50 53 58 
446 808 473 65 64 72 
446 808 474 54 52 60 
446 808 475 47 41 53 
447 808 474 64 63 68 
447 808 475 66 62 71 
445 809 476 42 41 51 
444 810 476 50 53 58 
444 811 476 64 66 71 
445 810 476 55 58 63 
445 810 477 63 65 70 
445 811 476 74 75 80 
445 811 477 79 81 86 
446 808 476 47 43 55 
446 809 476 43 42 50 
446 809 477 55 56 60 
447 808 476 67 65 74 
447 809 476 64 64 70 
447 809 477 84 85 90 
447 809 478 92 93 100 
446 810 477 66 67 72 
446 811 477 78 80 85 
446 810 478 78 79 85 
446 811 478 83 84 90 
447 810 478 90 91 97 
447 811 478 88 90 96 
447 811 479 86 88 93 
444 812 476 67 69 74 
444 812 477 72 74 79 
444 813 476 69 71 76 
444 813 477 67 69 73 
445 812 477 74 75 80 
445 813 477 70 71 76 
445 812 478 79 80 85 
445 813 478 71 72 76 
444 814 477 60 62 66 
444 815 477 56 57 61 
444 815 478 53 55 59 
445 814 478 60 61 65 
445 814 479 58 59 62 
445 815 478 54 56 60 
445 815 479 53 55 60 
446 812 478 81 82 86 
446 812 479 79 79 83 
446 813 478 74 74 78 
446 813 479 69 69 72 
447 812 479 79 80 84 
447 813 479 69 69 72 
446 814 479 60 61 64 
446 815 479 56 57 61 
432 816 469 53 55 59 
432 817 469 58 61 66 
433 816 469 53 54 58 
432 817 470 80 81 86 
432 817 471 101 102 107 
433 816 470 54 56 60 
433 817 470 61 62 67 
433 817 471 85 86 91 
432 818 471 112 112 118 
434 816 470 54 55 59 
434 816 471 52 54 59 
434 817 471 57 60 65 
435 816 471 53 56 60 
432 818 472 129 129 134 
432 818 473 149 148 153 
432 819 473 153 152 158 
433 818 472 119 120 125 
433 818 473 147 147 152 
432 819 474 164 163 169 
432 819 475 168 166 171 
433 818 474 157 155 160 
433 819 474 159 157 162 
433 819 475 153 151 157 
434 817 472 76 78 84 
435 816 472 48 52 58 
435 817 472 61 64 70 
435 817 473 89 91 97 
434 818 472 109 111 117 
434 818 473 116 117 122 
435 818 473 100 102 108 
434 818 474 119 120 125 
434 818 475 113 114 120 
434 819 475 122 123 129 
435 818 474 106 108 114 
435 818 475 118 119 125 
432 819 476 153 153 160 
432 819 477 114 117 128 
433 819 476 122 124 132 
433 819 477 115 120 131 
434 819 476 127 129 137 
434 819 477 141 143 152 
435 818 476 132 132 138 
435 819 476 141 141 147 
435 819 477 147 147 154 
434 819 478 140 143 152 
435 819 478 152 154 162 
435 819 479 156 158 168 
436 816 472 50 54 60 
436 817 472 59 63 69 
436 817 473 80 82 89 
437 816 472 50 53 59 
437 816 473 52 55 61 
437 817 473 65 67 74 
436 817 474 97 98 104 
437 817 474 88 90 96 
437 817 475 99 100 106 
436 818 474 106 107 113 
436 818 475 117 118 123 
437 818 475 107 108 114 
438 816 473 50 53 58 
438 816 474 48 52 58 
438 817 474 60 64 70 
438 817 475 78 80 86 
439 816 474 50 53 58 
439 816 475 49 53 59 
439 817 475 57 62 69 
436 818 476 136 135 140 
436 818 477 153 151 156 
436 819 477 152 152 157 
437 818 476 131 131 136 
437 818 477 150 149 154 
436 819 478 159 158 165 
436 819 479 155 155 163 
437 818 478 148 147 152 
437 819 478 154 152 158 
437 819 479 139 139 145 
438 817 476 93 94 101 
439 817 476 82 84 90 
438 818 476 113 114 119 
438 818 477 126 126 132 
439 818 476 103 104 110 
439 818 477 105 106 112 
438 818 478 122 123 129 
438 818 479 117 119 126 
438 819 479 113 115 123 
439 818 478 111 112 119 
439 818 479 124 126 132 
440 816 475 50 52 56 
440 816 476 53 56 61 
440 817 476 77 79 85 
440 817 477 100 101 107 
441 816 476 54 56 61 
441 816 477 68 70 74 
441 817 477 88 89 93 
441 817 478 99 99 103 
440 818 477 108 109 114 
440 818 478 112 113 118 
440 818 479 127 127 132 
441 818 478 108 108 113 
441 818 479 119 118 123 
442 816 476 51 53 57 
442 816 477 53 56 60 
442 817 477 66 68 73 
442 816 478 52 55 60 
442 817 478 76 78 83 
442 817 479 97 98 103 
443 816 478 52 54 59 
443 816 479 58 62 68 
443 817 479 76 79 87 
442 818 479 118 118 123 
444 816 478 50 54 59 
444 816 479 56 59 65 
445 816 479 51 55 60 
445 815 480 51 54 59 
447 813 480 68 68 72 
446 815 480 53 56 60 
447 814 480 59 60 63 
447 815 480 55 57 60 
447 815 481 52 54 59 
436 819 480 133 135 143 
437 819 480 111 114 123 
437 819 481 118 123 133 
438 818 480 134 136 144 
438 818 481 148 150 158 
438 819 480 123 127 136 
438 819 481 140 142 151 
439 818 480 142 141 148 
439 818 481 146 147 154 
438 818 482 143 145 154 
438 819 482 140 143 151 
439 818 482 152 153 162 
440 818 480 144 143 149 
440 818 481 155 154 160 
441 818 480 146 145 150 
441 818 481 156 154 158 
440 818 482 160 159 165 
440 818 483 159 158 165 
441 818 482 156 154 159 
441 818 483 134 135 142 
442 817 480 108 109 114 
443 817 480 101 103 109 
443 817 481 108 110 117 
442 818 480 132 131 135 
442 818 481 141 138 143 
443 818 480 115 115 121 
443 818 481 112 113 119 
442 818 482 128 128 133 
442 818 483 122 124 131 
443 818 482 119 120 126 
443 818 483 136 136 142 
441 818 484 110 115 125 
442 818 484 135 137 145 
442 818 485 142 144 152 
443 818 484 147 146 152 
443 818 485 152 152 159 
443 818 486 161 161 169 
444 817 480 89 92 98 
444 817 481 108 110 116 
445 816 480 61 64 70 
445 816 481 85 87 93 
445 817 480 84 86 92 
445 817 481 102 104 110 
445 817 482 114 114 119 
445 817 483 128 127 132 
444 818 481 114 114 120 
444 818 482 123 123 128 
444 818 483 140 138 143 
445 818 483 143 141 145 
446 816 480 55 59 65 
446 816 481 65 69 76 
447 816 481 52 56 62 
446 817 482 88 91 98 
446 817 483 124 124 129 
447 816 482 59 64 70 
447 817 482 78 81 89 
447 817 483 104 105 111 
444 818 484 152 150 155 
444 818 485 158 157 162 
445 818 484 157 154 158 
445 818 485 157 155 159 
444 818 486 161 160 166 
444 818 487 150 149 156 
445 818 486 150 149 155 
445 818 487 123 124 132 
446 817 484 138 137 141 
447 817 484 115 116 122 
447 817 485 107 111 119 
446 818 484 148 146 150 
446 818 485 139 138 144 
447 818 485 114 117 125 
446 818 486 120 122 130 
446 818 487 123 126 135 
447 818 486 121 125 134 
447 818 487 138 140 149 
446 818 488 137 138 146 
447 818 488 142 142 148 
447 818 489 141 141 147 
448 798 471 68 68 72 
448 799 470 67 68 71 
448 799 471 67 67 71 
449 799 471 64 66 70 
450 799 471 69 70 73 
448 795 479 64 66 72 
449 795 478 61 62 67 
449 795 479 55 57 61 
450 795 478 61 62 66 
450 795 479 53 55 58 
451 795 478 68 70 74 
451 795 479 67 68 72 
448 797 473 64 66 70 
449 797 473 63 64 69 
448 797 474 63 65 69 
448 797 475 64 66 71 
449 797 474 64 65 70 
449 797 475 64 66 70 
448 798 472 66 67 71 
448 798 473 66 67 71 
449 798 472 60 62 66 
449 798 473 60 63 67 
449 799 472 62 64 68 
450 797 474 67 69 73 
450 797 475 66 68 73 
451 797 474 71 72 76 
451 797 475 69 70 75 
450 798 472 70 70 74 
450 798 473 69 70 74 
450 799 472 69 70 73 
451 798 472 72 72 75 
451 798 473 72 72 75 
451 799 472 70 71 74 
451 798 474 72 73 76 
448 796 476 68 70 74 
448 796 477 68 70 76 
448 797 476 66 68 73 
449 796 476 67 68 72 
449 796 477 67 68 73 
448 796 478 66 68 73 
449 796 478 65 67 71 
450 796 476 66 68 73 
450 796 477 67 68 73 
451 796 476 68 70 75 
451 796 477 69 71 75 
451 797 476 68 70 74 
452 795 478 69 71 75 
452 795 479 68 70 73 
453 795 478 67 69 72 
453 795 479 70 70 73 
454 795 479 72 72 75 
452 797 474 70 70 74 
452 797 475 68 69 72 
453 797 475 63 64 68 
452 798 473 71 71 74 
452 799 472 72 72 74 
452 799 473 73 72 75 
453 799 473 78 77 79 
452 798 474 72 72 74 
453 798 474 73 73 76 
453 798 475 67 67 70 
453 799 474 75 74 77 
454 799 473 75 74 76 
454 798 474 66 66 69 
454 798 475 58 60 63 
454 799 474 63 63 66 
455 798 475 68 68 71 
455 799 474 54 54 56 
455 799 475 61 62 64 
452 796 476 68 69 73 
452 796 477 67 68 72 
452 797 476 68 69 72 
453 796 476 67 68 72 
453 796 477 68 70 74 
453 797 476 64 65 68 
452 796 478 67 69 73 
453 796 478 69 70 73 
454 796 477 71 71 74 
454 797 476 68 69 72 
454 797 477 71 72 75 
455 797 476 74 73 76 
455 797 477 75 74 76 
454 796 478 71 71 74 
454 796 479 72 72 75 
455 796 478 73 72 75 
455 796 479 69 69 71 
455 798 476 74 74 76 
456 799 475 68 68 70 
456 797 476 75 73 74 
456 797 477 74 72 73 
456 796 478 72 71 72 
456 796 479 70 70 72 
456 797 478 73 73 74 
456 797 479 74 74 77 
457 797 478 79 78 81 
457 797 479 73 72 74 
456 798 476 74 72 73 
456 798 477 74 72 73 
456 799 476 73 72 73 
457 798 476 72 70 71 
457 798 477 77 76 78 
457 799 476 76 75 76 
457 799 477 83 81 83 
457 798 478 80 79 81 
458 797 479 71 70 72 
458 799 477 85 83 84 
458 798 478 83 81 82 
458 798 479 74 73 75 
458 799 478 85 83 84 
458 799 479 80 79 82 
459 799 479 68 69 72 
448 789 483 66 68 73 
449 789 483 66 67 72 
448 790 483 70 71 76 
448 791 483 66 68 73 
449 790 483 68 69 73 
449 791 483 70 72 76 
450 790 483 67 69 73 
450 791 483 70 72 76 
451 791 483 72 73 76 
448 789 484 64 67 71 
448 789 485 63 65 70 
449 789 484 64 66 71 
449 789 485 63 65 70 
448 788 486 61 64 69 
448 788 487 59 62 67 
449 788 486 61 63 68 
449 788 487 58 62 67 
449 789 486 61 64 69 
449 790 484 67 69 73 
450 789 484 65 67 71 
450 789 485 64 66 70 
450 788 487 57 61 67 
450 789 486 61 64 69 
450 789 487 58 61 67 
451 789 486 62 65 69 
451 789 487 58 61 66 
450 790 484 66 67 71 
451 790 484 66 68 71 
451 790 485 66 67 71 
451 791 484 70 71 74 
451 790 486 65 67 71 
451 790 487 57 59 63 
452 790 485 68 69 72 
452 791 484 71 71 75 
452 791 485 70 71 75 
452 790 486 67 69 72 
452 790 487 60 62 65 
452 791 486 69 70 74 
452 791 487 67 68 72 
453 791 486 68 70 74 
453 791 487 67 68 72 
448 787 490 58 62 68 
448 787 491 54 58 65 
448 788 488 58 61 67 
448 788 489 59 62 67 
449 788 488 58 61 67 
449 788 489 58 61 67 
448 788 490 59 62 68 
449 788 490 59 62 67 
449 788 491 52 55 60 
450 788 488 57 61 68 
450 788 489 56 60 66 
450 789 488 58 61 67 
450 789 489 56 59 65 
451 789 488 56 60 65 
451 789 489 53 56 62 
450 788 490 57 60 65 
450 789 490 54 57 61 
450 789 491 52 53 57 
451 789 490 53 56 61 
451 789 491 52 54 58 
451 790 488 55 57 61 
451 790 491 57 59 64 
449 788 492 46 47 51 
449 789 492 48 50 53 
450 789 492 52 54 58 
450 789 493 52 55 59 
450 790 493 60 64 69 
451 790 492 60 64 70 
451 790 493 67 72 79 
451 791 493 74 79 86 
451 791 494 79 83 90 
452 790 488 59 61 65 
452 790 489 62 64 68 
452 791 488 67 68 72 
453 791 488 70 71 76 
453 791 489 72 74 79 
452 790 490 64 66 71 
452 790 491 66 70 75 
452 791 490 72 74 80 
452 791 491 75 78 84 
453 791 490 76 78 84 
453 791 491 79 82 88 
452 790 492 67 72 79 
452 791 492 76 80 87 
452 791 493 77 81 89 
453 791 492 81 84 90 
452 791 494 78 83 91 
448 792 482 47 51 56 
448 792 483 53 56 60 
448 793 482 45 49 54 
449 792 482 57 59 63 
449 792 483 63 64 69 
449 793 482 46 49 54 
448 794 481 51 54 60 
448 795 480 58 61 66 
449 794 480 48 51 55 
449 794 481 46 48 53 
449 795 480 51 54 58 
450 793 481 50 52 56 
451 793 481 63 64 68 
450 792 482 67 68 72 
450 792 483 71 72 76 
450 793 482 57 59 63 
451 792 483 72 73 76 
451 793 482 70 71 74 
450 794 480 47 49 53 
450 794 481 46 48 52 
450 795 480 48 50 53 
451 794 480 62 63 67 
451 794 481 65 66 69 
452 793 481 71 71 74 
452 792 483 72 72 76 
452 793 482 72 73 76 
452 793 483 72 72 75 
453 793 482 71 71 75 
453 793 483 71 72 75 
452 794 480 68 69 72 
452 794 481 71 71 74 
453 794 480 74 74 77 
453 794 481 73 74 77 
453 795 480 73 73 77 
453 794 482 69 70 73 
454 793 483 71 72 75 
454 794 481 70 70 74 
454 795 480 71 71 74 
454 795 481 69 70 73 
455 795 480 67 67 70 
455 795 481 66 67 70 
454 794 482 68 69 72 
454 794 483 70 70 73 
455 794 482 65 66 69 
455 794 483 70 70 73 
455 795 482 65 66 69 
452 792 484 72 73 76 
452 792 485 72 72 76 
453 792 484 73 73 77 
453 792 485 72 72 76 
453 793 484 73 73 77 
453 792 486 69 70 75 
453 792 487 68 69 74 
454 792 485 66 68 72 
454 793 484 72 73 77 
454 793 485 68 69 73 
455 793 484 71 72 75 
455 793 485 61 63 67 
454 792 486 62 64 68 
454 792 487 69 70 74 
454 793 486 60 62 66 
455 792 487 68 69 73 
455 793 486 55 57 62 
455 793 487 60 62 66 
455 794 484 69 70 73 
455 796 480 66 66 68 
451 792 494 80 85 92 
453 792 491 80 84 90 
454 792 488 74 75 79 
454 792 489 74 75 80 
455 792 488 72 73 77 
455 792 489 71 73 77 
455 793 488 66 68 72 
455 793 489 67 69 74 
454 792 490 76 78 84 
454 792 491 77 81 88 
455 792 490 73 76 82 
455 793 490 71 74 80 
455 793 491 74 77 84 
452 792 493 78 83 91 
453 792 492 80 84 91 
453 792 493 78 82 90 
453 793 493 75 78 86 
452 792 494 77 81 89 
452 793 494 71 75 83 
453 793 494 72 75 82 
453 793 495 67 70 76 
453 794 495 66 68 74 
454 792 492 78 82 89 
454 793 492 76 79 86 
454 793 493 73 77 84 
455 793 492 73 76 83 
455 793 493 72 75 82 
454 793 494 71 74 81 
455 794 492 71 74 80 
455 794 493 69 72 78 
454 794 494 68 71 77 
454 794 495 62 64 69 
455 794 494 64 66 72 
455 794 495 57 59 63 
455 795 495 52 55 59 
456 795 480 66 67 70 
456 795 481 65 66 70 
456 794 483 69 70 73 
456 795 482 65 65 69 
456 795 483 70 70 73 
457 795 482 67 68 71 
457 795 483 69 69 72 
456 793 486 55 57 62 
456 793 487 55 57 62 
456 794 484 65 66 69 
456 794 485 55 57 62 
456 795 484 66 67 70 
457 794 485 60 62 65 
457 795 484 66 67 70 
457 795 485 65 66 69 
456 794 486 57 59 64 
456 794 487 56 58 63 
457 794 486 64 66 71 
457 794 487 59 61 66 
457 795 486 70 71 75 
457 795 487 64 66 71 
458 795 484 70 70 72 
458 795 485 74 74 76 
458 795 486 75 75 78 
458 795 487 69 70 74 
456 796 480 66 67 70 
456 796 481 63 64 68 
457 796 480 62 62 65 
457 796 481 57 59 62 
457 797 480 64 64 66 
457 796 482 63 64 67 
457 796 483 66 67 70 
458 796 481 54 56 60 
458 797 480 58 59 63 
458 797 481 52 54 58 
459 797 481 50 53 57 
458 796 482 58 59 62 
458 796 483 65 65 67 
458 797 482 55 56 59 
458 797 483 59 59 62 
459 797 482 51 53 56 
459 797 483 55 55 58 
458 798 480 63 63 66 
459 798 480 52 54 58 
459 798 481 50 52 56 
459 799 480 51 54 59 
459 799 481 48 51 56 
459 798 482 47 49 53 
459 798 483 49 50 53 
459 799 482 47 49 54 
459 799 483 45 48 53 
458 796 484 70 70 72 
458 796 485 76 75 78 
459 797 484 67 66 69 
459 797 485 71 70 73 
458 796 486 76 75 78 
458 796 487 72 73 76 
459 796 487 71 72 75 
459 797 486 72 71 73 
459 797 487 70 70 73 
459 798 484 61 61 64 
459 798 485 66 66 68 
459 799 484 58 59 62 
459 799 485 65 65 68 
459 798 486 69 69 71 
459 798 487 70 70 73 
459 799 486 70 70 73 
459 799 487 73 72 75 
460 799 483 44 47 51 
460 799 484 56 58 61 
460 799 485 63 63 67 
456 793 488 58 60 65 
456 793 489 62 64 69 
456 793 490 70 72 78 
456 793 491 71 74 80 
456 794 488 54 57 62 
456 794 489 56 59 64 
457 794 488 57 60 65 
457 794 489 55 58 63 
456 794 490 68 70 75 
456 794 491 68 70 76 
457 794 490 64 67 72 
457 794 491 65 67 72 
457 795 490 64 65 70 
457 795 491 62 64 68 
458 795 488 68 69 74 
458 795 489 65 66 71 
458 795 490 64 65 68 
458 795 491 60 62 65 
456 794 492 67 70 76 
456 794 493 66 69 74 
456 795 492 63 66 72 
456 795 493 61 64 69 
457 795 492 58 60 65 
457 795 493 55 57 63 
456 794 494 64 66 72 
456 795 494 55 57 62 
456 795 495 51 53 57 
457 795 494 52 55 60 
458 796 488 70 71 75 
458 796 489 70 71 75 
459 796 488 70 71 74 
459 797 488 71 71 75 
459 797 489 71 71 75 
458 796 490 64 64 67 
458 796 491 58 60 63 
458 797 490 58 60 64 
458 797 491 55 58 62 
459 797 490 62 63 67 
459 797 491 51 54 58 
459 798 488 72 73 76 
459 798 489 73 73 76 
459 799 488 74 75 78 
459 799 489 74 74 78 
459 798 490 63 63 67 
459 798 491 50 53 57 
459 799 490 63 64 68 
459 799 491 49 52 56 
457 796 493 52 55 60 
456 796 495 52 55 59 
457 796 494 51 54 59 
457 796 495 54 57 62 
458 796 492 54 56 60 
458 796 493 51 54 59 
458 797 492 51 55 61 
458 797 493 50 54 59 
459 797 492 50 54 59 
459 797 493 53 56 61 
458 796 494 52 55 60 
458 796 495 55 58 63 
458 797 494 52 56 61 
458 797 495 58 60 66 
459 797 494 54 57 63 
459 797 495 61 63 68 
459 798 492 54 57 62 
459 798 493 61 64 68 
459 799 492 57 59 64 
459 799 493 65 67 72 
459 798 494 64 67 73 
459 798 495 65 68 73 
459 799 494 69 71 76 
460 798 494 67 70 76 
460 798 495 66 69 74 
460 799 494 71 73 78 
460 799 495 71 73 79 
454 794 496 54 57 62 
454 795 496 51 53 58 
455 795 496 49 52 57 
455 795 497 51 54 58 
455 796 497 59 62 66 
456 795 496 51 54 59 
456 796 496 55 58 63 
456 796 497 59 63 68 
457 796 496 60 63 69 
457 796 497 63 67 72 
457 797 497 63 66 71 
456 797 498 60 63 69 
457 797 498 63 66 71 
458 797 496 65 67 72 
458 797 497 65 67 72 
459 797 496 65 67 72 
459 797 497 66 68 73 
458 797 498 64 67 72 
458 797 499 62 65 70 
459 797 498 64 67 72 
459 797 499 62 66 71 
459 797 500 63 66 72 
459 798 500 63 66 72 
460 797 497 67 69 74 
460 797 498 66 68 72 
460 797 499 63 66 71 
460 798 496 66 68 73 
460 798 497 66 68 73 
460 799 496 70 72 77 
461 798 497 66 69 75 
461 799 496 73 75 79 
461 799 497 70 72 77 
460 798 498 66 68 73 
460 798 499 65 68 73 
461 798 498 66 69 74 
461 798 499 66 69 74 
462 798 497 68 70 76 
462 799 497 72 74 78 
463 799 497 74 75 80 
462 798 498 67 69 74 
462 798 499 66 68 73 
463 798 498 69 72 77 
463 798 499 67 69 75 
463 799 498 74 76 80 
460 797 500 63 66 72 
460 797 501 65 67 73 
461 797 500 64 67 72 
461 797 501 65 68 73 
461 797 502 65 68 73 
460 798 500 64 67 72 
460 798 501 65 67 73 
461 798 500 65 67 73 
461 798 502 65 68 74 
462 797 501 65 68 73 
463 797 501 65 68 73 
462 797 502 65 68 73 
462 797 503 66 68 74 
463 797 502 65 68 73 
463 797 503 65 68 74 
462 798 500 65 68 73 
463 798 500 66 68 74 
463 798 501 66 68 74 
465 799 497 81 83 87 
464 798 499 70 73 77 
464 799 498 75 76 81 
464 799 499 73 74 79 
465 799 499 74 76 80 
466 799 497 82 83 87 
466 799 498 82 83 87 
466 799 499 76 77 81 
467 798 499 82 83 87 
467 799 498 83 84 88 
467 799 499 82 83 87 
464 797 501 66 68 74 
464 797 502 66 68 73 
464 797 503 65 68 73 
465 797 502 66 68 74 
465 797 503 66 68 73 
464 798 500 68 70 75 
464 798 501 66 69 74 
465 798 500 70 72 77 
465 798 501 67 70 75 
466 797 503 66 68 73 
467 797 503 66 69 74 
466 798 500 71 73 78 
466 798 501 70 72 77 
466 799 500 74 75 80 
467 798 501 71 73 78 
467 799 500 80 82 86 
467 799 501 78 79 83 
466 798 502 67 69 74 
466 798 503 66 69 74 
467 798 502 69 71 76 
467 798 503 68 70 75 
467 799 502 75 77 81 
469 798 500 85 85 89 
469 799 500 85 85 89 
469 799 501 86 86 89 
468 798 502 71 73 78 
468 798 503 71 73 77 
468 799 502 79 80 85 
469 798 503 73 75 80 
469 799 502 82 83 87 
469 799 503 80 81 85 
470 798 501 86 86 90 
470 799 501 88 87 91 
470 799 503 84 85 89 
471 798 502 90 89 92 
471 799 502 90 89 92 
464 797 504 65 68 73 
465 797 504 65 68 73 
465 797 505 65 68 73 
466 797 504 65 68 73 
466 797 505 65 67 73 
467 797 504 66 68 73 
467 797 505 65 67 72 
466 797 506 63 66 72 
467 797 506 63 66 71 
467 797 507 63 66 72 
467 798 504 66 69 74 
466 798 506 65 67 73 
467 798 507 64 67 72 
468 797 505 65 67 72 
469 797 505 66 68 73 
468 797 506 62 65 70 
468 797 507 62 66 71 
469 797 506 63 65 70 
469 797 507 61 63 68 
468 798 504 68 70 75 
469 798 504 70 72 77 
469 798 505 69 71 75 
470 797 505 66 68 72 
470 797 506 65 67 72 
470 797 507 63 65 69 
470 798 504 74 76 81 
470 798 505 69 71 76 
470 799 504 79 80 85 
471 798 505 71 74 79 
471 799 504 89 89 93 
471 799 505 75 77 82 
470 798 506 67 69 74 
470 798 507 63 65 69 
470 799 507 73 74 77 
471 798 506 66 68 73 
471 798 507 64 65 69 
471 799 506 73 74 78 
469 797 508 61 65 70 
469 798 508 63 66 72 
470 798 508 62 65 69 
470 798 509 70 72 78 
470 799 508 78 79 84 
470 799 509 74 76 81 
473 799 503 93 92 95 
472 797 504 88 87 90 
472 797 505 85 85 88 
472 797 506 81 81 85 
473 797 507 86 86 89 
472 798 504 89 88 91 
472 798 505 82 82 86 
473 799 504 95 94 96 
474 799 505 96 95 98 
475 799 505 95 94 97 
474 798 506 89 88 91 
474 798 507 87 86 90 
475 799 506 95 94 98 
475 799 507 94 93 96 
474 796 508 92 92 95 
474 797 508 90 90 92 
475 796 509 90 90 93 
475 797 509 92 92 95 
475 798 508 94 93 96 
476 798 506 94 94 97 
476 798 507 94 93 97 
476 799 506 95 94 97 
476 799 507 94 94 97 
477 799 507 94 93 97 
476 797 508 94 94 96 
476 796 511 81 82 86 
477 796 511 90 91 93 
476 798 509 92 91 95 
476 799 508 94 94 96 
477 798 510 93 92 96 
479 797 510 95 95 98 
478 798 508 95 95 98 
478 798 509 95 95 98 
478 799 508 94 93 97 
478 799 509 94 93 97 
479 798 509 96 96 99 
479 799 509 96 96 99 
478 798 511 92 92 96 
479 798 511 91 92 95 
479 799 510 99 98 101 
448 800 469 65 66 69 
448 801 469 64 65 68 
448 800 470 65 65 69 
448 801 470 61 62 65 
449 800 470 64 66 70 
449 800 471 65 67 71 
449 801 470 63 63 67 
448 802 469 64 64 67 
448 803 469 61 62 65 
449 802 469 58 60 64 
449 802 470 60 61 65 
449 803 470 57 58 61 
450 800 470 64 65 68 
450 800 471 64 65 69 
450 801 470 61 61 64 
450 801 471 58 58 61 
451 800 471 68 68 71 
451 801 471 65 66 69 
450 802 470 57 57 61 
450 802 471 56 57 60 
450 803 470 55 55 58 
450 803 471 54 55 58 
451 802 471 62 62 66 
451 803 471 62 62 65 
448 804 469 61 62 66 
448 804 470 58 60 65 
448 805 470 59 63 68 
448 805 471 59 63 70 
449 804 470 54 56 60 
449 804 471 49 51 56 
449 805 471 50 54 60 
448 806 471 72 76 84 
450 804 471 54 55 58 
451 800 472 69 70 73 
451 803 472 67 66 69 
449 805 472 59 63 69 
448 806 472 77 81 89 
448 807 472 93 96 103 
448 807 473 101 102 109 
449 806 472 78 82 89 
449 806 473 98 100 107 
449 807 473 105 106 112 
448 807 474 97 97 103 
448 807 475 88 88 93 
449 807 474 106 108 114 
449 807 475 99 101 107 
450 804 472 62 62 66 
450 805 472 66 69 73 
451 804 472 68 68 70 
451 805 472 71 72 75 
451 805 473 75 76 79 
450 806 472 75 78 84 
450 806 473 91 93 99 
451 806 473 83 85 90 
450 806 474 105 108 114 
450 807 474 107 109 116 
450 807 475 104 106 114 
451 806 474 96 98 105 
451 806 475 102 104 112 
451 807 475 100 102 109 
449 807 476 96 98 104 
450 807 476 100 101 106 
450 807 477 99 99 104 
451 807 476 102 103 108 
451 807 477 100 100 105 
452 800 472 71 71 73 
452 801 472 70 69 71 
453 800 472 75 74 75 
453 800 473 78 76 78 
453 801 472 74 73 74 
453 801 473 77 76 77 
452 802 472 69 68 70 
452 803 472 70 69 70 
452 803 473 72 70 71 
453 802 473 75 73 75 
453 803 473 73 72 73 
453 803 474 70 68 70 
454 800 473 74 73 74 
454 801 473 77 75 77 
454 800 474 65 64 66 
454 801 474 68 67 69 
455 800 474 54 53 55 
455 801 474 53 54 57 
455 801 475 52 54 58 
454 802 473 73 71 74 
454 802 474 57 57 60 
454 803 474 58 58 61 
455 802 474 51 52 56 
455 802 475 53 54 58 
455 803 475 56 58 62 
452 804 472 71 70 72 
452 804 473 72 70 72 
452 805 473 73 73 76 
453 804 473 71 70 72 
452 804 474 66 66 69 
452 805 474 72 75 81 
453 804 474 58 58 63 
453 805 474 55 58 65 
453 805 475 62 66 73 
452 806 474 89 92 100 
452 806 475 84 87 94 
453 806 475 70 73 79 
454 804 474 53 55 59 
454 804 475 52 56 63 
454 805 475 63 67 73 
455 804 475 60 64 69 
452 806 476 103 103 108 
452 807 476 109 109 114 
452 807 477 105 105 111 
453 806 476 110 111 116 
453 806 477 117 118 124 
453 807 477 109 110 116 
452 807 478 94 95 101 
453 807 478 97 98 104 
453 807 479 80 81 87 
454 804 476 70 73 79 
454 805 476 95 97 103 
455 804 476 69 71 76 
455 805 476 92 95 102 
455 805 477 92 96 103 
454 806 476 124 125 132 
454 806 477 114 116 123 
455 806 477 107 109 117 
454 806 478 108 109 116 
454 807 478 101 102 108 
454 807 479 84 85 91 
455 806 478 107 108 115 
455 806 479 102 103 109 
455 807 479 93 94 99 
448 808 475 79 79 85 
448 808 476 88 88 94 
448 808 477 96 97 103 
448 809 477 99 100 106 
449 808 476 97 98 104 
449 808 477 99 100 105 
448 809 478 98 99 105 
449 808 478 96 97 103 
449 809 478 97 98 105 
449 809 479 81 84 91 
448 810 478 95 97 104 
448 810 479 93 95 101 
448 811 479 87 89 94 
449 810 479 82 85 92 
450 808 477 98 99 104 
450 808 478 91 92 98 
450 808 479 74 77 84 
450 809 479 70 73 81 
451 808 478 91 92 98 
451 808 479 71 73 80 
451 809 479 66 69 77 
452 808 478 87 88 94 
452 808 479 72 72 79 
453 808 479 69 69 77 
456 800 475 63 63 66 
456 801 475 59 60 63 
456 802 475 62 62 65 
456 803 475 66 66 68 
456 800 476 72 72 74 
456 801 476 69 69 71 
457 800 476 79 77 78 
457 801 476 75 73 74 
456 802 476 70 69 71 
456 803 476 67 67 69 
457 802 476 71 69 70 
457 802 477 66 64 64 
457 803 476 68 66 68 
457 803 477 66 65 68 
458 800 477 84 82 82 
458 801 477 79 77 77 
458 800 478 86 84 85 
458 801 478 84 82 83 
459 800 478 85 83 84 
459 800 479 76 76 79 
459 801 478 84 82 83 
459 801 479 75 75 78 
458 802 477 76 74 76 
458 803 477 77 76 78 
458 802 478 82 80 82 
458 803 478 80 79 80 
459 802 478 81 79 80 
459 802 479 70 70 73 
459 803 479 68 68 71 
456 804 476 63 65 70 
456 804 477 63 67 73 
456 805 477 78 82 89 
457 804 477 68 70 74 
456 805 478 86 89 96 
457 804 478 72 75 81 
457 805 478 79 82 89 
457 805 479 89 93 100 
456 806 478 102 104 111 
456 806 479 101 102 109 
457 806 479 97 100 107 
458 804 478 77 77 81 
458 804 479 66 70 77 
458 805 479 78 82 89 
459 804 479 61 64 69 
454 807 480 75 75 81 
455 807 480 78 78 83 
448 811 480 84 85 91 
449 810 480 67 71 77 
449 811 480 78 80 85 
449 811 481 75 76 82 
450 809 480 59 64 71 
451 809 480 60 62 70 
450 810 480 59 63 70 
450 810 481 60 63 68 
450 811 481 69 71 76 
451 810 480 57 60 66 
451 810 481 60 62 67 
451 811 481 64 67 72 
451 811 482 68 70 76 
448 812 480 78 79 83 
448 813 480 69 69 73 
448 813 481 64 65 68 
449 812 480 80 80 85 
449 812 481 77 78 82 
449 813 481 68 69 72 
449 813 482 69 70 74 
448 814 480 60 61 64 
448 814 481 59 59 63 
448 815 481 55 57 60 
449 814 481 61 62 65 
448 815 482 53 55 60 
449 814 482 59 60 63 
449 815 482 54 56 60 
449 815 483 52 55 60 
450 812 481 78 79 84 
450 812 482 76 77 81 
450 813 482 68 69 73 
450 813 483 63 64 68 
451 812 482 74 75 80 
451 812 483 71 73 77 
451 813 483 65 67 71 
450 814 482 59 60 64 
450 814 483 58 60 64 
450 815 483 54 57 61 
451 814 483 59 61 65 
450 815 484 58 61 66 
451 814 484 58 60 63 
451 815 484 54 56 60 
451 815 485 56 59 65 
451 815 486 61 65 71 
452 808 480 60 59 68 
452 809 480 57 58 65 
452 809 481 58 60 66 
453 808 480 60 60 66 
453 809 481 66 68 73 
453 809 482 59 61 67 
452 810 481 56 60 66 
452 810 482 62 65 72 
452 811 482 70 72 78 
452 811 483 73 74 79 
453 810 482 68 71 78 
453 810 483 79 82 88 
453 811 483 78 79 84 
454 808 480 67 67 71 
454 808 481 68 68 72 
454 809 481 71 72 76 
455 808 480 65 65 68 
455 808 481 68 67 71 
454 809 482 58 60 67 
455 808 482 60 61 65 
455 809 482 55 56 63 
455 809 483 58 60 68 
454 810 483 75 77 84 
454 811 483 82 83 88 
455 810 483 74 76 81 
453 811 484 79 80 84 
454 811 484 85 85 90 
454 811 485 88 89 94 
455 810 484 89 89 94 
455 811 484 91 92 97 
455 811 485 95 96 102 
455 811 486 98 99 106 
455 811 487 98 100 107 
452 812 483 73 74 79 
452 813 483 67 68 72 
452 812 484 73 73 77 
452 813 484 66 66 70 
452 813 485 65 65 69 
453 812 484 77 77 81 
453 812 485 75 76 79 
453 813 485 68 68 71 
453 813 486 68 68 72 
453 813 487 68 68 72 
452 814 484 61 61 65 
452 814 485 60 61 65 
452 815 485 55 57 62 
452 814 486 59 60 64 
452 815 486 57 60 65 
452 815 487 61 65 71 
453 814 486 62 63 66 
453 814 487 60 61 65 
454 812 485 84 85 89 
454 812 486 82 83 87 
454 812 487 82 83 88 
454 813 487 73 73 77 
455 812 487 91 92 98 
451 815 492 63 65 71 
451 815 493 53 53 59 
455 811 490 109 110 116 
455 811 491 118 119 126 
455 808 494 74 75 80 
455 808 495 73 74 79 
455 809 494 80 82 88 
455 809 495 58 61 68 
454 811 493 118 120 128 
455 810 492 106 108 116 
