ply
format ascii 1.0
comment Created by CloudCompare v2.10.1 (Zephyrus)
comment Created 1/30/20 6:08 PM
obj_info Generated by CloudCompare!
element vertex 1944
property float x
property float y
property float z
property uchar red
property uchar green
property uchar blue
end_header
417 706 260 105 99 98 
417 707 260 107 101 99 
417 707 261 109 102 100 
418 704 260 103 97 94 
418 705 260 101 94 91 
418 705 261 105 97 94 
419 704 260 107 99 96 
419 704 261 111 104 101 
419 705 261 109 101 98 
419 704 262 111 103 100 
419 705 262 113 104 100 
419 705 263 115 107 103 
418 706 260 104 98 95 
418 706 261 108 101 98 
418 707 261 109 102 100 
419 706 261 111 104 100 
418 706 262 114 106 103 
418 707 262 114 106 102 
418 707 263 119 110 106 
419 706 262 117 109 105 
419 706 263 121 113 109 
419 707 263 117 108 104 
416 708 258 103 96 94 
416 708 259 109 102 100 
416 709 259 108 100 98 
416 708 260 111 104 101 
416 709 260 111 104 101 
416 709 261 116 108 105 
417 708 260 110 103 101 
417 708 261 111 103 100 
417 709 261 115 107 104 
417 708 262 121 113 110 
417 709 262 122 113 109 
417 709 263 126 117 113 
416 710 260 115 108 105 
416 710 261 124 116 113 
416 711 261 123 114 111 
416 710 262 127 119 114 
416 711 262 130 120 115 
416 711 263 135 124 120 
417 710 262 126 117 113 
417 710 263 127 117 113 
418 708 262 120 113 110 
418 708 263 128 119 116 
418 709 263 129 120 117 
420 704 262 112 104 100 
420 704 263 110 102 98 
420 705 263 113 104 101 
419 706 264 123 114 111 
419 707 264 122 112 107 
419 707 265 126 116 111 
419 707 266 129 118 113 
417 709 264 132 123 119 
416 711 264 140 129 125 
416 711 265 141 130 125 
417 710 264 133 123 118 
417 710 265 137 126 121 
417 711 264 137 126 121 
417 711 265 139 128 123 
416 711 266 137 126 121 
417 710 266 139 128 123 
417 711 266 137 126 120 
417 711 267 136 125 119 
418 708 264 130 120 116 
418 708 265 133 123 119 
418 709 264 133 123 119 
418 709 265 135 124 120 
419 708 264 130 121 117 
419 708 265 134 124 120 
418 709 266 139 128 124 
418 709 267 139 128 123 
419 708 266 136 126 121 
419 708 267 134 123 118 
419 709 266 139 128 124 
419 709 267 137 126 121 
418 710 265 136 125 119 
418 710 266 138 127 122 
418 710 267 138 127 122 
417 711 268 141 129 124 
417 711 269 140 128 122 
416 711 271 141 129 124 
417 710 271 140 128 123 
417 711 270 138 127 121 
417 711 271 138 126 120 
419 708 268 138 127 122 
419 709 268 137 126 121 
419 709 269 140 129 123 
419 709 270 138 127 121 
419 709 271 139 127 122 
418 710 268 139 127 121 
418 710 269 138 126 120 
418 710 270 138 127 121 
418 710 271 140 128 123 
418 711 270 139 128 122 
418 711 271 137 126 119 
420 704 264 113 105 101 
420 705 264 119 111 107 
420 705 265 124 115 112 
421 704 264 114 106 103 
421 704 265 116 108 104 
421 705 265 121 112 108 
421 704 266 121 111 107 
421 705 266 124 115 110 
421 705 267 129 118 113 
420 706 264 125 116 113 
420 706 265 125 116 113 
420 707 265 125 115 111 
420 706 266 130 121 116 
420 707 266 129 118 113 
420 707 267 129 118 113 
421 706 266 129 119 115 
421 706 267 130 120 115 
421 707 267 127 116 110 
422 704 265 116 108 105 
422 704 266 118 110 107 
422 704 267 125 116 113 
422 705 267 131 121 117 
420 707 268 130 118 112 
420 707 269 133 122 116 
421 706 268 133 122 117 
421 706 269 140 130 126 
421 707 268 132 121 116 
421 707 269 136 126 121 
421 707 270 137 126 121 
421 707 271 141 129 124 
422 704 268 129 119 115 
422 705 268 131 120 116 
422 705 269 132 122 118 
423 704 268 129 120 116 
423 704 269 131 121 116 
423 705 269 133 122 118 
422 705 270 135 124 119 
423 704 270 132 121 116 
423 704 271 138 127 121 
423 705 270 136 125 120 
423 705 271 142 130 124 
422 706 268 134 123 119 
422 706 269 139 129 124 
422 706 270 140 130 125 
422 706 271 139 128 122 
422 707 271 140 129 123 
420 708 267 132 121 116 
420 708 268 136 125 120 
420 708 269 136 126 121 
420 708 270 137 126 121 
420 708 271 137 126 120 
420 709 270 139 128 123 
420 709 271 139 127 122 
421 708 270 138 127 122 
421 708 271 139 128 122 
416 712 263 138 127 122 
416 712 264 137 126 120 
416 712 265 138 127 121 
416 712 266 138 126 121 
416 712 267 140 129 123 
416 713 267 145 134 129 
416 712 268 144 132 127 
416 712 269 145 133 128 
416 713 268 144 132 127 
416 713 269 147 134 128 
416 712 270 146 134 128 
416 712 271 144 132 127 
424 704 271 135 124 118 
419 707 275 152 140 133 
416 705 279 97 88 85 
417 704 279 81 74 75 
417 705 279 118 110 108 
417 707 277 172 160 157 
416 706 278 172 160 157 
416 706 279 138 127 123 
416 707 278 175 162 158 
416 707 279 167 154 149 
417 706 278 167 156 153 
417 706 279 152 142 140 
417 707 278 174 163 159 
419 705 277 165 155 152 
418 704 279 108 100 99 
418 705 278 158 149 146 
418 705 279 136 127 125 
419 704 278 149 140 138 
419 705 278 164 154 152 
418 706 277 168 157 154 
418 707 276 163 151 147 
418 707 277 168 157 153 
419 706 276 162 150 146 
419 706 277 167 156 152 
419 707 276 161 149 143 
419 707 277 167 155 151 
418 706 278 164 154 151 
417 709 275 155 143 137 
416 711 272 147 135 129 
416 711 273 147 134 128 
417 710 272 145 133 127 
417 710 273 148 135 129 
417 711 272 145 133 127 
417 711 273 147 135 128 
416 710 274 147 134 128 
416 710 275 154 142 138 
416 711 274 145 133 126 
417 710 274 149 136 131 
417 710 275 152 140 135 
418 709 273 147 135 129 
419 708 273 145 133 128 
419 709 272 141 130 124 
419 709 273 144 133 127 
418 708 274 148 136 130 
418 708 275 153 141 135 
418 709 274 149 138 132 
418 709 275 153 140 135 
419 708 274 146 134 128 
419 708 275 154 141 135 
419 709 274 146 134 128 
418 710 272 144 132 126 
418 710 273 149 137 131 
418 710 274 149 137 132 
416 708 277 172 160 156 
416 709 276 164 152 148 
416 709 277 170 158 154 
417 708 276 162 150 146 
417 708 277 167 155 151 
417 709 276 162 150 145 
416 708 278 167 154 149 
416 710 276 162 150 146 
418 708 276 161 149 144 
421 705 275 146 135 130 
421 707 272 145 133 128 
421 707 273 144 133 128 
420 706 275 148 136 130 
420 707 274 146 134 128 
420 707 275 148 136 129 
421 706 274 142 130 125 
421 706 275 147 135 129 
421 707 274 144 132 126 
423 704 272 140 128 122 
423 704 273 143 131 125 
423 705 272 141 129 123 
423 705 273 141 129 123 
422 705 274 143 131 126 
422 705 275 144 133 128 
423 704 274 142 131 125 
423 704 275 141 129 123 
423 705 274 143 132 126 
422 706 272 142 131 125 
422 706 273 142 130 125 
422 707 272 141 130 125 
422 706 274 141 129 124 
420 704 277 161 150 148 
420 705 276 158 146 140 
420 705 277 161 150 146 
421 704 277 160 149 145 
421 705 276 155 144 139 
420 704 278 159 149 147 
420 706 276 156 144 139 
420 706 277 161 149 145 
422 704 276 154 143 138 
422 704 277 158 147 144 
422 705 276 155 143 139 
423 704 276 152 140 135 
420 708 272 143 131 126 
420 708 273 145 133 128 
420 709 272 142 130 125 
421 708 272 144 133 127 
420 708 274 147 135 130 
416 704 280 76 62 62 
416 704 281 88 76 68 
416 705 280 81 69 68 
416 705 281 91 80 73 
417 704 280 74 61 63 
416 704 282 78 64 60 
416 706 280 103 92 89 
416 712 272 147 135 130 
424 704 272 139 127 121 
424 704 273 142 131 125 
424 704 274 143 131 126 
278 831 189 158 144 139 
279 830 188 162 148 143 
279 831 188 156 143 137 
279 831 189 161 148 142 
280 831 187 143 131 127 
280 831 188 146 134 130 
280 831 189 157 146 142 
289 831 182 138 130 128 
291 831 181 131 121 116 
290 831 182 137 128 125 
292 831 181 128 118 113 
293 831 180 123 113 108 
293 831 181 121 111 106 
294 829 180 102 93 89 
295 829 180 106 98 95 
294 830 180 116 107 103 
294 831 180 116 107 102 
294 831 181 106 96 92 
295 830 180 106 98 94 
295 831 181 97 87 84 
303 823 177 150 137 137 
297 827 179 86 73 73 
298 827 179 89 81 80 
299 827 179 103 96 93 
296 829 179 101 94 93 
297 828 179 97 90 89 
297 829 179 106 100 98 
298 828 179 102 95 94 
298 829 179 97 90 89 
299 828 179 95 87 85 
296 829 180 104 97 94 
297 829 180 97 90 88 
296 830 180 97 88 85 
296 830 181 98 89 87 
296 831 181 105 96 93 
297 830 180 103 94 93 
297 830 181 108 99 97 
297 831 181 132 124 122 
297 831 182 152 143 141 
298 829 180 109 101 99 
299 829 180 123 115 114 
299 829 181 154 145 142 
298 830 181 149 140 138 
298 831 181 161 152 150 
299 830 181 173 163 159 
298 831 182 179 169 167 
298 831 183 189 178 175 
299 830 182 189 178 175 
299 831 182 191 180 177 
299 831 183 192 181 177 
300 825 178 104 87 90 
301 825 178 99 85 87 
300 826 178 91 80 80 
300 826 179 106 100 98 
300 827 179 100 94 93 
301 826 178 107 100 98 
301 826 179 108 102 100 
301 827 179 90 83 82 
303 824 177 107 90 95 
302 824 178 99 83 86 
302 825 178 101 91 91 
303 824 178 99 86 88 
303 825 178 113 105 103 
302 826 178 113 106 103 
302 826 179 99 92 90 
302 827 179 86 78 77 
303 826 178 117 109 106 
303 826 179 98 91 88 
303 827 179 96 87 84 
303 827 180 116 106 102 
300 828 179 92 85 84 
301 828 179 87 79 79 
302 828 179 93 85 84 
300 828 180 102 96 95 
300 829 180 131 123 122 
300 829 181 160 151 147 
301 828 180 105 97 95 
301 829 180 140 131 128 
301 829 181 159 148 144 
300 830 181 173 162 159 
300 830 182 184 173 170 
300 830 183 190 178 175 
300 831 183 192 180 177 
301 830 182 169 157 153 
301 830 183 179 167 164 
302 828 180 120 111 108 
302 828 181 142 130 125 
302 829 181 150 138 132 
303 828 180 129 119 114 
303 828 181 142 129 122 
303 829 181 144 131 123 
302 829 182 149 137 131 
302 829 183 147 136 131 
303 829 182 142 128 120 
303 829 183 142 129 123 
302 830 182 159 147 142 
302 830 183 161 150 145 
299 831 184 189 177 174 
299 831 185 185 173 169 
300 831 184 190 179 175 
300 831 185 185 173 170 
301 830 184 181 169 165 
301 831 184 185 174 170 
301 831 185 181 170 167 
300 831 186 175 163 159 
301 831 186 169 157 153 
301 831 187 153 140 135 
303 829 184 139 127 120 
302 830 184 164 153 148 
302 830 185 166 155 151 
302 831 185 174 163 160 
303 830 184 147 135 130 
303 830 185 144 132 127 
302 830 186 161 150 146 
302 831 186 163 152 148 
302 831 187 146 134 128 
303 830 186 146 135 129 
303 830 187 138 126 119 
303 831 187 139 126 118 
302 831 188 140 126 117 
302 831 189 136 121 113 
303 830 188 134 120 112 
303 831 188 135 120 111 
303 831 189 132 117 108 
303 831 190 140 128 122 
303 831 191 144 133 128 
313 815 175 86 81 79 
314 813 175 45 41 41 
315 812 174 84 69 70 
315 812 175 64 49 53 
315 813 175 46 39 40 
314 814 174 48 45 45 
314 814 175 56 53 52 
314 815 175 77 73 71 
315 814 175 51 48 48 
315 815 175 67 63 63 
316 811 174 126 114 111 
316 811 175 104 91 90 
317 810 174 144 131 123 
317 811 174 142 130 124 
317 811 175 121 109 105 
319 809 173 166 153 148 
319 809 174 161 148 142 
318 810 173 161 148 142 
318 810 174 154 140 134 
318 810 175 152 139 134 
318 811 175 145 133 128 
319 810 174 159 146 139 
319 810 175 155 142 136 
316 812 174 97 83 83 
316 812 175 75 62 65 
314 815 176 88 83 80 
315 814 176 50 47 47 
315 815 176 76 71 70 
317 811 176 114 102 98 
318 811 176 129 118 113 
318 811 177 106 95 94 
319 810 176 142 130 125 
319 810 177 130 119 115 
319 811 177 121 110 106 
319 811 178 98 88 85 
316 812 176 63 51 54 
316 813 176 41 37 38 
317 812 176 80 69 70 
317 812 177 61 49 52 
317 813 177 40 36 37 
317 813 178 40 36 38 
316 814 176 44 41 41 
316 814 177 41 38 38 
316 815 176 65 60 58 
316 815 177 70 65 63 
317 814 177 40 38 37 
317 815 177 69 64 62 
317 814 178 42 38 37 
317 815 178 59 54 52 
318 812 177 81 70 71 
318 812 178 66 57 57 
318 813 178 43 39 38 
318 813 179 43 39 37 
319 812 178 81 73 71 
319 812 179 69 61 59 
319 813 179 45 40 39 
318 814 178 45 41 39 
318 814 179 50 45 43 
318 815 178 68 63 61 
318 815 179 69 65 62 
319 814 179 49 44 41 
319 815 179 73 68 65 
319 813 180 44 40 38 
319 814 180 50 44 41 
319 815 180 61 55 51 
309 819 175 138 125 119 
311 817 175 110 99 93 
310 818 175 131 118 111 
310 819 175 128 116 110 
311 818 175 119 108 101 
312 816 175 92 84 81 
312 817 175 89 79 75 
313 816 175 97 90 87 
313 817 175 85 76 73 
312 818 175 99 89 85 
314 816 175 98 92 90 
304 823 177 130 116 118 
305 822 177 131 118 120 
305 823 177 110 97 98 
306 821 176 156 145 143 
307 820 176 155 144 141 
307 821 176 141 130 130 
306 822 176 143 131 132 
306 822 177 112 97 101 
306 823 177 119 110 109 
307 822 176 118 104 110 
307 822 177 102 90 93 
307 823 177 137 129 127 
307 823 178 140 131 129 
309 819 176 129 117 114 
310 819 176 107 93 91 
311 818 176 109 98 93 
311 819 176 90 77 75 
308 820 176 146 134 132 
308 821 176 110 97 100 
309 820 176 113 100 100 
309 821 176 91 79 82 
309 821 177 100 92 92 
308 822 177 112 104 104 
308 823 177 138 129 127 
309 822 177 125 117 115 
308 823 178 130 121 118 
309 822 178 129 120 117 
309 823 178 122 113 110 
310 820 176 91 80 81 
310 820 177 97 89 89 
310 821 177 117 109 106 
311 820 176 97 89 88 
311 820 177 116 108 105 
311 821 177 131 122 118 
310 822 177 131 122 118 
311 822 177 129 120 116 
310 823 178 118 110 107 
311 822 178 121 112 109 
311 823 178 115 106 102 
311 823 179 124 114 108 
304 824 177 100 86 89 
305 824 177 115 106 105 
304 824 178 114 105 104 
304 825 178 122 114 112 
305 824 178 133 124 122 
305 825 178 120 112 110 
305 825 179 107 99 96 
304 826 178 114 106 103 
304 826 179 100 91 89 
304 827 179 107 97 92 
305 826 178 110 102 100 
305 826 179 110 100 96 
306 824 178 136 127 124 
306 825 178 116 106 104 
306 825 179 110 100 98 
307 824 178 126 117 114 
307 825 178 116 104 103 
307 825 179 118 106 102 
306 826 179 111 100 95 
307 826 179 117 105 99 
304 827 180 123 112 106 
305 827 180 128 117 111 
305 827 181 135 122 115 
306 826 180 128 115 109 
306 827 180 133 121 114 
306 827 181 129 116 107 
307 826 180 133 119 112 
307 826 181 131 117 110 
307 827 181 122 108 99 
306 827 182 134 119 109 
307 827 182 120 104 94 
307 827 183 135 120 110 
304 828 180 130 119 114 
304 828 181 141 128 120 
305 828 181 140 126 118 
304 828 182 145 130 122 
304 829 182 143 130 122 
304 829 183 144 131 124 
305 828 182 146 131 122 
305 828 183 148 134 124 
306 828 182 142 127 117 
306 828 183 146 130 120 
308 824 178 122 112 109 
308 825 179 133 121 117 
309 824 178 124 115 111 
309 824 179 150 140 137 
309 825 179 152 141 136 
310 824 179 143 133 128 
311 824 179 139 127 120 
308 825 180 137 123 115 
309 825 180 147 133 125 
309 825 181 146 130 122 
308 826 180 136 122 114 
308 826 181 127 111 103 
309 826 181 136 119 112 
308 826 182 111 91 84 
308 827 182 111 93 84 
308 827 183 122 105 97 
309 826 182 118 99 92 
309 826 183 117 97 90 
310 824 180 156 143 136 
310 825 180 155 141 133 
310 825 181 158 143 136 
311 824 180 153 139 132 
311 824 181 167 152 146 
311 825 181 172 158 152 
310 825 182 149 131 126 
311 825 182 170 155 150 
311 825 183 145 127 122 
310 826 182 132 113 107 
310 826 183 128 107 102 
307 827 184 137 120 109 
307 827 185 133 115 103 
304 829 184 135 122 114 
304 829 185 124 110 102 
305 828 184 137 122 113 
305 828 185 130 113 103 
305 829 184 136 122 114 
305 829 185 125 109 99 
304 829 186 122 109 100 
305 829 186 122 105 95 
305 829 187 123 107 96 
304 830 185 128 116 108 
304 830 186 128 115 107 
304 830 187 128 113 104 
305 830 187 122 106 96 
306 828 184 138 122 111 
306 828 185 131 114 104 
307 828 184 135 118 106 
307 828 185 132 115 105 
306 828 186 130 112 101 
306 828 187 130 112 101 
306 829 186 126 109 98 
306 829 187 126 109 98 
307 828 186 135 118 107 
307 828 187 137 120 109 
305 829 188 124 107 97 
305 829 189 126 109 98 
304 830 188 129 114 105 
304 830 189 128 112 101 
304 831 189 128 112 102 
305 830 188 125 109 99 
305 830 189 129 112 101 
304 831 190 132 116 109 
304 831 191 136 123 118 
305 830 190 134 117 106 
305 830 191 141 126 118 
305 831 190 132 115 107 
305 831 191 137 123 116 
306 829 188 126 109 98 
306 829 189 135 118 107 
307 828 188 133 117 105 
307 828 189 136 120 110 
307 829 188 131 114 102 
307 829 189 142 126 116 
306 829 190 153 136 126 
307 829 190 158 142 133 
307 829 191 157 141 131 
306 830 189 135 118 106 
306 830 190 147 130 118 
306 830 191 149 133 122 
307 830 191 154 138 127 
308 827 184 133 117 106 
308 827 185 134 117 104 
309 826 184 132 113 102 
309 826 185 142 123 111 
309 827 184 131 114 103 
309 827 185 140 121 110 
308 827 186 139 122 110 
309 827 186 146 129 117 
309 827 187 151 135 125 
311 825 184 144 123 116 
310 826 184 136 116 107 
310 826 185 149 130 121 
311 826 184 140 119 111 
311 826 185 158 139 130 
310 826 186 158 140 132 
310 827 186 156 140 131 
310 827 187 161 146 138 
311 826 186 163 146 139 
311 826 187 167 152 145 
311 827 187 169 154 147 
309 827 188 153 136 128 
310 827 188 161 144 137 
310 827 189 158 140 133 
311 827 188 165 149 142 
311 827 189 159 141 133 
308 828 186 140 123 111 
308 828 187 143 127 116 
308 828 188 141 125 114 
308 828 189 146 131 123 
308 829 189 153 139 130 
309 828 188 145 129 120 
309 828 189 150 134 126 
308 829 190 158 144 136 
308 829 191 156 140 131 
309 828 190 153 138 129 
309 828 191 148 133 124 
309 829 190 155 140 132 
309 829 191 151 136 127 
310 828 189 155 139 130 
311 828 189 155 137 128 
310 828 190 152 137 128 
310 828 191 147 132 122 
310 829 191 144 129 119 
311 828 190 150 134 124 
311 828 191 146 130 120 
312 817 176 81 70 68 
313 817 176 82 73 71 
312 818 176 87 78 76 
312 819 176 97 89 86 
312 819 177 120 113 111 
313 818 176 86 78 77 
313 819 176 113 106 104 
313 819 177 121 114 112 
314 816 176 97 90 88 
314 817 176 87 78 76 
315 816 176 96 89 87 
315 817 176 92 85 82 
315 817 177 95 86 83 
314 818 176 82 74 73 
314 818 177 94 86 85 
314 819 177 114 106 104 
315 818 176 93 83 81 
315 818 177 104 94 92 
315 819 177 109 100 96 
315 819 178 116 106 102 
312 820 177 126 118 116 
312 821 177 133 124 121 
313 820 177 129 121 118 
313 821 177 130 121 118 
312 821 178 126 117 115 
313 821 178 130 120 119 
312 822 178 120 111 109 
312 823 178 111 101 97 
312 823 179 124 111 105 
313 822 178 125 116 114 
313 822 179 125 114 110 
313 823 179 128 115 109 
314 820 177 124 116 113 
314 820 178 128 120 117 
314 821 178 142 132 131 
314 821 179 153 144 142 
315 820 178 135 126 122 
315 821 178 153 143 141 
315 821 179 149 139 136 
314 822 179 139 129 126 
312 823 180 151 137 132 
313 823 180 148 135 130 
313 823 181 176 164 159 
315 821 180 123 109 106 
314 822 180 134 123 118 
314 822 181 147 136 131 
314 823 181 167 155 151 
315 822 180 127 114 111 
315 822 181 132 120 116 
314 823 182 165 152 147 
314 823 183 164 151 145 
315 822 182 152 142 139 
315 823 182 160 149 145 
315 823 183 166 154 149 
316 816 176 95 89 86 
316 816 177 93 87 84 
316 817 177 105 97 93 
317 816 177 91 84 82 
317 817 177 102 94 91 
317 817 178 104 97 93 
316 818 177 124 114 110 
316 819 177 123 112 108 
317 818 177 139 130 126 
316 819 178 132 121 116 
317 818 178 141 131 127 
317 819 178 145 134 129 
317 819 179 153 142 139 
318 816 178 86 81 79 
318 816 179 83 78 76 
318 817 178 102 95 92 
318 817 179 106 99 96 
319 816 179 81 77 76 
319 817 179 103 97 95 
318 818 178 131 122 118 
318 818 179 143 132 128 
318 819 179 160 149 145 
319 818 179 139 129 125 
319 819 179 156 145 141 
318 819 180 169 158 156 
319 818 180 151 142 138 
319 819 180 170 159 158 
319 819 181 175 165 164 
316 820 178 142 132 128 
316 820 179 147 136 132 
316 821 179 140 129 124 
317 820 179 148 137 133 
316 821 180 128 112 109 
316 821 181 120 102 101 
317 820 180 147 135 131 
317 820 181 149 134 131 
317 821 181 134 118 114 
316 821 182 129 117 113 
317 821 182 139 126 121 
317 821 183 141 130 128 
316 822 181 123 110 108 
316 822 182 142 133 131 
316 822 183 157 146 143 
317 822 183 146 135 132 
318 820 180 162 151 149 
318 820 181 161 149 145 
319 820 181 175 164 161 
318 820 182 165 152 147 
318 821 182 150 137 132 
318 821 183 156 143 140 
319 820 182 175 163 159 
319 820 183 175 163 160 
319 821 183 172 160 157 
315 823 184 186 173 169 
315 823 185 177 165 161 
316 822 184 171 159 155 
316 823 184 186 174 171 
316 823 185 169 157 152 
317 822 184 154 142 138 
317 822 185 163 151 146 
317 823 185 165 153 148 
316 823 186 149 134 130 
317 823 186 158 145 140 
317 823 187 160 145 139 
318 821 184 158 147 143 
319 821 184 173 161 158 
319 821 185 176 165 162 
318 822 184 156 144 140 
318 822 185 168 156 152 
319 822 185 178 166 163 
318 822 186 176 164 161 
318 823 186 174 162 158 
318 823 187 176 163 158 
319 822 186 179 167 164 
319 822 187 181 169 165 
319 823 187 183 171 167 
318 823 188 180 168 164 
319 822 188 179 167 163 
319 823 188 182 169 166 
319 823 189 180 168 166 
319 823 190 178 167 165 
312 824 180 153 139 132 
312 824 181 175 161 156 
313 824 181 180 167 162 
312 824 182 181 168 164 
312 824 183 173 160 156 
312 825 182 180 167 162 
312 825 183 164 149 145 
313 824 182 172 159 154 
313 824 183 165 151 146 
314 824 183 162 148 142 
312 825 184 146 129 122 
312 825 185 168 152 145 
313 824 184 154 140 133 
313 825 184 146 130 122 
313 825 185 168 154 148 
313 825 186 179 165 158 
312 826 185 168 152 143 
312 826 186 170 154 146 
312 826 187 173 159 153 
312 827 187 174 160 154 
313 826 186 175 160 152 
313 826 187 176 163 158 
314 824 184 167 154 148 
314 824 185 156 142 135 
314 825 185 173 160 153 
315 824 185 154 140 134 
314 825 186 176 162 156 
314 825 187 177 164 159 
315 824 186 158 143 137 
315 825 186 169 155 148 
315 825 187 169 156 150 
314 826 187 179 166 162 
312 826 188 181 168 164 
312 827 188 173 159 153 
312 827 189 162 144 136 
313 826 188 186 174 170 
313 827 188 184 170 165 
313 827 189 171 155 148 
313 827 190 161 145 137 
315 825 188 173 163 161 
314 826 188 186 174 171 
314 826 189 186 173 169 
314 827 189 181 167 161 
315 826 188 183 173 171 
315 826 189 188 176 172 
314 827 190 171 157 149 
314 827 191 161 146 138 
315 826 190 185 172 167 
315 827 190 180 166 160 
315 827 191 171 157 150 
312 828 189 154 137 128 
312 828 190 151 135 125 
312 828 191 147 131 121 
313 828 190 156 140 131 
313 828 191 150 134 124 
314 828 191 153 137 128 
316 824 185 146 132 127 
316 824 186 144 127 121 
316 824 187 147 129 123 
316 825 187 156 143 136 
317 824 187 153 135 129 
316 824 188 146 128 124 
316 825 188 156 142 139 
316 825 189 168 157 154 
317 824 188 154 137 133 
317 824 189 170 157 154 
317 825 189 174 162 160 
316 825 190 174 163 160 
317 825 190 183 173 171 
317 825 191 178 166 164 
316 826 189 180 169 167 
316 826 190 178 166 162 
316 826 191 169 156 150 
316 827 191 167 153 147 
317 826 191 168 156 151 
318 824 188 173 161 156 
318 824 189 182 171 168 
319 824 189 181 170 168 
318 824 190 184 174 173 
318 824 191 179 169 168 
318 825 190 188 178 177 
318 825 191 175 165 162 
319 824 190 179 168 166 
319 824 191 174 163 161 
304 831 192 129 116 107 
304 831 193 136 121 111 
305 831 192 129 115 107 
305 831 193 138 122 111 
305 831 194 141 125 114 
306 830 192 141 126 116 
306 830 193 139 123 114 
306 831 192 137 122 114 
306 831 193 141 125 115 
307 830 192 142 126 116 
307 830 193 135 119 108 
306 831 194 142 126 115 
306 831 195 139 124 113 
307 830 194 134 118 108 
307 831 194 138 122 112 
307 831 195 131 116 106 
306 831 196 140 125 115 
307 831 196 130 115 104 
307 831 197 130 116 106 
308 829 192 142 126 116 
309 829 192 141 125 115 
309 829 193 129 113 102 
309 829 194 131 115 104 
308 830 192 132 116 105 
308 830 193 127 111 100 
309 830 193 124 108 98 
308 830 194 128 112 101 
308 830 195 126 111 101 
308 831 195 126 111 101 
309 830 194 126 110 99 
309 830 195 127 112 102 
310 829 192 143 127 116 
310 829 193 135 119 108 
311 828 192 143 128 117 
311 829 192 142 126 115 
311 829 193 138 123 112 
310 829 194 136 120 110 
310 829 195 137 122 111 
311 829 194 139 124 114 
311 829 195 141 125 115 
310 830 195 137 122 112 
308 831 196 125 110 100 
308 831 197 126 111 102 
309 830 196 128 113 104 
309 830 197 130 116 106 
309 831 196 126 111 102 
309 831 197 128 114 104 
308 831 198 126 112 103 
309 831 198 128 115 107 
311 829 196 141 126 116 
310 830 196 136 121 112 
310 830 197 137 123 114 
311 830 196 142 127 117 
311 830 197 141 127 118 
310 830 198 137 124 116 
310 831 198 134 120 113 
310 831 199 129 117 112 
311 830 198 138 125 118 
311 831 198 135 123 117 
311 831 199 122 111 105 
315 827 192 153 138 130 
312 828 192 143 128 117 
312 828 193 141 126 116 
312 829 193 140 125 115 
313 828 192 145 129 119 
313 828 193 143 129 119 
312 829 194 142 126 117 
312 829 195 143 128 119 
313 828 194 145 131 123 
313 829 194 146 131 123 
313 829 195 149 136 128 
314 828 192 147 132 123 
314 828 193 145 130 121 
315 828 192 148 132 124 
315 828 193 147 132 124 
314 828 194 147 133 124 
314 828 195 151 137 128 
314 829 195 156 142 135 
315 828 194 144 129 121 
315 828 195 146 132 124 
312 829 196 143 129 120 
313 829 196 152 139 132 
313 829 197 143 130 122 
312 830 197 139 126 117 
313 830 197 138 125 118 
312 830 198 136 123 116 
312 830 199 126 115 109 
312 831 199 106 95 90 
313 830 198 129 117 111 
313 830 199 114 102 97 
313 831 199 99 89 85 
314 829 196 157 144 139 
314 829 197 140 128 123 
315 829 196 155 142 137 
315 829 197 140 129 125 
314 830 197 135 123 119 
314 830 198 121 109 106 
314 831 199 96 88 85 
315 830 198 120 109 106 
315 831 199 97 89 86 
317 825 192 159 146 141 
316 826 192 159 145 138 
316 827 192 155 140 133 
316 827 193 154 139 132 
317 826 192 163 149 143 
317 826 193 177 163 159 
317 827 193 170 156 150 
316 827 194 153 138 131 
317 826 194 175 163 158 
317 827 194 165 151 146 
317 827 195 146 132 126 
318 825 192 162 150 145 
318 825 193 177 166 162 
319 824 192 170 159 157 
319 824 193 173 163 160 
319 825 192 169 158 154 
319 825 193 175 164 161 
318 825 194 178 165 161 
319 824 194 167 156 153 
319 825 194 175 163 160 
319 825 195 171 160 157 
318 826 193 183 170 166 
318 826 194 177 165 161 
318 826 195 165 153 150 
318 827 195 148 134 129 
319 826 195 165 153 150 
317 827 196 127 111 104 
319 825 196 166 155 153 
318 826 196 148 136 132 
318 827 196 121 105 98 
318 827 197 115 98 97 
319 826 196 154 142 139 
319 826 197 145 134 131 
319 827 197 118 101 99 
319 827 198 117 101 98 
316 828 194 146 131 123 
316 828 195 140 125 117 
317 828 195 137 122 115 
316 828 196 140 127 121 
316 829 196 149 137 133 
316 829 197 142 131 128 
317 828 196 128 114 107 
317 828 197 135 123 119 
317 829 197 144 134 131 
317 829 198 131 120 117 
316 830 198 117 107 103 
316 830 199 112 103 99 
316 831 199 104 95 93 
317 830 198 118 107 101 
317 830 199 129 118 114 
317 831 199 125 115 112 
318 828 197 121 109 103 
319 828 197 117 104 99 
318 828 198 126 115 109 
318 829 198 131 120 116 
318 829 199 131 119 113 
319 828 198 122 109 103 
319 828 199 134 122 115 
319 829 198 129 117 110 
319 829 199 141 128 122 
318 830 199 136 125 121 
319 830 199 146 135 131 
317 831 200 119 110 106 
319 829 200 153 142 138 
318 831 200 130 119 116 
319 830 200 143 133 129 
319 831 200 130 120 117 
319 831 201 122 112 108 
319 829 214 132 118 108 
319 830 214 137 122 112 
319 831 214 142 127 118 
286 833 183 190 180 179 
287 832 183 176 166 165 
287 833 183 183 173 172 
281 832 186 137 127 124 
281 832 187 136 125 123 
283 832 185 183 172 170 
282 832 186 155 144 140 
282 832 187 152 142 138 
283 832 186 174 164 160 
283 833 186 171 160 157 
283 833 187 165 154 151 
280 832 189 146 135 130 
281 832 188 138 127 124 
281 832 189 137 127 124 
280 832 190 158 146 143 
281 832 190 131 122 119 
281 832 191 129 119 119 
282 832 188 153 144 141 
282 832 189 156 147 145 
282 833 188 164 154 152 
282 833 189 169 160 158 
283 833 188 176 165 162 
283 833 189 184 173 170 
282 833 190 159 150 147 
282 833 191 158 148 146 
283 833 190 185 174 172 
283 833 191 183 172 168 
283 834 191 187 176 173 
284 832 185 188 178 176 
284 833 184 189 179 177 
284 833 185 189 179 177 
285 832 184 189 179 177 
285 833 184 189 179 178 
285 833 185 188 178 177 
284 833 186 186 176 175 
284 833 187 184 174 173 
285 833 186 188 178 177 
285 833 187 189 179 178 
285 834 187 190 180 179 
286 833 184 189 179 179 
286 833 185 184 174 173 
287 833 184 172 161 159 
287 833 185 157 146 144 
286 833 186 183 173 171 
287 833 186 169 159 157 
286 834 186 185 174 172 
286 834 187 188 178 177 
287 834 186 154 143 142 
287 834 187 164 154 153 
284 833 188 183 173 172 
284 833 189 187 176 174 
284 834 188 188 178 177 
284 834 189 192 182 181 
285 834 188 193 183 182 
285 834 189 195 185 184 
284 834 190 193 183 182 
284 834 191 194 183 182 
285 834 190 195 186 185 
285 834 191 197 186 186 
286 834 188 193 183 182 
286 834 189 194 184 184 
287 834 188 173 164 163 
287 834 189 180 170 169 
287 835 189 168 158 157 
286 834 190 194 184 183 
286 834 191 191 180 180 
287 834 190 181 170 169 
287 834 191 184 173 172 
287 835 190 168 158 156 
287 835 191 172 160 158 
288 832 183 149 139 137 
288 833 183 154 144 142 
289 832 182 136 127 126 
289 832 183 124 113 112 
291 832 181 132 122 117 
290 832 182 126 116 114 
290 832 183 111 99 100 
290 833 183 103 89 92 
291 832 182 117 107 104 
291 832 183 105 93 92 
291 833 183 93 83 83 
292 832 181 123 112 107 
293 832 181 109 99 93 
292 832 182 107 97 93 
292 833 182 96 85 84 
292 833 183 92 84 81 
293 832 182 97 87 83 
293 833 182 92 84 81 
293 833 183 93 85 81 
292 834 183 92 86 83 
293 834 183 96 88 84 
294 832 181 97 86 82 
295 832 181 98 88 84 
294 832 182 96 87 82 
294 833 182 94 86 82 
294 833 183 95 87 83 
295 832 182 103 94 90 
295 833 182 102 94 90 
295 833 183 113 104 101 
294 834 183 99 91 87 
295 834 183 115 107 104 
288 833 184 148 137 136 
288 833 185 141 130 128 
289 833 184 125 114 115 
289 833 185 118 108 108 
288 834 185 135 124 124 
289 834 185 108 99 99 
288 834 186 129 119 119 
288 834 187 133 124 123 
288 835 187 130 122 121 
289 834 186 105 97 97 
289 835 186 101 95 95 
289 835 187 114 107 107 
290 833 184 94 83 84 
291 833 184 84 76 76 
290 834 185 84 78 79 
290 835 185 93 87 88 
291 834 184 87 81 80 
291 834 185 85 80 79 
291 835 184 92 86 84 
291 835 185 103 95 93 
290 835 186 103 98 98 
290 835 187 118 111 112 
291 835 186 122 113 111 
291 835 187 140 131 128 
288 834 188 146 137 136 
288 835 188 135 127 127 
288 835 189 147 138 137 
289 835 188 124 116 116 
289 835 189 134 126 124 
288 835 190 151 140 139 
288 835 191 150 140 138 
289 835 190 144 135 132 
289 835 191 152 143 140 
290 835 188 134 127 126 
290 835 189 152 143 143 
291 835 188 157 147 145 
291 835 189 165 155 152 
290 835 190 161 152 150 
290 835 191 165 155 153 
291 835 190 166 156 152 
291 835 191 164 153 149 
291 836 185 125 116 112 
291 836 186 135 125 121 
291 836 187 154 143 140 
291 836 188 175 165 162 
291 836 189 179 168 166 
292 834 184 95 87 85 
292 835 184 97 90 88 
292 835 185 106 98 95 
293 834 184 98 90 87 
293 835 184 98 90 87 
294 834 184 103 95 91 
294 835 184 106 98 95 
294 835 185 125 117 114 
295 834 184 130 121 118 
295 834 185 155 145 142 
295 835 184 126 117 114 
295 835 185 154 144 141 
294 835 186 161 151 148 
295 835 186 169 159 156 
295 835 187 176 165 162 
292 835 190 180 168 163 
292 835 191 171 159 154 
293 835 190 178 165 159 
293 835 191 173 159 153 
295 835 188 180 169 165 
295 835 189 176 164 159 
294 835 191 178 164 158 
295 835 190 174 161 155 
295 835 191 172 159 152 
292 836 185 116 108 105 
293 836 184 99 92 90 
293 836 185 115 107 104 
292 836 186 139 130 127 
292 836 187 168 157 154 
293 836 186 146 136 133 
293 836 187 169 158 154 
294 836 185 129 120 117 
294 836 186 157 147 143 
294 836 187 172 161 158 
292 836 188 180 169 166 
292 836 189 187 175 171 
293 836 188 187 175 172 
293 836 189 188 176 171 
292 836 190 183 171 166 
293 836 190 181 168 163 
293 836 191 175 162 156 
294 836 188 185 173 169 
294 836 189 184 172 167 
294 836 190 184 171 165 
294 836 191 180 166 160 
296 832 181 114 105 102 
296 832 182 120 111 108 
296 833 182 116 107 103 
296 833 183 133 124 121 
297 832 182 149 140 138 
297 832 183 163 154 151 
297 833 183 161 151 149 
298 832 183 182 172 170 
296 833 184 148 138 135 
297 832 184 174 163 161 
297 833 184 170 159 156 
297 833 185 181 169 166 
297 833 186 187 175 172 
296 834 184 145 135 132 
296 834 185 166 155 152 
297 834 185 180 168 164 
296 834 186 179 167 164 
296 835 186 175 164 161 
296 835 187 184 172 168 
297 834 186 184 172 169 
297 834 187 187 175 171 
298 832 184 186 174 172 
298 832 185 185 172 169 
298 833 185 188 176 173 
299 832 185 180 167 164 
298 832 186 184 172 169 
298 833 186 189 177 174 
298 833 187 189 177 174 
299 832 186 177 164 160 
299 832 187 175 162 158 
299 833 187 181 168 164 
298 834 187 191 179 175 
296 835 188 186 174 171 
296 835 189 181 168 165 
297 834 188 188 176 172 
297 834 189 188 176 172 
297 835 188 185 173 169 
297 835 189 184 172 168 
296 835 190 176 163 158 
296 835 191 173 160 154 
297 835 190 180 168 163 
297 835 191 175 162 158 
298 833 188 192 180 176 
298 833 189 193 181 178 
299 833 188 179 167 163 
299 833 189 187 176 173 
299 833 190 187 176 173 
299 833 191 180 169 165 
298 834 188 192 180 176 
298 834 189 189 177 173 
298 834 190 185 173 169 
298 834 191 181 169 164 
298 835 190 183 171 167 
298 835 191 178 165 160 
299 834 190 185 174 170 
299 834 191 182 169 165 
300 832 186 171 159 154 
300 832 187 163 151 146 
301 832 187 153 141 135 
300 832 188 162 149 143 
300 832 189 160 148 143 
300 833 189 174 162 159 
301 832 188 149 135 127 
301 832 189 151 139 133 
300 833 190 189 178 176 
300 833 191 182 170 167 
301 832 190 180 169 166 
301 833 190 190 179 177 
301 833 191 184 173 171 
302 832 188 141 127 117 
302 832 189 141 128 121 
302 832 190 160 149 144 
302 832 191 172 161 158 
303 832 190 146 135 130 
303 832 191 149 138 133 
283 833 192 178 167 164 
283 834 192 186 175 172 
284 834 192 194 183 182 
285 834 192 197 186 185 
285 834 193 199 189 187 
286 834 192 194 183 182 
286 834 193 199 189 187 
286 835 192 191 180 180 
286 835 193 197 186 184 
287 835 192 177 165 164 
287 835 193 180 169 169 
287 835 194 186 176 174 
288 835 192 154 143 142 
288 835 193 161 150 149 
289 835 192 155 145 144 
289 835 193 157 148 148 
288 835 194 161 151 151 
288 835 195 165 155 154 
289 835 194 154 145 145 
289 835 195 154 145 145 
290 835 192 168 158 156 
290 835 193 164 154 151 
291 835 192 159 148 144 
291 835 193 155 143 139 
290 835 194 162 151 148 
290 835 195 161 152 151 
291 835 194 155 144 141 
290 836 195 166 157 156 
291 836 194 157 146 142 
291 836 195 161 151 148 
290 836 196 169 159 158 
291 836 196 164 154 151 
292 835 192 164 152 148 
292 835 193 161 149 146 
293 835 192 166 154 149 
293 835 193 159 148 145 
292 835 194 161 150 147 
294 835 192 168 156 151 
295 835 192 165 151 143 
293 836 193 156 146 142 
292 836 194 162 151 148 
292 836 195 162 151 148 
293 836 194 160 149 145 
293 836 195 157 146 142 
294 836 192 169 156 150 
294 836 193 154 142 137 
295 836 192 161 146 138 
295 836 193 156 141 134 
294 836 194 155 143 137 
294 836 195 152 140 135 
295 836 194 154 140 133 
295 836 195 148 135 129 
292 836 196 159 150 147 
292 836 197 156 146 144 
293 836 196 154 143 140 
293 836 197 151 141 138 
293 837 198 142 133 131 
294 836 196 143 131 126 
294 836 197 140 128 123 
295 836 196 141 129 122 
295 836 197 137 125 119 
294 836 198 136 125 119 
294 837 198 134 124 120 
295 836 198 142 130 125 
295 837 198 139 129 125 
295 837 199 128 118 116 
296 835 192 164 151 144 
296 835 193 158 144 136 
297 835 192 171 158 153 
297 835 193 161 147 141 
297 835 194 152 138 131 
297 835 195 148 134 125 
298 834 192 173 160 154 
298 835 192 173 160 154 
298 835 193 165 151 145 
299 834 192 178 165 160 
299 834 193 171 157 151 
298 835 194 157 143 136 
298 835 195 149 134 125 
299 834 194 167 152 145 
299 834 195 161 146 138 
299 835 194 164 150 142 
299 835 195 155 140 132 
298 835 196 143 129 120 
298 835 197 139 125 116 
299 835 196 148 133 124 
299 835 197 143 128 119 
298 835 198 140 126 118 
299 835 198 142 128 120 
299 835 199 143 129 123 
296 836 193 155 141 132 
296 836 194 152 137 129 
296 836 195 147 133 125 
297 836 195 146 132 123 
296 836 196 143 129 122 
296 836 197 139 126 120 
297 836 196 142 128 119 
297 836 197 140 126 118 
296 836 198 143 131 125 
296 837 199 137 125 120 
297 836 198 142 128 121 
297 836 199 137 124 118 
297 837 199 132 120 115 
298 836 196 139 125 116 
298 836 197 138 124 116 
298 836 198 142 128 121 
298 836 199 138 125 119 
299 836 199 140 127 121 
300 833 192 177 165 161 
300 833 193 182 169 165 
301 833 192 176 164 160 
301 833 193 177 164 158 
301 833 194 164 149 140 
301 833 195 162 147 139 
300 834 192 181 168 164 
300 834 193 174 160 153 
300 834 194 167 152 144 
300 834 195 162 147 138 
301 834 194 165 150 142 
301 834 195 162 146 138 
302 832 192 171 159 155 
302 832 193 161 147 141 
302 833 192 176 164 161 
302 833 193 166 153 146 
303 832 192 151 139 133 
303 832 193 154 139 130 
302 833 194 159 145 137 
302 833 195 161 146 138 
303 832 194 153 137 129 
303 832 195 150 135 126 
303 833 194 153 138 130 
303 833 195 154 139 130 
301 833 196 166 151 143 
300 834 196 153 138 128 
300 834 197 150 134 125 
300 835 196 150 134 125 
300 835 197 146 131 122 
301 834 196 157 141 131 
301 834 197 152 136 126 
300 835 198 144 130 121 
300 835 199 143 130 123 
301 834 198 151 135 125 
301 834 199 150 135 127 
301 835 198 147 132 122 
301 835 199 147 133 125 
302 833 196 163 148 139 
302 833 197 154 138 127 
303 833 196 155 140 130 
303 833 197 152 135 125 
303 833 198 152 136 126 
302 834 197 154 138 128 
302 834 198 154 138 128 
302 834 199 152 137 128 
302 835 199 149 135 127 
303 834 198 152 136 126 
303 834 199 153 138 129 
297 837 200 114 103 98 
298 836 200 121 109 105 
298 837 200 106 95 91 
298 837 201 93 84 80 
299 836 200 118 107 104 
299 837 200 102 92 90 
299 837 201 92 83 81 
298 838 201 89 81 77 
299 838 201 87 80 77 
299 839 201 87 81 79 
300 835 200 134 122 116 
301 835 200 135 122 116 
302 835 200 137 123 117 
303 834 200 148 135 129 
303 835 200 128 115 110 
303 835 201 101 91 88 
300 836 200 116 104 101 
300 836 201 101 91 90 
300 837 201 86 78 77 
301 836 200 115 103 99 
301 836 201 99 89 88 
301 837 201 80 73 71 
300 838 201 90 83 81 
300 839 201 93 86 85 
301 838 201 85 79 77 
300 839 202 76 70 70 
301 838 202 88 81 79 
301 839 202 68 60 62 
302 836 200 102 89 86 
302 836 201 96 85 83 
302 837 201 87 78 76 
303 836 201 103 94 92 
302 837 202 93 86 82 
303 837 202 106 97 93 
302 838 202 92 85 82 
302 839 202 76 68 67 
302 839 203 71 62 62 
303 838 202 109 99 93 
303 839 202 101 91 86 
303 839 203 108 98 91 
303 839 204 126 114 107 
300 840 202 55 48 50 
301 840 202 55 46 51 
302 840 203 88 80 76 
303 840 203 127 116 111 
304 832 192 140 126 117 
304 832 193 145 129 119 
304 832 194 147 131 121 
304 832 195 147 131 122 
305 832 194 142 125 114 
305 832 195 143 128 118 
306 832 195 143 128 118 
304 832 196 147 131 121 
304 833 196 146 131 121 
304 833 197 147 131 121 
305 832 196 144 129 120 
305 832 197 142 128 118 
305 833 197 144 129 120 
304 833 198 149 133 124 
304 833 199 151 136 128 
305 832 198 144 129 120 
305 833 198 146 131 122 
305 833 199 147 134 128 
304 834 199 152 139 132 
305 834 199 141 128 123 
306 832 196 142 127 117 
306 832 197 139 125 115 
307 832 197 133 119 109 
306 832 198 142 128 119 
306 832 199 148 134 127 
306 833 199 147 135 129 
307 832 198 134 120 111 
307 832 199 145 132 125 
307 833 199 150 138 132 
308 832 198 134 121 114 
308 832 199 143 131 126 
308 833 199 142 131 126 
309 832 198 134 122 116 
309 832 199 134 124 119 
310 832 199 115 103 100 
305 833 200 135 123 120 
304 834 200 138 125 121 
304 835 200 108 97 93 
304 835 201 102 93 90 
305 834 200 113 102 99 
305 835 201 97 89 87 
306 833 200 130 118 113 
307 833 200 129 118 113 
306 834 200 103 94 91 
306 835 201 88 82 80 
307 834 200 100 91 88 
307 834 201 90 83 81 
307 835 201 86 81 80 
304 836 201 117 109 106 
305 836 201 120 111 108 
304 836 202 121 112 106 
304 837 202 117 107 103 
305 836 202 126 116 111 
305 837 202 124 113 106 
304 838 202 118 107 101 
304 838 203 122 110 103 
304 839 203 123 111 103 
305 838 202 121 109 102 
305 838 203 125 112 104 
306 836 201 103 96 93 
307 836 201 85 78 78 
306 836 202 110 101 97 
306 837 202 117 107 101 
307 836 202 88 80 78 
307 837 202 97 88 84 
307 837 203 122 111 105 
306 838 203 132 121 114 
307 838 203 140 128 122 
304 839 204 128 114 106 
305 839 204 127 113 104 
305 839 205 131 116 106 
306 838 204 144 131 123 
306 839 204 139 124 115 
306 839 205 142 127 118 
307 838 204 160 146 138 
307 839 204 160 145 136 
307 839 205 164 149 140 
307 839 206 156 140 131 
308 833 200 118 108 104 
309 832 200 124 114 110 
309 833 200 106 98 94 
308 834 200 97 89 87 
308 834 201 89 83 82 
308 835 201 80 75 75 
309 834 201 91 85 84 
309 835 201 72 66 70 
310 832 200 108 96 94 
310 833 200 98 89 88 
310 833 201 92 85 84 
311 832 200 100 89 86 
311 833 200 94 85 84 
311 833 201 98 91 89 
310 834 201 88 81 81 
310 835 201 73 65 69 
311 834 201 97 90 87 
311 835 201 88 80 79 
310 835 202 73 66 69 
311 835 202 101 92 88 
308 836 201 72 67 69 
309 836 201 64 59 64 
308 836 202 66 58 64 
308 837 202 81 73 71 
308 837 203 112 101 95 
309 836 202 60 53 62 
309 837 202 78 70 70 
309 837 203 121 110 104 
308 838 203 138 126 119 
309 838 203 139 127 120 
310 836 202 76 68 71 
310 836 203 116 107 103 
310 837 203 127 117 112 
311 836 202 96 88 84 
311 836 203 140 129 123 
311 837 203 155 143 137 
309 837 204 157 144 137 
308 838 204 167 153 144 
308 838 205 177 161 153 
308 839 205 175 159 149 
309 838 204 168 153 145 
309 838 205 180 164 155 
309 839 205 180 164 155 
308 839 206 171 155 145 
308 839 207 166 150 140 
309 838 206 182 166 156 
309 838 207 181 165 155 
309 839 206 181 164 155 
309 839 207 177 161 151 
310 837 204 162 149 142 
311 837 204 160 147 141 
311 837 205 165 151 144 
311 837 206 164 150 142 
310 838 204 167 153 146 
310 838 205 176 161 152 
310 838 206 177 161 152 
310 838 207 177 161 151 
311 838 206 170 154 146 
311 838 207 166 151 142 
304 840 204 136 123 115 
305 840 205 132 117 108 
316 832 199 90 82 81 
312 832 200 104 94 90 
312 833 200 113 105 101 
312 833 201 119 110 106 
313 832 200 112 104 100 
313 833 200 121 111 106 
313 833 201 129 118 111 
312 834 201 122 112 106 
313 834 201 137 124 117 
312 834 202 133 121 114 
312 835 202 130 118 111 
312 835 203 140 126 118 
313 834 202 141 128 120 
313 835 202 144 130 122 
313 835 203 143 128 121 
314 832 200 105 97 93 
314 833 200 120 110 106 
314 833 201 133 122 116 
315 832 200 91 83 81 
315 833 200 106 97 93 
315 833 201 127 116 110 
314 834 201 139 127 120 
315 834 201 135 124 118 
314 834 202 143 130 123 
314 835 202 142 129 122 
314 835 203 145 129 121 
315 834 202 148 135 128 
315 835 203 156 141 133 
314 835 204 142 125 117 
315 835 204 151 132 124 
315 835 205 147 127 118 
312 836 203 142 129 123 
313 836 203 141 125 118 
312 836 204 148 134 127 
312 836 205 151 139 132 
312 837 204 154 142 136 
312 837 205 154 142 135 
313 836 204 141 126 118 
313 836 205 145 131 123 
312 837 206 155 142 134 
312 837 207 154 139 131 
313 836 206 146 132 123 
313 836 207 146 131 122 
313 837 206 148 135 127 
313 837 207 147 132 123 
314 836 204 140 122 114 
314 836 205 140 124 114 
315 836 205 142 122 113 
314 836 206 141 126 116 
314 836 207 142 126 116 
315 836 206 140 122 111 
315 836 207 139 122 111 
316 832 200 98 90 89 
316 833 200 102 92 91 
316 833 201 110 99 95 
317 832 200 108 100 97 
317 833 201 106 95 94 
317 833 202 128 116 110 
316 834 201 123 111 104 
316 834 202 145 132 125 
316 834 203 169 153 143 
316 835 203 171 154 144 
317 834 202 142 129 121 
317 834 203 172 155 144 
318 832 200 115 105 104 
318 832 201 113 103 102 
318 833 201 120 109 104 
319 832 201 120 110 107 
318 833 202 140 127 120 
318 833 203 159 143 134 
319 832 202 133 121 116 
319 833 202 140 127 121 
319 833 203 161 145 135 
318 834 203 170 153 142 
316 835 204 169 150 140 
316 835 205 157 136 126 
317 834 204 181 161 148 
317 835 204 181 161 148 
317 835 205 175 155 143 
316 835 206 152 131 120 
316 835 207 147 127 115 
317 835 206 168 148 136 
317 835 207 158 137 125 
319 833 204 164 148 137 
318 834 204 179 159 144 
318 834 205 181 160 146 
318 835 205 182 162 147 
319 834 204 172 153 140 
319 834 205 173 154 141 
318 834 206 182 162 147 
318 835 206 181 161 147 
318 835 207 178 157 144 
319 834 206 178 158 144 
319 834 207 179 159 145 
316 836 206 144 124 113 
316 836 207 141 121 111 
311 837 209 164 149 139 
310 838 208 177 161 151 
311 838 208 167 151 142 
315 835 211 142 124 112 
312 837 208 155 140 131 
312 837 209 155 140 131 
313 836 209 147 132 122 
313 837 208 147 132 122 
313 837 209 149 134 125 
313 836 210 149 133 122 
314 836 208 142 127 116 
314 836 209 143 127 117 
315 836 208 140 123 113 
315 836 209 140 123 112 
314 836 210 145 128 117 
315 836 210 142 125 113 
315 836 211 142 125 112 
316 835 209 143 124 112 
317 835 208 154 134 121 
317 835 209 152 132 119 
316 835 210 143 124 110 
316 835 211 145 126 114 
317 835 210 152 132 119 
317 835 211 157 138 126 
319 833 210 170 152 140 
319 833 211 168 151 139 
318 835 208 172 152 139 
318 835 209 171 150 137 
319 834 208 179 160 146 
319 834 209 178 159 146 
318 834 210 176 156 143 
318 834 211 177 158 147 
318 835 210 169 149 137 
318 835 211 169 150 138 
319 834 210 177 158 146 
319 834 211 177 159 147 
316 835 212 149 131 120 
317 835 212 164 146 135 
318 833 213 171 154 144 
319 833 212 170 153 142 
319 833 213 170 153 142 
319 832 214 152 136 127 
319 833 214 166 150 140 
318 834 212 176 158 148 
318 834 213 176 159 149 
319 834 212 177 159 149 
319 834 213 175 158 147 
316 836 208 142 122 111 
316 836 209 140 122 110 
316 836 210 141 123 110 
335 797 168 112 99 91 
335 797 169 114 101 93 
334 798 169 125 114 109 
334 799 169 137 127 123 
335 798 169 118 106 99 
334 799 170 125 113 107 
335 798 170 113 101 92 
335 799 170 116 104 96 
335 799 171 113 100 92 
351 768 169 109 99 94 
351 769 168 106 96 90 
351 769 169 108 99 94 
350 771 168 109 99 94 
351 770 168 108 99 93 
351 770 169 109 100 96 
351 771 169 111 102 98 
349 773 168 106 97 91 
348 774 168 115 106 101 
348 775 168 108 98 93 
349 774 168 111 102 97 
349 775 168 111 102 98 
349 775 169 112 103 99 
350 772 168 104 94 88 
350 772 169 108 98 94 
350 773 168 105 95 90 
350 773 169 107 99 94 
351 772 169 111 103 99 
351 773 169 111 103 98 
351 772 170 111 103 99 
351 773 170 111 102 97 
350 774 169 109 101 96 
350 775 169 111 103 99 
350 775 170 112 103 99 
351 774 170 109 100 96 
351 775 170 111 102 98 
351 775 171 113 104 99 
347 779 167 119 109 105 
345 783 167 113 103 99 
346 781 167 99 87 79 
347 778 168 121 112 108 
347 779 168 104 93 86 
345 782 168 104 93 86 
345 783 168 111 101 96 
346 780 168 100 89 81 
346 781 168 100 89 82 
347 780 168 101 90 82 
347 781 168 103 93 86 
347 781 169 107 97 91 
346 782 168 102 92 85 
346 783 168 106 95 88 
346 783 169 104 94 86 
347 782 169 105 94 87 
347 783 169 103 92 84 
347 783 170 104 92 83 
348 776 168 104 94 88 
348 777 168 110 100 95 
348 777 169 111 102 97 
349 776 169 111 102 97 
349 777 169 112 103 99 
348 778 168 113 104 99 
348 778 169 112 103 99 
348 779 168 105 94 88 
348 779 169 108 98 92 
349 778 169 114 105 101 
349 779 169 114 104 100 
349 778 170 114 105 101 
349 779 170 114 105 100 
350 776 169 112 103 99 
350 776 170 113 104 100 
350 777 170 114 105 101 
351 776 170 114 105 101 
351 776 171 113 104 100 
351 777 171 114 105 101 
350 778 170 114 105 101 
350 778 171 113 105 101 
350 779 170 114 105 101 
350 779 171 114 105 101 
351 778 171 113 105 101 
351 779 171 114 105 102 
351 778 172 114 105 100 
351 779 172 114 105 101 
351 779 173 115 105 100 
348 780 169 107 97 91 
348 781 169 113 103 98 
348 780 170 112 103 98 
348 781 170 115 106 101 
349 780 170 115 106 102 
349 781 170 117 107 103 
349 781 171 116 107 102 
348 782 169 111 101 96 
348 782 170 114 104 98 
348 783 170 107 96 88 
348 783 171 112 101 94 
349 782 170 116 106 101 
349 782 171 117 108 103 
349 783 171 116 106 100 
350 780 171 114 105 101 
350 781 171 116 107 102 
349 783 172 119 109 105 
350 780 172 116 108 104 
350 781 172 121 112 109 
351 780 172 117 107 104 
351 780 173 119 110 106 
351 781 172 122 114 110 
351 781 173 123 114 111 
350 782 172 123 114 110 
350 783 172 121 111 107 
350 783 173 122 114 111 
351 782 173 122 113 109 
351 783 173 121 112 108 
351 782 174 118 109 105 
351 783 174 126 117 114 
343 786 167 120 111 107 
343 787 167 120 110 107 
341 790 167 110 98 91 
342 788 167 113 104 98 
343 786 168 120 111 107 
343 787 168 120 110 106 
