ply
format ascii 1.0
comment Created by CloudCompare v2.10.1 (Zephyrus)
comment Created 1/30/20 6:08 PM
obj_info Generated by CloudCompare!
element vertex 2004
property float x
property float y
property float z
property uchar red
property uchar green
property uchar blue
end_header
256 563 240 59 59 61 
257 562 240 50 51 54 
257 562 241 50 51 54 
257 563 240 58 58 60 
258 560 241 41 45 51 
258 561 241 52 54 58 
259 560 241 37 42 47 
259 561 240 55 57 62 
259 561 241 50 53 57 
258 560 242 41 45 50 
258 562 240 51 53 56 
258 562 241 51 52 55 
258 563 240 55 55 58 
259 562 240 54 55 59 
259 563 240 52 53 56 
256 564 240 69 67 69 
260 560 240 41 45 50 
260 560 241 38 42 47 
260 561 240 50 52 57 
261 560 240 46 49 54 
261 561 240 50 52 57 
260 562 240 56 58 62 
261 562 240 59 60 65 
262 560 240 51 53 57 
256 572 240 65 64 65 
256 572 241 61 60 61 
257 572 240 63 62 63 
257 572 241 63 61 62 
256 572 242 59 58 59 
256 572 243 56 55 55 
257 572 242 59 58 59 
257 572 243 58 56 57 
258 572 240 64 63 65 
258 572 241 62 61 62 
259 572 240 63 62 63 
259 572 241 61 60 61 
259 573 241 59 59 60 
258 572 242 59 58 59 
258 572 243 58 57 59 
258 573 243 57 57 58 
259 572 242 58 57 59 
259 573 242 59 58 60 
259 573 243 59 58 60 
256 572 244 56 55 55 
256 573 244 55 54 55 
256 573 245 59 59 60 
257 572 244 56 55 56 
257 573 244 58 57 59 
257 573 245 61 60 62 
258 573 244 58 58 59 
258 573 245 59 59 60 
259 573 244 59 58 59 
260 572 240 62 61 62 
260 572 241 61 61 63 
260 573 240 63 61 62 
260 573 241 60 59 60 
261 573 240 62 60 61 
261 573 241 60 60 61 
260 573 242 59 59 61 
260 573 243 59 58 60 
261 573 242 61 61 62 
261 573 243 60 60 61 
262 573 240 62 61 62 
262 573 241 62 61 62 
263 573 240 63 62 63 
263 573 241 63 62 62 
262 573 242 62 61 62 
262 573 243 62 61 63 
260 573 244 61 61 62 
261 573 244 62 61 62 
264 573 240 64 62 63 
264 574 240 65 64 65 
265 574 240 68 67 67 
273 544 227 47 49 53 
275 544 225 52 52 55 
275 545 225 52 53 56 
274 544 226 50 52 56 
274 544 227 50 52 55 
274 545 226 50 52 56 
274 545 227 49 51 55 
275 544 226 51 52 55 
275 545 226 51 52 56 
274 546 227 48 50 55 
274 547 227 49 51 56 
275 546 226 50 52 56 
275 547 226 50 53 57 
275 547 227 50 52 57 
272 544 228 31 34 37 
272 544 229 28 31 35 
272 545 229 28 31 35 
273 544 228 38 40 44 
273 544 229 31 33 36 
273 545 228 36 38 42 
272 544 230 29 32 36 
272 545 230 30 33 36 
272 546 229 29 31 34 
272 547 229 27 30 33 
273 546 228 35 37 40 
273 547 228 35 37 41 
273 547 229 28 31 34 
272 546 230 29 33 37 
272 547 230 27 31 35 
272 547 231 32 35 40 
274 545 228 42 44 48 
274 546 228 43 45 50 
274 547 228 45 47 51 
274 548 227 47 49 53 
274 549 227 48 50 54 
275 548 227 50 52 56 
275 549 227 49 51 55 
275 550 227 49 51 55 
275 551 227 48 50 54 
272 548 229 28 30 33 
273 548 228 36 38 42 
273 548 229 29 30 34 
273 549 228 37 39 43 
273 549 229 30 32 35 
272 548 230 29 32 36 
272 549 230 27 29 33 
272 549 231 28 31 36 
273 548 230 28 31 34 
273 549 230 28 30 33 
273 550 229 28 30 34 
272 550 230 26 29 33 
272 550 231 29 32 38 
272 551 230 26 28 32 
272 551 231 29 31 35 
273 550 230 28 30 33 
273 551 230 28 31 34 
273 551 231 28 29 32 
274 548 228 41 43 47 
274 549 228 41 43 47 
274 550 228 42 45 49 
274 550 229 32 35 38 
274 551 228 43 45 49 
274 551 229 34 36 40 
275 550 228 46 48 52 
275 551 228 46 48 53 
276 544 224 52 53 57 
276 544 225 52 53 56 
276 545 225 52 53 56 
277 544 224 53 54 58 
277 545 224 52 53 56 
276 546 225 51 53 57 
276 547 225 51 53 57 
277 546 224 53 54 57 
277 546 225 53 54 57 
277 547 224 53 54 58 
277 547 225 53 54 58 
276 547 226 51 53 56 
278 547 224 53 54 58 
276 548 225 51 52 56 
277 548 224 51 53 57 
277 548 225 51 52 56 
277 549 224 51 53 57 
277 549 225 50 53 57 
276 548 226 50 52 57 
276 549 226 50 52 56 
276 549 227 49 51 54 
277 550 225 51 53 57 
276 550 226 48 51 55 
276 550 227 48 51 55 
276 551 227 48 50 54 
277 550 226 50 52 56 
277 551 226 50 52 55 
277 551 227 49 50 54 
278 548 224 52 53 57 
278 549 224 51 53 57 
278 550 224 50 52 56 
278 550 225 51 53 57 
278 551 224 49 51 56 
278 551 225 50 52 56 
279 551 224 50 52 56 
278 551 226 50 52 56 
272 552 231 30 31 34 
272 553 231 29 30 32 
273 552 230 27 29 33 
273 553 230 28 30 34 
273 553 231 29 30 33 
272 554 231 30 31 33 
272 555 231 29 30 33 
273 554 230 29 32 35 
273 554 231 29 30 33 
273 555 230 31 33 36 
273 555 231 29 30 32 
274 552 229 37 39 43 
274 553 229 37 39 43 
275 552 228 47 49 53 
275 552 229 43 45 49 
275 553 228 47 49 53 
275 553 229 43 45 49 
274 552 230 29 32 35 
274 554 229 39 41 45 
274 555 229 40 42 46 
275 554 228 45 48 52 
275 554 229 44 47 51 
275 555 228 45 47 52 
275 555 229 44 47 51 
275 557 227 43 45 49 
275 558 227 43 46 50 
275 559 227 45 47 51 
273 557 229 40 42 46 
272 556 231 28 30 32 
272 557 231 28 30 33 
273 556 230 32 34 37 
273 556 231 29 30 32 
273 557 230 34 37 40 
273 558 229 40 42 47 
273 559 229 40 43 47 
272 558 230 33 35 38 
272 558 231 30 32 34 
272 559 230 36 37 40 
273 558 230 36 38 42 
273 559 230 39 41 45 
274 556 229 41 44 48 
274 557 228 42 44 48 
274 557 229 41 44 48 
275 556 228 44 47 51 
275 557 228 43 45 50 
274 558 228 42 44 48 
274 558 229 41 44 48 
274 559 228 42 44 48 
275 558 228 43 45 49 
275 559 228 43 45 50 
276 552 227 48 50 54 
276 553 227 48 50 53 
277 552 226 50 51 55 
277 552 227 48 50 54 
277 553 226 50 51 54 
277 553 227 48 50 53 
276 555 227 46 48 52 
277 554 226 48 50 53 
277 554 227 47 49 52 
277 555 226 49 50 54 
277 555 227 47 49 53 
278 552 225 50 52 56 
278 553 225 51 52 55 
279 552 224 51 52 56 
279 553 224 53 53 56 
279 553 225 52 53 55 
278 553 226 50 51 54 
278 554 225 52 52 55 
278 555 225 52 52 55 
279 554 224 54 54 56 
279 554 225 53 53 56 
279 555 224 54 54 56 
279 555 225 53 53 56 
278 554 226 49 51 54 
278 555 226 50 51 54 
276 552 228 48 50 54 
276 553 228 47 49 53 
276 554 228 46 48 52 
276 555 228 45 47 52 
276 556 227 45 47 51 
276 557 227 45 47 50 
277 556 226 49 50 53 
277 556 227 47 48 52 
277 557 226 47 49 52 
277 557 227 46 48 51 
277 559 225 49 51 54 
276 558 227 44 47 51 
276 559 226 46 49 53 
276 559 227 46 48 52 
277 558 226 48 50 54 
277 559 226 47 49 53 
278 556 225 51 51 53 
278 557 225 50 51 53 
279 556 224 53 52 54 
279 556 225 51 51 54 
279 557 224 53 53 55 
278 556 226 50 50 53 
278 557 226 49 50 52 
278 558 225 51 51 54 
278 559 224 51 51 54 
278 559 225 50 51 54 
279 558 224 53 53 55 
279 559 224 52 52 54 
278 558 226 49 50 53 
278 559 226 50 51 54 
276 556 228 43 46 50 
272 552 232 34 36 38 
272 553 232 32 33 36 
272 554 232 31 32 35 
272 555 232 29 32 35 
272 556 232 27 30 33 
272 563 227 47 49 53 
273 562 227 44 46 50 
273 563 226 50 51 55 
273 563 227 46 48 51 
274 560 227 42 44 49 
274 561 227 43 45 50 
275 560 227 44 46 51 
275 561 226 45 47 51 
275 561 227 44 47 51 
275 563 225 49 51 54 
274 562 227 45 47 51 
274 563 226 48 50 54 
274 563 227 46 48 51 
275 562 226 46 48 52 
275 562 227 45 47 51 
275 563 226 47 48 52 
272 560 229 40 42 46 
272 561 229 42 44 48 
273 560 228 41 43 48 
273 560 229 40 42 47 
273 561 228 42 44 48 
272 560 230 39 41 44 
272 562 228 43 45 48 
272 562 229 41 43 47 
272 563 228 45 47 50 
273 562 228 43 45 49 
274 560 228 42 44 49 
274 561 228 43 45 49 
272 565 225 56 57 60 
273 564 225 56 56 59 
273 565 225 56 57 60 
272 564 226 54 55 58 
272 564 227 51 52 55 
272 565 226 57 57 60 
273 564 226 54 55 58 
272 566 225 64 63 65 
272 567 224 89 85 85 
272 567 225 86 83 83 
273 566 224 65 64 66 
273 566 225 57 57 60 
273 567 224 88 85 85 
274 564 225 55 56 59 
274 565 224 55 56 60 
274 565 225 57 57 61 
275 564 224 54 56 59 
275 564 225 53 55 58 
275 565 224 55 56 59 
274 564 226 53 54 57 
274 566 224 59 59 61 
275 566 224 55 56 59 
277 560 225 49 50 53 
277 561 224 50 50 53 
277 561 225 49 50 53 
276 560 226 46 48 52 
276 560 227 45 48 52 
276 561 226 47 49 53 
277 560 226 47 49 53 
277 561 226 47 49 53 
276 562 225 47 49 52 
276 563 224 50 52 55 
276 563 225 49 50 54 
277 562 224 50 51 54 
277 562 225 48 50 53 
277 563 224 51 52 55 
276 562 226 47 48 52 
278 560 224 52 52 54 
278 560 225 50 51 54 
278 561 224 52 52 54 
279 560 224 53 52 54 
278 562 224 52 52 55 
276 564 224 53 54 58 
276 565 224 54 56 59 
277 564 224 51 53 56 
272 568 224 86 83 82 
272 568 225 87 83 83 
272 569 224 86 82 82 
273 568 224 88 84 85 
273 569 224 85 81 81 
272 570 224 88 85 86 
272 571 224 86 83 84 
272 572 224 83 80 80 
272 575 224 92 89 90 
272 575 225 92 89 90 
273 575 224 96 93 94 
272 575 226 90 88 88 
288 527 215 120 112 111 
289 527 215 121 114 112 
290 527 215 122 115 113 
291 527 215 118 111 110 
292 527 215 114 107 106 
293 527 215 112 105 104 
294 527 215 114 107 106 
289 523 221 121 114 113 
288 522 223 140 134 134 
288 523 222 129 122 121 
288 523 223 135 128 128 
289 522 223 137 130 130 
289 523 222 127 120 119 
291 521 223 109 101 100 
290 523 221 118 111 109 
291 523 221 100 92 91 
290 522 223 134 127 127 
290 523 222 121 113 112 
291 522 222 108 100 99 
291 522 223 113 105 104 
291 523 222 103 95 94 
288 525 218 118 110 109 
288 525 219 120 113 112 
289 525 218 121 114 113 
289 525 219 121 114 113 
288 526 217 124 117 117 
288 527 216 123 116 114 
289 526 217 123 116 115 
289 527 216 121 113 111 
288 526 218 122 115 114 
289 526 218 124 117 117 
290 524 219 117 110 108 
290 525 218 124 117 116 
290 525 219 120 114 113 
291 524 219 103 96 94 
291 525 218 108 101 100 
291 525 219 105 98 97 
290 526 217 120 113 111 
290 527 216 121 114 112 
291 526 217 113 107 105 
291 527 216 118 111 109 
290 526 218 122 115 115 
291 526 218 110 104 103 
288 524 220 124 117 116 
288 524 221 124 117 117 
289 524 220 124 117 116 
289 524 221 123 116 115 
290 524 220 119 112 111 
290 524 221 120 113 111 
291 524 220 103 95 93 
291 524 221 107 99 98 
292 521 223 103 97 97 
293 521 222 104 99 98 
293 521 223 110 104 104 
292 523 221 96 89 88 
293 522 221 104 98 98 
293 523 220 110 103 103 
293 523 221 106 100 99 
292 522 222 98 91 91 
292 522 223 96 89 89 
292 523 222 97 90 90 
293 522 222 102 96 96 
295 521 221 110 104 102 
294 521 222 115 109 108 
294 521 223 121 116 116 
295 521 222 125 118 118 
294 522 221 103 96 95 
294 523 220 114 107 107 
294 523 221 108 102 102 
295 522 221 102 95 94 
295 523 220 110 104 104 
294 522 222 106 100 100 
292 524 219 100 93 92 
292 525 218 107 101 100 
292 525 219 102 96 95 
293 524 219 111 104 104 
293 525 218 115 109 108 
293 525 219 112 106 105 
292 526 217 111 105 103 
292 527 216 111 105 103 
293 526 217 116 109 108 
293 527 216 113 107 105 
292 526 218 112 106 105 
293 526 218 117 111 110 
294 524 219 120 114 114 
294 525 218 119 113 112 
294 525 219 121 115 114 
295 524 219 130 124 124 
295 525 218 128 121 120 
295 525 219 131 125 125 
294 526 217 120 113 112 
294 527 216 115 108 107 
294 527 217 120 113 112 
295 526 217 124 118 117 
295 527 216 116 110 109 
295 527 217 122 116 115 
294 526 218 120 113 113 
295 526 218 126 119 118 
292 524 220 97 90 89 
293 524 220 108 102 101 
294 524 220 118 112 112 
295 524 220 122 117 117 
296 521 221 122 116 115 
297 521 221 129 123 123 
296 521 222 135 129 129 
297 521 222 139 133 134 
296 522 221 104 97 96 
296 523 220 109 103 103 
297 522 220 106 100 99 
297 522 221 112 105 104 
297 523 220 107 101 101 
298 521 221 134 127 127 
298 522 220 112 106 105 
298 522 221 124 117 117 
298 523 220 109 103 103 
299 522 220 122 116 115 
299 522 221 129 122 122 
299 523 220 114 108 107 
296 524 219 133 127 128 
296 525 218 136 130 130 
296 525 219 137 132 132 
297 524 219 129 123 123 
297 525 218 138 132 132 
297 525 219 136 131 131 
296 526 217 128 122 121 
296 527 216 120 114 113 
296 527 217 126 120 120 
297 527 216 123 117 117 
297 527 217 130 124 125 
296 526 218 132 125 125 
297 526 218 134 128 128 
298 524 219 122 116 117 
298 525 218 132 126 126 
298 525 219 129 123 124 
299 524 219 121 115 115 
299 525 219 128 123 124 
298 527 217 132 126 127 
299 527 217 132 126 126 
298 526 218 133 127 127 
298 527 218 132 126 127 
299 526 218 136 130 131 
299 527 218 135 129 130 
296 524 220 123 117 118 
297 524 220 119 113 113 
298 524 220 116 110 110 
299 524 220 116 110 110 
300 522 220 128 122 122 
300 522 221 129 123 124 
300 523 220 122 116 115 
301 522 220 130 124 124 
301 522 221 127 121 121 
301 523 220 128 121 122 
302 522 220 129 122 122 
302 522 221 123 116 116 
302 523 220 132 126 126 
303 522 220 121 114 114 
303 523 220 127 121 120 
300 524 219 123 117 117 
300 525 219 133 127 128 
301 524 219 126 120 120 
301 525 219 136 131 132 
300 527 217 137 132 133 
301 527 217 143 137 138 
300 526 218 143 137 139 
300 527 218 141 136 137 
301 526 218 147 142 143 
301 527 218 147 142 143 
302 524 219 127 121 122 
302 525 219 136 130 131 
303 524 219 127 121 121 
303 525 219 132 126 127 
302 526 218 146 140 142 
302 527 218 148 142 143 
303 526 218 141 135 136 
303 527 218 143 137 138 
300 524 220 119 113 112 
301 524 220 123 117 117 
302 524 220 129 123 123 
303 524 220 129 123 123 
293 535 207 126 120 120 
294 535 207 129 123 123 
295 534 207 133 127 128 
295 535 206 131 125 125 
295 535 207 132 126 126 
291 537 207 100 92 89 
290 539 207 90 82 78 
291 538 207 95 87 83 
291 539 207 96 89 86 
290 540 207 98 92 90 
291 540 207 103 97 96 
291 541 207 98 94 93 
291 542 207 78 75 75 
291 543 207 58 57 59 
292 536 207 125 118 118 
292 537 207 116 109 107 
293 536 207 126 120 120 
293 537 206 124 118 117 
293 537 207 124 118 117 
293 539 205 116 110 109 
292 538 206 117 110 109 
292 538 207 110 103 101 
292 539 206 117 110 109 
292 539 207 109 102 101 
293 538 206 121 114 113 
293 539 206 117 111 110 
295 537 205 127 121 121 
294 536 206 127 121 121 
294 536 207 127 121 121 
294 537 206 125 119 118 
295 536 206 129 123 123 
295 537 206 126 120 120 
294 538 205 121 115 114 
294 539 205 117 111 110 
295 538 205 125 119 118 
295 539 204 121 114 113 
295 539 205 119 112 111 
294 538 206 123 117 116 
293 540 205 118 112 112 
293 541 205 113 108 109 
292 540 206 118 112 113 
292 541 206 111 106 107 
293 540 206 118 113 113 
293 542 205 89 86 86 
293 543 205 69 67 67 
292 542 206 85 82 82 
292 543 206 62 60 60 
292 543 207 61 59 60 
293 542 206 89 85 85 
293 543 206 62 60 61 
294 540 205 116 110 110 
294 541 204 110 105 106 
294 541 205 113 108 108 
295 540 204 115 109 109 
295 541 204 113 108 108 
294 542 204 103 98 99 
294 542 205 88 84 84 
294 543 205 68 65 65 
295 542 204 94 91 92 
295 543 204 64 62 63 
295 543 205 63 61 61 
296 533 207 135 129 129 
297 533 207 139 132 133 
296 534 207 134 127 128 
296 535 206 133 127 127 
296 535 207 136 130 130 
297 534 207 136 130 130 
297 535 206 135 129 129 
298 533 207 141 134 135 
299 533 207 141 134 135 
298 535 205 138 132 133 
299 535 205 140 134 134 
298 534 206 137 131 131 
298 534 207 140 133 134 
298 535 206 136 129 130 
299 534 206 140 134 134 
299 535 206 136 130 130 
302 535 203 140 134 135 
303 535 203 143 137 137 
300 533 206 142 135 136 
300 533 207 139 132 132 
301 532 207 136 129 129 
301 533 206 140 134 134 
301 533 207 137 130 131 
300 534 205 141 135 136 
300 535 204 141 135 135 
300 535 205 140 134 134 
301 534 205 144 138 139 
301 535 204 140 133 134 
301 535 205 142 135 136 
300 534 206 142 136 136 
301 534 206 143 137 137 
303 533 205 141 134 134 
302 532 207 140 133 134 
302 533 206 140 133 134 
302 533 207 138 132 132 
303 532 206 145 139 140 
303 532 207 144 138 139 
303 533 206 143 137 137 
302 534 204 144 137 138 
302 534 205 143 136 136 
302 535 204 143 137 137 
303 534 204 141 134 134 
303 534 205 141 134 133 
302 534 206 141 135 135 
303 538 199 144 138 138 
303 539 199 145 139 140 
300 542 199 128 122 122 
300 543 199 121 115 115 
301 542 199 134 128 128 
301 543 198 122 116 117 
301 543 199 122 117 117 
302 540 199 145 138 138 
302 541 199 143 137 137 
303 540 198 143 137 137 
303 540 199 144 137 138 
303 541 198 143 136 136 
302 542 197 134 128 128 
302 543 197 129 123 123 
303 542 197 138 132 132 
303 543 196 132 126 126 
303 543 197 133 127 127 
302 542 198 136 130 130 
302 542 199 139 133 133 
302 543 198 128 122 122 
303 542 198 140 134 134 
297 539 203 135 129 129 
299 537 203 132 125 124 
298 538 203 130 123 122 
298 539 202 141 134 134 
298 539 203 137 131 131 
299 538 202 122 114 112 
299 538 203 126 119 118 
299 539 202 136 129 129 
296 536 205 131 125 125 
296 537 205 129 123 122 
297 536 205 133 126 126 
297 537 204 130 124 123 
297 537 205 131 124 124 
296 536 206 131 125 125 
296 538 204 128 121 120 
296 538 205 128 122 121 
296 539 204 126 119 119 
297 538 204 129 122 122 
297 539 204 132 125 125 
298 536 204 135 128 128 
298 536 205 136 129 129 
298 537 204 132 125 125 
299 536 204 139 132 133 
299 537 204 133 126 126 
298 538 204 129 122 121 
296 540 203 127 122 122 
296 541 203 119 114 115 
297 540 203 135 130 130 
297 541 202 128 123 123 
297 541 203 127 122 123 
296 542 203 101 98 99 
296 543 203 71 69 71 
297 542 202 110 105 106 
297 542 203 103 99 100 
297 543 202 82 79 80 
297 543 203 74 73 74 
299 540 201 142 135 135 
299 541 201 138 132 132 
298 540 202 141 134 134 
298 540 203 141 135 135 
298 541 202 134 128 129 
299 540 202 142 135 136 
299 541 202 139 132 133 
298 542 201 119 115 116 
298 543 201 103 99 100 
299 542 200 127 121 122 
299 542 201 128 122 123 
299 543 200 119 114 114 
299 543 201 111 107 109 
298 542 202 118 114 114 
298 543 202 92 89 91 
296 540 204 120 114 113 
296 541 204 115 110 111 
296 542 204 107 103 104 
296 543 204 66 64 66 
300 536 203 141 135 135 
300 537 203 134 127 126 
301 536 203 141 135 136 
301 537 202 139 132 133 
301 537 203 139 133 133 
300 539 201 140 133 132 
301 538 201 141 134 134 
301 539 201 144 137 137 
300 538 202 127 119 118 
300 539 202 132 125 124 
301 538 202 136 129 128 
302 537 201 143 137 138 
303 536 201 135 129 129 
303 537 201 140 134 135 
302 536 202 138 132 132 
302 536 203 139 133 133 
302 537 202 142 135 136 
303 536 202 137 130 131 
302 538 200 147 140 140 
302 538 201 145 138 138 
302 539 200 146 139 139 
303 538 200 144 137 138 
303 539 200 146 140 140 
300 536 204 142 136 137 
300 540 201 143 136 137 
300 541 200 141 135 135 
300 541 201 141 135 135 
301 540 200 145 138 139 
301 540 201 144 138 138 
301 541 200 142 135 136 
300 542 200 133 127 127 
300 543 200 120 115 115 
301 542 200 139 132 132 
302 540 200 145 138 139 
288 531 211 145 139 141 
289 530 211 144 138 139 
289 531 211 147 141 142 
290 530 211 143 137 137 
290 531 211 147 141 141 
291 530 211 135 128 128 
291 531 210 135 129 128 
291 531 211 140 134 134 
288 529 213 118 111 111 
289 529 212 128 122 122 
289 529 213 120 113 112 
288 528 214 111 104 102 
288 528 215 115 108 106 
288 529 214 110 103 102 
289 528 214 113 105 104 
289 528 215 118 110 108 
288 530 212 133 128 129 
288 531 212 140 135 136 
289 530 212 139 134 134 
290 528 213 118 110 108 
290 529 212 130 123 123 
290 529 213 120 112 110 
291 528 213 119 111 109 
291 529 212 127 120 119 
291 529 213 120 112 110 
290 528 214 116 108 106 
290 528 215 120 113 111 
291 528 214 115 108 106 
291 528 215 119 112 110 
290 530 212 136 129 129 
288 532 211 143 137 139 
288 533 210 137 132 132 
288 533 211 132 126 127 
289 532 210 145 139 140 
289 532 211 147 141 142 
289 533 210 137 131 132 
288 535 209 117 114 117 
289 534 209 122 118 120 
289 535 209 114 110 113 
288 534 210 129 123 123 
288 534 211 131 125 125 
288 535 210 114 109 108 
289 534 210 127 123 124 
290 533 209 125 120 121 
291 532 209 119 114 116 
291 533 209 119 114 115 
290 532 210 142 136 137 
290 532 211 148 141 142 
290 533 210 133 128 129 
291 532 210 132 126 127 
290 534 209 118 113 115 
290 535 208 108 104 105 
290 535 209 106 103 105 
291 534 209 110 105 105 
291 535 208 114 109 109 
291 535 209 108 103 103 
292 530 211 126 119 118 
292 531 210 124 118 117 
293 530 210 119 112 111 
293 530 211 119 112 111 
293 531 210 122 116 115 
295 531 209 129 123 124 
294 530 211 119 113 112 
294 531 210 124 118 117 
295 530 211 118 113 112 
295 531 210 124 118 118 
292 528 213 113 106 105 
292 529 212 121 113 112 
292 529 213 115 107 106 
293 528 213 110 102 101 
293 529 212 116 109 107 
293 529 213 111 104 103 
292 528 214 113 106 104 
293 528 214 109 102 101 
293 528 215 111 104 103 
294 529 212 115 109 108 
294 529 213 112 106 106 
295 529 212 111 106 106 
295 529 213 110 105 104 
294 528 214 109 103 102 
294 528 215 111 104 103 
294 529 214 110 104 104 
295 528 214 110 104 103 
295 528 215 110 104 103 
295 529 214 109 103 103 
295 530 212 113 108 108 
292 532 209 115 110 111 
292 533 209 115 110 110 
293 532 209 121 116 117 
293 533 208 127 121 122 
293 533 209 124 119 120 
292 532 210 122 116 116 
292 534 208 118 112 111 
292 534 209 113 107 107 
292 535 208 123 117 116 
293 534 208 127 120 120 
293 535 208 127 120 120 
294 532 209 128 122 123 
294 533 208 130 124 124 
295 532 208 134 129 130 
295 532 209 132 127 128 
295 533 208 133 127 128 
294 534 208 131 125 125 
294 535 208 129 123 123 
295 534 208 133 127 127 
288 536 209 113 110 112 
288 537 209 104 100 100 
289 536 209 102 99 101 
289 537 208 95 88 84 
289 537 209 97 92 92 
288 536 210 108 102 102 
288 537 210 106 101 99 
288 538 209 105 97 94 
288 539 209 109 101 97 
289 538 208 93 83 75 
289 538 209 94 86 82 
289 539 208 98 87 79 
288 538 210 108 102 99 
290 536 208 106 100 100 
290 536 209 105 101 102 
290 537 208 98 90 86 
291 536 208 117 111 111 
291 537 208 103 96 93 
290 538 208 95 86 80 
290 539 208 97 87 82 
291 538 208 93 85 80 
288 540 209 108 102 100 
288 541 209 90 85 85 
289 540 208 97 90 86 
289 541 208 84 78 75 
289 541 209 83 77 75 
288 540 210 108 103 103 
288 541 210 94 90 89 
288 542 209 68 66 67 
289 542 208 69 64 63 
289 542 209 64 61 62 
289 543 209 56 57 60 
288 542 210 63 62 64 
288 543 210 57 58 61 
290 540 208 99 92 90 
290 541 208 90 85 84 
290 542 208 67 65 65 
290 543 208 56 57 60 
290 543 209 56 57 61 
291 542 208 62 60 61 
291 543 208 56 56 59 
292 536 208 123 117 117 
296 531 209 131 125 126 
296 530 211 116 110 110 
296 531 210 128 122 122 
296 531 211 123 117 118 
297 530 211 118 112 112 
297 531 210 130 124 125 
297 531 211 124 118 118 
298 530 211 118 112 112 
298 531 210 129 123 124 
298 531 211 122 116 116 
299 531 210 129 123 124 
299 531 211 122 116 115 
296 529 213 111 105 105 
297 529 213 114 109 109 
296 528 214 113 107 107 
296 528 215 116 110 110 
296 529 214 113 108 108 
297 528 215 122 116 117 
297 529 214 115 110 110 
297 529 215 122 117 117 
296 530 212 112 106 107 
296 530 213 112 107 107 
297 530 212 113 108 107 
297 530 213 113 108 108 
298 529 214 122 116 117 
298 529 215 127 121 121 
299 529 215 129 123 124 
298 530 212 116 110 110 
298 530 213 111 105 104 
298 531 212 117 111 111 
299 530 212 116 110 110 
299 530 213 114 108 107 
299 531 212 118 112 112 
298 530 214 117 111 111 
299 530 214 120 114 114 
296 532 208 138 132 134 
296 532 209 134 128 129 
296 533 208 136 130 131 
297 532 208 137 131 133 
297 532 209 133 127 129 
297 533 208 140 134 135 
298 532 208 138 131 132 
298 532 209 133 127 128 
298 533 208 139 133 134 
299 532 208 137 131 131 
299 532 209 134 128 128 
300 531 210 130 124 124 
300 531 211 125 119 119 
301 531 210 131 125 125 
301 531 211 126 120 121 
302 531 210 132 125 125 
302 531 211 124 118 118 
303 531 210 130 124 124 
303 531 211 120 114 114 
300 529 215 129 123 123 
301 529 215 127 120 119 
300 530 213 115 109 108 
300 531 212 118 112 112 
301 530 213 113 106 105 
301 531 212 119 113 112 
301 531 213 113 107 105 
300 530 214 118 111 110 
300 530 215 121 114 113 
301 530 214 113 106 104 
301 530 215 116 108 106 
302 529 215 132 124 123 
303 529 215 129 120 118 
302 530 213 110 103 101 
302 531 212 117 111 110 
302 531 213 112 105 104 
303 530 213 109 102 99 
303 531 212 111 104 102 
303 531 213 109 102 100 
302 530 214 113 106 104 
302 530 215 123 115 112 
303 530 214 111 102 99 
303 530 215 120 111 108 
300 532 208 137 130 130 
300 532 209 134 128 128 
301 532 208 135 129 129 
301 532 209 134 128 128 
302 532 208 137 131 132 
302 532 209 135 129 129 
303 532 208 140 134 134 
303 532 209 135 129 129 
296 528 216 117 111 110 
297 528 216 124 118 118 
298 528 216 129 124 124 
298 528 217 131 125 126 
298 529 216 129 123 123 
299 528 216 130 124 124 
299 528 217 131 125 125 
299 529 216 130 124 124 
300 528 217 136 130 130 
300 529 216 135 128 129 
301 528 217 146 140 140 
301 529 216 140 133 133 
302 528 217 149 142 142 
302 529 216 143 135 135 
303 528 217 143 137 136 
303 529 216 138 130 129 
309 527 215 144 137 137 
310 527 215 152 146 147 
311 526 215 146 140 141 
311 527 214 143 137 137 
311 527 215 153 147 147 
305 523 219 118 111 111 
306 523 219 112 107 106 
307 523 219 109 103 102 
304 523 220 117 110 109 
305 523 220 111 105 104 
306 523 220 112 105 104 
307 523 220 111 104 103 
304 524 219 126 120 121 
304 525 219 132 126 126 
305 524 219 126 121 121 
305 525 218 136 130 130 
305 525 219 133 127 128 
305 527 217 135 127 127 
304 526 218 137 131 132 
304 527 218 139 132 132 
305 526 218 137 131 131 
305 527 218 137 131 131 
306 524 219 121 116 116 
306 525 218 133 127 128 
307 524 218 118 112 112 
307 524 219 116 110 109 
307 525 218 130 125 125 
306 527 217 136 130 130 
307 526 217 138 131 132 
307 527 216 134 127 127 
307 527 217 136 130 130 
306 526 218 138 132 132 
307 526 218 137 131 131 
308 525 217 129 123 123 
309 525 217 123 117 117 
308 524 218 114 107 106 
308 524 219 110 104 103 
308 525 218 125 119 119 
309 524 218 109 102 101 
308 526 217 138 132 132 
308 527 216 140 134 134 
308 527 217 140 134 134 
309 526 216 146 139 140 
309 526 217 140 134 134 
309 527 216 151 144 145 
310 524 217 110 103 102 
310 525 216 125 119 119 
310 525 217 119 113 113 
311 524 217 113 106 104 
311 525 216 116 111 110 
311 525 217 113 107 107 
310 524 218 108 101 99 
311 524 218 121 114 112 
310 526 216 142 136 137 
310 527 216 155 148 149 
311 526 216 139 133 134 
312 525 215 110 104 103 
313 524 215 119 113 112 
313 525 215 111 105 104 
312 527 213 143 136 135 
313 527 213 145 138 138 
312 526 215 134 128 128 
312 527 214 149 143 144 
312 527 215 153 147 148 
313 526 214 136 130 130 
313 526 215 123 117 116 
313 527 214 151 144 145 
315 525 213 128 122 122 
314 524 215 129 122 122 
314 525 214 120 114 113 
314 525 215 119 112 111 
315 524 214 131 124 124 
315 525 214 126 119 119 
314 526 213 145 139 140 
314 527 213 146 139 139 
315 526 213 141 135 136 
315 527 212 141 134 134 
315 527 213 147 140 141 
314 526 214 133 127 127 
316 527 211 142 135 135 
317 526 211 147 140 141 
317 527 210 138 131 131 
317 527 211 140 133 133 
318 525 211 151 144 145 
319 525 211 152 145 145 
319 527 208 143 136 136 
319 527 209 142 135 136 
318 526 211 147 140 141 
318 527 210 137 131 131 
318 527 211 139 132 132 
319 526 210 145 138 138 
319 526 211 148 141 141 
319 527 210 139 132 132 
316 524 213 115 108 107 
316 525 212 133 127 127 
316 525 213 125 119 119 
317 524 212 125 119 118 
317 525 212 138 132 132 
316 526 212 149 143 144 
316 526 213 145 139 140 
316 527 212 144 137 136 
317 526 212 149 143 143 
318 525 212 147 141 142 
312 524 216 117 110 109 
312 524 217 122 114 112 
312 525 216 110 105 104 
313 524 216 130 123 122 
308 535 199 140 133 132 
309 535 198 139 131 131 
309 535 199 139 131 131 
311 535 197 133 126 126 
310 534 199 130 123 122 
310 535 198 136 128 128 
310 535 199 135 128 127 
311 534 198 125 117 116 
311 534 199 125 118 116 
311 535 198 130 123 122 
305 535 201 146 139 139 
304 534 203 141 134 134 
304 535 202 144 138 139 
304 535 203 144 138 139 
305 534 202 141 134 134 
305 534 203 143 136 137 
305 535 202 144 138 138 
305 535 203 142 135 136 
306 533 203 149 142 142 
307 533 203 144 136 136 
306 535 200 142 135 134 
306 535 201 143 136 136 
307 534 201 143 136 136 
307 535 200 143 136 135 
307 535 201 142 135 135 
306 534 202 144 137 137 
306 534 203 147 140 140 
306 535 202 142 135 135 
307 534 202 142 135 135 
304 533 204 143 135 135 
304 533 205 145 138 139 
305 533 204 148 141 141 
305 533 205 148 141 142 
304 532 206 147 141 142 
304 532 207 145 138 140 
304 533 206 147 141 141 
305 532 206 145 139 140 
305 532 207 140 134 135 
304 534 204 141 134 134 
305 534 204 143 136 136 
306 532 205 143 137 138 
306 533 204 147 140 140 
306 533 205 144 138 138 
307 532 204 143 137 137 
307 532 205 144 138 138 
307 533 204 143 136 136 
306 532 206 142 136 137 
306 532 207 137 131 132 
307 532 206 142 136 137 
307 532 207 136 130 131 
311 531 203 131 123 121 
309 531 205 137 131 132 
308 531 207 134 128 128 
309 531 206 135 128 129 
309 531 207 127 121 121 
310 531 204 135 128 127 
310 531 205 129 123 123 
311 531 204 128 120 119 
311 531 205 118 111 109 
310 531 206 124 118 117 
310 531 207 117 110 110 
311 531 206 114 106 104 
311 531 207 110 103 101 
309 533 201 128 120 119 
308 532 203 146 139 138 
308 533 202 133 126 125 
308 533 203 139 131 130 
309 532 203 146 138 137 
309 533 202 130 123 121 
309 533 203 140 132 131 
308 534 200 141 134 133 
308 534 201 138 131 130 
308 535 200 143 135 135 
309 534 200 135 128 127 
309 534 201 131 123 122 
309 535 200 140 133 132 
308 534 202 137 129 129 
310 533 200 127 120 119 
310 533 201 130 122 121 
311 532 201 134 126 125 
311 533 200 130 122 121 
311 533 201 131 124 123 
310 532 202 139 131 130 
310 532 203 139 132 131 
310 533 202 135 127 127 
311 532 202 137 129 128 
311 532 203 134 126 124 
310 534 200 128 120 119 
311 534 200 127 119 117 
308 532 204 146 139 139 
308 532 205 146 140 141 
309 532 204 145 138 138 
309 532 205 142 136 137 
308 532 206 142 136 137 
308 532 207 137 131 132 
309 532 206 141 135 136 
310 532 204 139 132 132 
307 539 195 138 132 132 
305 537 199 138 132 132 
304 538 199 143 136 137 
304 539 198 144 138 139 
304 539 199 144 138 139 
305 538 198 141 135 136 
305 538 199 141 135 136 
305 539 198 142 136 137 
306 536 199 145 138 139 
306 537 198 136 129 129 
306 537 199 138 131 131 
307 536 199 146 139 139 
307 537 198 139 132 132 
307 537 199 144 137 137 
306 538 197 139 133 133 
306 539 196 141 135 135 
306 539 197 141 135 136 
307 538 197 136 129 129 
307 539 196 139 133 133 
307 539 197 140 134 134 
306 538 198 137 131 131 
306 538 199 136 129 129 
304 543 195 134 128 128 
305 542 195 140 133 134 
305 543 194 136 129 129 
305 543 195 136 130 130 
306 540 195 142 136 137 
306 541 195 142 135 136 
307 540 195 140 134 134 
307 541 194 140 134 134 
307 541 195 141 135 135 
306 543 193 137 130 130 
307 543 193 138 132 132 
306 542 194 140 133 134 
306 542 195 141 135 135 
306 543 194 138 132 132 
306 543 195 139 132 132 
307 542 194 141 134 135 
307 543 194 139 133 133 
304 540 197 142 136 137 
304 541 197 142 136 136 
305 540 197 143 137 137 
305 541 196 142 135 136 
305 541 197 142 135 136 
304 540 198 143 137 138 
304 541 198 143 137 137 
304 542 196 139 132 133 
304 542 197 141 134 135 
304 543 196 135 129 130 
305 542 196 140 134 134 
306 540 196 143 136 137 
306 541 196 142 136 136 
308 539 195 138 132 132 
309 539 194 136 130 130 
309 539 195 135 129 129 
311 537 195 128 120 119 
310 539 193 124 118 118 
311 538 193 126 120 119 
311 539 192 124 118 117 
311 539 193 122 116 116 
310 538 194 131 125 125 
310 538 195 135 129 129 
310 539 194 130 124 124 
310 539 195 133 127 127 
311 538 194 130 124 123 
311 538 195 132 125 124 
308 537 197 141 134 134 
309 536 197 139 131 130 
309 537 196 139 132 132 
309 537 197 143 136 136 
308 536 198 144 136 135 
308 536 199 141 134 133 
308 537 198 144 137 136 
309 536 198 139 131 130 
308 538 196 134 127 126 
308 538 197 137 130 130 
308 539 196 137 130 131 
309 538 196 135 128 128 
310 536 196 135 128 128 
310 536 197 137 130 129 
310 537 196 134 127 126 
311 536 196 135 128 128 
311 536 197 136 129 129 
311 537 196 131 124 123 
308 541 193 140 134 134 
309 540 193 136 129 129 
309 541 193 139 133 133 
308 540 194 137 131 131 
308 540 195 138 131 131 
308 541 194 139 133 133 
309 540 194 136 130 130 
308 542 192 139 132 133 
308 542 193 140 134 134 
308 543 192 138 132 132 
308 543 193 138 132 133 
309 542 192 139 133 133 
309 542 193 140 133 134 
310 540 192 134 128 128 
310 540 193 132 126 127 
310 541 192 136 130 130 
311 540 192 132 126 126 
311 540 193 126 121 121 
310 540 194 134 128 128 
310 542 192 139 132 133 
304 536 201 138 132 132 
304 537 200 137 131 132 
304 537 201 135 129 129 
305 536 200 139 133 133 
305 536 201 143 137 137 
305 537 200 137 131 131 
304 536 202 142 136 136 
304 538 200 141 136 137 
306 536 200 145 139 139 
306 537 200 138 132 133 
307 536 200 146 139 139 
314 531 199 133 126 125 
315 531 198 135 127 127 
315 531 199 131 124 123 
313 535 195 127 120 118 
315 533 195 134 127 125 
314 535 193 124 116 114 
315 535 192 115 106 102 
315 535 193 116 106 102 
314 534 195 127 118 116 
314 535 194 121 113 111 
314 535 195 121 114 112 
315 534 194 121 112 107 
315 534 195 130 121 119 
315 535 194 113 103 98 
313 533 197 128 121 120 
312 533 199 129 121 120 
313 532 199 131 124 123 
313 533 198 128 121 120 
313 533 199 129 121 119 
312 534 197 124 116 115 
312 535 196 130 123 122 
312 535 197 127 120 119 
313 534 196 126 118 117 
313 534 197 126 119 118 
313 535 196 125 117 116 
312 534 198 125 117 116 
312 534 199 127 119 117 
313 534 198 127 119 118 
314 533 196 130 123 122 
314 533 197 129 122 121 
315 532 196 139 132 132 
315 532 197 136 129 128 
315 533 196 135 128 127 
315 533 197 134 127 126 
314 532 198 132 125 124 
314 532 199 134 126 126 
314 533 198 129 122 122 
315 532 198 133 127 126 
314 534 196 129 121 119 
319 531 193 124 118 118 
318 531 194 129 122 121 
318 531 195 126 119 118 
319 530 194 120 114 113 
319 530 195 116 109 108 
319 531 194 126 119 120 
319 531 195 120 114 113 
316 531 197 135 128 128 
317 530 197 110 103 102 
317 531 196 131 124 124 
317 531 197 127 121 120 
316 530 199 113 106 103 
316 531 198 128 121 119 
316 531 199 123 116 114 
317 530 198 112 105 103 
317 530 199 127 120 120 
317 531 198 124 116 115 
319 529 196 126 120 119 
319 529 197 137 130 130 
318 529 198 135 129 129 
318 529 199 139 132 132 
319 528 198 141 134 134 
319 528 199 141 134 134 
319 529 198 140 133 133 
319 529 199 142 135 135 
318 530 196 110 103 101 
318 530 197 110 103 102 
318 531 196 120 114 113 
319 530 196 111 104 102 
319 530 197 118 111 111 
318 530 198 128 122 121 
316 533 193 127 118 114 
317 533 192 129 120 118 
317 533 193 127 118 116 
316 532 195 138 131 130 
316 533 194 131 122 120 
316 533 195 138 130 129 
317 532 194 127 119 117 
317 532 195 132 125 124 
317 533 194 126 118 116 
316 534 192 118 108 102 
316 534 193 118 107 102 
316 535 192 112 101 95 
317 534 192 125 116 112 
317 534 193 125 116 112 
316 534 194 122 112 108 
318 532 192 120 112 110 
318 532 193 123 115 114 
318 533 192 122 113 111 
319 532 192 117 109 107 
319 532 193 124 117 117 
318 532 194 126 120 119 
318 532 195 128 121 121 
316 532 196 141 135 134 
316 532 197 138 131 131 
316 533 196 141 134 133 
317 532 196 138 131 131 
313 531 200 134 127 127 
313 531 201 133 125 125 
312 531 202 136 128 126 
312 531 203 124 116 114 
313 530 203 116 108 105 
313 531 202 128 120 119 
313 531 203 120 111 109 
314 530 201 112 105 104 
314 531 200 130 123 123 
314 531 201 122 115 114 
315 530 200 107 99 97 
315 530 201 109 102 100 
315 531 200 118 111 109 
314 530 202 116 109 107 
314 530 203 120 113 111 
314 531 202 117 110 108 
315 530 202 122 115 114 
315 530 203 124 117 116 
312 530 205 112 103 100 
312 531 204 116 108 105 
312 531 205 113 105 102 
313 530 204 112 103 100 
313 530 205 110 101 98 
313 531 204 112 103 100 
312 530 206 108 99 95 
312 530 207 107 99 98 
312 531 206 110 101 98 
312 531 207 108 100 98 
313 530 206 105 96 92 
313 530 207 103 95 93 
314 530 204 110 102 99 
314 530 205 105 96 92 
315 530 204 106 97 94 
315 530 205 99 90 85 
314 530 206 101 91 87 
314 530 207 96 88 85 
315 530 206 96 86 82 
315 530 207 90 82 78 
312 532 200 132 124 123 
312 532 201 136 128 127 
312 533 200 131 123 121 
313 532 200 133 126 125 
313 532 201 135 128 128 
312 532 202 137 130 129 
316 529 201 135 128 128 
317 529 200 139 132 131 
317 529 201 141 134 134 
316 529 202 139 132 133 
316 529 203 125 119 119 
317 529 202 137 131 131 
317 529 203 123 117 117 
316 530 200 116 108 106 
316 530 201 121 114 112 
317 530 200 134 127 126 
316 530 202 134 127 128 
316 530 203 126 119 119 
318 529 200 142 134 134 
318 529 201 139 132 131 
319 528 200 139 131 131 
319 528 201 130 123 123 
319 529 200 141 134 133 
319 529 201 135 128 127 
318 529 202 132 125 125 
318 529 203 120 115 115 
319 528 202 122 116 116 
319 528 203 117 111 111 
319 529 202 127 121 121 
319 529 203 118 112 112 
316 529 204 101 92 91 
316 529 205 94 85 82 
317 529 204 101 94 92 
317 529 205 93 84 81 
316 529 206 91 81 79 
316 529 207 95 86 82 
317 529 206 89 79 77 
317 529 207 109 101 98 
316 530 204 103 93 91 
316 530 205 96 87 84 
316 530 206 93 83 80 
316 530 207 90 80 77 
318 529 204 104 97 95 
318 529 205 93 84 82 
319 528 204 106 101 100 
319 528 205 104 97 95 
319 529 204 108 101 100 
319 529 205 95 87 85 
318 528 207 136 130 130 
318 529 206 95 86 84 
318 529 207 121 113 112 
319 528 206 117 109 108 
319 528 207 133 126 126 
319 529 206 101 93 91 
312 537 193 127 119 118 
313 536 193 130 123 122 
313 537 192 127 119 118 
313 537 193 130 122 121 
312 536 195 132 126 125 
312 537 194 126 119 117 
312 537 195 129 122 121 
313 536 194 130 124 123 
313 536 195 130 123 123 
313 537 194 130 122 121 
312 538 192 121 114 112 
312 538 193 123 115 114 
312 539 192 122 115 115 
313 538 192 123 115 113 
312 538 194 125 118 116 
314 536 192 127 121 120 
314 536 193 129 121 120 
314 537 192 129 122 121 
315 536 192 123 116 114 
312 536 196 133 126 126 
304 531 209 131 125 124 
305 531 209 129 122 122 
304 531 210 125 119 118 
304 531 211 113 106 105 
305 531 210 123 116 115 
305 531 211 109 102 101 
306 531 208 131 125 125 
306 531 209 129 122 122 
307 531 208 132 126 126 
307 531 209 129 123 123 
306 531 210 123 117 117 
306 531 211 108 102 101 
307 530 211 102 95 95 
307 531 210 121 115 115 
307 531 211 107 101 100 
304 529 215 112 102 97 
305 529 215 101 90 84 
304 530 213 104 96 93 
304 531 212 105 98 96 
305 530 212 101 93 90 
305 530 213 101 93 90 
305 531 212 101 94 92 
304 530 214 101 92 87 
304 530 215 105 95 89 
305 530 214 99 89 84 
305 530 215 99 87 82 
306 529 214 100 90 86 
306 529 215 102 92 87 
307 528 215 110 101 99 
307 529 214 98 88 84 
307 529 215 102 93 89 
306 530 212 100 93 91 
306 530 213 101 92 90 
306 531 212 99 92 90 
307 530 212 102 95 94 
307 530 213 103 95 93 
306 530 214 100 90 86 
307 530 214 99 90 86 
304 532 208 138 131 132 
304 532 209 134 127 127 
305 532 208 134 127 128 
305 532 209 132 125 125 
306 532 208 132 126 126 
308 531 208 130 124 124 
308 531 209 126 120 120 
309 531 208 122 116 116 
309 531 209 116 110 110 
308 530 211 102 96 95 
308 531 210 113 107 108 
308 531 211 105 100 99 
309 530 210 97 92 91 
309 530 211 106 99 98 
309 531 210 105 100 100 
310 530 209 100 95 95 
310 531 208 112 106 105 
310 531 209 107 101 101 
311 530 208 102 96 96 
311 530 209 94 89 89 
311 531 208 105 100 99 
310 530 210 92 87 87 
310 530 211 117 110 109 
311 530 210 92 86 86 
311 530 211 127 121 121 
308 529 213 108 99 96 
309 529 213 127 121 120 
308 528 215 125 118 117 
308 529 214 108 100 97 
308 529 215 108 100 97 
309 528 214 132 125 126 
309 528 215 135 129 129 
309 529 214 130 124 123 
308 530 212 111 105 104 
308 530 213 112 104 103 
309 530 212 123 116 116 
309 530 213 125 118 118 
310 528 213 142 135 136 
310 529 212 129 123 122 
310 529 213 136 129 129 
311 528 213 144 138 138 
311 529 212 134 128 127 
311 529 213 140 133 133 
310 528 214 140 134 134 
310 528 215 142 136 136 
311 528 214 143 136 137 
310 530 212 127 120 120 
304 528 217 137 130 130 
304 529 216 125 116 113 
305 528 216 110 100 96 
305 528 217 127 120 118 
305 529 216 109 99 94 
306 528 216 110 101 97 
306 528 217 125 117 116 
306 529 216 103 93 88 
307 528 216 121 113 111 
308 528 216 128 121 120 
312 529 210 126 120 120 
312 529 211 133 126 126 
313 529 210 126 119 119 
313 529 211 125 118 116 
312 530 208 101 95 95 
312 530 209 82 76 76 
313 530 208 94 88 87 
313 530 209 87 82 80 
312 530 210 102 96 96 
312 530 211 130 124 124 
313 530 210 115 109 109 
314 529 209 123 118 119 
315 529 208 102 96 94 
315 529 209 126 120 121 
314 528 211 122 114 112 
314 529 210 130 124 123 
314 529 211 127 120 119 
315 528 210 140 132 132 
315 528 211 134 127 127 
315 529 210 138 131 131 
314 530 208 90 84 83 
314 530 209 104 98 98 
315 530 208 95 90 88 
312 528 212 139 132 132 
312 528 213 145 138 138 
312 529 212 139 133 132 
312 529 213 144 137 137 
313 528 212 128 120 119 
313 528 213 139 132 131 
313 529 212 129 121 120 
314 528 212 127 119 117 
315 528 212 132 124 123 
316 529 208 118 111 110 
316 529 209 135 128 128 
317 528 208 136 129 129 
317 528 209 136 129 128 
317 529 208 132 125 125 
317 529 209 135 129 128 
316 528 210 141 134 134 
316 528 211 143 136 135 
316 529 210 140 134 134 
317 528 210 139 132 132 
318 528 208 138 131 131 
318 528 209 136 129 129 
319 528 208 142 135 134 
319 528 209 140 133 133 
318 528 210 138 131 131 
288 520 225 157 152 155 
288 521 224 150 144 145 
288 521 225 154 148 149 
289 520 225 151 146 148 
289 521 224 149 142 143 
289 521 225 154 148 150 
288 520 226 151 147 150 
289 520 226 146 142 144 
288 522 224 145 138 139 
289 522 224 143 136 137 
290 520 225 140 135 137 
290 521 224 145 138 139 
291 520 224 131 126 126 
291 520 225 126 121 121 
291 521 224 131 125 125 
291 544 207 56 57 60 
292 544 207 57 57 60 
292 545 207 55 56 60 
293 544 206 57 56 58 
293 545 206 55 56 59 
293 545 207 54 56 59 
293 546 206 54 56 60 
293 546 207 53 55 59 
293 547 207 53 55 59 
294 544 205 59 58 59 
294 545 205 57 57 61 
295 544 204 55 54 55 
295 544 205 57 55 57 
295 545 204 55 55 57 
295 545 205 57 58 60 
294 545 206 56 57 60 
295 546 205 58 59 63 
294 546 206 56 57 61 
294 547 206 56 57 62 
294 547 207 54 56 60 
295 546 206 57 58 62 
295 547 206 56 58 62 
295 547 207 53 55 60 
295 548 206 55 56 61 
295 548 207 54 56 60 
295 549 207 54 56 60 
295 554 207 54 54 57 
295 555 207 53 53 56 
295 556 207 53 53 55 
295 557 207 51 52 54 
295 558 207 51 51 54 
295 559 207 52 52 54 
303 545 195 116 111 111 
303 546 195 89 85 85 
303 547 195 64 61 62 
301 544 197 118 112 113 
301 545 197 110 106 106 
300 544 199 111 106 106 
300 545 199 88 84 84 
301 544 198 117 112 112 
301 545 198 105 101 101 
301 546 197 85 81 82 
301 547 197 60 58 60 
300 546 199 60 57 57 
300 547 199 57 57 60 
301 546 198 74 71 71 
301 547 198 57 56 58 
301 547 199 55 56 58 
302 544 196 123 118 118 
302 544 197 120 115 115 
302 545 196 110 105 105 
302 545 197 112 107 107 
303 544 196 126 120 121 
303 545 196 112 107 108 
302 546 196 79 75 76 
302 546 197 85 81 82 
302 547 196 57 55 56 
302 547 197 60 58 60 
303 546 196 81 77 77 
303 547 196 57 55 56 
303 548 195 57 56 58 
300 548 199 57 58 61 
301 548 198 55 56 58 
301 548 199 54 56 59 
301 549 198 54 55 58 
301 549 199 54 56 60 
301 550 199 54 55 59 
301 551 199 54 55 58 
302 548 196 55 55 57 
302 548 197 55 56 58 
302 549 197 55 55 58 
303 548 196 54 54 57 
303 549 196 54 55 57 
303 549 197 55 55 58 
302 548 198 55 55 58 
302 549 198 55 55 58 
303 550 196 54 54 57 
303 550 197 55 55 58 
303 551 197 53 54 56 
302 550 198 53 54 58 
302 550 199 53 54 58 
302 551 198 53 54 57 
302 551 199 54 55 59 
303 550 198 54 55 58 
303 551 198 53 54 57 
296 544 203 51 52 55 
297 544 202 60 59 61 
297 544 203 53 53 56 
297 545 202 51 52 55 
297 545 203 47 49 53 
297 546 203 54 56 60 
297 547 203 56 58 61 
298 544 201 86 83 85 
298 545 201 59 59 61 
299 544 200 103 99 100 
299 545 200 77 74 75 
299 545 201 69 67 68 
298 544 202 66 66 67 
298 545 202 52 53 56 
298 546 201 54 55 57 
299 546 200 60 58 59 
299 546 201 56 56 59 
299 547 200 56 57 61 
299 547 201 56 58 62 
298 546 202 54 56 60 
298 546 203 55 57 62 
298 547 202 56 58 62 
298 547 203 56 57 61 
299 547 202 56 58 63 
296 544 204 52 52 54 
296 545 204 52 53 56 
296 546 204 57 59 63 
296 546 205 58 59 64 
296 547 205 58 60 64 
297 546 204 57 58 63 
297 547 204 57 59 63 
297 547 205 57 59 64 
296 547 206 58 59 64 
299 548 201 55 57 61 
298 548 202 55 57 61 
298 548 203 56 58 61 
298 549 203 56 58 61 
299 548 202 55 57 61 
299 549 202 55 57 61 
299 549 203 56 57 61 
299 550 202 55 56 60 
299 550 203 56 57 60 
299 551 202 55 56 59 
299 551 203 54 55 59 
296 548 205 58 60 64 
297 548 204 57 59 64 
297 548 205 57 59 63 
297 549 205 55 58 62 
296 548 206 56 57 62 
296 549 206 54 56 61 
296 549 207 55 57 61 
297 549 206 54 57 61 
296 550 206 55 57 61 
296 550 207 55 56 60 
296 551 207 54 55 59 
297 550 206 55 56 61 
297 550 207 55 57 61 
297 551 206 54 55 58 
297 551 207 53 55 58 
298 548 204 57 58 62 
298 549 204 56 58 61 
298 549 205 55 57 61 
298 550 204 55 56 60 
298 550 205 55 56 60 
298 551 204 53 54 57 
298 551 205 53 54 58 
299 550 204 55 56 60 
299 551 204 54 54 57 
298 551 206 54 55 59 
300 544 200 107 102 102 
300 545 200 84 80 80 
300 546 200 60 58 58 
300 547 200 57 58 62 
300 548 200 57 59 63 
300 548 201 56 58 62 
300 549 200 57 59 63 
300 549 201 56 58 62 
301 549 200 57 58 62 
300 550 200 56 58 62 
300 550 201 56 57 61 
300 551 201 55 56 60 
301 550 200 56 57 61 
301 551 200 55 56 60 
301 551 201 54 56 59 
300 550 202 55 56 60 
300 551 202 54 56 59 
303 552 197 53 54 57 
302 552 199 53 54 57 
302 553 199 52 53 56 
303 552 198 53 54 57 
303 553 198 52 53 56 
302 554 199 52 53 56 
302 555 199 51 52 56 
303 554 198 51 53 56 
303 555 198 51 52 56 
302 556 199 51 52 55 
302 557 199 51 52 55 
303 556 198 51 52 56 
303 556 199 51 52 55 
303 557 198 51 52 56 
303 557 199 51 52 55 
302 558 199 51 51 54 
303 558 198 50 51 55 
303 558 199 50 51 54 
303 559 198 50 52 55 
303 559 199 50 51 54 
299 552 203 54 55 58 
299 553 203 53 54 56 
299 554 203 53 54 58 
299 555 203 53 54 58 
296 552 207 55 55 59 
296 553 207 55 55 58 
297 552 206 53 54 57 
297 552 207 53 54 57 
297 553 206 54 55 57 
297 553 207 55 56 58 
297 555 205 51 51 54 
296 554 207 54 54 56 
296 555 206 53 53 56 
296 555 207 54 54 56 
297 554 206 53 53 56 
297 555 206 51 52 55 
298 552 205 53 53 56 
298 553 205 53 53 55 
299 552 204 53 54 56 
299 553 204 53 53 55 
298 552 206 53 54 57 
298 553 206 53 54 56 
298 554 204 52 52 55 
298 554 205 52 52 55 
298 555 204 51 52 56 
298 555 205 52 52 55 
299 554 204 53 53 56 
299 555 204 52 53 57 
299 556 203 51 53 57 
299 557 203 51 53 57 
299 558 203 51 52 56 
299 559 203 51 52 56 
297 556 205 50 52 55 
297 557 205 51 52 56 
296 556 206 51 52 55 
296 556 207 52 52 55 
296 557 206 52 52 55 
296 557 207 52 52 55 
297 556 206 51 52 55 
297 557 206 51 52 55 
297 558 205 51 52 55 
297 559 205 51 52 54 
296 558 206 51 52 55 
296 558 207 51 52 55 
296 559 206 52 52 55 
296 559 207 52 52 54 
297 558 206 52 53 56 
297 559 206 52 52 55 
298 556 204 51 53 57 
298 556 205 51 52 56 
298 557 204 51 53 57 
298 557 205 52 53 56 
299 556 204 51 53 57 
299 557 204 51 53 57 
298 558 204 51 53 56 
298 558 205 51 52 55 
298 559 204 52 53 56 
298 559 205 52 52 55 
299 558 204 51 53 56 
299 559 204 52 53 56 
300 552 201 54 56 60 
301 552 200 53 54 58 
301 552 201 54 55 59 
301 553 200 52 53 57 
301 553 201 52 54 58 
300 552 202 54 56 59 
300 553 202 53 55 58 
300 553 203 54 54 58 
301 554 200 52 54 57 
301 554 201 52 54 57 
301 555 200 52 53 56 
301 555 201 52 53 57 
300 554 202 53 54 57 
300 554 203 53 54 57 
300 555 202 53 54 57 
300 555 203 53 54 58 
302 555 200 51 53 56 
301 556 200 53 54 57 
301 556 201 52 53 57 
301 557 200 51 53 56 
301 557 201 50 52 55 
300 556 202 52 53 57 
300 556 203 51 53 57 
300 557 202 51 52 56 
300 557 203 51 53 57 
301 557 202 50 52 55 
301 558 201 51 52 55 
301 559 201 52 53 56 
300 558 202 51 53 56 
300 558 203 51 52 56 
300 559 203 51 52 55 
301 558 202 51 52 55 
301 559 202 52 53 56 
302 556 200 52 53 56 
302 557 200 51 52 55 
302 558 200 50 51 54 
302 558 201 50 51 55 
302 559 200 50 51 55 
302 559 201 52 53 56 
289 544 209 55 56 59 
289 545 209 55 56 59 
288 544 210 55 56 59 
288 544 211 56 57 60 
288 545 211 57 57 60 
289 544 210 55 56 59 
289 545 210 55 56 59 
289 545 211 56 57 59 
288 546 211 55 55 58 
289 546 210 55 56 59 
289 546 211 56 56 59 
289 547 211 55 56 58 
290 544 208 54 56 60 
290 544 209 54 56 60 
290 545 209 54 56 60 
291 544 208 55 56 60 
291 545 208 53 55 59 
291 545 209 53 55 59 
