ply
format ascii 1.0
comment Created by CloudCompare v2.10.1 (Zephyrus)
comment Created 1/31/20 9:42 AM
obj_info Generated by CloudCompare!
element vertex 1950
property float x
property float y
property float z
property uchar red
property uchar green
property uchar blue
end_header
251 838 190 122 108 107 
251 839 190 111 98 98 
251 839 191 101 85 87 
253 837 184 144 132 127 
252 838 184 150 136 129 
252 838 185 139 126 121 
253 838 184 142 131 125 
253 838 185 138 126 121 
252 838 186 132 120 115 
252 838 187 136 123 119 
253 838 186 135 124 119 
253 838 187 136 125 121 
254 837 184 145 134 130 
254 837 185 147 136 132 
255 836 184 147 136 132 
255 837 184 149 138 134 
255 837 185 149 137 133 
254 837 186 148 137 132 
255 837 186 147 136 132 
254 838 185 138 127 123 
254 838 186 145 134 130 
254 838 187 143 131 127 
255 838 186 145 133 130 
255 838 187 146 134 130 
252 838 188 131 119 116 
252 838 189 132 120 117 
253 838 188 142 129 125 
253 838 189 142 130 127 
252 838 190 127 113 111 
252 839 190 123 108 107 
252 839 191 109 94 95 
253 838 190 133 120 118 
253 839 191 124 110 107 
254 838 188 145 134 130 
254 838 189 145 133 129 
255 838 188 145 133 130 
255 838 189 145 134 130 
254 838 190 145 133 129 
254 838 191 131 118 116 
254 839 191 134 121 118 
255 838 190 144 132 129 
255 838 191 140 127 125 
255 839 191 134 120 119 
248 840 188 146 131 126 
248 840 189 129 114 112 
248 840 190 110 94 95 
248 840 191 96 84 86 
248 841 191 97 86 88 
249 840 190 104 90 91 
249 840 191 93 82 84 
250 840 191 87 74 77 
251 840 191 88 72 75 
232 839 192 158 143 139 
233 840 192 156 142 137 
234 840 192 155 141 136 
234 841 193 154 140 135 
235 840 192 159 144 139 
235 841 192 157 142 138 
235 841 193 155 140 135 
234 842 193 154 141 135 
235 842 193 154 140 135 
235 842 194 153 140 133 
235 843 194 153 139 133 
236 841 192 156 141 136 
236 841 193 155 140 136 
237 841 192 152 136 132 
236 842 193 154 139 135 
237 842 192 153 136 133 
237 842 193 154 138 135 
236 842 194 152 138 132 
236 843 194 151 138 131 
236 843 195 151 137 131 
237 842 194 154 139 134 
237 843 194 152 138 132 
237 843 195 152 139 132 
238 842 192 153 137 132 
238 842 193 153 138 134 
239 842 192 154 139 132 
239 842 193 154 139 135 
239 843 193 154 139 134 
238 842 194 153 139 134 
238 843 194 152 138 133 
238 843 195 151 137 132 
239 843 194 151 136 132 
239 843 195 147 133 128 
239 844 195 147 133 128 
238 844 196 145 132 125 
239 844 196 138 126 120 
239 845 197 134 122 117 
240 842 192 154 139 132 
240 842 193 153 138 132 
240 843 193 151 136 131 
241 842 192 151 137 130 
241 843 193 147 133 128 
240 843 194 147 133 129 
240 843 195 141 127 124 
241 843 194 139 126 122 
241 843 195 138 125 122 
242 842 192 148 135 128 
242 842 193 138 126 121 
242 843 193 140 127 122 
243 842 192 141 129 124 
243 842 193 139 128 124 
243 843 193 138 127 123 
242 843 194 138 126 121 
242 843 195 136 124 120 
243 843 194 136 125 122 
243 843 195 130 120 117 
240 844 195 138 125 121 
241 844 195 137 124 121 
242 844 195 132 120 117 
243 844 195 130 119 116 
240 844 196 134 122 118 
240 845 196 133 122 117 
240 845 197 132 121 116 
241 844 196 134 122 118 
241 845 196 132 121 118 
241 845 197 135 125 120 
240 845 198 132 121 117 
240 846 198 135 125 123 
241 846 198 140 132 130 
241 846 199 145 137 137 
241 847 199 147 139 139 
242 844 196 131 120 117 
242 845 196 133 123 119 
242 845 197 134 124 121 
243 844 196 135 125 122 
243 845 196 138 128 126 
243 845 197 136 127 125 
242 846 197 135 126 124 
243 846 197 134 126 124 
242 846 198 141 133 132 
242 847 199 150 143 143 
243 846 198 141 134 133 
243 847 198 148 142 142 
243 847 199 151 144 144 
244 841 192 140 127 122 
245 841 192 134 122 117 
244 842 192 141 128 124 
244 842 193 139 127 123 
245 842 192 136 124 120 
245 842 193 138 128 125 
244 842 194 136 126 123 
244 843 194 134 124 122 
244 843 195 136 127 125 
245 842 194 141 132 129 
245 843 194 144 135 133 
245 843 195 145 136 134 
246 841 192 119 109 105 
247 841 192 116 108 106 
246 842 192 136 127 124 
246 842 193 147 137 135 
247 842 192 142 134 133 
247 842 193 153 144 143 
246 842 194 149 141 138 
246 843 194 148 139 138 
246 843 195 146 138 136 
247 843 194 149 142 141 
244 844 195 137 128 126 
245 844 195 145 137 135 
246 844 195 148 141 140 
246 845 195 150 142 142 
247 844 195 150 143 143 
247 845 195 152 144 144 
244 844 196 140 132 130 
244 845 196 142 134 133 
244 845 197 142 135 133 
245 844 196 146 137 136 
245 845 196 148 140 140 
244 846 197 143 136 136 
245 846 197 147 141 141 
245 847 197 147 140 141 
244 846 198 143 136 136 
244 847 198 149 142 142 
244 847 199 150 143 143 
245 847 198 148 142 142 
246 845 196 150 143 143 
247 845 196 151 144 144 
246 846 196 149 143 143 
246 846 197 147 141 142 
246 847 197 147 141 141 
247 846 196 149 143 143 
247 847 197 147 141 142 
246 847 198 149 142 143 
253 839 192 112 99 96 
254 839 192 119 105 103 
255 839 192 125 111 110 
248 841 192 111 104 104 
249 841 192 104 98 98 
248 842 192 145 137 136 
248 842 193 154 145 144 
248 843 193 153 145 144 
249 842 192 146 139 138 
249 842 193 154 146 145 
249 843 193 154 146 146 
248 843 194 151 144 144 
249 843 194 153 146 146 
250 840 192 77 68 71 
250 841 192 105 100 102 
251 840 192 76 65 71 
251 841 192 106 102 103 
251 841 193 128 123 124 
250 842 193 153 146 146 
250 843 193 154 147 147 
251 842 193 153 146 147 
251 843 193 154 146 146 
251 843 194 152 145 145 
248 844 194 150 143 143 
248 844 195 151 144 144 
248 845 195 152 145 146 
249 844 194 150 144 144 
249 845 195 151 144 145 
249 846 195 151 145 146 
250 844 194 151 144 144 
250 845 194 150 143 144 
250 845 195 150 143 144 
251 844 194 150 143 144 
251 845 195 149 143 144 
250 846 195 150 144 145 
251 846 195 149 142 144 
248 845 196 152 146 146 
248 846 196 151 144 145 
248 847 196 148 142 143 
248 847 197 147 141 142 
249 846 196 150 144 145 
249 847 196 149 142 143 
249 847 197 148 141 142 
250 846 196 150 144 145 
250 847 196 148 142 143 
250 847 197 148 142 143 
251 846 196 148 142 143 
251 847 196 148 142 142 
251 847 197 147 141 141 
252 840 192 81 71 75 
252 840 193 79 76 79 
252 841 192 95 92 94 
252 841 193 112 107 109 
253 840 192 90 80 81 
253 840 193 80 75 78 
253 841 193 111 108 109 
252 842 193 153 147 147 
252 843 193 153 146 145 
253 842 193 152 146 146 
252 843 194 151 144 144 
253 843 194 149 142 142 
254 840 192 96 84 85 
254 840 193 82 76 78 
254 841 193 112 108 110 
255 840 193 90 81 83 
255 841 193 109 106 107 
254 842 193 150 144 145 
255 842 193 149 143 144 
254 842 194 153 146 146 
254 843 194 147 139 139 
255 842 194 151 144 144 
255 843 194 147 140 139 
252 844 194 147 141 141 
252 845 195 145 139 140 
253 844 194 142 135 135 
253 844 195 126 119 119 
253 845 195 130 123 123 
252 846 195 146 140 141 
253 846 195 133 127 128 
254 844 194 136 128 128 
254 844 195 114 104 105 
254 845 195 107 97 98 
255 844 194 139 131 131 
255 844 195 112 102 104 
255 845 195 97 85 90 
254 846 195 116 109 109 
252 846 196 147 141 142 
252 847 196 148 142 142 
253 846 196 141 135 136 
253 847 196 147 141 142 
242 848 199 154 146 146 
243 848 199 156 149 148 
244 848 199 156 149 149 
245 848 198 153 146 146 
245 848 199 159 151 150 
245 849 199 164 155 154 
246 848 198 155 148 148 
246 849 199 164 155 154 
247 848 198 156 149 149 
247 849 198 160 153 152 
242 848 200 160 151 150 
243 848 200 160 151 151 
243 849 200 165 155 153 
244 848 200 163 154 153 
244 849 200 167 157 155 
248 848 197 152 146 146 
249 848 197 151 145 146 
248 848 198 157 150 150 
248 849 198 162 154 154 
250 848 197 150 143 144 
264 831 181 177 166 163 
265 831 182 182 170 167 
265 831 183 178 166 163 
266 831 183 178 167 163 
267 831 183 180 168 165 
267 831 184 178 166 163 
268 831 184 178 167 164 
268 831 185 176 165 162 
269 830 184 178 166 163 
269 831 184 178 165 162 
269 831 185 176 164 161 
269 831 186 174 163 160 
270 830 185 177 165 161 
270 831 185 176 164 161 
270 831 186 178 166 163 
271 831 186 182 169 166 
271 831 187 184 173 169 
272 831 186 185 173 169 
272 831 187 187 175 171 
273 831 187 187 175 171 
274 830 187 185 172 169 
274 831 187 184 171 167 
273 831 188 184 171 167 
274 831 188 180 167 162 
275 831 188 177 164 160 
275 831 189 176 163 159 
256 834 176 161 144 140 
256 834 177 162 145 140 
257 834 177 163 146 141 
256 835 178 163 148 142 
256 835 179 160 147 140 
257 834 178 163 147 142 
257 835 178 160 147 142 
257 835 179 159 147 142 
258 834 177 162 146 141 
258 834 178 157 144 141 
258 834 179 143 132 129 
258 835 178 159 147 143 
258 835 179 148 136 133 
259 834 178 147 135 132 
259 834 179 144 133 130 
256 835 180 157 145 141 
256 835 181 149 138 134 
257 835 180 149 138 135 
257 835 181 146 135 132 
257 835 182 152 141 138 
258 835 180 144 133 130 
258 835 181 150 140 136 
259 834 180 149 138 135 
259 834 181 160 149 146 
259 835 180 152 140 137 
259 835 181 156 145 142 
258 835 182 158 147 144 
258 835 183 163 152 149 
259 834 182 164 153 150 
259 835 182 162 151 148 
259 835 183 165 154 151 
256 836 181 149 138 134 
256 836 182 144 134 130 
256 836 183 148 137 133 
257 836 182 152 141 137 
257 836 183 159 148 144 
258 836 183 161 151 147 
259 836 183 164 153 150 
260 833 179 150 140 137 
261 833 179 155 144 141 
260 834 179 147 136 133 
260 833 180 163 152 149 
260 833 181 165 154 151 
261 833 180 163 152 149 
261 833 181 169 158 155 
260 834 180 157 147 144 
260 834 181 163 152 149 
261 834 181 171 159 156 
260 834 182 168 156 153 
260 835 182 167 156 153 
260 835 183 169 158 154 
261 834 182 171 160 156 
261 835 182 169 158 156 
261 835 183 172 160 157 
262 832 180 167 157 153 
262 832 181 174 163 160 
262 833 180 170 159 156 
262 833 181 173 161 158 
263 832 181 176 165 162 
262 833 182 173 162 159 
263 832 182 178 166 163 
263 833 182 176 164 161 
263 833 183 175 164 161 
262 834 182 172 161 158 
262 834 183 173 161 158 
262 835 183 173 162 158 
263 834 183 174 162 159 
256 836 184 152 141 137 
256 837 184 152 141 136 
256 837 185 152 141 137 
257 836 184 161 150 146 
257 836 185 156 144 140 
257 837 185 155 143 139 
256 837 186 150 139 136 
256 837 187 150 137 134 
257 837 186 151 139 135 
257 837 187 146 134 131 
256 838 187 145 133 129 
257 838 187 143 131 127 
258 836 184 166 155 152 
258 836 185 161 149 146 
258 837 185 155 143 139 
259 836 184 167 156 152 
259 836 185 160 149 146 
258 837 186 151 139 136 
258 837 187 148 136 133 
259 836 186 153 142 139 
259 836 187 151 140 138 
259 837 187 149 138 136 
257 837 188 142 131 128 
256 838 188 143 130 127 
256 838 189 145 133 130 
257 838 188 146 134 131 
257 838 189 142 131 128 
256 838 190 142 129 127 
256 838 191 140 126 125 
257 838 190 143 129 128 
257 838 191 143 128 127 
258 837 188 144 133 130 
258 837 189 143 131 129 
259 837 188 144 132 131 
259 837 189 144 131 131 
259 837 190 145 129 130 
258 838 189 143 131 129 
258 838 190 143 128 128 
258 838 191 143 127 128 
259 838 190 145 128 130 
259 838 191 145 128 130 
260 835 184 171 159 156 
261 835 184 171 159 156 
261 835 185 166 155 151 
262 835 184 171 159 157 
262 835 185 170 158 155 
263 834 184 173 161 159 
263 834 185 173 161 158 
263 835 184 172 160 158 
263 835 185 171 159 156 
262 835 186 167 155 153 
262 835 187 161 148 147 
263 834 186 171 158 155 
263 835 186 169 156 154 
263 835 187 167 154 152 
263 835 188 167 153 152 
263 835 189 167 154 151 
260 836 184 169 158 155 
260 836 185 161 150 147 
261 836 184 170 158 154 
261 836 185 165 154 150 
260 836 186 157 145 143 
260 836 187 155 143 141 
261 836 186 163 151 148 
261 836 187 160 147 145 
262 836 187 159 144 143 
260 836 188 147 135 134 
260 837 188 148 135 135 
260 837 189 145 130 132 
261 836 188 154 139 138 
261 836 189 152 137 137 
261 837 189 149 135 135 
260 837 190 148 132 133 
260 837 191 150 134 135 
261 837 190 152 136 137 
261 837 191 153 139 139 
260 838 191 149 133 134 
262 836 188 159 144 144 
262 836 189 157 142 142 
263 836 188 163 149 148 
263 836 189 163 149 148 
262 836 190 157 143 142 
262 836 191 162 150 147 
262 837 190 155 140 139 
262 837 191 158 146 144 
263 836 190 166 153 151 
263 836 191 167 155 153 
264 832 181 179 167 164 
264 832 182 179 168 165 
264 832 183 176 165 161 
264 833 183 176 164 161 
265 832 182 181 169 166 
265 832 183 177 166 163 
266 832 183 177 165 162 
264 833 184 175 164 161 
264 833 185 174 163 160 
265 832 184 177 165 162 
265 832 185 176 165 161 
265 833 184 177 165 162 
265 833 185 174 163 159 
265 833 186 171 160 157 
264 834 185 172 161 159 
264 834 186 171 160 156 
264 834 187 171 158 155 
264 835 187 170 157 155 
265 834 186 171 159 156 
265 834 187 172 161 157 
266 832 184 176 165 162 
266 832 185 176 164 161 
267 832 184 177 165 162 
267 832 185 176 164 162 
266 833 186 172 161 157 
266 833 187 173 162 159 
267 832 186 174 162 159 
267 833 186 173 161 158 
267 833 187 175 164 161 
264 834 188 173 161 158 
264 835 188 171 159 156 
264 835 189 171 159 155 
265 834 188 175 163 160 
265 834 189 176 164 160 
265 835 189 175 163 159 
264 835 190 171 159 155 
265 835 190 174 162 159 
265 835 191 171 160 157 
266 833 188 176 165 162 
267 833 188 179 167 164 
267 833 189 179 167 163 
266 834 188 177 165 162 
266 834 189 177 165 162 
267 834 189 179 166 163 
266 834 190 177 165 162 
266 835 190 176 164 161 
266 835 191 173 162 158 
267 834 190 178 166 162 
267 834 191 176 164 161 
267 835 191 173 162 159 
264 836 190 169 157 154 
264 836 191 169 158 155 
265 836 191 170 158 156 
268 832 185 175 163 161 
268 832 186 174 162 159 
268 832 187 176 165 162 
268 833 187 177 165 162 
269 832 186 174 163 160 
269 832 187 178 167 164 
270 832 186 177 165 162 
270 832 187 182 170 168 
271 832 187 186 174 171 
268 833 188 180 168 165 
268 833 189 180 167 163 
269 832 188 182 170 167 
269 833 188 183 171 167 
269 833 189 182 169 166 
269 833 190 180 167 163 
268 834 189 179 166 162 
268 834 190 178 166 162 
268 834 191 175 163 160 
269 834 190 179 166 162 
269 834 191 175 163 159 
270 832 188 185 173 170 
270 833 188 184 172 168 
270 833 189 183 171 167 
271 832 188 186 174 170 
271 833 189 184 171 167 
270 833 190 179 167 163 
271 833 190 179 166 162 
270 834 190 178 165 161 
270 834 191 173 161 156 
272 832 188 185 173 169 
272 832 189 182 170 166 
272 833 189 183 170 166 
273 832 188 183 170 165 
273 832 189 180 167 164 
273 833 189 180 167 163 
272 833 190 178 165 162 
273 832 190 173 160 157 
274 832 188 180 167 163 
274 832 189 177 164 160 
256 839 192 134 119 118 
256 839 193 123 109 107 
257 838 192 140 125 124 
257 839 192 133 119 117 
257 839 193 126 112 110 
258 838 192 145 131 129 
258 839 192 139 126 123 
259 838 192 147 133 132 
259 839 192 141 129 126 
259 839 193 131 118 115 
260 837 192 152 139 138 
261 837 192 157 144 143 
260 838 192 155 143 141 
260 838 193 150 138 135 
260 839 193 130 119 115 
261 838 192 156 145 142 
261 838 193 150 138 135 
261 839 193 128 116 114 
262 837 192 161 149 147 
262 837 193 159 148 145 
263 836 192 166 155 152 
263 837 192 163 152 149 
263 837 193 160 149 145 
262 838 192 158 147 144 
262 838 193 153 142 138 
262 839 193 139 127 124 
263 838 193 155 143 140 
256 840 193 90 80 81 
256 841 193 98 95 97 
257 840 193 91 82 81 
257 841 193 90 87 88 
256 841 194 122 118 119 
257 841 194 123 118 119 
256 842 194 149 143 144 
256 843 194 147 139 138 
257 842 194 148 142 143 
257 843 194 144 136 135 
257 843 195 141 134 134 
258 840 193 92 83 82 
259 840 193 94 84 83 
258 841 194 109 105 106 
259 840 194 80 74 74 
259 841 194 105 100 100 
258 842 194 146 139 139 
258 843 194 134 125 123 
259 842 194 133 126 126 
259 843 194 121 110 107 
256 844 194 141 133 133 
256 844 195 131 124 124 
256 845 195 116 109 109 
260 840 193 94 83 82 
260 840 194 79 71 72 
260 841 194 95 88 87 
266 835 192 167 156 153 
267 835 192 166 154 151 
264 836 192 166 155 152 
264 837 192 164 153 150 
264 837 193 160 149 145 
265 836 192 164 154 151 
266 836 192 162 151 148 
267 836 192 161 150 146 
252 847 197 147 141 142 
253 847 197 149 143 144 
254 846 196 120 113 114 
254 847 196 142 137 138 
254 847 197 150 144 145 
255 846 196 110 103 104 
255 847 196 139 134 135 
255 847 197 149 144 145 
255 847 207 76 59 55 
254 847 209 90 68 65 
255 847 208 81 63 59 
255 847 209 87 64 61 
247 849 199 165 156 155 
244 849 201 169 157 153 
245 849 200 168 157 154 
245 849 201 169 157 153 
244 850 201 168 154 150 
245 850 201 167 152 148 
245 850 202 159 133 130 
246 849 200 168 158 155 
247 849 200 170 159 156 
246 850 200 169 155 150 
246 850 201 165 147 142 
247 850 200 170 156 152 
247 850 201 164 143 139 
246 850 202 157 128 126 
246 850 203 152 113 114 
247 850 202 156 123 123 
247 850 203 152 112 113 
247 850 204 149 104 106 
247 850 205 148 101 102 
248 849 199 167 157 156 
249 848 198 157 150 150 
249 849 198 163 155 154 
249 849 199 168 158 156 
249 850 199 171 159 156 
251 848 197 152 145 145 
250 848 198 157 150 150 
250 849 198 162 154 153 
250 849 199 169 159 157 
251 849 198 162 154 153 
251 849 199 169 159 157 
250 850 199 172 160 157 
251 850 199 171 160 156 
252 848 197 151 145 145 
253 848 197 153 146 146 
253 849 197 159 151 150 
252 849 198 163 154 153 
253 849 198 165 155 153 
252 850 199 172 160 157 
253 850 199 171 159 156 
254 848 197 154 147 147 
254 849 197 158 149 147 
255 848 197 154 147 147 
255 849 197 154 144 142 
254 849 198 155 145 142 
255 849 198 148 137 134 
254 850 199 160 147 142 
255 850 198 138 126 121 
255 850 199 138 124 118 
248 850 200 169 155 151 
248 850 201 161 138 134 
249 850 200 169 153 149 
249 850 201 159 134 130 
248 850 202 155 121 121 
248 850 203 151 110 112 
249 850 202 155 123 121 
249 850 203 151 108 110 
249 851 202 153 118 118 
249 851 203 152 112 114 
250 850 200 168 153 149 
250 850 201 161 139 135 
250 851 201 158 131 128 
251 850 200 168 153 148 
251 851 201 160 134 131 
250 850 203 147 102 104 
250 851 202 155 121 121 
250 851 203 151 109 111 
251 850 203 148 104 106 
251 851 202 154 119 119 
251 851 203 150 109 111 
248 850 204 148 101 104 
248 850 205 145 98 99 
249 850 204 147 100 102 
249 850 205 143 96 98 
248 850 206 143 97 97 
249 850 206 139 95 94 
249 850 207 136 92 92 
251 849 207 118 83 83 
250 850 204 145 98 101 
250 850 205 143 96 98 
251 850 204 146 100 103 
251 850 205 139 96 97 
250 850 206 139 94 95 
250 850 207 130 88 88 
251 850 206 132 92 92 
251 850 207 126 88 88 
252 850 200 170 156 150 
252 851 201 161 139 134 
253 850 200 171 157 151 
253 850 201 167 150 144 
253 851 201 162 141 135 
252 850 203 148 107 109 
252 851 202 152 117 117 
252 851 203 150 111 112 
253 850 202 152 115 115 
253 850 203 149 108 110 
253 851 202 153 120 119 
254 850 200 167 152 146 
254 850 201 164 145 140 
255 850 200 158 143 136 
255 850 201 162 144 139 
254 850 202 155 123 122 
254 850 203 148 108 110 
255 850 202 156 129 128 
255 850 203 147 112 114 
252 849 207 119 86 87 
253 849 206 117 84 83 
253 849 207 116 83 82 
252 850 204 145 102 104 
252 850 205 138 94 96 
253 850 204 142 99 102 
253 850 205 121 86 88 
252 850 206 123 87 87 
252 850 207 120 86 85 
253 850 206 123 88 89 
255 849 205 113 83 85 
254 848 207 111 84 82 
254 849 206 113 80 79 
254 849 207 108 79 76 
255 848 206 92 68 67 
255 848 207 94 69 68 
255 849 206 106 75 76 
255 849 207 99 72 69 
254 850 204 139 98 101 
254 850 205 116 81 82 
255 850 204 135 98 101 
255 850 205 129 98 99 
251 849 208 119 82 83 
250 850 208 124 84 84 
251 850 208 121 84 84 
252 849 208 118 85 85 
253 848 208 107 81 78 
253 849 208 112 81 80 
254 848 208 102 78 75 
255 848 208 83 69 64 
276 831 189 169 155 151 
277 831 189 164 149 144 
278 831 190 163 151 146 
279 831 190 170 157 152 
271 834 191 172 159 155 
272 833 191 171 159 155 
273 833 190 172 160 156 
273 833 191 165 153 149 
272 834 191 167 155 151 
275 832 189 171 157 154 
274 832 190 169 156 152 
274 833 190 167 154 151 
274 833 191 163 151 147 
275 832 190 163 150 147 
275 832 191 160 148 144 
275 833 191 163 151 147 
276 832 190 161 148 145 
276 832 191 167 155 152 
276 833 191 169 158 155 
277 832 190 161 148 144 
277 832 191 176 164 161 
278 832 190 171 159 155 
278 832 191 184 172 169 
279 832 190 178 166 162 
279 832 191 185 173 169 
280 832 191 158 146 143 
262 839 194 120 108 105 
263 838 194 147 136 132 
263 839 194 125 113 110 
258 843 195 129 121 119 
259 843 195 111 100 97 
257 844 195 137 131 131 
257 845 195 136 129 129 
258 844 195 130 123 123 
258 845 195 133 127 127 
259 844 195 111 103 100 
259 845 195 120 113 113 
257 845 196 138 132 132 
256 846 196 124 117 118 
256 847 196 141 135 137 
256 847 197 148 142 143 
257 846 196 141 135 135 
257 847 196 146 140 141 
257 847 197 148 142 143 
258 845 196 139 133 133 
259 845 196 129 123 123 
258 846 196 145 139 140 
258 847 196 148 141 142 
258 847 197 148 142 143 
259 846 196 140 135 136 
259 847 196 145 139 140 
259 847 197 146 140 141 
261 840 194 83 73 74 
261 841 194 100 94 92 
260 842 194 118 109 107 
260 843 194 111 100 97 
260 843 195 107 97 92 
261 842 194 120 111 108 
261 843 195 107 97 92 
262 840 194 86 78 78 
262 841 194 117 110 109 
263 840 194 88 82 83 
263 841 194 109 104 104 
263 841 195 143 136 135 
262 842 194 137 129 127 
262 842 195 131 121 118 
262 843 195 109 98 93 
263 842 195 142 133 131 
263 843 195 119 109 106 
260 844 195 105 95 92 
260 845 195 110 103 101 
261 844 195 104 95 90 
262 844 195 104 96 92 
260 845 196 111 104 103 
261 845 196 106 98 96 
260 846 196 130 124 125 
260 847 196 141 135 136 
260 847 197 145 139 139 
261 846 196 126 120 119 
261 847 196 138 132 133 
261 847 197 140 134 134 
262 844 196 108 100 97 
262 845 196 119 112 111 
263 844 196 116 108 106 
263 845 196 131 124 124 
262 846 196 131 125 124 
262 847 196 135 129 129 
262 847 197 128 120 119 
263 846 196 137 131 130 
263 846 197 138 131 130 
263 847 197 120 111 110 
257 845 207 70 55 51 
256 846 207 71 51 50 
256 847 206 66 45 45 
256 847 207 70 50 49 
257 846 206 74 53 52 
257 846 207 70 51 49 
257 847 206 73 52 54 
259 845 205 75 65 60 
258 845 206 80 67 63 
258 845 207 73 62 56 
259 844 207 73 63 58 
259 845 206 77 67 61 
259 845 207 76 67 61 
258 846 205 82 66 65 
258 847 205 83 65 66 
259 846 205 82 67 66 
259 847 205 80 61 63 
258 846 206 78 61 59 
258 846 207 75 59 55 
259 846 206 84 71 68 
261 843 207 59 48 43 
262 843 207 62 53 48 
260 845 205 75 63 58 
261 845 205 76 62 58 
260 844 206 67 56 51 
260 844 207 64 54 48 
260 845 206 69 58 53 
261 844 206 67 56 51 
261 844 207 61 50 45 
261 845 206 72 60 54 
260 846 205 77 62 60 
260 847 205 71 51 51 
261 846 205 72 59 55 
261 847 205 70 54 52 
262 844 206 73 60 55 
262 844 207 71 61 56 
262 845 206 76 62 59 
263 844 207 77 67 62 
263 845 206 75 61 58 
263 845 207 79 65 62 
262 846 205 69 54 54 
262 847 205 70 56 55 
263 846 205 67 52 50 
263 847 205 74 60 57 
262 846 206 74 59 58 
263 846 206 68 53 52 
265 837 193 159 148 145 
265 837 194 156 145 142 
264 838 194 148 137 133 
264 839 194 122 111 108 
265 838 194 146 135 131 
265 839 194 119 107 104 
266 836 193 160 149 145 
266 837 193 158 147 144 
267 836 193 160 148 145 
267 837 193 159 148 144 
266 837 194 160 149 145 
267 837 194 160 149 145 
266 838 194 145 134 131 
266 839 194 116 104 100 
266 839 195 102 91 88 
267 838 194 147 136 133 
267 838 195 127 115 112 
267 839 195 97 86 83 
268 835 192 165 153 150 
269 834 192 169 157 154 
269 835 192 165 153 150 
269 835 193 162 150 147 
270 834 192 167 155 151 
270 835 192 163 151 147 
270 835 193 163 151 148 
271 834 192 165 153 149 
271 835 192 164 151 147 
271 835 193 166 154 151 
268 836 193 159 148 144 
269 836 193 161 150 147 
268 836 194 162 150 146 
268 837 194 160 148 144 
269 836 194 165 154 150 
269 837 194 162 150 146 
269 837 195 152 140 137 
268 838 195 126 113 110 
268 839 195 91 80 78 
269 838 195 114 99 97 
269 839 195 92 80 77 
270 836 193 165 154 150 
270 836 194 167 155 152 
270 837 195 153 141 137 
271 836 194 168 157 153 
271 836 195 166 154 150 
271 837 195 157 144 140 
270 838 195 119 104 101 
269 839 196 87 77 76 
271 837 196 133 119 116 
270 838 196 102 87 84 
270 839 196 83 73 73 
271 838 196 100 85 82 
271 839 196 80 70 70 
264 840 194 91 84 86 
264 840 195 89 85 86 
264 841 195 132 127 127 
265 840 194 100 92 92 
265 840 195 89 84 86 
265 841 195 137 132 133 
264 842 195 148 140 138 
264 843 195 135 126 125 
265 842 195 149 142 141 
265 843 195 140 132 132 
266 840 195 88 83 84 
266 841 195 141 135 136 
267 840 195 88 83 83 
267 841 195 141 135 135 
266 842 195 150 143 142 
266 843 195 143 135 135 
267 842 195 152 145 145 
265 843 196 140 132 131 
267 841 196 152 145 145 
266 842 196 148 140 140 
266 843 196 142 134 134 
267 842 196 149 141 142 
267 843 196 143 135 135 
264 844 196 129 122 121 
264 845 196 134 127 127 
265 844 196 134 127 127 
265 845 196 134 128 127 
265 845 197 134 128 127 
264 846 196 138 131 131 
264 846 197 137 130 130 
264 847 197 123 114 113 
265 846 197 135 129 128 
265 847 197 128 121 121 
266 844 196 136 129 128 
266 845 196 133 126 125 
266 845 197 133 126 125 
267 844 196 138 131 130 
267 844 197 134 127 126 
267 845 197 133 126 125 
266 846 197 132 125 125 
266 847 197 129 123 123 
267 846 197 129 122 122 
266 847 198 127 120 120 
267 846 198 124 117 116 
267 847 198 120 114 113 
268 840 195 87 82 83 
268 840 196 96 91 92 
268 841 196 146 140 140 
269 840 196 87 83 84 
269 841 196 147 140 140 
268 842 196 149 141 141 
268 843 196 143 135 135 
269 842 196 145 138 137 
269 843 196 142 135 134 
269 843 197 141 133 133 
270 840 196 92 87 88 
270 841 196 149 142 142 
270 841 197 153 145 145 
271 840 196 81 76 76 
271 840 197 106 101 101 
271 841 197 152 145 144 
270 842 196 146 138 138 
270 842 197 143 136 135 
270 843 197 140 133 133 
271 842 197 144 136 136 
271 843 197 139 132 132 
268 844 196 139 132 131 
268 844 197 136 129 128 
268 845 197 133 126 126 
269 844 197 137 130 130 
269 845 197 133 126 125 
269 845 198 132 125 124 
268 846 197 129 122 121 
268 846 198 122 116 115 
268 847 198 110 104 103 
269 846 198 121 115 114 
269 847 198 106 100 100 
269 847 199 104 97 97 
270 844 197 136 130 129 
270 845 197 134 127 126 
271 844 197 136 130 129 
270 845 198 133 126 126 
271 844 198 136 129 128 
271 845 198 134 128 127 
270 846 198 125 118 118 
270 846 199 118 111 110 
270 847 199 110 103 102 
271 846 198 132 125 125 
271 846 199 125 118 117 
271 847 199 120 113 112 
264 844 207 78 65 61 
264 845 206 69 54 51 
264 845 207 73 59 56 
265 844 207 75 60 59 
265 845 207 67 54 49 
264 847 205 79 65 62 
265 847 205 85 70 68 
264 846 206 67 52 48 
264 847 206 76 61 57 
265 846 206 70 54 50 
265 846 207 66 52 46 
265 847 206 81 66 63 
266 845 207 65 52 45 
266 846 206 75 59 56 
266 846 207 73 59 55 
266 847 206 88 72 70 
266 847 207 85 69 67 
267 846 207 81 66 63 
267 847 206 92 77 74 
267 847 207 88 72 70 
271 847 200 115 108 107 
268 846 207 87 72 69 
268 847 207 91 76 72 
269 847 207 96 81 77 
270 847 207 108 93 90 
271 847 207 126 113 112 
257 845 208 73 56 52 
257 845 209 84 63 59 
256 846 208 73 53 50 
256 846 209 86 61 57 
256 847 208 78 58 56 
256 847 209 82 59 56 
257 846 208 72 54 51 
257 846 209 86 63 59 
258 845 208 73 59 56 
258 845 209 80 61 60 
259 844 208 75 62 58 
259 844 209 75 57 57 
259 845 208 77 66 61 
260 843 208 66 50 45 
260 843 209 68 50 46 
261 843 208 61 46 41 
261 843 209 65 44 40 
262 843 208 58 47 44 
262 843 209 59 43 41 
263 843 208 69 60 57 
263 843 209 64 52 50 
260 844 208 68 55 50 
260 844 209 69 53 49 
264 843 208 78 69 64 
264 843 209 71 61 58 
265 843 209 77 67 63 
264 844 208 79 68 64 
265 844 208 77 65 61 
266 844 208 72 58 56 
266 844 209 74 62 59 
266 845 208 67 53 48 
267 844 209 67 54 51 
267 845 208 66 54 48 
267 845 209 64 51 48 
267 846 208 73 60 56 
268 844 209 64 50 48 
268 845 208 68 57 51 
268 845 209 66 53 50 
269 845 209 72 60 57 
268 846 208 77 63 60 
269 846 208 83 69 67 
269 846 209 76 63 60 
270 846 208 90 75 72 
270 846 209 84 70 68 
270 847 208 94 79 76 
271 846 208 96 80 79 
271 846 209 92 77 75 
271 847 208 107 92 90 
256 848 197 154 147 147 
256 849 197 157 148 147 
257 848 197 154 147 147 
257 849 197 159 151 151 
256 849 198 157 147 145 
257 849 198 163 154 153 
256 850 198 153 142 139 
256 850 199 156 144 140 
257 850 198 168 158 156 
257 850 199 172 162 159 
258 848 197 153 146 147 
258 849 197 160 152 152 
259 848 197 151 144 145 
259 849 197 158 150 150 
258 849 198 165 156 155 
259 849 198 158 150 148 
258 850 198 170 161 159 
258 850 199 175 165 163 
259 850 198 157 146 143 
259 850 199 166 155 152 
260 848 197 150 143 143 
261 848 197 148 141 140 
260 849 198 150 141 139 
261 849 198 146 137 135 
260 850 198 140 127 122 
260 850 199 142 129 123 
261 850 198 132 118 113 
261 850 199 135 122 116 
262 848 197 127 118 116 
263 848 197 104 93 91 
262 849 198 142 133 131 
263 848 198 111 101 99 
263 849 198 128 119 117 
263 849 199 159 150 148 
262 850 199 153 142 138 
263 850 199 170 159 156 
256 850 200 167 154 149 
256 850 201 167 151 145 
257 850 200 176 164 160 
257 850 201 170 156 151 
256 850 202 158 135 132 
256 850 203 146 117 118 
257 850 202 160 140 136 
257 850 203 147 119 119 
258 850 200 178 166 162 
258 850 201 171 156 152 
259 850 200 171 159 154 
259 850 201 168 153 149 
258 850 202 162 144 140 
258 850 203 150 127 126 
259 850 202 162 145 140 
259 850 203 149 129 126 
256 849 204 125 96 98 
256 849 205 111 82 85 
257 848 205 89 68 69 
257 849 204 123 96 97 
257 849 205 98 74 76 
256 848 206 81 59 59 
256 848 207 88 63 63 
257 848 206 70 52 52 
256 850 204 136 104 107 
257 850 204 136 109 110 
258 848 204 95 74 77 
258 848 205 82 62 65 
258 849 204 126 102 103 
259 848 204 90 66 72 
259 848 205 79 56 62 
259 849 204 121 98 100 
258 850 204 139 113 113 
260 849 203 141 123 120 
261 849 203 143 125 121 
260 850 200 159 145 139 
260 850 201 166 151 145 
261 850 200 156 142 135 
261 850 201 168 154 148 
260 850 202 161 145 139 
260 850 203 148 130 126 
261 850 202 163 148 142 
261 850 203 154 138 132 
262 849 203 143 126 123 
263 849 203 152 135 132 
262 850 200 163 150 144 
262 850 201 165 151 145 
263 850 200 172 159 155 
263 850 201 163 149 143 
262 850 202 162 146 140 
262 850 203 159 142 138 
263 850 202 160 143 139 
263 850 203 159 141 137 
260 848 204 76 54 58 
260 849 204 116 95 96 
261 848 204 82 62 64 
261 849 204 122 103 102 
262 848 204 91 74 74 
262 848 205 77 64 62 
262 849 204 126 109 107 
263 848 204 102 86 86 
263 848 205 87 72 71 
263 849 204 127 110 109 
264 848 197 112 103 101 
265 848 197 122 114 113 
264 848 198 118 109 107 
264 849 198 133 124 122 
264 849 199 160 151 149 
265 848 198 129 121 121 
265 849 198 140 133 132 
265 849 199 163 154 152 
264 850 199 168 158 156 
266 848 198 131 124 124 
266 849 198 144 137 136 
266 849 199 157 148 148 
267 848 198 121 115 114 
267 848 199 127 120 119 
267 849 199 142 135 135 
268 848 199 111 105 104 
269 848 199 105 99 98 
270 848 199 107 101 99 
264 849 203 158 144 140 
265 849 203 175 163 159 
264 850 200 174 163 160 
264 850 201 170 158 153 
265 850 200 176 165 163 
265 850 201 181 169 166 
264 850 202 168 154 149 
264 850 203 166 152 147 
265 850 202 181 169 165 
265 850 203 178 166 162 
266 849 200 168 159 157 
267 849 200 155 146 143 
267 849 201 159 148 144 
266 849 203 177 165 161 
267 849 202 165 153 149 
267 849 203 168 155 150 
266 850 200 176 165 162 
266 850 201 180 169 165 
267 850 200 168 158 155 
267 850 201 167 156 152 
266 850 202 182 170 166 
266 850 203 180 168 164 
267 850 202 171 159 155 
267 850 203 173 161 157 
264 848 205 96 80 80 
264 849 204 134 120 118 
265 848 205 96 79 80 
265 849 204 146 133 131 
266 848 205 110 94 93 
266 849 204 159 146 143 
266 849 205 136 122 120 
267 848 205 108 89 90 
267 849 204 159 146 142 
267 849 205 130 114 114 
266 848 206 94 78 76 
267 848 206 99 82 81 
268 848 200 116 109 108 
268 849 200 133 124 121 
268 849 201 141 131 127 
269 848 200 113 106 105 
269 849 200 124 116 113 
269 849 201 128 119 116 
268 849 202 148 137 132 
268 849 203 154 142 137 
269 849 202 135 125 122 
269 849 203 147 136 133 
270 848 200 113 106 104 
270 848 201 122 114 112 
270 849 201 125 116 114 
271 848 200 119 112 111 
271 848 201 125 118 116 
270 848 202 133 125 123 
270 848 203 157 147 145 
270 849 202 132 123 120 
270 849 203 149 139 137 
271 848 202 139 130 129 
271 848 203 159 150 148 
268 848 205 120 104 102 
268 849 204 146 132 128 
268 849 205 134 119 117 
269 848 205 136 121 119 
269 849 204 148 136 133 
268 848 206 105 89 86 
269 848 206 114 96 96 
270 848 204 163 152 150 
270 848 205 150 137 136 
270 849 204 158 147 145 
271 848 204 175 165 164 
271 848 205 171 159 158 
270 848 206 131 115 116 
270 848 207 122 108 107 
271 848 206 155 141 141 
271 848 207 134 119 120 
273 833 192 163 151 147 
272 834 192 166 153 150 
272 835 192 164 152 149 
272 835 193 171 160 157 
273 834 192 169 157 153 
273 834 193 178 166 163 
273 835 193 179 167 164 
272 835 194 173 162 158 
273 835 194 178 167 163 
273 835 195 176 163 159 
274 833 192 167 156 152 
275 833 192 176 164 161 
274 834 192 176 165 162 
274 834 193 184 172 169 
275 834 192 184 173 170 
275 834 193 188 176 173 
274 835 194 184 171 168 
274 835 195 178 165 160 
275 834 194 188 176 172 
275 835 194 186 173 170 
275 835 195 183 169 165 
275 835 196 174 161 156 
272 836 194 171 159 155 
272 836 195 167 154 149 
273 836 195 171 158 153 
274 836 195 171 157 152 
272 836 196 160 146 141 
272 837 196 134 119 117 
273 836 196 157 143 139 
273 837 196 132 116 115 
273 837 197 106 89 89 
272 838 196 96 82 79 
272 838 197 88 75 73 
272 839 197 76 67 67 
273 838 197 84 73 71 
273 839 197 72 64 64 
273 839 198 68 62 61 
274 836 196 164 150 145 
274 836 197 138 123 121 
274 837 197 103 86 85 
275 836 196 168 155 150 
275 836 197 141 127 123 
275 837 197 102 85 83 
275 837 198 92 78 74 
274 838 197 84 73 71 
274 838 198 76 68 67 
274 839 198 68 62 63 
275 838 198 78 69 68 
275 839 198 69 63 63 
275 839 199 83 78 78 
276 833 192 185 173 170 
276 833 193 193 181 177 
277 832 192 188 177 174 
277 833 192 189 177 174 
277 833 193 193 181 177 
277 833 194 193 180 177 
276 834 193 191 179 176 
276 834 194 190 178 174 
276 834 195 188 175 170 
276 835 195 186 173 169 
277 834 194 191 178 174 
277 834 195 187 174 170 
278 832 192 193 181 177 
278 833 193 194 181 176 
279 832 192 190 177 173 
279 832 193 189 175 171 
279 833 193 185 171 166 
278 833 194 191 178 174 
278 833 195 185 172 168 
279 833 194 177 163 158 
279 833 195 173 160 155 
278 834 195 183 170 166 
276 835 196 177 163 159 
276 835 197 163 150 145 
277 834 196 174 161 156 
277 835 196 171 157 152 
277 835 197 157 141 137 
277 835 198 147 130 127 
279 833 196 167 153 149 
279 833 197 164 152 148 
279 833 198 172 159 156 
278 834 196 171 158 153 
278 834 197 163 149 145 
278 835 197 158 144 139 
279 834 196 164 150 146 
279 834 197 164 151 147 
278 834 198 161 147 143 
278 835 198 152 138 134 
278 835 199 158 144 142 
279 834 198 170 157 154 
279 834 199 174 162 159 
279 835 199 164 152 149 
276 836 197 142 128 124 
276 836 198 113 96 95 
276 837 198 88 74 71 
276 837 199 82 72 70 
277 836 198 120 104 103 
277 836 199 93 79 77 
277 837 199 84 73 71 
276 838 198 74 66 66 
276 838 199 73 65 64 
276 839 199 81 76 77 
277 838 199 72 65 65 
277 839 199 96 90 91 
278 836 198 132 115 116 
278 836 199 116 102 102 
279 835 200 157 144 142 
279 835 201 132 119 116 
279 835 202 106 92 90 
277 838 200 74 69 70 
277 839 200 122 116 117 
278 836 200 106 94 93 
278 836 201 94 84 83 
278 837 200 82 73 72 
278 837 201 79 71 71 
279 836 200 122 110 107 
279 836 201 103 92 89 
279 837 201 77 70 71 
279 836 202 89 80 79 
279 837 202 76 70 73 
279 837 203 79 72 76 
278 838 200 79 74 74 
278 838 201 94 88 89 
278 839 200 118 113 113 
278 839 201 148 141 142 
278 839 202 160 153 153 
279 838 202 115 108 109 
279 838 203 143 135 136 
279 839 202 156 149 149 
279 839 203 165 157 157 
279 839 204 162 155 155 
272 840 197 108 102 102 
272 841 197 151 144 143 
273 840 197 83 78 77 
273 840 198 125 119 119 
273 841 198 147 140 140 
272 842 197 143 135 134 
272 843 197 139 132 132 
272 842 198 141 134 134 
272 843 198 139 132 132 
273 842 198 140 133 133 
273 843 198 140 133 132 
273 843 199 141 134 133 
274 840 198 129 123 122 
274 841 198 144 137 137 
274 841 199 142 135 135 
275 840 198 114 109 108 
275 840 199 143 137 137 
275 841 199 139 132 132 
274 842 198 139 132 132 
274 842 199 139 132 132 
274 843 199 142 135 135 
275 842 199 139 132 132 
275 843 199 144 137 137 
272 844 198 138 131 131 
272 845 198 136 129 129 
273 844 198 140 134 134 
273 844 199 144 137 137 
273 845 198 140 133 133 
273 845 199 142 136 136 
272 846 198 133 126 126 
272 846 199 133 126 126 
272 847 199 126 120 119 
273 846 199 136 129 129 
274 844 199 150 143 143 
276 840 199 143 137 138 
275 842 200 143 136 136 
275 843 200 149 142 142 
273 845 200 146 139 139 
272 847 200 129 122 121 
273 846 200 140 133 133 
273 847 200 140 133 132 
273 847 201 144 137 136 
273 847 202 152 144 144 
273 847 203 173 164 163 
274 844 200 157 149 150 
274 845 200 154 147 147 
275 844 200 155 148 148 
275 844 201 161 153 154 
275 845 200 158 150 151 
275 845 201 160 152 152 
275 845 202 162 154 154 
275 845 203 168 159 159 
274 846 200 148 141 140 
274 846 201 156 148 147 
274 847 201 153 145 144 
274 846 202 161 153 152 
274 846 203 171 162 161 
274 847 202 160 152 151 
274 847 203 174 165 164 
275 846 202 163 155 154 
275 846 203 169 160 160 
273 847 204 187 176 175 
273 847 205 191 180 179 
272 847 206 177 165 164 
272 847 207 148 137 135 
273 846 207 159 149 147 
273 847 206 191 179 178 
273 847 207 170 160 158 
274 846 204 181 171 170 
274 846 205 187 177 175 
274 847 204 185 174 173 
274 847 205 189 179 177 
275 846 204 176 167 166 
275 846 205 182 172 171 
274 846 206 189 178 176 
274 846 207 170 160 158 
274 847 206 192 182 180 
274 847 207 189 179 177 
275 846 206 180 170 169 
275 846 207 151 140 137 
276 840 200 152 145 145 
276 841 200 144 136 136 
277 840 200 155 148 149 
277 840 201 154 147 146 
277 841 200 149 141 141 
277 841 201 150 142 142 
277 841 202 150 143 142 
276 842 200 146 139 139 
276 842 201 153 145 145 
276 843 200 151 144 144 
276 843 201 154 147 147 
277 842 201 152 144 144 
276 843 202 156 148 148 
277 842 202 152 144 144 
277 842 203 153 146 146 
277 843 202 154 146 146 
277 843 203 155 147 147 
278 840 201 155 148 147 
278 840 202 148 140 140 
278 840 203 145 137 138 
278 841 202 149 141 141 
278 841 203 147 140 140 
279 840 202 153 145 145 
279 840 203 151 143 144 
279 841 203 151 144 145 
278 842 203 151 143 143 
278 843 203 152 145 145 
277 843 204 151 144 144 
279 840 204 156 149 150 
279 840 205 166 158 158 
279 841 204 154 147 147 
279 841 205 161 153 153 
279 840 206 175 167 167 
279 841 206 170 161 161 
279 841 207 177 168 167 
278 842 204 149 142 142 
278 842 205 152 145 145 
278 843 204 150 142 142 
278 843 205 148 140 140 
279 842 205 157 149 148 
278 842 206 155 147 146 
278 842 207 161 152 151 
278 843 206 150 141 140 
278 843 207 154 145 144 
279 842 206 161 153 152 
279 842 207 169 160 159 
276 844 201 157 150 150 
276 844 202 159 152 152 
276 844 203 161 152 152 
276 845 203 165 156 156 
277 844 203 157 150 149 
276 844 204 165 157 157 
276 844 205 169 160 160 
276 845 204 170 162 161 
276 845 205 174 165 164 
277 844 204 157 150 149 
277 844 205 158 150 149 
276 844 206 172 163 162 
276 844 207 163 154 153 
276 845 206 173 163 162 
276 845 207 149 139 137 
277 844 206 163 154 153 
277 844 207 156 146 145 
280 832 192 155 143 140 
280 832 193 157 144 140 
280 833 193 151 139 136 
281 832 192 128 116 117 
281 833 192 126 114 115 
281 833 193 126 113 114 
280 833 194 159 147 143 
280 833 195 161 149 145 
281 833 194 128 116 116 
281 833 195 131 120 119 
282 833 192 155 146 143 
282 833 193 154 144 142 
282 833 194 154 145 142 
282 833 195 155 145 143 
283 833 194 176 166 164 
283 833 195 177 166 164 
280 833 196 165 153 149 
280 833 197 163 152 147 
281 833 196 134 123 121 
281 833 197 133 122 119 
280 833 198 165 153 149 
280 833 199 171 159 155 
281 833 198 136 124 123 
281 833 199 135 123 122 
280 834 199 176 163 159 
282 833 196 151 141 139 
282 833 197 145 134 131 
282 833 198 138 127 124 
282 833 199 122 112 111 
283 834 196 182 171 168 
283 834 197 173 161 157 
282 834 198 146 135 131 
282 834 199 141 130 127 
283 834 198 163 151 145 
283 834 199 154 142 136 
280 833 200 163 151 147 
281 833 200 133 121 119 
280 834 200 172 160 157 
280 834 201 162 149 148 
280 835 201 153 139 138 
281 834 200 133 120 119 
281 834 201 128 114 114 
280 834 202 147 132 133 
280 835 202 114 98 99 
280 835 203 100 83 88 
281 834 202 122 106 110 
281 834 203 105 87 96 
281 835 203 94 75 85 
282 834 200 121 109 108 
282 834 201 112 98 98 
283 834 200 141 129 123 
283 834 201 129 115 108 
283 835 201 133 119 113 
282 834 202 105 88 90 
282 834 203 97 81 84 
282 835 203 86 72 75 
283 834 202 120 107 101 
283 834 203 115 104 98 
283 835 202 129 117 110 
283 835 203 124 113 107 
281 835 204 67 50 61 
282 835 204 68 53 59 
282 835 205 58 39 54 
283 835 204 117 107 104 
283 835 205 94 85 84 
280 836 203 77 66 70 
280 837 203 92 85 87 
280 838 203 161 153 153 
280 839 203 170 163 163 
280 836 204 69 59 63 
280 837 204 116 108 108 
280 837 205 168 159 158 
281 836 204 66 55 62 
281 836 205 84 75 76 
281 837 205 145 137 135 
281 837 206 175 166 163 
281 837 207 182 171 169 
280 838 204 174 166 166 
280 838 205 179 170 169 
280 839 204 169 161 161 
280 839 205 172 163 163 
281 838 205 184 174 173 
280 838 206 177 167 165 
280 839 206 174 165 164 
280 839 207 180 171 170 
281 838 206 181 171 169 
281 838 207 182 171 169 
281 839 207 183 173 171 
282 836 205 57 38 56 
283 836 205 108 99 98 
282 836 206 101 91 89 
282 836 207 134 125 122 
282 837 207 168 158 156 
283 836 206 88 78 78 
283 836 207 106 97 94 
283 837 207 144 135 133 
284 835 203 141 129 123 
284 835 204 146 135 131 
284 836 205 141 131 128 
284 836 206 135 126 123 
284 836 207 134 124 121 
280 840 205 169 161 161 
280 840 206 173 165 165 
280 840 207 180 171 171 
280 841 207 183 174 173 
272 846 208 103 90 90 
272 846 209 99 82 82 
272 847 208 122 111 108 
273 846 208 129 118 115 
273 846 209 108 93 92 
274 845 209 116 101 97 
275 845 208 124 111 106 
275 845 209 119 104 99 
274 846 208 131 120 116 
274 846 209 115 102 98 
275 846 208 125 113 108 
279 841 208 179 169 167 
279 841 209 178 168 166 
278 842 208 166 156 154 
278 843 208 147 135 133 
278 843 209 140 124 123 
279 842 208 169 159 157 
279 842 209 168 157 155 
276 845 208 125 113 108 
276 845 209 123 108 102 
277 844 208 130 117 114 
277 844 209 124 107 104 
281 838 208 182 171 169 
281 838 209 181 171 168 
281 839 208 186 176 174 
281 839 209 185 175 174 
281 838 210 175 165 163 
281 839 210 181 171 170 
282 837 208 165 156 153 
282 837 209 157 146 143 
283 836 208 116 107 103 
283 837 208 134 125 122 
283 837 209 129 120 117 
282 837 210 157 147 144 
283 837 210 135 125 123 
282 838 209 175 164 160 
282 838 210 171 161 158 
284 836 208 127 118 113 
284 836 209 123 113 108 
284 837 209 104 95 91 
285 836 209 151 139 134 
284 836 210 119 109 106 
284 837 210 113 103 102 
285 836 210 144 132 126 
280 840 208 187 177 176 
280 840 209 187 177 176 
280 841 208 183 173 171 
280 841 209 182 171 169 
272 848 201 134 127 125 
272 848 202 144 136 136 
272 848 203 164 156 154 
273 848 202 153 145 144 
273 848 203 169 161 160 
272 848 204 183 173 171 
272 848 205 185 173 172 
273 848 204 186 176 175 
273 848 205 190 180 178 
272 848 206 178 166 165 
254 847 210 102 73 73 
254 847 211 125 89 88 
255 846 210 102 73 69 
255 846 211 124 91 87 
255 847 210 96 69 66 
255 847 211 123 89 87 
254 847 212 137 101 98 
254 847 213 140 104 99 
255 846 212 134 98 95 
255 846 213 139 103 99 
255 847 212 138 102 98 
255 847 213 141 105 100 
255 847 214 141 105 102 
255 847 215 139 106 102 
251 849 209 116 79 79 
252 849 209 115 81 81 
253 848 209 108 78 77 
253 849 209 111 80 79 
252 848 211 125 86 87 
252 849 210 115 74 77 
253 848 210 116 79 81 
253 848 211 123 84 85 
254 848 209 91 69 67 
254 848 210 102 73 72 
254 848 211 115 78 79 
253 848 212 133 96 93 
254 848 212 138 102 98 
254 848 213 140 104 99 
277 831 231 129 108 102 
278 831 231 125 109 103 
279 831 231 124 111 105 
274 831 233 125 92 85 
275 831 233 126 97 90 
274 831 234 122 87 81 
274 831 235 122 85 79 
275 830 235 122 84 82 
275 831 234 122 88 83 
275 831 235 122 84 81 
273 831 236 122 86 77 
273 831 237 125 88 80 
273 830 239 125 88 79 
273 831 238 126 90 82 
273 831 239 124 87 78 
275 829 237 125 86 82 
274 829 239 127 91 84 
275 829 238 125 87 81 
275 829 239 126 90 84 
274 830 236 123 86 80 
274 830 237 125 86 80 
274 831 236 122 85 79 
274 831 237 125 87 79 
275 830 236 123 85 82 
275 830 237 125 86 82 
274 830 238 126 88 81 
274 830 239 126 90 81 
277 829 235 127 99 95 
276 830 233 125 97 91 
276 831 232 133 108 102 
276 831 233 128 101 94 
277 830 233 126 104 97 
277 831 232 129 108 101 
277 831 233 130 106 99 
276 830 234 124 92 89 
276 830 235 122 86 84 
277 830 234 128 102 98 
277 830 235 125 94 91 
279 829 233 129 114 108 
278 829 234 133 113 108 
278 829 235 133 112 107 
279 829 234 136 120 115 
279 829 235 139 123 117 
278 830 232 125 109 102 
278 830 233 126 108 101 
278 831 232 124 108 101 
279 830 232 124 111 104 
279 830 233 126 111 104 
279 831 232 123 110 104 
278 830 234 131 110 105 
276 829 236 124 87 84 
276 829 237 125 86 83 
277 829 236 125 92 88 
277 829 237 125 90 87 
276 829 238 125 86 82 
276 829 239 125 87 82 
276 830 236 123 86 83 
278 829 236 131 106 102 
280 831 231 123 111 105 
281 831 231 124 113 107 
282 831 230 127 116 111 
282 831 231 127 116 110 
283 830 231 130 119 114 
283 831 230 130 119 114 
283 831 231 130 119 114 
284 830 231 132 121 116 
284 831 230 133 123 118 
284 831 231 132 121 116 
285 830 231 134 124 119 
285 831 230 139 128 124 
286 831 229 148 137 133 
287 831 229 153 142 138 
286 830 231 136 126 121 
286 831 230 141 130 126 
287 830 230 139 128 123 
287 830 231 137 126 121 
287 831 230 142 132 127 
280 829 233 134 121 115 
281 829 233 134 122 116 
280 829 234 141 129 123 
280 829 235 144 131 125 
281 829 234 143 131 126 
280 830 232 125 113 106 
280 830 233 128 115 109 
280 831 232 124 112 106 
281 830 232 127 114 108 
281 830 233 129 116 111 
282 829 233 136 124 118 
283 829 233 138 126 120 
282 829 234 146 134 129 
282 830 232 129 117 111 
283 830 232 132 120 115 
284 829 232 133 122 117 
284 829 233 136 125 120 
285 829 232 132 122 117 
285 829 233 132 121 117 
284 830 232 132 122 117 
285 830 232 134 123 118 
286 829 232 133 122 118 
286 829 233 132 121 117 
287 829 232 133 122 117 
287 829 233 131 121 116 
286 830 232 134 123 119 
287 830 232 135 124 118 
273 829 241 126 90 83 
273 830 240 125 89 80 
273 830 241 125 90 82 
273 831 240 124 88 79 
273 831 241 124 89 80 
274 829 240 127 90 81 
274 829 241 127 90 82 
275 829 240 128 92 85 
290 831 227 141 128 122 
291 831 227 149 137 131 
288 831 228 149 137 131 
288 831 229 146 134 129 
289 831 228 141 129 122 
289 831 229 138 125 118 
288 830 230 138 126 120 
288 830 231 136 124 118 
288 831 230 140 128 122 
289 830 230 133 120 113 
289 830 231 131 118 111 
289 831 230 134 121 114 
291 829 231 124 111 102 
290 831 228 138 125 118 
290 831 229 134 120 113 
291 830 229 132 118 110 
291 831 228 139 126 118 
291 831 229 134 120 113 
290 830 230 128 114 106 
290 830 231 126 113 105 
290 831 230 130 117 109 
291 830 230 129 116 108 
291 830 231 126 113 104 
292 831 227 147 134 128 
292 829 231 125 112 103 
293 829 231 127 113 104 
292 830 229 132 118 109 
292 831 228 138 124 116 
292 831 229 134 120 111 
293 830 229 134 120 110 
292 830 230 128 114 105 
292 830 231 127 113 105 
293 830 230 129 115 106 
293 830 231 128 113 104 
294 829 231 137 123 114 
288 829 232 131 120 113 
288 829 233 130 119 113 
289 829 232 127 114 107 
289 829 233 125 113 106 
288 830 232 134 122 116 
289 830 232 129 116 109 
290 829 232 124 111 103 
290 829 233 122 109 101 
291 829 232 122 109 101 
291 829 233 123 110 102 
290 830 232 126 113 106 
292 829 232 122 108 100 
293 829 232 125 111 102 
294 829 232 133 119 110 
257 845 210 95 70 67 
257 845 211 119 87 85 
256 846 210 98 73 69 
256 846 211 119 87 83 
257 846 210 100 75 71 
257 846 211 118 86 83 
258 845 210 95 70 67 
258 845 211 107 75 73 
