ply
format ascii 1.0
comment Created by CloudCompare v2.10.1 (Zephyrus)
comment Created 1/31/20 9:42 AM
obj_info Generated by CloudCompare!
element vertex 2146
property float x
property float y
property float z
property uchar red
property uchar green
property uchar blue
end_header
319 633 235 103 96 93 
319 634 235 97 91 88 
318 632 236 97 90 86 
318 632 237 95 88 84 
318 633 237 89 82 78 
319 632 236 100 93 90 
319 633 236 96 89 86 
319 633 237 90 83 79 
318 632 238 96 90 86 
318 632 239 93 86 82 
318 633 238 94 87 83 
318 633 239 97 91 87 
319 634 236 95 89 86 
319 634 237 94 88 85 
319 635 236 96 90 88 
319 635 237 100 94 92 
318 634 238 100 94 91 
318 634 239 102 95 92 
318 635 239 105 98 96 
319 634 238 96 90 86 
319 635 238 104 98 96 
319 635 239 105 98 95 
319 636 236 95 90 89 
319 636 237 98 93 91 
319 637 237 91 87 86 
318 636 239 102 95 93 
319 636 238 99 93 91 
319 636 239 100 94 92 
319 637 238 93 88 85 
319 637 239 93 87 85 
319 638 237 87 83 82 
319 638 238 87 83 81 
319 638 239 85 81 79 
319 639 238 86 83 82 
319 639 239 85 81 80 
311 629 255 78 72 70 
315 627 241 112 104 101 
315 627 242 111 104 101 
315 628 243 109 102 99 
315 628 244 109 102 99 
315 628 245 106 100 98 
315 629 244 110 103 100 
315 629 245 107 101 99 
314 628 247 103 98 97 
315 628 246 104 98 97 
315 628 247 102 97 95 
315 629 246 105 100 98 
315 629 247 103 98 97 
315 630 246 104 98 97 
315 630 247 102 97 96 
316 627 240 117 109 105 
316 627 241 113 106 102 
316 627 242 111 103 100 
316 628 240 115 107 104 
316 628 241 114 107 103 
316 629 240 113 105 101 
316 629 241 115 107 104 
317 629 240 106 98 94 
316 628 242 110 103 101 
316 629 242 110 103 100 
316 629 243 110 103 101 
316 630 241 113 106 103 
317 630 240 108 101 97 
317 630 241 111 104 101 
317 631 240 104 97 94 
317 631 241 112 105 102 
316 630 242 110 104 101 
316 630 243 109 103 100 
316 631 242 110 103 101 
316 631 243 108 101 99 
317 631 242 111 105 102 
316 629 244 109 102 100 
316 629 245 109 102 99 
316 630 244 109 103 100 
316 630 245 108 102 100 
316 631 244 107 100 97 
316 631 245 105 99 96 
316 630 246 104 98 96 
316 630 247 102 96 95 
316 631 246 101 95 93 
316 631 247 102 96 95 
314 628 248 100 94 93 
314 628 249 97 92 90 
314 629 249 96 90 89 
315 628 248 100 95 93 
315 629 248 100 95 93 
315 629 249 97 92 90 
314 628 250 92 87 86 
314 628 251 91 86 84 
314 629 250 92 87 85 
314 629 251 92 86 85 
315 630 248 100 95 94 
315 630 249 96 92 91 
315 631 248 100 95 94 
315 631 249 98 93 92 
314 630 250 93 88 86 
314 630 251 92 87 86 
314 631 251 93 88 87 
315 630 250 94 89 88 
315 631 250 96 92 91 
315 631 251 93 89 88 
313 628 252 96 90 88 
313 628 253 89 83 80 
313 629 253 94 88 86 
312 628 254 83 77 75 
312 629 254 86 81 78 
312 629 255 81 75 73 
313 629 254 90 85 83 
313 630 253 98 92 90 
313 631 253 99 94 92 
312 630 254 87 82 80 
312 630 255 89 84 82 
312 631 255 101 96 95 
313 630 254 94 88 86 
313 631 254 97 92 90 
313 631 255 97 92 92 
314 628 252 94 88 87 
314 629 252 96 90 89 
314 630 252 96 91 89 
314 630 253 100 94 92 
314 631 252 96 91 89 
314 631 253 99 93 92 
316 631 248 101 96 95 
317 632 240 104 97 94 
317 632 241 111 105 102 
317 633 241 113 106 104 
317 632 242 113 106 104 
317 632 243 109 103 100 
317 633 242 111 104 102 
317 633 243 110 103 100 
317 634 243 110 104 101 
318 632 240 100 93 89 
318 633 240 103 97 93 
318 633 241 111 105 102 
318 633 242 113 106 103 
318 634 240 105 98 95 
318 634 241 112 105 103 
318 635 240 105 99 96 
318 635 241 112 105 103 
318 634 242 112 105 102 
318 634 243 111 104 101 
318 635 242 113 106 103 
318 635 243 111 104 102 
316 632 245 103 97 94 
317 632 244 107 100 97 
317 632 245 102 96 94 
317 633 244 108 102 99 
317 633 245 104 98 95 
316 632 246 100 95 93 
316 632 247 101 96 94 
316 633 247 100 95 94 
317 633 246 101 96 94 
317 633 247 100 95 94 
317 634 244 109 102 100 
317 634 245 104 98 96 
317 635 244 108 103 101 
317 635 245 105 99 98 
317 634 246 101 96 94 
317 634 247 99 94 93 
317 635 246 101 95 94 
317 635 247 97 92 91 
318 635 244 110 104 102 
318 636 240 102 95 93 
318 636 241 108 102 99 
318 637 240 97 91 89 
318 637 241 99 93 91 
319 637 240 93 88 85 
318 636 242 111 104 102 
318 636 243 110 104 102 
318 637 242 104 98 96 
318 637 243 106 101 100 
318 638 241 94 90 89 
319 638 240 89 85 84 
319 638 241 92 88 88 
319 639 240 87 83 82 
319 639 241 91 87 87 
318 638 242 97 93 91 
318 638 243 102 98 97 
318 639 242 95 91 90 
318 639 243 100 96 95 
319 639 242 94 90 90 
319 639 243 99 95 94 
317 636 244 107 102 100 
317 636 245 103 98 96 
317 637 245 97 92 92 
317 636 246 98 93 92 
317 636 247 94 89 89 
317 637 246 93 88 88 
317 637 247 92 87 86 
317 638 246 91 86 85 
317 638 247 91 86 85 
318 636 244 108 102 100 
318 636 245 104 99 97 
318 637 244 105 100 99 
318 637 245 100 95 94 
318 638 244 103 98 97 
318 638 245 96 92 91 
318 639 244 102 98 97 
318 639 245 96 92 91 
318 638 246 92 87 86 
318 639 246 92 88 87 
318 639 247 91 87 86 
315 632 249 99 94 93 
315 632 250 97 93 92 
315 632 251 94 89 87 
315 633 250 97 92 91 
315 633 251 95 90 89 
312 632 255 97 92 91 
313 632 254 96 91 89 
313 632 255 94 89 88 
313 633 255 92 87 86 
313 634 255 89 84 82 
313 635 255 83 78 76 
314 632 252 94 89 87 
314 632 253 98 92 91 
314 633 253 98 93 91 
315 632 252 93 88 86 
315 633 252 95 90 88 
315 633 253 96 91 89 
314 632 254 97 91 90 
314 633 254 97 92 90 
315 634 252 96 91 90 
315 634 253 97 92 90 
315 635 253 94 89 88 
314 634 254 95 90 88 
314 634 255 89 84 82 
314 635 254 91 85 84 
314 635 255 81 76 74 
315 634 254 98 93 91 
315 635 254 91 86 84 
315 636 253 90 85 84 
314 636 255 77 72 71 
314 637 255 77 72 70 
315 636 254 88 83 82 
315 636 255 84 79 77 
315 637 254 89 84 82 
315 637 255 82 77 76 
315 638 254 88 83 81 
315 638 255 83 78 77 
315 639 255 82 77 75 
316 632 248 102 97 96 
316 632 249 99 94 93 
316 633 248 100 95 94 
316 633 249 99 94 93 
316 633 250 98 94 93 
316 634 248 99 94 93 
316 634 249 99 94 93 
316 635 249 98 93 93 
317 634 248 99 94 93 
317 635 248 96 91 90 
317 635 249 96 92 91 
316 634 250 99 94 93 
316 634 251 97 92 91 
316 635 250 97 93 92 
316 635 251 98 93 92 
316 634 252 99 94 93 
316 635 252 96 92 91 
316 635 253 93 89 87 
317 636 248 93 89 88 
317 636 249 94 89 89 
317 637 248 92 87 87 
317 637 249 92 88 87 
316 636 250 96 92 91 
316 636 251 94 90 89 
316 637 251 92 88 87 
317 636 250 94 90 89 
317 637 250 92 88 87 
317 637 251 91 87 86 
317 638 248 91 86 86 
317 638 249 91 86 86 
317 639 248 91 87 86 
317 639 249 92 87 86 
317 638 250 92 88 87 
317 638 251 91 87 86 
317 639 250 92 88 87 
317 639 251 93 89 88 
318 639 248 92 88 87 
316 636 252 93 89 88 
316 636 253 91 86 85 
316 637 252 92 87 87 
316 637 253 89 85 83 
316 637 254 89 84 82 
316 638 252 90 86 85 
316 638 253 88 83 81 
316 639 253 87 82 81 
317 638 252 90 86 85 
317 639 252 91 86 85 
317 639 253 88 83 82 
316 638 254 88 83 81 
316 639 254 86 81 80 
316 639 255 87 82 80 
320 627 231 84 76 70 
320 628 231 81 74 69 
320 629 231 88 81 78 
320 630 231 94 88 85 
320 631 231 97 91 88 
321 630 231 93 87 85 
321 631 231 96 91 88 
320 628 232 80 72 67 
320 629 232 94 88 84 
320 630 232 104 98 95 
320 630 233 109 102 99 
320 631 232 104 97 95 
320 631 233 107 101 98 
321 631 232 100 94 92 
321 632 231 94 89 87 
321 633 231 88 83 80 
321 634 231 86 81 78 
322 634 231 86 81 78 
322 635 231 83 78 75 
322 636 231 82 76 74 
322 637 231 76 72 70 
320 632 232 98 91 89 
320 632 233 101 94 92 
320 633 232 88 82 78 
320 633 233 89 83 79 
321 632 232 96 90 87 
321 633 232 86 80 76 
320 632 234 106 100 97 
320 633 234 98 92 89 
320 633 235 103 96 93 
320 634 233 85 78 75 
321 634 232 82 76 72 
321 634 233 82 75 71 
321 635 232 80 73 69 
321 635 233 79 73 69 
320 634 234 89 83 80 
320 634 235 95 89 86 
320 635 234 85 79 76 
320 635 235 91 86 83 
321 635 234 82 76 73 
321 636 232 77 71 68 
321 636 233 77 72 68 
321 637 233 76 71 69 
320 636 234 83 78 75 
320 636 235 88 84 82 
320 637 235 85 81 80 
321 636 234 81 76 74 
321 637 234 78 74 73 
321 637 235 83 79 78 
320 638 235 84 81 80 
321 638 234 78 74 73 
321 638 235 82 78 78 
321 639 234 91 88 87 
321 639 235 93 89 89 
322 636 232 79 73 71 
322 637 232 74 69 67 
322 637 233 75 70 68 
322 638 232 68 63 61 
322 638 233 73 69 67 
322 639 232 74 70 68 
322 639 233 82 78 78 
323 638 232 66 61 59 
323 639 232 70 66 64 
323 639 233 78 74 73 
322 639 234 88 85 84 
320 636 236 92 87 86 
320 637 236 88 84 83 
320 638 236 84 81 81 
320 638 237 85 81 81 
320 639 236 91 87 87 
320 639 237 89 86 85 
321 639 236 93 90 90 
320 639 238 88 84 84 
319 640 239 86 83 83 
319 641 239 87 84 84 
319 640 240 87 84 84 
319 640 241 91 87 87 
319 641 240 87 84 84 
319 641 241 89 86 86 
319 640 242 94 90 90 
319 640 243 99 95 94 
319 641 242 93 90 89 
319 641 243 99 95 95 
319 642 241 88 85 85 
319 642 242 91 87 88 
319 642 243 97 93 93 
319 643 243 96 92 91 
318 640 244 103 99 98 
318 640 245 98 94 93 
318 641 245 101 97 96 
319 640 244 103 98 98 
319 641 244 104 100 99 
319 641 245 103 99 98 
318 640 246 93 89 87 
318 640 247 93 89 88 
318 641 246 96 91 90 
318 641 247 96 92 91 
319 642 244 105 100 99 
319 642 245 104 99 98 
319 643 244 102 97 96 
319 643 245 104 99 98 
318 642 246 97 93 92 
318 642 247 97 93 92 
319 642 246 100 95 94 
319 642 247 97 93 92 
319 643 246 100 95 94 
319 643 247 96 91 90 
319 644 244 101 97 96 
319 644 245 103 98 97 
319 644 246 99 94 93 
319 644 247 95 90 88 
319 645 246 99 93 92 
319 645 247 93 88 87 
319 646 247 90 85 84 
317 640 249 94 89 88 
317 640 250 95 90 90 
317 640 251 94 89 88 
317 641 250 98 93 92 
317 641 251 97 93 91 
317 642 251 97 93 92 
317 643 251 95 90 89 
318 640 248 94 90 89 
318 640 249 94 90 89 
318 641 248 96 92 91 
318 641 249 97 93 92 
318 641 250 99 94 93 
318 642 248 98 93 93 
318 642 249 97 93 92 
318 643 248 97 92 91 
318 643 249 98 93 92 
319 643 248 95 91 90 
319 643 249 95 90 88 
318 642 250 98 93 92 
318 642 251 97 92 91 
318 643 250 98 93 92 
318 643 251 98 93 92 
316 640 253 86 82 80 
317 640 252 92 88 87 
317 640 253 88 84 83 
317 641 252 93 88 87 
317 641 253 88 84 83 
316 640 254 86 81 80 
316 640 255 86 81 80 
316 641 254 86 81 80 
316 641 255 86 82 81 
317 642 252 94 90 89 
317 642 253 88 84 83 
317 643 252 93 89 87 
317 643 253 89 85 83 
316 642 254 85 81 80 
316 642 255 87 83 82 
316 643 254 85 80 78 
316 643 255 87 82 81 
317 642 254 85 81 79 
317 643 254 86 81 78 
318 643 252 96 91 90 
318 644 249 96 91 90 
319 644 248 93 88 87 
319 644 249 95 90 88 
319 645 248 91 86 85 
319 645 249 92 87 86 
318 644 250 96 91 90 
318 644 251 96 91 90 
318 645 250 92 87 86 
318 645 251 92 87 86 
319 645 250 91 86 85 
319 646 248 88 83 82 
319 646 249 86 82 81 
319 647 248 87 82 81 
319 647 249 85 81 80 
318 646 251 89 85 84 
319 646 250 87 83 82 
319 646 251 88 84 83 
319 647 250 86 82 81 
319 647 251 88 84 83 
317 644 252 92 87 85 
317 644 253 89 84 82 
317 645 253 86 81 80 
316 644 255 85 80 78 
317 644 254 87 81 79 
317 644 255 85 80 78 
317 645 254 85 80 78 
317 645 255 85 79 77 
317 646 255 83 78 76 
318 644 252 93 88 87 
318 645 252 91 86 85 
318 645 253 90 85 84 
318 646 252 89 84 83 
318 646 253 88 83 82 
318 647 253 87 83 82 
319 646 252 88 84 83 
319 647 252 89 85 84 
319 647 253 88 84 83 
318 646 254 84 80 79 
318 646 255 83 79 77 
318 647 254 84 80 79 
318 647 255 81 77 76 
319 648 248 87 83 82 
319 648 249 87 83 82 
319 649 249 90 85 84 
319 648 250 87 83 82 
319 648 251 89 85 84 
319 649 250 90 85 84 
319 649 251 90 86 85 
319 650 250 92 88 87 
319 650 251 93 88 87 
318 648 253 86 82 82 
319 648 252 89 85 85 
319 648 253 88 84 83 
319 649 252 90 86 86 
319 649 253 89 85 84 
318 648 254 85 81 80 
318 648 255 82 78 77 
318 649 254 85 81 81 
318 649 255 84 80 79 
319 649 254 87 83 83 
319 650 252 93 89 88 
319 650 253 92 88 87 
319 651 252 96 91 90 
319 651 253 95 91 90 
318 650 255 85 81 80 
319 650 254 91 87 87 
319 650 255 88 84 84 
319 651 254 94 90 90 
319 651 255 92 88 87 
319 652 253 96 92 91 
319 652 254 96 92 92 
319 652 255 96 92 92 
319 653 254 98 94 94 
319 653 255 101 98 99 
319 664 255 87 82 80 
319 665 255 84 79 77 
319 666 255 79 75 73 
319 667 255 79 74 72 
319 668 255 76 71 69 
319 669 255 77 72 69 
319 670 255 74 69 66 
319 673 255 66 61 59 
319 674 255 64 60 59 
319 675 255 66 62 61 
319 676 254 70 66 64 
319 676 255 67 63 61 
319 677 254 70 66 64 
319 677 255 71 67 65 
319 678 255 75 71 71 
319 679 255 64 60 58 
319 680 255 55 52 51 
319 681 255 49 46 44 
319 682 255 51 48 47 
319 683 255 48 46 45 
319 684 254 47 46 46 
319 684 255 49 47 46 
319 685 254 49 48 48 
319 685 255 54 51 51 
319 686 254 54 52 53 
319 686 255 56 54 54 
319 687 255 61 58 59 
321 640 235 97 93 93 
321 641 235 92 89 88 
321 642 235 86 82 81 
321 643 235 79 76 75 
322 640 233 87 83 82 
322 641 233 88 84 84 
323 640 232 79 75 74 
323 640 233 82 78 77 
323 641 232 81 77 76 
323 641 233 84 80 79 
322 640 234 94 90 90 
322 641 234 91 88 87 
322 642 233 85 81 81 
323 642 232 80 77 76 
323 642 233 81 77 77 
323 643 233 77 74 74 
322 642 234 85 81 81 
322 643 234 79 75 75 
322 643 235 78 74 73 
323 643 234 75 72 71 
320 640 236 91 87 87 
320 640 237 89 85 85 
320 641 236 88 84 83 
320 641 237 86 83 83 
321 640 236 93 89 89 
321 641 236 89 85 84 
320 640 238 87 83 83 
320 640 239 86 83 83 
320 641 238 86 83 83 
320 641 239 87 84 84 
320 642 237 85 82 82 
321 642 236 85 82 81 
321 642 237 84 81 81 
321 643 236 80 77 77 
321 643 237 82 79 79 
320 642 238 85 82 82 
320 642 239 85 82 82 
320 643 238 83 81 81 
320 643 239 82 79 79 
321 643 238 82 79 80 
323 644 233 74 71 71 
323 645 233 74 71 72 
322 644 234 73 71 70 
322 644 235 75 72 72 
322 645 235 72 70 70 
323 644 234 73 70 70 
323 645 234 71 69 69 
322 646 235 70 68 68 
322 647 235 69 67 68 
323 646 234 71 69 70 
323 646 235 69 67 68 
323 647 234 67 65 66 
323 647 235 67 65 65 
321 644 236 75 72 72 
321 644 237 77 74 75 
321 645 236 74 71 71 
321 645 237 74 71 71 
320 644 239 78 75 76 
320 645 239 74 72 72 
321 644 238 78 76 76 
321 644 239 76 74 74 
321 645 238 74 71 71 
321 645 239 74 71 72 
321 646 236 72 69 69 
321 646 237 72 69 69 
321 647 236 72 69 69 
321 647 237 72 69 70 
321 646 238 72 70 70 
321 646 239 72 70 71 
321 647 238 73 71 71 
321 647 239 74 71 72 
322 645 236 74 71 71 
322 646 236 71 69 68 
322 647 236 71 69 69 
324 641 232 81 77 76 
324 642 232 80 77 77 
324 643 232 82 80 80 
324 643 233 79 77 77 
324 644 232 82 80 80 
324 644 233 78 75 75 
324 645 232 82 79 79 
324 645 233 77 75 75 
325 645 232 84 81 81 
325 645 233 80 78 78 
324 646 233 77 75 75 
324 647 233 74 72 72 
325 646 232 85 82 82 
325 647 232 86 84 84 
325 647 233 80 77 77 
324 646 234 72 70 71 
324 647 234 71 69 69 
322 648 235 70 68 69 
323 648 234 64 62 62 
323 648 235 67 65 66 
323 649 235 65 63 63 
323 650 235 68 66 65 
323 651 235 72 69 68 
321 648 237 73 71 71 
321 649 237 75 73 73 
321 648 238 73 71 72 
321 648 239 75 72 73 
321 649 238 75 73 74 
321 649 239 76 73 74 
321 650 238 79 77 77 
321 650 239 80 77 78 
321 651 239 83 81 81 
322 648 236 72 70 71 
322 649 236 73 71 71 
322 649 237 75 72 73 
322 650 236 74 72 72 
322 650 237 77 74 74 
322 651 236 76 73 73 
322 651 237 79 76 75 
323 650 236 72 69 69 
323 651 236 73 70 69 
322 650 238 79 76 77 
322 651 238 81 79 79 
322 651 239 84 81 82 
322 652 237 80 77 76 
323 652 236 75 71 71 
323 652 237 78 75 75 
323 653 236 78 75 74 
323 653 237 79 77 77 
322 652 238 83 81 80 
322 652 239 85 83 83 
322 653 238 84 81 81 
322 653 239 86 83 84 
323 653 238 83 80 80 
323 654 237 79 76 76 
322 654 239 85 82 82 
323 654 238 82 79 79 
323 654 239 82 79 79 
323 655 239 80 77 77 
325 648 232 87 84 84 
325 648 233 81 78 78 
325 649 233 83 80 80 
324 648 234 69 66 66 
324 649 234 66 63 63 
325 649 234 78 75 75 
324 650 234 68 66 65 
324 650 235 68 65 64 
324 651 235 72 69 68 
325 650 234 76 73 72 
325 651 235 75 72 71 
326 649 233 87 84 84 
326 650 233 88 85 84 
326 651 233 85 82 81 
327 651 233 85 81 80 
326 650 234 83 79 79 
326 651 234 81 78 77 
324 652 235 73 71 70 
325 652 235 75 72 71 
325 653 235 75 72 71 
327 652 233 80 76 76 
327 653 233 75 72 72 
326 652 234 80 77 76 
326 652 235 77 74 73 
326 653 235 74 71 70 
327 652 234 78 75 74 
327 653 234 75 72 72 
327 653 235 72 69 68 
326 654 235 72 70 70 
327 654 234 71 68 68 
327 654 235 71 68 68 
327 655 235 70 68 68 
324 652 236 74 71 71 
324 653 236 77 74 73 
325 653 236 76 73 72 
324 654 236 76 73 73 
324 654 237 78 75 75 
324 655 237 76 73 74 
325 654 236 74 71 71 
325 655 237 74 72 72 
324 654 238 80 77 77 
324 655 238 78 75 75 
324 655 239 78 75 75 
325 655 238 75 72 73 
326 654 236 73 70 70 
326 655 236 71 69 69 
326 655 237 71 69 69 
328 654 234 71 68 68 
328 655 234 71 69 69 
320 641 240 86 83 83 
320 642 240 85 82 83 
320 642 241 86 83 84 
320 643 240 81 78 79 
320 643 241 83 80 80 
320 642 242 88 85 85 
320 643 242 86 83 83 
320 643 243 92 88 88 
320 644 240 77 75 75 
320 644 241 79 76 76 
320 645 240 74 72 73 
320 645 241 76 74 74 
320 644 242 82 79 80 
320 644 243 89 85 85 
320 645 242 79 76 77 
320 645 243 85 81 81 
320 646 240 74 71 72 
320 646 241 75 73 74 
321 646 240 73 71 72 
321 646 241 74 72 73 
321 647 240 74 72 73 
321 647 241 75 73 74 
320 646 242 77 74 75 
320 646 243 82 79 79 
320 647 242 77 74 75 
320 647 243 82 79 79 
321 647 242 77 75 75 
320 644 244 97 93 92 
320 644 245 102 97 96 
320 645 244 93 89 88 
320 645 245 100 95 94 
320 645 246 99 94 92 
320 646 244 90 87 86 
320 646 245 96 92 91 
320 647 244 89 85 84 
320 647 245 95 90 89 
320 646 246 96 91 89 
320 646 247 90 85 84 
320 647 246 96 91 90 
320 647 247 91 86 85 
320 647 248 87 83 82 
321 648 240 76 74 74 
321 648 241 78 75 76 
321 649 240 77 75 75 
321 649 241 78 76 76 
320 648 242 80 77 77 
320 648 243 83 80 80 
320 649 243 87 84 84 
321 648 242 79 76 77 
321 649 242 81 78 78 
321 649 243 85 82 82 
321 650 240 81 78 79 
321 650 241 81 79 79 
321 651 240 84 81 82 
321 651 241 85 82 83 
321 650 242 83 81 81 
321 650 243 88 85 85 
321 651 242 86 83 83 
321 651 243 88 85 85 
320 648 244 89 85 85 
320 648 245 94 91 90 
320 649 244 92 88 88 
320 649 245 96 92 92 
320 648 246 96 92 91 
320 648 247 92 87 86 
320 649 246 100 96 95 
320 649 247 96 91 90 
320 650 244 93 89 89 
320 650 245 97 93 93 
320 651 245 96 92 91 
321 650 244 92 88 88 
321 651 244 91 88 87 
321 651 245 93 89 89 
320 650 246 102 98 97 
320 650 247 99 94 93 
320 651 246 101 96 96 
320 651 247 98 94 93 
321 652 240 86 84 84 
321 652 241 87 84 84 
321 652 242 88 85 85 
321 652 243 89 86 86 
321 653 242 89 85 85 
321 653 243 89 86 86 
322 652 240 87 85 85 
322 652 241 88 85 86 
322 653 240 87 84 84 
322 653 241 86 83 83 
322 653 242 86 83 83 
322 653 243 86 83 83 
322 654 240 83 80 80 
322 654 241 82 79 79 
323 654 240 81 78 78 
323 654 241 80 78 78 
323 655 240 77 75 75 
323 655 241 76 73 73 
322 654 242 80 78 78 
322 654 243 82 79 79 
322 655 242 77 74 74 
322 655 243 77 74 74 
323 655 242 76 73 73 
323 655 243 75 72 72 
321 652 244 91 87 86 
321 652 245 93 89 88 
321 653 244 90 86 86 
321 653 245 91 87 85 
320 652 246 100 95 94 
320 652 247 98 94 92 
321 652 246 97 93 92 
321 653 246 95 90 89 
321 653 247 97 92 91 
321 654 246 96 91 90 
321 654 247 97 92 91 
322 653 244 87 84 83 
322 654 244 84 80 80 
322 654 245 87 83 82 
322 655 244 78 75 75 
322 655 245 81 78 78 
322 654 246 91 87 86 
322 654 247 94 89 88 
322 655 246 90 85 85 
322 655 247 94 90 89 
324 655 240 77 74 74 
320 648 248 89 84 83 
320 649 248 91 87 85 
320 649 249 90 86 85 
320 650 248 93 89 87 
320 650 249 92 88 86 
320 651 248 94 90 88 
320 651 249 92 88 86 
320 650 250 93 88 87 
320 650 251 94 90 88 
320 651 250 93 89 87 
320 651 251 95 90 88 
320 651 252 96 91 90 
320 652 248 94 89 87 
320 652 249 91 86 85 
320 653 248 93 88 86 
320 653 249 91 86 85 
321 653 248 94 89 88 
321 653 249 92 87 85 
320 652 250 93 88 86 
320 652 251 96 91 89 
320 653 250 92 87 85 
320 653 251 94 89 87 
321 653 250 91 86 85 
321 654 248 94 89 88 
321 654 249 92 87 86 
320 654 251 93 89 88 
321 654 250 92 87 86 
321 654 251 94 89 88 
321 655 250 91 87 85 
321 655 251 93 88 87 
322 654 248 93 89 88 
322 655 248 94 89 89 
322 655 249 92 88 86 
322 655 250 91 86 85 
320 652 252 96 91 90 
320 652 253 96 91 90 
320 653 252 96 91 90 
320 653 253 97 93 92 
320 653 254 99 95 95 
320 653 255 103 99 100 
320 654 252 95 91 90 
320 654 253 97 92 92 
321 654 252 94 90 89 
321 654 253 95 91 90 
321 655 252 93 89 89 
321 655 253 94 90 90 
320 654 254 101 97 96 
320 654 255 105 102 103 
320 655 254 99 95 96 
320 655 255 104 101 102 
321 655 254 95 92 92 
327 656 235 71 69 69 
324 656 239 74 71 71 
325 656 238 72 69 69 
325 656 239 71 69 69 
325 657 239 70 67 67 
326 656 236 70 68 68 
326 656 237 70 68 68 
326 657 237 69 67 67 
327 656 236 70 68 68 
327 657 236 70 68 68 
327 657 237 69 67 67 
326 656 238 70 67 67 
326 657 238 69 66 66 
326 657 239 69 66 66 
327 658 237 69 67 67 
327 659 237 68 66 65 
326 658 238 68 65 65 
326 658 239 67 65 65 
326 659 239 67 64 64 
327 658 238 69 66 66 
327 659 238 68 65 65 
327 662 235 67 65 65 
327 663 235 66 63 63 
326 661 237 66 63 62 
327 660 237 68 65 65 
327 661 236 69 66 66 
327 661 237 67 65 64 
326 660 239 66 63 63 
326 661 238 66 63 62 
326 661 239 66 63 62 
327 660 238 67 64 63 
326 663 237 62 60 60 
327 662 236 67 65 65 
327 662 237 65 62 62 
327 663 236 65 62 61 
327 663 237 63 61 61 
326 662 238 64 61 61 
326 662 239 62 59 59 
326 663 238 62 60 60 
326 663 239 61 58 58 
327 664 235 65 61 60 
326 664 237 63 60 58 
327 664 236 65 62 61 
327 664 237 63 60 58 
327 665 236 68 64 63 
327 665 237 66 62 61 
326 664 238 62 59 58 
326 664 239 61 58 56 
326 665 238 64 61 59 
326 665 239 61 58 56 
327 666 236 71 68 66 
327 666 237 69 65 63 
326 666 238 67 63 62 
326 666 239 64 61 60 
326 667 238 68 65 64 
326 667 239 66 63 62 
327 666 238 66 63 61 
327 667 238 68 64 63 
326 668 239 67 63 62 
326 669 239 66 62 60 
326 670 239 59 56 54 
328 656 233 73 71 71 
328 656 234 73 70 71 
328 656 235 72 70 70 
328 657 235 71 69 69 
328 657 236 70 68 69 
328 657 237 69 67 67 
328 658 236 69 67 67 
328 658 237 69 67 67 
328 659 236 69 67 67 
328 659 237 69 66 66 
328 660 235 70 67 66 
328 661 235 70 68 67 
328 660 236 69 66 66 
328 660 237 68 66 65 
328 661 236 69 66 66 
322 656 241 73 71 71 
323 656 240 75 72 72 
323 656 241 74 72 72 
323 657 241 72 70 71 
323 656 242 74 71 70 
323 656 243 75 72 72 
323 657 242 72 70 70 
323 657 243 73 70 71 
323 658 242 71 69 69 
323 656 244 75 72 72 
323 656 245 77 74 74 
323 657 244 73 71 71 
323 657 245 75 72 72 
322 656 246 84 81 81 
322 656 247 90 86 86 
323 656 246 79 76 76 
323 656 247 85 82 82 
323 657 246 78 75 75 
323 657 247 83 80 80 
323 658 244 73 71 71 
323 658 245 74 71 71 
323 658 246 76 73 73 
323 658 247 82 79 78 
323 659 246 74 71 71 
323 659 247 81 77 76 
323 660 246 73 71 71 
323 660 247 79 75 75 
323 661 246 74 71 70 
323 661 247 77 75 74 
323 662 245 72 69 68 
323 662 246 71 68 67 
323 662 247 75 72 71 
323 663 246 69 65 64 
323 663 247 73 69 68 
324 656 240 75 72 72 
324 657 240 71 69 69 
324 657 241 72 70 70 
325 657 240 70 67 67 
324 657 242 72 70 70 
324 657 243 72 70 70 
324 658 241 70 67 67 
325 658 240 68 66 65 
325 658 241 69 66 66 
325 659 240 68 66 66 
325 659 241 68 65 65 
324 658 242 71 68 69 
324 658 243 71 69 69 
324 659 242 70 68 68 
324 659 243 71 68 69 
326 658 240 67 64 64 
326 659 240 67 65 64 
324 658 244 72 70 70 
324 658 245 74 71 71 
324 659 244 72 69 69 
324 659 245 73 71 71 
324 658 246 74 71 71 
324 659 246 74 71 71 
325 660 241 67 64 63 
325 661 241 67 64 63 
324 660 242 70 68 68 
324 660 243 71 69 69 
324 661 242 69 67 68 
324 661 243 71 70 70 
324 662 241 66 63 63 
324 663 241 63 61 60 
325 662 240 63 60 60 
325 662 241 66 63 63 
325 663 240 61 58 58 
325 663 241 62 59 58 
324 662 242 69 67 68 
324 662 243 70 68 69 
324 663 242 65 62 62 
324 663 243 66 63 63 
326 660 240 66 64 63 
326 661 240 66 63 63 
326 662 240 63 60 59 
324 660 244 72 70 70 
324 660 245 72 70 70 
324 661 244 72 70 70 
324 661 245 72 69 69 
324 662 244 69 66 66 
324 662 245 69 66 65 
324 663 244 65 62 61 
324 663 245 65 62 61 
324 663 246 66 62 60 
321 656 251 90 86 86 
322 656 248 93 89 88 
322 656 249 91 87 86 
322 657 249 89 85 84 
323 656 248 87 84 84 
323 657 248 87 84 84 
323 657 249 87 84 84 
322 656 250 88 85 84 
322 656 251 89 85 84 
322 657 250 87 83 83 
322 657 251 88 84 84 
323 658 248 87 83 83 
323 658 249 85 82 82 
323 659 248 87 83 82 
323 659 249 85 82 81 
322 658 250 84 80 80 
322 658 251 84 81 81 
322 659 250 84 81 81 
322 659 251 83 80 80 
323 658 250 84 81 80 
323 659 250 84 81 81 
321 656 252 91 88 88 
321 656 253 93 89 89 
321 657 252 90 86 86 
321 657 253 92 88 88 
320 656 254 99 96 96 
320 656 255 102 99 100 
320 657 255 99 96 97 
321 656 254 96 93 93 
321 657 254 95 91 91 
321 657 255 97 93 94 
321 658 252 88 84 84 
321 658 253 91 88 88 
321 659 252 87 84 83 
321 659 253 90 87 87 
320 658 255 96 93 93 
320 659 255 96 92 92 
321 658 254 95 91 92 
321 658 255 96 93 93 
321 659 254 94 90 90 
322 657 252 87 84 84 
322 658 252 86 83 82 
322 659 252 85 81 80 
322 661 248 85 81 80 
322 661 249 86 81 80 
323 660 248 86 82 81 
323 660 249 84 80 79 
323 661 248 83 80 79 
322 660 250 83 80 80 
322 660 251 83 80 80 
322 661 250 82 79 78 
322 661 251 82 79 79 
323 660 250 83 80 79 
322 662 248 80 76 75 
322 662 249 81 77 76 
322 663 248 79 75 74 
323 663 248 77 74 73 
323 663 249 76 72 70 
322 662 250 79 75 74 
322 662 251 81 78 78 
322 663 250 77 73 72 
322 663 251 80 77 76 
323 663 250 75 71 70 
320 660 253 93 89 89 
321 660 252 86 83 82 
321 660 253 91 87 87 
321 661 252 88 84 83 
321 661 253 93 89 88 
320 660 255 95 91 91 
320 661 255 96 92 92 
321 660 254 95 90 90 
321 661 254 94 90 89 
321 662 252 86 82 82 
321 662 253 91 87 86 
321 663 252 84 80 79 
321 663 253 89 85 84 
320 662 254 94 90 89 
320 662 255 95 90 90 
320 663 254 93 88 88 
320 663 255 93 89 89 
321 662 254 93 89 88 
322 660 252 85 81 81 
322 661 252 84 80 80 
322 662 252 83 80 79 
322 663 252 82 78 77 
323 665 245 64 61 60 
323 664 246 66 63 62 
323 664 247 70 66 66 
323 665 246 63 60 59 
323 665 247 65 61 60 
323 666 245 59 56 54 
323 667 245 63 59 58 
322 667 247 65 61 59 
323 666 246 57 53 51 
323 666 247 61 58 56 
323 667 246 61 57 55 
323 667 247 63 59 58 
323 668 244 60 57 55 
323 668 245 62 58 56 
323 669 244 57 53 51 
323 669 245 59 55 53 
322 668 247 63 58 56 
322 669 247 62 58 56 
323 668 246 61 56 54 
323 669 246 60 56 53 
323 670 244 56 53 51 
323 670 245 58 54 52 
323 671 244 56 52 50 
323 671 245 60 56 53 
322 670 247 63 59 57 
322 671 247 70 66 64 
323 670 246 60 56 54 
323 671 246 63 59 57 
324 664 241 63 60 60 
325 664 240 61 58 57 
325 664 241 61 57 56 
325 665 240 60 57 56 
325 665 241 59 57 56 
324 664 242 65 63 62 
324 664 243 65 62 61 
324 665 242 61 58 58 
324 665 243 64 61 61 
325 666 240 61 59 58 
325 666 241 62 59 58 
325 667 240 64 61 60 
325 667 241 65 62 60 
324 666 242 62 59 58 
324 666 243 61 58 57 
324 667 242 65 61 60 
324 667 243 66 62 60 
325 666 242 62 59 58 
325 667 242 65 62 61 
326 666 240 63 61 60 
326 667 240 65 62 61 
324 664 244 64 60 59 
324 664 245 65 61 60 
324 665 244 60 57 55 
324 665 245 64 60 59 
324 664 246 65 61 60 
324 666 244 60 56 55 
324 666 245 59 55 54 
324 667 244 65 62 61 
325 668 240 66 62 61 
325 668 241 65 61 59 
325 669 241 63 59 57 
324 668 242 62 59 57 
324 668 243 62 58 57 
324 669 242 61 57 55 
324 669 243 60 56 53 
325 668 242 63 59 57 
325 669 242 61 57 55 
325 670 241 58 54 51 
325 671 241 52 49 48 
324 670 242 56 52 50 
324 670 243 56 51 48 
324 671 242 51 48 46 
324 671 243 53 49 46 
326 668 240 67 63 61 
326 669 240 65 60 58 
326 670 240 60 55 52 
326 671 240 55 52 51 
324 668 244 61 58 56 
321 665 251 82 78 76 
321 666 251 74 70 69 
321 667 250 71 67 66 
321 667 251 75 71 70 
322 664 249 77 73 71 
322 665 249 74 70 68 
323 664 248 75 70 69 
323 664 249 76 72 70 
323 665 248 70 67 65 
323 665 249 74 70 69 
322 664 250 80 76 75 
322 664 251 80 77 75 
322 665 250 76 72 70 
322 665 251 77 73 72 
322 666 248 66 62 61 
322 666 249 65 61 59 
322 667 248 64 60 59 
322 667 249 63 59 57 
323 666 248 68 64 63 
322 666 250 72 68 66 
322 666 251 76 72 70 
322 667 250 66 62 60 
320 664 253 93 88 87 
320 665 253 93 89 87 
321 664 252 84 79 78 
321 664 253 90 86 85 
321 665 252 84 79 78 
321 665 253 91 87 86 
320 664 254 93 88 87 
320 664 255 92 87 86 
320 665 254 90 86 85 
320 665 255 87 82 80 
320 666 253 91 86 85 
320 667 253 89 84 83 
321 666 252 83 78 77 
321 666 253 89 84 83 
321 667 252 85 80 79 
321 667 253 89 84 83 
320 666 254 88 83 81 
320 666 255 83 78 76 
320 667 254 85 80 79 
321 668 250 75 71 70 
321 668 251 79 74 73 
321 669 250 83 77 75 
321 669 251 84 79 77 
321 670 250 85 81 79 
321 670 251 87 82 80 
321 671 250 87 82 81 
321 671 251 87 83 82 
322 668 248 66 62 59 
322 668 249 70 65 62 
322 669 248 66 62 60 
322 669 249 71 66 64 
322 668 250 73 69 68 
322 669 250 78 74 72 
322 670 248 72 68 67 
322 670 249 78 74 73 
322 671 248 79 75 74 
322 671 249 84 79 78 
322 670 250 84 80 78 
322 671 250 86 81 80 
320 668 253 87 82 80 
320 669 253 88 82 81 
321 668 252 86 81 80 
321 668 253 88 83 82 
321 669 252 88 83 82 
321 669 253 91 86 84 
320 668 254 83 78 76 
320 668 255 79 74 72 
320 669 254 82 76 74 
320 669 255 79 73 71 
320 670 253 86 81 79 
320 671 253 82 77 75 
321 670 252 89 84 82 
321 670 253 89 84 82 
321 671 252 89 85 84 
321 671 253 87 82 81 
320 670 254 80 75 73 
320 670 255 76 71 69 
320 671 254 76 71 69 
320 671 255 72 67 65 
323 672 244 56 52 50 
323 672 245 61 57 54 
323 673 244 57 54 52 
323 673 245 63 58 56 
322 672 247 72 68 66 
322 673 246 65 62 61 
322 673 247 70 66 65 
323 672 246 67 62 60 
323 673 246 64 61 59 
323 674 244 53 51 50 
323 674 245 59 55 53 
323 675 244 48 46 46 
323 675 245 49 47 48 
322 674 246 61 57 56 
322 674 247 65 61 60 
322 675 246 54 51 49 
322 675 247 58 54 52 
323 674 246 62 57 54 
323 675 246 47 45 44 
323 676 244 42 42 43 
323 676 245 44 43 45 
323 677 244 37 37 38 
323 677 245 36 36 38 
322 676 246 45 45 45 
322 676 247 51 46 44 
322 677 246 38 38 40 
322 677 247 41 40 40 
323 677 246 34 35 37 
323 678 246 33 33 35 
323 678 247 33 34 36 
325 672 241 52 50 49 
325 673 241 49 47 46 
324 672 242 52 49 48 
324 672 243 54 51 49 
324 673 242 52 50 49 
324 673 243 53 50 48 
325 674 241 46 45 44 
325 675 241 43 42 42 
324 674 242 48 46 45 
324 674 243 49 46 46 
324 675 242 45 44 44 
324 675 243 46 45 46 
325 674 242 48 46 45 
325 675 242 44 43 43 
326 672 240 51 48 47 
326 673 241 48 45 44 
324 675 244 47 45 44 
325 676 241 34 33 34 
324 676 242 43 42 43 
324 676 243 40 39 41 
324 677 243 34 35 37 
325 676 242 38 37 38 
325 677 242 34 34 35 
325 677 243 33 33 34 
325 678 242 32 32 33 
325 678 243 32 31 32 
324 677 244 33 34 35 
324 677 245 33 32 32 
324 678 245 32 32 33 
325 678 244 32 32 34 
325 678 245 32 32 34 
325 679 245 33 32 32 
324 678 246 31 31 32 
324 678 247 31 32 34 
324 679 247 31 32 33 
325 678 246 33 32 32 
325 679 246 33 33 34 
325 679 247 32 33 34 
321 672 250 88 83 82 
321 672 251 88 83 82 
321 673 250 83 80 79 
321 673 251 87 82 81 
321 674 249 74 70 70 
321 675 248 60 57 56 
321 675 249 70 66 65 
321 674 250 77 74 74 
321 674 251 81 77 77 
321 675 250 69 66 66 
321 675 251 74 70 70 
322 672 248 78 74 72 
322 672 249 82 77 76 
322 673 248 77 72 71 
322 673 249 82 78 77 
322 672 250 86 82 81 
322 673 250 85 81 81 
322 674 248 72 68 67 
322 674 249 76 73 73 
322 675 248 60 57 57 
320 672 253 77 72 71 
320 673 253 75 71 70 
321 672 252 89 84 83 
321 672 253 84 79 78 
321 673 252 85 81 80 
320 672 254 72 67 64 
320 672 255 69 65 63 
320 673 254 69 64 62 
320 673 255 67 63 61 
320 674 253 74 71 70 
320 675 253 74 70 70 
321 674 252 81 77 77 
321 675 252 78 74 72 
320 674 254 69 64 63 
320 674 255 65 60 58 
320 675 254 72 68 66 
321 676 248 53 51 50 
321 676 249 55 52 51 
321 677 249 42 40 40 
321 676 250 58 54 52 
321 676 251 61 58 57 
321 677 250 48 45 43 
321 677 251 51 47 45 
321 678 251 44 41 40 
322 676 248 48 45 44 
322 676 249 45 44 45 
322 677 248 41 39 39 
322 677 249 39 38 39 
322 677 250 44 43 43 
322 678 248 37 35 35 
322 678 249 35 35 37 
323 678 248 33 33 35 
323 678 249 34 33 35 
323 679 248 32 33 35 
323 679 249 30 30 32 
322 678 250 37 36 36 
322 678 251 39 37 37 
322 679 250 32 31 32 
322 679 251 33 32 33 
323 679 250 31 32 33 
320 676 253 72 67 65 
320 677 253 65 61 59 
321 676 252 67 63 62 
321 677 252 54 51 50 
321 677 253 58 55 54 
320 676 254 69 65 63 
320 677 254 66 62 60 
320 678 253 54 51 50 
321 678 252 44 42 42 
321 678 253 46 44 44 
321 679 252 39 38 39 
321 679 253 40 38 39 
320 678 254 62 59 58 
320 679 254 48 45 44 
322 679 252 35 33 33 
324 678 248 30 31 32 
324 679 248 31 31 32 
324 679 249 31 31 32 
325 679 248 32 32 33 
325 679 249 31 31 31 
324 679 250 32 32 34 
323 686 247 32 33 36 
323 687 247 32 33 36 
324 685 247 32 33 35 
322 680 251 31 31 33 
323 680 251 31 32 34 
323 681 251 31 32 34 
323 682 251 31 33 35 
323 683 251 33 33 35 
321 680 253 35 35 35 
321 681 253 34 33 34 
320 680 254 40 37 37 
320 681 254 36 34 33 
321 680 254 39 37 37 
321 682 253 35 35 37 
321 683 253 37 37 39 
320 682 254 39 37 37 
320 683 254 41 39 40 
321 682 254 36 35 37 
322 680 252 32 32 34 
322 681 252 32 33 36 
322 681 253 32 32 35 
322 682 252 32 33 36 
322 682 253 29 31 34 
322 683 252 35 35 37 
323 684 249 31 32 34 
323 685 248 31 32 34 
323 685 249 31 32 34 
322 684 251 34 34 37 
322 685 250 35 35 38 
322 685 251 35 35 36 
323 684 250 32 33 35 
323 684 251 34 34 36 
323 685 250 33 33 36 
323 685 251 34 34 36 
322 686 249 32 33 36 
323 686 248 32 33 35 
323 686 249 33 34 36 
323 687 248 33 34 37 
323 687 249 33 35 37 
322 686 250 35 36 38 
322 686 251 36 36 37 
322 687 250 36 37 39 
322 687 251 36 37 39 
323 687 250 34 35 37 
320 684 253 41 41 42 
320 685 253 43 42 42 
321 684 252 37 37 38 
321 684 253 38 38 40 
321 685 252 37 37 38 
321 685 253 40 39 40 
320 684 254 43 42 43 
320 685 254 47 46 46 
321 686 252 38 37 38 
321 686 253 41 40 40 
321 687 252 39 38 39 
321 687 253 40 39 39 
320 686 254 49 47 48 
320 687 254 50 49 49 
320 687 255 56 54 54 
321 687 254 43 42 42 
322 684 252 36 35 37 
322 685 252 36 36 37 
322 686 252 36 36 37 
322 687 252 37 37 38 
325 680 248 31 30 31 
325 680 249 31 30 31 
325 681 249 32 32 33 
324 680 250 33 33 35 
324 681 250 32 32 33 
324 681 251 32 32 34 
325 680 250 32 32 33 
325 681 250 33 34 35 
324 682 251 32 33 35 
324 683 251 34 34 36 
325 682 250 33 34 36 
325 682 251 33 33 34 
325 683 251 33 34 35 
324 685 248 30 32 34 
324 685 249 31 32 35 
324 684 250 32 33 36 
324 684 251 33 34 36 
324 685 250 32 33 36 
324 687 250 32 34 36 
323 688 249 33 34 36 
323 688 250 34 35 37 
323 688 251 34 34 37 
321 688 253 42 41 41 
321 689 253 44 43 44 
320 688 255 54 52 52 
320 689 255 51 49 49 
321 688 254 44 43 43 
321 688 255 46 45 45 
321 689 254 46 44 44 
321 689 255 47 45 45 
321 690 253 45 44 45 
321 691 253 49 47 47 
320 690 255 52 49 49 
320 691 255 52 49 48 
321 690 254 47 45 45 
321 690 255 49 46 46 
321 691 254 48 46 46 
321 691 255 50 47 46 
322 688 252 40 40 42 
322 688 253 41 41 42 
322 689 252 41 40 41 
322 689 253 44 43 44 
323 689 252 35 35 36 
322 690 252 41 40 41 
322 690 253 44 43 43 
322 691 252 43 42 42 
322 691 253 46 44 45 
323 690 252 37 37 37 
323 691 252 38 37 38 
322 693 251 44 42 43 
322 694 251 49 47 47 
322 695 251 51 49 49 
321 692 253 51 48 48 
321 693 253 53 50 50 
320 692 255 55 51 50 
320 693 255 56 52 51 
321 692 254 52 50 49 
321 692 255 53 50 49 
321 693 254 54 51 50 
321 693 255 55 51 50 
321 694 253 53 50 49 
320 694 255 57 52 50 
320 695 255 59 55 53 
321 694 254 55 52 50 
321 694 255 56 53 51 
321 695 254 55 52 51 
321 695 255 57 53 52 
322 692 252 44 43 43 
322 692 253 49 47 47 
322 693 252 47 45 45 
322 693 253 50 48 47 
323 692 252 38 38 38 
322 694 252 50 48 48 
322 694 253 53 50 50 
322 695 252 53 50 50 
322 695 253 55 52 52 
322 695 254 56 53 52 
324 688 252 32 33 35 
303 629 261 121 116 116 
302 629 262 109 103 101 
302 629 263 102 96 93 
303 629 262 114 108 107 
303 629 263 103 97 95 
303 630 262 113 107 106 
303 630 263 103 97 95 
303 631 263 103 97 96 
302 629 264 97 91 88 
302 629 265 98 92 90 
302 629 266 94 89 87 
302 629 267 87 82 80 
303 629 266 94 88 87 
303 629 267 89 84 83 
302 630 265 97 91 89 
303 630 264 100 94 92 
303 630 265 99 93 91 
303 631 264 103 97 96 
303 631 265 104 98 97 
302 630 266 93 87 84 
303 630 266 93 87 85 
303 630 267 93 88 86 
303 631 266 96 90 88 
303 631 267 94 89 88 
303 630 268 93 88 88 
303 630 269 90 86 85 
303 632 264 103 98 97 
305 629 259 103 97 95 
306 629 259 95 89 87 
307 629 259 80 74 71 
307 630 259 85 79 77 
304 629 260 115 109 108 
304 629 261 119 114 113 
305 629 260 108 101 99 
304 630 261 118 112 111 
305 630 260 105 99 96 
305 630 261 112 106 104 
305 631 261 108 102 100 
304 630 262 112 106 105 
304 631 262 107 101 100 
304 631 263 105 99 98 
305 631 262 108 102 101 
306 629 260 96 90 87 
306 630 260 93 86 83 
306 631 260 90 83 80 
306 631 261 98 92 89 
307 630 260 87 81 78 
307 631 260 90 83 81 
308 629 258 81 76 74 
308 629 259 80 74 72 
309 629 258 80 75 73 
308 630 259 89 84 83 
308 631 259 105 100 100 
309 630 258 90 86 85 
309 630 259 97 93 92 
309 631 258 109 104 105 
309 631 259 110 105 106 
310 629 257 76 70 67 
311 629 256 76 71 68 
310 630 257 86 81 79 
310 631 257 103 99 98 
311 630 256 85 80 78 
311 630 257 86 80 78 
311 631 256 102 97 97 
311 631 257 105 100 100 
310 630 258 88 83 81 
310 631 258 104 99 99 
308 631 260 100 95 94 
304 631 267 93 88 87 
304 630 268 91 87 86 
304 630 269 92 87 86 
304 631 268 93 88 87 
304 631 269 93 88 87 
304 630 270 89 84 82 
304 630 271 86 81 80 
304 631 270 89 85 83 
305 630 271 81 76 74 
305 631 270 88 83 82 
305 631 271 82 76 74 
304 632 263 104 98 98 
305 632 262 107 102 101 
305 632 263 105 100 99 
306 632 261 95 89 87 
307 632 260 96 89 87 
307 632 261 95 89 86 
307 633 261 101 95 93 
306 632 262 104 98 97 
306 632 263 107 101 101 
306 633 262 101 95 93 
306 633 263 105 100 100 
307 633 262 103 97 95 
307 633 263 103 98 97 
307 634 263 104 98 97 
309 632 259 120 115 116 
309 633 259 120 115 116 
310 632 257 115 111 112 
311 632 256 106 102 102 
311 632 257 111 107 107 
311 633 257 112 107 107 
310 632 258 117 112 113 
310 633 258 117 113 113 
310 633 259 120 115 116 
311 634 257 106 101 101 
311 635 257 100 95 95 
310 634 258 111 106 106 
310 634 259 111 107 106 
310 635 259 102 98 97 
311 634 258 110 105 105 
311 635 258 101 96 96 
311 635 259 99 94 94 
308 632 260 109 104 104 
308 633 260 115 110 109 
308 633 261 107 101 100 
309 633 260 120 115 115 
308 634 261 111 105 105 
309 634 260 112 107 107 
309 634 261 110 105 104 
309 635 260 104 99 98 
309 635 261 105 99 99 
308 634 262 106 100 99 
308 634 263 105 99 98 
308 635 262 105 100 99 
308 635 263 103 98 98 
309 635 262 104 99 99 
310 635 260 102 97 96 
310 636 259 97 93 92 
311 636 258 96 92 92 
311 636 259 96 92 91 
311 637 258 94 89 89 
311 637 259 90 86 85 
311 638 259 85 81 80 
311 639 259 80 75 72 
309 636 261 101 96 96 
308 636 263 102 97 97 
309 636 262 103 99 99 
309 636 263 104 99 99 
309 637 262 99 95 95 
309 637 263 101 96 96 
309 638 262 98 93 93 
309 638 263 99 95 94 
309 639 263 95 91 90 
310 636 260 98 93 93 
310 636 261 98 94 94 
310 637 260 91 87 87 
310 637 261 95 91 91 
311 637 260 90 86 85 
310 638 260 81 77 76 
310 638 261 87 82 81 
310 639 260 76 71 69 
310 639 261 78 73 71 
311 638 260 82 77 75 
311 639 260 76 71 68 
310 638 262 95 91 90 
310 639 262 88 83 83 
310 639 263 88 84 83 
304 632 264 103 98 97 
304 632 265 103 97 96 
305 632 264 106 100 100 
305 633 264 107 102 101 
305 633 265 105 100 99 
304 632 266 102 96 95 
304 632 267 99 94 93 
304 633 266 99 94 93 
304 633 267 99 94 93 
305 633 266 101 96 95 
305 633 267 96 91 90 
306 633 264 109 104 103 
306 633 265 108 102 102 
306 634 264 107 101 100 
306 634 265 106 100 99 
307 634 264 105 99 99 
307 634 265 105 99 98 
307 635 265 104 98 97 
306 634 266 102 97 96 
306 634 267 97 92 91 
307 634 266 100 94 93 
307 635 266 101 95 94 
307 635 267 94 89 87 
304 632 268 95 90 89 
304 632 269 93 88 87 
305 632 268 95 90 89 
305 632 269 92 87 86 
305 633 268 94 89 88 
305 633 269 90 85 84 
305 632 270 85 80 79 
305 632 271 81 76 73 
305 633 270 85 80 79 
305 633 271 83 78 76 
306 633 269 87 83 82 
306 633 270 87 83 81 
306 633 271 86 81 79 
306 634 268 89 84 83 
306 634 269 86 80 79 
307 634 269 85 80 78 
307 635 268 90 85 84 
307 635 269 87 82 81 
306 634 270 88 83 82 
306 634 271 88 83 81 
307 634 270 85 80 79 
307 634 271 85 80 79 
307 635 270 81 76 75 
307 635 271 83 78 76 
308 635 264 103 98 97 
308 635 265 101 96 96 
308 636 264 100 95 94 
308 636 265 99 94 93 
308 637 264 100 95 95 
308 637 265 98 93 93 
309 637 264 101 96 95 
309 637 265 100 95 94 
308 636 266 98 93 92 
308 636 267 94 89 88 
308 637 266 97 92 91 
308 637 267 93 88 87 
309 638 264 99 94 94 
309 638 265 99 94 93 
309 639 264 97 92 91 
309 639 265 99 93 92 
308 638 266 98 93 92 
308 638 267 92 87 85 
309 638 266 97 92 91 
309 638 267 93 88 87 
309 639 266 98 93 92 
309 639 267 93 88 87 
308 636 268 90 84 83 
308 636 269 85 81 79 
308 637 268 89 84 83 
308 637 269 85 80 79 
309 637 269 82 77 76 
308 636 270 81 76 75 
308 636 271 81 77 74 
308 637 270 80 75 73 
308 637 271 83 78 77 
309 637 270 80 75 74 
309 637 271 84 78 77 
309 638 268 88 83 81 
309 638 269 82 77 76 
309 639 268 87 82 81 
309 639 269 81 76 75 
309 638 270 80 75 73 
309 638 271 84 79 78 
309 639 270 79 74 72 
309 639 271 84 79 77 
312 631 256 105 101 101 
312 632 256 102 98 98 
312 633 256 100 95 95 
312 633 257 106 101 101 
313 633 256 94 90 89 
312 634 256 98 93 92 
312 634 257 102 97 97 
312 635 257 96 91 90 
313 634 256 91 87 86 
313 635 256 85 80 79 
312 636 257 92 87 86 
312 637 257 87 82 81 
313 636 256 80 75 73 
313 636 257 83 78 77 
313 637 256 77 72 70 
313 637 257 80 75 73 
312 636 258 94 90 89 
312 637 258 89 84 83 
313 638 257 75 69 67 
313 639 257 72 67 64 
312 638 258 82 78 75 
312 638 259 85 80 78 
312 639 258 78 73 70 
312 639 259 79 74 72 
313 639 258 74 68 65 
314 636 256 75 70 68 
314 637 256 74 69 67 
314 638 256 73 68 66 
314 638 257 73 67 65 
314 639 256 72 67 65 
314 639 257 72 66 64 
315 638 256 75 70 68 
315 639 256 76 71 69 
305 630 272 78 73 71 
305 631 272 79 74 72 
306 631 273 83 79 77 
305 632 272 80 75 72 
306 632 272 81 76 73 
306 632 273 86 81 79 
306 633 272 86 80 78 
306 633 273 92 86 84 
306 634 272 88 83 81 
306 634 273 95 89 87 
307 634 272 89 84 83 
307 634 273 95 90 88 
307 635 272 92 87 85 
307 635 273 95 89 88 
307 636 273 96 90 88 
308 636 272 91 86 84 
308 636 273 96 90 88 
308 637 272 92 86 84 
308 637 273 96 90 87 
308 636 274 92 85 82 
308 637 274 89 83 79 
308 638 272 92 86 84 
308 638 273 94 87 85 
308 639 273 92 86 83 
309 638 272 90 85 83 
309 638 273 93 87 85 
309 639 272 91 85 83 
309 639 273 93 87 84 
308 638 274 88 80 77 
308 639 274 86 78 74 
309 640 263 89 85 84 
310 640 261 75 69 66 
310 641 261 74 69 66 
311 640 260 74 69 66 
311 640 261 73 68 65 
311 641 260 74 68 65 
311 641 261 74 68 66 
310 640 262 79 74 72 
310 640 263 83 77 76 
310 641 262 75 70 67 
310 641 263 77 72 69 
311 642 260 72 67 64 
311 642 261 73 68 65 
311 643 261 74 68 65 
310 642 262 74 69 66 
310 642 263 76 71 69 
310 643 262 75 71 69 
310 643 263 79 74 73 
311 642 262 74 69 66 
311 643 262 75 70 68 
311 644 261 75 69 66 
311 645 261 75 70 67 
310 644 263 86 81 80 
311 644 262 78 72 70 
311 644 263 86 82 81 
311 645 262 81 75 73 
311 645 263 91 86 86 
311 646 262 86 81 79 
311 646 263 93 88 86 
311 647 262 92 86 85 
311 647 263 98 93 92 
309 640 264 89 84 82 
309 640 265 94 89 88 
309 641 264 85 80 78 
309 641 265 91 86 85 
309 640 266 96 91 91 
309 640 267 93 88 87 
309 641 266 95 90 89 
309 641 267 92 88 87 
309 642 265 90 86 86 
309 642 266 95 90 90 
309 642 267 94 89 88 
309 643 267 97 93 93 
310 641 264 80 75 73 
310 642 264 81 77 76 
310 642 265 91 87 87 
310 643 264 88 84 83 
310 643 265 96 92 92 
310 642 266 94 90 90 
310 643 266 98 94 94 
310 643 267 99 95 95 
309 640 268 86 81 80 
309 640 269 80 75 74 
309 641 268 86 81 80 
309 641 269 80 76 74 
309 640 270 79 74 72 
309 640 271 85 79 77 
309 641 270 82 76 74 
309 641 271 89 83 80 
309 642 268 87 82 81 
309 642 269 81 76 74 
309 643 268 89 85 84 
309 643 269 83 78 76 
309 642 270 84 79 77 
309 642 271 90 84 82 
309 643 270 89 82 80 
309 643 271 90 84 80 
310 644 264 94 89 89 
310 644 265 100 96 95 
310 645 264 98 93 93 
310 645 265 103 98 96 
311 645 264 100 95 95 
310 644 266 102 97 97 
310 644 267 100 96 95 
310 645 266 105 99 99 
310 645 267 102 97 96 
310 646 264 103 98 98 
310 646 265 103 97 96 
310 647 265 102 96 95 
311 646 264 101 96 95 
311 647 264 103 97 96 
311 647 265 101 96 94 
310 646 266 100 94 93 
310 646 267 98 92 90 
310 647 266 98 92 89 
310 647 267 94 87 84 
309 644 268 92 87 86 
309 644 269 88 83 81 
309 645 268 91 86 84 
309 645 269 91 86 84 
308 645 271 89 81 76 
309 644 270 90 84 81 
309 644 271 90 83 80 
309 645 270 92 86 83 
309 645 271 90 83 80 
309 646 269 90 84 81 
309 647 269 87 80 77 
308 646 271 87 79 73 
309 646 270 93 85 82 
309 646 271 91 83 78 
309 647 270 89 82 79 
309 647 271 88 80 75 
310 645 268 96 91 90 
310 646 268 93 86 84 
310 647 268 89 82 79 
310 647 269 87 80 77 
311 648 263 98 92 92 
311 648 264 100 94 93 
311 648 265 98 92 90 
311 649 264 91 86 84 
311 649 265 88 82 80 
310 648 266 94 88 85 
310 648 267 93 85 82 
310 649 267 91 84 80 
311 648 266 94 88 85 
311 649 266 88 82 79 
311 649 267 89 82 79 
311 650 265 80 75 72 
311 650 266 83 77 74 
311 650 267 86 80 77 
311 651 266 78 72 70 
311 651 267 82 77 74 
309 648 270 90 83 80 
309 648 271 88 81 77 
309 649 270 94 88 85 
309 649 271 91 84 81 
309 650 271 92 86 83 
309 651 271 89 82 80 
310 648 268 90 83 80 
310 648 269 88 81 78 
310 649 268 91 84 81 
310 649 269 91 85 83 
310 648 270 91 84 82 
310 649 270 94 88 86 
310 650 268 89 82 79 
310 650 269 91 85 82 
310 651 268 86 80 77 
310 651 269 90 83 81 
311 650 268 85 79 76 
311 651 268 84 78 75 
310 650 270 96 90 88 
310 651 270 93 87 85 
310 651 271 95 89 87 
311 652 266 77 71 69 
311 652 267 79 74 71 
311 653 267 79 74 72 
311 654 267 85 80 78 
311 655 267 91 86 84 
309 652 271 87 81 78 
309 654 271 95 90 88 
309 655 270 96 91 89 
309 655 271 96 90 88 
310 652 269 87 81 79 
310 653 269 87 82 80 
311 652 268 83 77 75 
311 653 268 85 79 77 
311 653 269 87 82 80 
310 652 270 90 84 81 
310 652 271 91 85 83 
310 653 270 91 85 82 
310 653 271 91 85 83 
310 654 269 90 84 82 
310 655 268 89 83 81 
310 655 269 90 85 83 
311 654 268 88 83 80 
311 654 269 89 84 82 
311 655 268 90 84 82 
310 654 270 94 88 86 
310 654 271 95 90 88 
310 655 270 94 89 87 
312 640 259 75 69 66 
312 641 259 73 67 64 
313 640 258 72 66 63 
313 641 258 71 65 62 
313 641 259 72 66 63 
312 642 259 71 66 62 
313 642 258 69 64 60 
313 642 259 70 64 61 
313 643 259 71 65 62 
314 640 257 72 66 63 
314 641 257 72 66 63 
315 640 256 77 72 70 
315 640 257 73 68 65 
315 641 256 77 72 70 
315 641 257 72 67 64 
314 640 258 71 66 62 
314 641 258 71 65 62 
314 642 257 72 66 63 
315 642 256 77 72 70 
315 642 257 72 67 64 
315 643 257 73 67 65 
314 642 258 70 64 61 
314 643 258 70 64 61 
314 643 259 70 65 61 
312 640 260 74 68 65 
312 641 260 73 68 65 
312 642 260 72 66 63 
312 643 260 72 66 63 
312 643 261 73 67 64 
313 643 260 71 66 62 
313 644 259 72 66 63 
313 645 259 72 66 63 
315 644 257 73 69 66 
315 645 257 75 70 67 
314 644 258 69 64 61 
314 644 259 70 65 62 
314 645 258 69 64 61 
314 645 259 71 65 63 
315 644 258 70 65 62 
315 645 258 71 65 63 
314 646 259 73 68 66 
314 647 259 78 74 72 
315 646 258 72 66 64 
315 646 259 73 67 65 
315 647 259 73 68 65 
312 644 260 73 67 64 
312 644 261 74 68 65 
312 645 260 74 68 65 
312 645 261 75 69 66 
313 644 260 73 67 64 
313 645 260 73 67 64 
312 646 260 75 69 67 
312 646 261 79 74 72 
312 647 261 89 84 82 
313 646 260 78 73 71 
313 646 261 80 75 73 
313 647 260 87 82 82 
313 647 261 89 85 84 
312 646 262 83 78 75 
312 647 262 93 88 86 
314 646 260 79 74 72 
314 647 260 85 80 79 
316 640 256 82 77 76 
316 641 256 83 78 77 
316 642 256 81 77 75 
316 643 256 84 80 79 
316 643 257 78 74 72 
316 644 256 87 82 81 
316 644 257 81 77 75 
316 645 256 87 81 79 
316 645 257 81 76 74 
317 645 256 86 81 78 
