ply
format ascii 1.0
comment Created by CloudCompare v2.10.1 (Zephyrus)
comment Created 1/30/20 6:07 PM
obj_info Generated by CloudCompare!
element vertex 2125
property float x
property float y
property float z
property uchar red
property uchar green
property uchar blue
end_header
364 247 248 83 75 70 
364 247 249 86 78 72 
364 246 250 84 76 70 
364 246 251 95 89 86 
364 247 250 82 73 67 
364 247 251 89 82 77 
365 246 251 100 94 91 
365 247 251 88 81 77 
365 244 252 104 98 96 
365 244 253 109 103 101 
365 245 252 103 98 96 
365 245 253 103 98 96 
365 246 252 101 95 93 
365 246 253 101 96 94 
365 247 252 95 89 86 
365 247 253 100 95 93 
366 244 253 113 106 104 
366 244 254 115 108 107 
366 244 255 121 115 114 
366 245 254 105 99 97 
366 245 255 108 103 102 
366 247 253 102 96 95 
366 246 254 104 98 97 
366 246 255 106 100 100 
366 247 254 104 99 98 
366 247 255 105 100 99 
360 248 242 127 121 120 
360 248 243 124 118 117 
360 249 243 101 94 92 
361 248 243 125 118 117 
360 250 243 79 72 67 
360 251 243 76 68 63 
361 248 244 117 110 107 
361 249 244 96 87 84 
361 249 245 92 83 78 
360 250 244 80 72 67 
360 251 244 77 69 64 
360 251 245 76 68 62 
361 250 244 79 71 66 
361 250 245 77 69 63 
361 251 245 76 68 62 
361 251 246 76 67 60 
362 248 244 113 105 102 
362 248 245 103 95 91 
362 249 245 89 80 75 
362 248 246 100 92 88 
362 249 246 89 80 75 
363 248 246 91 83 77 
363 248 247 84 74 68 
363 249 246 85 76 70 
363 249 247 82 73 67 
362 250 246 78 69 62 
362 251 246 75 66 59 
362 251 247 74 65 59 
363 250 247 77 68 62 
363 251 247 74 65 59 
360 252 244 87 79 74 
360 252 245 87 79 74 
360 253 244 107 99 96 
360 253 245 102 95 91 
361 252 245 86 78 73 
361 252 246 85 76 71 
361 253 246 102 94 90 
360 254 244 114 105 101 
360 254 245 106 97 92 
360 255 244 117 107 102 
360 255 245 112 103 97 
360 255 246 112 102 97 
361 254 246 102 94 89 
361 255 246 110 101 96 
361 255 247 109 100 96 
362 252 246 83 75 69 
362 252 247 82 74 69 
362 253 247 95 88 85 
363 252 247 73 65 59 
362 254 247 98 89 84 
362 255 247 105 96 90 
363 248 248 84 75 68 
363 249 248 82 73 66 
363 250 248 81 71 65 
363 251 248 78 69 63 
363 252 248 77 68 63 
363 253 248 83 76 71 
362 254 248 88 79 72 
362 255 248 100 91 84 
363 254 248 86 76 70 
363 254 249 89 80 73 
363 255 248 95 84 76 
363 255 249 100 90 83 
364 248 248 88 80 74 
364 248 249 92 85 80 
364 249 248 83 74 67 
364 249 249 85 76 69 
364 248 250 80 72 66 
364 249 250 81 72 65 
365 248 250 76 68 63 
365 248 251 77 70 65 
365 249 250 78 69 62 
365 249 251 75 67 62 
364 250 248 82 73 66 
364 250 249 83 73 66 
364 251 248 84 76 70 
364 251 249 94 86 81 
365 250 250 81 71 63 
365 250 251 77 67 60 
365 251 250 96 87 81 
365 251 251 90 79 72 
366 251 251 94 83 77 
365 248 252 83 77 73 
365 248 253 97 92 90 
365 249 252 79 71 66 
365 250 252 75 66 60 
366 248 253 103 97 96 
366 249 252 81 73 68 
366 249 253 98 92 89 
366 248 254 105 100 99 
366 248 255 105 100 99 
366 249 254 106 100 97 
367 248 255 105 100 98 
367 249 254 107 101 99 
367 249 255 107 101 99 
366 250 252 79 70 63 
366 250 253 91 83 77 
366 251 252 92 82 76 
366 251 253 105 95 90 
367 250 253 99 91 85 
367 251 253 115 106 102 
367 250 254 106 96 91 
367 250 255 111 102 97 
367 251 254 120 111 107 
367 251 255 123 113 108 
364 252 249 104 96 93 
364 253 249 107 99 95 
365 252 250 114 105 101 
365 252 251 107 97 90 
365 253 250 130 121 118 
365 253 251 125 116 112 
364 254 249 115 107 103 
364 255 249 122 113 108 
364 255 250 136 126 122 
365 254 250 134 126 122 
365 254 251 139 130 127 
365 255 250 139 129 125 
365 255 251 142 132 129 
366 252 251 103 92 85 
366 253 251 120 110 105 
366 254 251 138 129 126 
366 252 252 104 94 88 
366 252 253 114 103 98 
366 253 252 118 108 103 
366 253 253 124 114 109 
367 252 253 126 117 113 
367 253 253 130 121 117 
367 252 254 134 125 122 
367 252 255 130 120 116 
367 253 254 137 128 125 
367 253 255 132 122 119 
366 254 252 140 130 127 
366 254 253 137 129 125 
366 255 252 145 135 132 
366 255 253 137 128 125 
367 254 253 136 127 124 
366 255 254 131 123 120 
366 255 255 133 125 123 
367 254 254 134 126 123 
367 254 255 129 120 117 
367 255 255 130 122 119 
368 224 247 127 118 116 
368 224 248 123 113 109 
368 224 249 120 110 104 
368 225 248 132 124 121 
368 225 249 134 125 122 
369 224 249 116 105 99 
368 225 250 140 131 129 
369 224 250 133 123 118 
369 225 250 139 129 125 
369 225 251 142 132 129 
368 226 249 138 130 129 
368 226 250 137 128 126 
368 226 251 138 129 126 
368 227 251 118 109 104 
370 224 250 135 126 122 
370 224 251 126 117 112 
370 225 251 126 115 110 
371 224 251 122 113 108 
369 225 252 130 119 115 
368 226 252 139 131 128 
368 227 252 131 123 120 
368 227 253 141 133 131 
369 226 252 137 127 124 
369 226 253 140 130 128 
369 227 253 144 136 133 
369 227 254 147 139 137 
369 227 255 149 141 141 
370 224 252 103 90 84 
370 225 252 110 97 92 
370 225 253 104 89 84 
371 224 252 109 99 94 
371 224 253 103 91 86 
371 225 253 102 87 82 
371 225 254 103 90 82 
371 225 255 104 91 82 
370 226 253 123 111 107 
370 226 254 132 122 118 
370 226 255 136 127 124 
370 227 255 143 135 133 
371 226 255 113 101 94 
368 228 252 125 116 114 
368 228 253 137 130 129 
368 229 253 130 122 120 
368 228 254 141 134 133 
368 228 255 141 134 134 
368 229 254 137 130 129 
368 229 255 139 132 131 
369 228 255 144 137 136 
368 230 253 128 120 118 
368 230 254 133 125 124 
368 230 255 133 125 124 
368 231 255 119 110 106 
372 224 252 119 110 107 
372 224 253 122 114 111 
373 224 253 139 132 131 
372 224 254 124 115 112 
372 225 254 106 94 88 
372 225 255 102 89 81 
373 224 254 125 117 114 
373 224 255 100 89 81 
373 225 255 100 86 79 
368 232 255 107 96 89 
384 67 229 100 95 95 
384 66 230 98 94 93 
384 66 231 98 94 94 
384 67 230 99 95 94 
384 67 231 100 96 96 
384 69 227 98 93 92 
384 70 227 96 91 89 
384 71 226 97 92 90 
384 71 227 96 90 88 
384 68 228 101 97 96 
384 68 229 99 94 93 
384 69 228 100 95 94 
384 69 229 96 91 90 
384 68 230 99 95 94 
384 68 231 100 96 95 
384 69 230 97 92 91 
385 69 230 98 93 92 
385 69 231 99 94 94 
384 70 228 99 94 92 
384 70 229 95 91 89 
384 71 228 97 92 90 
385 70 229 95 91 89 
385 71 228 96 91 89 
385 71 229 96 91 89 
385 70 230 97 93 92 
385 70 231 98 94 93 
385 71 230 97 93 91 
385 71 231 99 94 93 
384 65 232 97 93 93 
384 65 233 99 95 95 
384 65 234 104 99 99 
384 65 235 107 103 103 
384 66 232 97 94 94 
384 66 233 99 95 95 
384 67 232 99 96 96 
384 67 233 99 96 96 
384 66 234 104 100 100 
384 66 235 108 103 104 
384 67 234 102 98 99 
384 67 235 105 101 102 
384 65 236 108 104 104 
384 66 236 109 105 105 
384 66 237 109 105 105 
384 67 236 107 103 103 
384 67 237 107 103 104 
384 66 238 107 103 103 
384 66 239 107 103 103 
384 67 238 107 103 103 
384 67 239 108 104 104 
384 68 232 101 97 97 
384 68 233 100 96 97 
385 68 232 100 97 97 
385 68 233 99 96 96 
385 69 232 99 96 96 
385 69 233 99 95 96 
384 68 234 100 96 96 
384 68 235 101 97 97 
385 68 234 99 96 96 
385 68 235 99 95 95 
385 69 234 99 96 96 
385 69 235 99 95 95 
385 70 232 99 95 95 
385 70 233 99 96 96 
385 71 232 99 95 95 
385 71 233 100 96 96 
385 70 234 101 97 97 
385 70 235 100 96 96 
385 71 234 100 96 96 
385 71 235 100 96 96 
384 68 236 101 97 97 
384 68 237 102 97 97 
384 69 237 98 94 93 
385 69 236 98 93 93 
385 69 237 98 93 93 
384 68 238 102 98 98 
384 68 239 104 100 100 
384 69 238 99 94 94 
384 69 239 100 96 95 
385 69 238 98 93 93 
385 70 236 98 94 93 
385 70 237 98 94 93 
385 71 236 99 95 94 
385 71 237 100 95 95 
384 70 239 100 96 95 
385 70 238 98 94 93 
385 70 239 101 97 96 
385 71 238 100 96 96 
385 71 239 103 99 99 
384 72 225 101 98 98 
384 73 225 101 98 98 
384 72 226 96 92 92 
384 72 227 94 90 89 
384 73 226 93 90 90 
384 73 227 92 89 88 
385 73 227 93 89 89 
384 74 225 103 99 99 
384 75 225 105 100 100 
384 74 226 92 89 88 
384 75 226 94 90 89 
385 74 227 93 89 88 
385 75 226 97 92 91 
385 75 227 97 92 91 
384 72 228 97 91 89 
385 72 228 95 90 89 
385 72 229 95 90 89 
385 73 228 93 89 89 
385 73 229 92 89 89 
385 72 230 97 92 91 
385 72 231 99 94 93 
385 73 230 96 92 92 
385 73 231 98 94 93 
385 74 228 92 88 88 
385 74 229 91 88 88 
385 75 228 96 91 89 
385 75 229 94 89 89 
385 74 230 93 90 91 
385 74 231 97 93 93 
386 73 231 99 94 94 
386 75 229 95 90 90 
386 74 230 94 91 92 
386 74 231 97 93 92 
386 75 230 95 91 91 
386 75 231 97 93 91 
384 76 225 105 100 100 
384 77 225 105 100 98 
384 76 226 99 94 93 
384 77 226 106 100 99 
385 76 226 100 95 94 
385 76 227 103 98 96 
385 77 227 107 101 99 
384 78 225 108 102 101 
384 78 226 112 107 106 
384 78 227 115 109 107 
384 79 226 103 99 98 
384 79 227 106 102 102 
385 78 227 113 106 103 
385 76 228 101 96 95 
385 77 228 107 101 99 
385 77 229 107 102 101 
384 79 228 103 100 102 
385 78 228 116 109 107 
385 78 229 115 109 107 
385 79 228 119 114 113 
385 79 229 124 119 118 
385 79 230 125 119 119 
386 76 229 100 96 95 
386 77 229 103 99 98 
386 76 230 99 94 94 
386 76 231 99 94 93 
386 77 230 103 98 97 
386 77 231 104 99 98 
386 78 229 112 106 104 
386 78 230 109 104 102 
386 78 231 110 104 102 
386 79 230 121 115 114 
386 79 231 122 115 114 
385 72 232 100 96 95 
385 72 233 100 96 95 
385 73 232 100 96 95 
385 72 234 100 96 96 
385 72 235 101 96 96 
386 72 233 99 95 94 
386 73 232 100 96 95 
386 73 233 100 96 96 
386 72 234 100 96 96 
386 72 235 101 96 96 
386 73 234 100 96 96 
386 73 235 101 97 96 
386 74 232 99 95 94 
386 74 233 101 96 95 
386 75 232 100 95 94 
386 75 233 101 96 95 
386 74 234 101 97 96 
386 74 235 102 97 97 
386 75 234 101 96 95 
386 75 235 102 97 96 
385 72 236 101 96 95 
385 72 237 101 97 97 
385 72 238 104 99 99 
385 72 239 109 105 105 
385 73 238 108 104 104 
385 73 239 114 109 109 
386 72 236 102 97 96 
386 73 236 103 98 97 
386 73 237 103 99 98 
386 73 238 106 102 102 
386 73 239 113 109 109 
386 74 236 104 100 99 
386 74 237 103 99 99 
386 75 236 104 100 99 
386 75 237 104 99 99 
386 74 238 106 102 102 
386 74 239 115 111 111 
386 75 238 106 102 102 
386 75 239 114 110 110 
386 76 232 102 97 96 
386 76 233 104 99 98 
386 77 232 104 99 99 
386 77 233 106 101 101 
386 76 234 102 97 97 
386 76 235 101 96 95 
386 77 234 106 101 100 
386 77 235 105 100 99 
386 78 232 110 105 104 
386 78 233 109 104 104 
386 79 232 121 114 113 
386 79 233 114 108 105 
386 78 234 109 103 102 
386 78 235 110 104 104 
386 79 234 111 104 102 
386 79 235 113 106 105 
386 76 236 104 99 98 
386 76 237 106 101 101 
386 77 236 105 100 99 
386 77 237 108 103 102 
386 76 238 106 102 101 
386 76 239 110 105 105 
386 77 238 107 101 100 
386 77 239 107 102 100 
386 78 236 107 101 99 
386 78 237 108 103 101 
386 79 236 110 104 102 
386 79 237 107 101 100 
386 78 238 109 103 102 
386 78 239 108 103 101 
386 79 238 110 105 104 
386 79 239 111 105 104 
384 67 240 110 105 105 
384 67 241 111 106 106 
384 67 242 110 106 106 
384 67 243 111 106 106 
384 67 244 113 109 109 
384 68 240 106 101 101 
384 68 241 107 102 102 
384 69 240 101 96 96 
384 69 241 103 98 97 
384 68 242 108 103 103 
384 68 243 109 104 104 
384 69 242 103 98 98 
384 69 243 103 99 98 
384 70 240 101 97 96 
384 70 241 102 98 97 
384 71 241 104 100 100 
385 71 240 106 101 101 
385 71 241 107 103 103 
384 70 242 102 98 97 
384 70 243 101 97 97 
384 71 242 105 101 101 
384 71 243 102 98 98 
384 68 244 110 106 106 
384 68 245 110 106 105 
384 69 244 105 100 100 
384 69 245 106 101 101 
384 68 246 103 98 98 
384 69 246 101 96 96 
384 69 247 103 98 97 
384 70 244 102 97 97 
384 70 245 103 99 98 
384 71 244 101 97 97 
384 71 245 101 97 97 
384 70 246 102 98 97 
384 70 247 103 98 97 
384 71 246 102 98 98 
384 71 247 103 97 96 
384 69 248 108 103 102 
384 69 249 109 104 103 
384 70 248 107 101 100 
384 70 249 108 103 101 
384 71 248 105 100 98 
384 71 249 107 102 100 
384 70 250 109 104 103 
384 70 251 109 104 104 
384 71 250 107 102 101 
384 71 251 109 104 104 
384 71 252 107 102 102 
385 72 240 111 107 108 
385 72 241 111 107 108 
385 73 240 115 110 111 
385 73 241 112 108 109 
384 72 243 103 99 99 
385 72 242 110 106 106 
385 72 243 105 101 102 
385 73 242 110 106 107 
385 73 243 107 103 104 
385 74 240 114 110 109 
385 74 241 110 105 105 
385 75 241 108 103 102 
385 74 242 109 105 105 
385 74 243 111 107 107 
385 75 242 110 104 103 
385 75 243 116 110 109 
386 74 240 114 109 109 
386 75 240 112 108 108 
386 75 241 107 102 101 
386 75 242 106 100 98 
384 72 244 101 98 98 
384 72 245 101 97 98 
384 73 245 104 100 99 
385 72 244 103 99 99 
385 73 244 105 100 100 
385 73 245 104 100 100 
384 72 246 101 97 98 
384 72 247 103 98 97 
384 73 246 102 98 98 
384 73 247 103 99 98 
385 73 247 104 99 98 
385 74 244 109 104 103 
385 74 245 107 102 101 
385 75 244 116 110 109 
385 75 245 113 108 106 
384 74 246 104 100 99 
385 74 246 105 101 100 
385 74 247 105 99 98 
385 75 246 107 102 101 
385 75 247 106 101 99 
385 76 242 111 105 103 
385 76 243 117 110 109 
385 77 243 118 112 110 
386 76 240 110 105 104 
386 76 241 106 100 99 
386 77 240 108 103 102 
386 77 241 106 101 100 
386 76 242 108 102 100 
386 77 242 109 102 99 
386 77 243 113 107 105 
386 78 240 109 104 102 
386 78 241 107 102 102 
386 79 240 111 105 104 
386 79 241 108 103 102 
386 78 242 106 100 99 
386 78 243 110 104 102 
386 79 242 108 103 102 
386 79 243 112 107 106 
385 76 244 120 114 113 
385 76 245 117 112 111 
385 77 244 119 113 112 
385 77 245 117 112 112 
385 76 246 109 104 102 
385 76 247 107 102 101 
385 77 246 108 103 102 
385 77 247 107 102 101 
385 78 244 119 113 113 
385 78 245 115 111 111 
385 78 246 109 104 103 
386 77 244 117 111 110 
386 78 244 117 112 111 
386 78 245 118 113 113 
386 79 244 116 111 111 
386 79 245 115 111 111 
386 78 246 108 103 102 
386 78 247 106 101 100 
386 79 246 110 105 105 
386 79 247 108 103 102 
384 72 248 106 101 99 
384 72 249 107 101 100 
384 73 248 106 101 100 
384 73 249 106 101 100 
385 73 248 106 101 99 
384 72 250 106 101 100 
384 72 251 106 102 102 
384 73 250 106 101 100 
384 73 251 104 100 100 
385 74 248 106 101 100 
385 74 249 107 102 100 
385 75 248 108 102 101 
385 75 249 108 102 101 
384 74 250 106 101 100 
384 74 251 103 98 98 
384 75 250 106 101 100 
384 75 251 102 97 96 
385 74 250 107 101 100 
385 75 250 107 102 100 
385 75 251 103 98 97 
384 72 252 102 98 98 
384 72 253 101 97 98 
384 73 252 101 97 96 
384 73 253 100 96 96 
384 73 254 101 96 95 
384 74 252 101 97 96 
384 74 253 101 96 96 
384 75 252 101 96 96 
384 75 253 102 97 96 
384 74 254 104 98 97 
384 74 255 112 106 105 
384 75 254 108 102 101 
384 75 255 115 109 107 
385 76 248 108 103 101 
385 76 249 109 103 102 
385 77 248 108 102 101 
385 77 249 109 103 101 
385 76 250 107 101 100 
385 76 251 100 95 94 
385 77 250 106 101 99 
385 77 251 99 94 93 
385 78 250 103 98 96 
385 78 251 99 94 93 
385 79 251 99 95 94 
386 77 248 107 101 100 
386 77 249 108 102 101 
386 78 248 106 100 99 
386 78 249 107 101 100 
386 79 248 106 101 100 
386 79 249 105 100 99 
386 78 250 105 100 98 
386 79 250 103 97 96 
386 79 251 101 97 96 
384 76 252 100 95 95 
384 76 253 103 98 97 
384 77 253 110 105 104 
385 76 252 99 94 94 
385 77 252 98 93 93 
385 77 253 105 100 99 
384 76 254 113 107 106 
384 76 255 117 111 110 
384 77 254 117 111 111 
384 77 255 119 113 113 
385 78 252 99 94 94 
385 78 253 109 104 103 
385 79 252 103 98 97 
385 79 253 111 106 106 
384 78 254 119 114 114 
384 78 255 120 115 115 
384 79 255 120 115 116 
385 78 254 119 114 114 
385 79 254 119 115 115 
385 79 255 118 114 114 
386 79 252 106 101 100 
384 80 227 88 85 85 
384 81 227 88 82 81 
384 82 227 90 85 83 
384 83 227 89 85 83 
384 80 228 87 85 86 
384 81 228 87 81 80 
385 80 228 92 89 91 
385 80 229 105 102 104 
385 81 228 83 80 80 
385 81 229 89 86 88 
385 80 230 115 112 114 
385 81 230 91 89 91 
385 81 231 85 84 87 
384 82 228 94 88 86 
384 83 228 96 91 90 
385 82 228 99 93 92 
385 82 229 101 97 96 
385 83 228 100 96 95 
385 83 229 105 101 101 
385 82 230 94 89 89 
385 82 231 76 72 72 
385 83 230 101 96 95 
385 83 231 87 81 80 
386 80 231 121 118 120 
386 81 231 97 97 100 
386 82 231 72 71 73 
384 84 226 86 80 76 
384 84 227 88 83 81 
384 85 226 92 86 83 
384 85 227 93 87 84 
384 86 226 104 98 96 
384 86 227 103 97 95 
384 87 226 113 108 106 
384 87 227 111 105 104 
384 84 228 93 89 87 
384 85 228 94 89 86 
385 84 228 98 94 93 
385 84 229 107 102 102 
385 85 228 98 92 90 
385 85 229 105 99 98 
385 84 230 102 98 98 
385 84 231 94 90 89 
385 85 230 102 97 96 
385 85 231 99 95 94 
384 87 228 109 103 102 
385 86 228 103 97 95 
385 86 229 105 99 98 
385 87 228 110 104 103 
385 87 229 112 106 105 
385 86 230 103 98 96 
385 86 231 105 100 99 
385 87 230 110 105 104 
385 87 231 113 107 106 
385 83 232 83 77 76 
386 80 232 125 120 120 
386 80 233 120 113 112 
386 81 232 107 105 107 
386 81 233 113 109 111 
386 80 234 114 108 106 
386 80 235 112 106 104 
386 81 234 110 106 107 
386 81 235 109 105 105 
386 82 232 74 72 74 
386 82 233 79 77 79 
386 83 232 73 68 68 
386 83 233 70 66 66 
386 82 234 78 76 79 
386 82 235 89 87 89 
386 83 234 69 64 65 
386 83 235 69 65 66 
386 80 236 110 104 103 
386 80 237 107 101 100 
386 81 236 109 105 105 
386 81 237 109 104 104 
386 80 238 110 105 104 
386 80 239 110 105 104 
386 81 238 111 106 106 
386 81 239 109 103 103 
386 82 236 94 91 92 
386 82 237 104 100 101 
386 83 236 69 65 66 
386 83 237 78 74 74 
386 82 238 109 104 105 
386 82 239 108 104 103 
386 83 238 87 83 83 
386 83 239 94 90 90 
385 84 232 95 91 90 
385 85 232 106 101 102 
385 86 232 112 106 106 
385 87 232 113 108 107 
385 87 233 114 109 108 
386 84 232 94 89 88 
386 84 233 91 86 84 
386 85 232 110 105 105 
386 85 233 107 102 101 
386 84 234 90 84 83 
386 84 235 88 82 81 
386 85 234 106 100 98 
386 85 235 105 99 98 
386 86 232 112 107 107 
386 86 233 109 103 102 
386 87 233 112 106 105 
386 86 234 107 101 100 
386 86 235 107 101 100 
386 87 234 109 103 102 
386 87 235 108 102 101 
386 84 236 78 72 71 
386 84 237 73 67 66 
386 85 236 96 89 87 
386 85 237 88 82 80 
386 84 238 70 65 63 
386 84 239 71 67 66 
386 85 238 82 76 74 
386 85 239 74 69 67 
386 86 236 104 98 96 
386 86 237 103 97 95 
386 87 236 106 100 99 
386 87 237 108 102 101 
386 86 238 100 94 92 
386 86 239 93 87 85 
386 87 238 107 102 100 
386 87 239 101 95 94 
384 88 226 118 112 112 
384 88 227 115 109 109 
384 89 226 115 109 108 
384 89 227 113 108 107 
384 90 227 111 105 103 
384 88 228 113 107 107 
384 89 228 117 111 110 
385 88 228 115 109 108 
385 88 229 117 111 111 
385 89 228 118 112 111 
385 89 229 121 115 114 
385 88 230 117 111 111 
385 88 231 118 112 112 
385 89 230 120 114 113 
385 89 231 120 114 113 
384 90 228 122 115 115 
384 90 229 129 123 122 
384 91 228 127 121 120 
384 91 229 134 127 127 
385 90 229 125 118 117 
384 91 230 131 124 124 
385 90 230 124 117 116 
385 90 231 119 113 112 
385 91 230 126 120 119 
385 91 231 116 111 110 
384 92 228 133 127 126 
384 92 229 135 129 128 
384 93 228 136 129 129 
384 93 229 135 129 129 
384 92 230 127 122 121 
384 93 230 129 123 123 
384 93 231 123 118 118 
385 92 231 117 112 111 
385 93 231 118 113 113 
384 94 229 132 127 127 
384 94 230 126 121 121 
384 94 231 120 115 116 
384 95 230 121 117 118 
384 95 231 120 115 116 
385 88 232 117 111 111 
385 88 233 117 111 111 
385 89 232 120 114 113 
385 89 233 119 113 112 
385 89 234 115 110 109 
385 90 232 118 112 112 
385 90 233 116 110 109 
385 91 232 113 108 108 
385 91 233 110 105 105 
385 90 234 113 108 107 
385 90 235 112 107 107 
385 91 234 108 104 103 
385 91 235 111 106 106 
386 88 234 113 108 107 
386 88 235 111 105 105 
386 89 234 114 109 108 
386 89 235 111 107 106 
386 90 235 111 107 107 
386 91 235 112 108 108 
386 88 236 108 103 102 
386 88 237 108 103 103 
386 89 236 109 105 105 
386 89 237 110 106 106 
386 88 238 108 103 102 
386 88 239 100 94 93 
386 89 238 107 103 103 
386 89 239 96 91 90 
386 90 236 111 106 107 
386 90 237 109 106 106 
386 91 236 111 107 107 
386 91 237 108 104 104 
386 90 238 105 101 102 
386 90 239 98 94 94 
386 91 238 106 101 101 
386 91 239 106 101 100 
385 92 232 112 107 107 
385 92 233 106 101 102 
385 93 232 112 108 109 
385 93 233 107 102 103 
385 92 234 105 101 101 
385 92 235 110 105 105 
385 93 234 104 100 100 
385 93 235 110 105 104 
384 94 232 117 112 112 
384 95 232 118 113 113 
384 95 233 117 112 112 
385 94 232 115 110 111 
385 94 233 109 105 105 
385 95 233 115 110 110 
385 94 234 109 104 104 
385 94 235 119 113 111 
385 95 234 120 115 115 
385 95 235 133 126 125 
385 92 236 111 106 106 
385 93 236 117 111 110 
385 93 237 125 118 117 
385 93 238 135 128 126 
385 93 239 135 127 125 
384 95 236 149 142 141 
384 95 237 149 142 141 
385 94 236 132 125 124 
385 94 237 142 135 134 
385 95 236 145 138 138 
385 95 237 148 141 140 
384 95 238 145 138 137 
384 95 239 133 127 127 
385 94 238 147 139 138 
385 94 239 142 134 132 
385 95 238 149 141 141 
385 95 239 142 134 134 
386 92 236 111 106 106 
386 92 237 112 107 106 
386 92 238 115 110 109 
386 92 239 117 111 110 
386 93 238 126 119 118 
386 93 239 127 119 117 
386 80 240 112 106 105 
386 80 241 111 105 105 
386 81 240 109 104 102 
386 81 241 111 105 103 
386 80 242 112 107 106 
386 80 243 114 109 109 
386 81 242 114 108 107 
386 81 243 115 110 109 
386 82 240 106 101 100 
386 82 241 109 103 101 
386 83 240 100 96 96 
386 83 241 105 100 100 
386 82 242 114 108 107 
386 82 243 116 110 109 
386 83 242 111 106 106 
386 83 243 115 110 110 
386 80 244 114 109 109 
386 80 245 113 108 108 
386 81 244 113 108 107 
386 81 245 114 108 107 
386 80 246 111 107 106 
386 80 247 109 105 104 
386 81 246 112 107 106 
386 81 247 109 104 103 
386 82 244 114 109 107 
386 82 245 117 111 109 
386 83 244 117 111 109 
386 83 245 119 112 110 
386 82 246 115 109 107 
386 82 247 110 104 102 
386 83 246 116 109 108 
386 83 247 113 108 106 
386 84 240 80 76 76 
386 84 241 88 84 84 
386 85 240 68 65 64 
386 85 241 68 65 66 
386 84 242 96 92 92 
386 84 243 105 101 101 
386 85 242 72 69 69 
386 85 243 80 77 77 
386 86 240 87 82 80 
386 86 241 77 72 73 
386 87 240 100 94 93 
386 87 241 92 87 84 
386 86 242 66 61 61 
386 86 243 63 59 59 
386 87 242 81 74 69 
386 87 243 78 70 65 
386 84 244 110 105 105 
386 84 245 115 110 108 
386 85 244 92 88 88 
386 85 245 96 92 91 
386 84 246 115 109 108 
386 84 247 116 111 110 
386 85 246 104 98 97 
386 85 247 111 106 105 
386 86 244 68 63 62 
386 86 245 71 66 64 
386 87 244 78 70 65 
386 87 245 74 68 64 
386 86 246 78 72 70 
386 86 247 86 82 80 
386 87 246 71 64 59 
386 87 247 74 68 65 
386 80 248 108 102 101 
386 80 249 104 99 98 
386 81 248 107 102 100 
386 81 249 105 100 98 
386 80 250 104 99 97 
386 80 251 107 102 102 
386 81 250 108 102 101 
386 81 251 113 108 107 
386 82 248 109 103 101 
386 82 249 109 103 102 
386 83 248 113 108 107 
386 83 249 113 107 106 
386 82 250 113 107 106 
386 82 251 118 113 112 
386 83 250 115 110 109 
386 83 251 120 114 113 
385 80 253 111 106 106 
385 80 254 114 109 110 
385 80 255 116 112 112 
385 81 254 109 104 104 
385 81 255 112 108 108 
385 82 254 110 105 105 
385 82 255 112 107 107 
385 83 255 118 113 112 
386 80 252 110 105 104 
386 80 253 109 104 104 
386 81 252 115 110 109 
386 81 253 110 105 105 
386 82 252 119 114 113 
386 82 253 111 106 106 
386 83 252 119 113 112 
386 83 253 114 109 109 
386 82 254 109 104 103 
386 83 254 116 111 111 
386 84 248 117 112 111 
386 84 249 116 110 109 
386 85 248 114 109 109 
386 85 249 117 112 111 
386 84 250 119 114 113 
386 84 251 122 116 115 
386 85 250 122 116 116 
386 85 251 120 115 114 
386 86 248 94 89 88 
386 86 249 100 96 95 
386 87 248 76 70 67 
386 87 249 70 64 62 
386 86 250 110 106 107 
386 86 251 116 112 112 
386 87 250 78 74 74 
386 87 251 96 92 92 
385 84 255 124 118 117 
385 85 254 126 120 119 
385 85 255 127 120 119 
385 86 253 126 120 119 
385 87 252 108 101 100 
385 87 253 116 110 109 
385 86 254 128 122 120 
385 86 255 129 122 121 
385 87 254 123 117 115 
385 87 255 129 123 122 
386 84 252 118 112 111 
386 84 253 117 112 111 
386 85 252 119 113 113 
386 85 253 121 116 116 
386 84 254 122 116 116 
386 84 255 123 118 117 
386 85 254 124 119 118 
386 86 252 120 114 115 
386 86 253 124 118 118 
386 87 252 105 100 98 
386 88 240 93 88 87 
386 88 241 92 85 83 
386 89 240 86 80 78 
386 89 241 87 80 76 
386 88 242 90 83 80 
386 88 243 89 82 79 
386 89 242 89 82 78 
386 89 243 92 84 80 
386 90 240 92 86 85 
386 90 241 86 78 74 
386 91 240 105 98 96 
386 91 241 93 85 81 
386 90 242 85 77 72 
386 90 243 88 80 74 
386 91 242 89 81 76 
386 91 243 89 79 72 
385 90 247 90 82 78 
385 91 246 127 117 114 
385 91 247 99 89 84 
386 88 244 90 82 79 
386 88 245 83 76 72 
386 89 244 94 86 82 
386 89 245 88 81 77 
386 88 246 76 69 65 
386 88 247 81 75 73 
386 89 246 83 76 72 
386 89 247 85 79 76 
386 90 244 90 81 74 
386 90 245 95 86 81 
386 91 244 92 82 74 
386 91 245 110 100 95 
386 90 246 99 90 86 
386 90 247 91 83 80 
386 91 246 116 107 103 
385 93 240 128 119 116 
385 93 241 110 100 94 
385 93 242 99 88 80 
385 93 243 96 84 76 
384 95 240 126 120 119 
384 95 241 123 116 115 
385 94 240 132 123 120 
385 94 241 121 112 108 
385 95 240 131 124 122 
385 95 241 128 120 118 
384 94 243 98 88 83 
384 95 242 120 112 110 
384 95 243 100 90 87 
385 94 242 115 105 100 
385 94 243 103 92 86 
385 95 242 125 117 115 
386 92 240 116 109 106 
386 92 241 103 94 90 
386 93 240 123 114 111 
386 93 241 107 98 92 
386 92 242 93 83 77 
386 92 243 92 81 73 
386 93 242 95 84 77 
385 92 244 104 93 85 
385 92 245 124 114 110 
385 93 244 104 93 86 
385 93 245 123 113 109 
384 93 246 123 114 110 
384 93 247 110 100 96 
385 92 246 122 111 106 
385 92 247 96 85 79 
385 93 246 122 111 107 
384 94 244 98 89 84 
384 94 245 113 104 101 
384 95 244 88 76 74 
384 95 245 100 92 90 
385 94 244 97 87 80 
384 94 246 120 113 111 
384 94 247 127 119 118 
384 95 246 107 100 98 
386 92 244 97 85 77 
385 89 249 94 86 82 
385 88 251 91 83 80 
385 89 250 100 92 87 
385 89 251 111 102 99 
385 90 248 93 86 82 
385 90 249 109 102 99 
385 91 248 95 87 84 
385 91 249 107 100 97 
384 91 250 111 103 100 
384 91 251 116 109 106 
385 90 250 121 113 110 
385 90 251 127 119 117 
385 91 250 117 109 105 
385 91 251 121 114 111 
386 88 248 81 73 72 
386 88 249 68 58 58 
386 89 248 83 76 74 
386 89 249 79 70 67 
386 88 250 70 61 60 
386 88 251 77 71 69 
386 89 250 82 73 69 
385 88 252 104 96 94 
385 88 253 106 99 96 
385 89 252 120 112 109 
385 89 253 110 103 100 
384 89 254 105 98 97 
384 89 255 96 90 90 
385 88 254 109 103 102 
385 88 255 116 111 111 
385 89 254 102 96 94 
384 90 252 128 120 118 
384 90 253 119 112 110 
384 91 252 120 113 111 
384 91 253 118 111 108 
385 90 252 128 121 118 
385 90 253 122 115 112 
384 90 254 112 106 104 
384 90 255 99 93 91 
384 91 254 115 108 106 
384 91 255 104 97 95 
384 92 248 95 85 82 
384 92 249 96 87 83 
384 93 248 103 93 89 
384 93 249 94 84 79 
385 92 248 94 85 81 
384 92 250 97 88 83 
384 92 251 98 89 84 
384 93 250 93 83 77 
384 92 252 100 92 88 
384 92 253 110 103 100 
384 92 254 114 106 103 
384 96 231 121 117 118 
384 96 232 126 120 120 
384 96 233 129 123 122 
384 97 232 132 125 125 
384 97 233 134 128 127 
384 96 234 135 128 128 
384 96 235 145 138 137 
384 97 234 143 136 136 
384 97 235 147 140 139 
384 96 236 148 141 141 
384 96 237 146 139 138 
384 96 238 137 131 131 
384 96 239 125 120 121 
384 96 240 118 113 113 
384 96 241 112 106 106 
384 96 242 113 106 105 
384 163 255 92 89 90 
384 165 253 90 87 87 
384 164 254 88 85 86 
384 164 255 90 87 88 
384 165 254 87 84 84 
385 164 255 92 88 89 
385 165 254 87 85 85 
385 165 255 89 86 87 
384 166 253 89 86 87 
384 167 252 80 78 78 
384 167 253 86 84 84 
385 167 253 87 85 86 
385 166 254 86 84 84 
385 166 255 87 85 87 
385 167 254 84 82 83 
386 165 255 90 88 89 
386 166 255 90 88 89 
386 167 254 85 83 84 
386 167 255 91 89 91 
387 167 255 99 97 99 
384 169 251 79 74 72 
384 170 250 83 77 74 
384 170 251 79 74 71 
384 171 250 84 78 75 
384 171 251 79 74 71 
385 171 251 79 74 71 
384 168 252 76 73 73 
384 169 252 76 73 72 
385 168 253 87 84 85 
385 169 252 76 74 74 
385 169 253 85 83 83 
385 168 254 85 82 83 
384 170 252 74 71 69 
385 170 252 75 72 71 
385 171 252 76 72 70 
386 169 253 89 86 86 
386 168 254 85 83 83 
386 169 254 90 87 86 
387 168 254 89 86 86 
387 168 255 93 89 90 
387 169 254 90 86 86 
386 170 252 75 72 72 
386 170 253 83 80 80 
386 171 252 72 69 68 
386 171 253 76 73 73 
387 170 253 93 90 89 
387 171 253 93 89 90 
387 170 254 94 90 89 
384 172 249 95 90 88 
384 173 249 98 94 92 
384 172 250 89 84 81 
384 173 250 95 90 89 
385 172 251 82 77 73 
385 173 250 95 89 87 
385 173 251 90 84 81 
384 174 249 100 96 95 
384 175 248 101 97 98 
384 175 249 99 95 96 
384 174 250 99 95 94 
384 175 250 99 95 94 
385 174 250 99 94 92 
385 174 251 96 91 89 
385 175 250 99 95 94 
385 175 251 100 95 94 
386 172 251 79 74 71 
386 173 251 84 78 75 
386 174 251 92 87 85 
386 175 251 98 93 92 
386 172 252 74 69 67 
386 173 252 77 73 71 
387 172 252 75 72 71 
387 172 253 85 82 82 
387 173 252 74 70 69 
387 173 253 85 82 82 
386 175 252 93 88 87 
387 174 252 80 76 75 
387 174 253 82 78 77 
387 175 252 88 83 82 
387 175 253 83 79 78 
388 168 255 96 93 92 
388 169 255 96 93 92 
388 170 254 97 93 92 
388 170 255 98 94 95 
388 171 254 98 94 93 
388 171 255 100 96 96 
389 170 255 100 97 97 
389 171 255 103 99 99 
388 172 253 99 95 95 
388 173 253 96 92 92 
388 172 254 97 93 94 
388 173 254 94 90 90 
389 172 255 99 95 95 
389 173 255 95 92 93 
388 174 253 92 88 87 
388 175 253 87 83 81 
388 174 254 91 87 86 
388 175 254 90 85 84 
389 174 255 93 89 89 
389 175 255 91 86 86 
384 176 248 101 98 99 
384 176 249 98 95 95 
384 177 248 104 100 101 
384 177 249 99 96 97 
385 176 249 96 93 93 
385 177 249 97 94 94 
385 176 250 97 94 93 
385 177 250 95 92 92 
384 178 248 106 102 102 
384 178 249 100 97 97 
384 179 248 103 98 97 
384 179 249 97 93 93 
385 179 249 94 91 91 
385 178 250 94 91 91 
385 179 250 88 86 86 
386 176 250 97 93 92 
386 176 251 98 93 93 
386 177 250 95 92 92 
386 177 251 95 92 91 
386 178 250 92 89 89 
386 178 251 93 90 90 
386 179 251 89 86 86 
387 176 252 91 87 86 
387 176 253 82 79 79 
387 177 252 91 88 88 
387 177 253 82 80 80 
386 179 252 87 84 85 
387 178 252 90 88 88 
387 178 253 84 82 84 
387 179 252 89 86 87 
387 179 253 81 79 81 
384 180 249 99 94 93 
384 181 249 103 97 96 
384 180 250 88 84 83 
384 181 250 91 87 86 
384 181 251 86 81 79 
385 180 250 85 81 81 
385 180 251 82 79 79 
385 181 251 84 79 78 
384 182 250 95 90 88 
384 182 251 89 83 81 
386 180 251 84 81 81 
385 180 252 77 73 72 
385 181 252 87 80 77 
385 181 253 124 117 115 
385 181 254 154 146 145 
385 181 255 157 148 147 
384 182 252 120 113 111 
384 182 253 146 138 137 
384 183 253 146 138 136 
385 182 252 111 103 99 
385 182 253 142 134 132 
384 182 254 148 140 138 
384 182 255 146 137 135 
384 183 254 144 136 135 
384 183 255 142 134 131 
385 182 254 153 145 144 
385 182 255 152 143 142 
386 180 252 80 76 75 
386 180 253 81 76 74 
386 181 253 100 94 92 
387 180 252 85 82 82 
387 180 253 82 79 79 
386 181 254 147 139 137 
386 181 255 158 149 147 
387 180 254 120 113 111 
387 180 255 145 137 135 
387 181 255 155 146 144 
388 176 253 84 80 78 
388 177 253 79 76 75 
388 176 254 90 86 84 
388 177 254 86 82 80 
388 177 255 97 91 89 
389 176 255 96 91 90 
389 177 255 114 108 107 
388 178 253 75 74 75 
388 179 253 72 70 72 
388 178 254 79 75 73 
388 178 255 112 105 103 
388 179 254 84 79 78 
388 179 255 127 120 118 
388 180 255 140 132 130 
319 59 256 102 98 98 
319 59 257 104 99 99 
319 58 258 97 94 94 
319 58 259 92 88 89 
319 59 258 98 94 94 
319 59 259 91 88 88 
319 58 260 88 85 86 
319 58 261 90 87 86 
319 59 260 89 86 86 
319 59 261 91 87 87 
319 58 262 95 91 90 
319 59 262 96 91 91 
319 59 263 100 96 95 
319 60 256 99 94 94 
319 60 257 100 96 96 
319 61 256 97 93 92 
319 61 257 96 92 92 
319 60 258 97 93 93 
319 60 259 89 86 86 
319 61 258 94 90 89 
319 61 259 87 83 83 
319 62 256 98 94 93 
319 62 257 96 91 91 
319 63 256 99 94 94 
319 63 257 97 93 93 
319 62 258 91 87 87 
319 62 259 87 83 84 
319 63 258 92 87 87 
319 63 259 89 85 85 
319 60 260 87 84 84 
319 60 261 90 86 87 
319 61 260 85 82 82 
319 61 261 88 84 85 
319 60 262 95 91 90 
319 60 263 99 94 93 
319 61 262 93 89 88 
319 61 263 97 92 92 
319 62 260 86 83 83 
319 62 261 88 85 86 
319 63 260 89 85 86 
319 63 261 91 88 89 
319 62 262 92 88 89 
319 62 263 96 92 91 
319 63 262 95 91 92 
319 63 263 96 93 93 
319 60 264 100 95 94 
319 61 264 98 93 92 
319 62 264 93 88 87 
319 63 264 92 88 87 
319 64 256 97 94 94 
319 64 257 97 93 93 
319 65 256 96 92 92 
319 65 257 98 94 93 
318 65 259 92 87 86 
319 64 258 92 87 86 
319 64 259 90 85 84 
319 65 258 95 90 89 
319 65 259 92 87 86 
318 66 256 91 87 87 
318 66 257 97 92 91 
318 67 256 86 82 81 
318 67 257 92 87 86 
318 66 258 97 91 91 
318 66 259 92 87 86 
318 67 258 97 91 91 
318 67 259 93 88 87 
318 64 261 93 89 89 
318 65 260 92 87 87 
318 65 261 93 89 89 
319 64 260 91 87 86 
319 64 261 93 90 90 
319 65 260 92 87 87 
319 65 261 94 90 91 
318 65 262 95 92 92 
319 64 262 96 93 94 
319 64 263 98 94 95 
319 65 262 97 93 93 
319 65 263 99 95 96 
318 66 260 89 84 83 
318 66 261 91 87 86 
318 67 260 89 84 82 
318 67 261 89 85 84 
318 66 262 95 92 92 
318 66 263 97 93 94 
318 67 262 94 90 91 
318 67 263 97 94 94 
319 66 263 99 95 96 
317 68 256 85 81 79 
317 69 256 87 82 82 
317 69 257 89 85 84 
317 69 258 97 93 93 
317 69 259 101 97 97 
317 70 256 92 88 88 
317 70 257 93 89 89 
317 71 256 97 93 94 
317 71 257 97 94 94 
317 70 258 99 95 95 
317 70 259 102 98 99 
317 71 258 99 95 96 
317 71 259 101 97 98 
318 68 256 85 80 78 
318 68 257 87 82 81 
318 68 258 96 91 90 
318 68 259 98 93 93 
317 69 260 99 95 95 
317 69 261 96 92 92 
317 69 262 94 90 91 
317 69 263 92 88 88 
317 70 260 102 98 99 
317 70 261 97 93 94 
317 71 260 101 97 98 
317 71 261 97 94 94 
317 70 262 93 89 90 
317 70 263 91 87 86 
317 71 262 93 89 90 
317 71 263 90 86 85 
318 68 260 94 90 89 
318 68 261 93 88 88 
318 69 261 95 91 91 
318 68 262 94 90 90 
318 68 263 95 92 92 
318 69 262 94 90 90 
318 69 263 92 88 88 
319 64 264 95 91 91 
319 64 265 92 87 85 
319 65 264 98 94 95 
319 65 265 95 91 90 
318 67 264 100 96 96 
319 66 264 100 96 97 
319 66 265 97 93 93 
319 67 264 100 96 97 
319 67 265 98 94 94 
319 66 266 92 87 86 
319 67 266 90 85 84 
319 67 267 83 78 76 
317 70 264 92 87 87 
317 70 265 99 95 95 
317 71 264 92 88 87 
317 71 265 98 93 93 
317 71 266 99 94 94 
317 71 267 92 86 85 
318 68 264 98 95 95 
318 68 265 99 95 95 
318 69 264 95 91 91 
318 69 265 100 95 95 
319 68 265 96 92 92 
318 68 266 92 87 85 
318 69 266 94 89 89 
318 69 267 82 76 74 
319 68 266 89 84 84 
319 68 267 78 73 70 
319 69 267 77 70 67 
318 70 264 96 91 91 
318 70 265 100 95 95 
318 70 266 97 92 92 
318 70 267 85 79 76 
318 71 267 87 81 79 
318 69 268 74 67 63 
319 68 268 73 66 63 
319 68 269 74 66 60 
319 69 268 73 65 60 
319 69 269 74 66 60 
319 69 270 76 67 62 
318 70 268 75 68 63 
318 70 269 75 67 61 
318 71 268 80 73 68 
318 71 269 78 70 65 
319 70 268 74 66 61 
319 70 269 74 66 60 
318 71 270 78 71 66 
319 70 270 76 68 62 
319 70 271 81 74 71 
319 71 270 77 69 63 
319 71 271 82 75 71 
315 74 256 94 91 93 
315 74 257 94 92 93 
315 75 256 89 86 88 
315 75 257 89 87 88 
315 74 258 94 92 93 
315 74 259 95 92 93 
315 75 258 90 87 89 
315 75 259 92 89 90 
315 74 260 97 94 95 
315 74 261 99 96 97 
315 75 260 97 94 95 
315 75 261 101 98 99 
315 75 262 102 99 100 
315 75 263 100 97 98 
313 79 256 82 79 79 
313 79 257 86 82 82 
313 79 258 91 87 87 
313 79 259 96 91 91 
314 77 256 83 80 80 
314 77 257 85 82 82 
315 76 256 85 82 83 
315 76 257 85 83 83 
314 77 258 88 85 85 
314 77 259 91 88 88 
315 76 258 87 84 85 
315 76 259 91 88 88 
314 78 256 82 79 79 
314 78 257 84 81 81 
314 79 256 82 79 79 
314 79 257 84 81 81 
314 78 258 89 85 85 
314 78 259 93 89 89 
314 79 258 90 86 86 
314 79 259 95 91 90 
313 79 260 101 96 96 
313 79 261 103 98 98 
314 77 260 94 90 90 
314 77 261 96 92 92 
315 76 260 96 92 93 
315 76 261 99 96 97 
314 77 262 97 93 93 
314 77 263 97 93 93 
315 76 262 100 97 98 
315 76 263 99 96 97 
314 78 260 94 90 89 
314 78 261 96 91 90 
314 79 260 97 93 92 
314 79 261 100 95 95 
314 78 262 97 93 92 
314 78 263 99 95 94 
314 79 262 104 99 98 
314 79 263 105 100 100 
316 72 256 98 96 97 
316 72 257 98 95 97 
316 73 256 98 96 97 
316 73 257 98 96 97 
316 72 258 98 95 96 
316 72 259 99 96 97 
316 73 258 98 95 96 
316 73 259 97 95 96 
316 74 256 96 93 95 
316 74 257 96 94 95 
316 74 258 96 93 95 
316 74 259 96 93 95 
316 72 260 100 96 97 
316 72 261 98 94 95 
316 73 260 98 95 97 
316 73 261 98 95 96 
316 72 262 95 91 92 
316 72 263 93 89 89 
316 73 262 96 93 94 
316 73 263 94 91 92 
317 72 262 93 90 90 
317 72 263 91 88 87 
316 74 260 98 95 96 
316 74 261 99 96 97 
316 74 262 99 96 97 
316 74 263 98 95 96 
315 75 264 97 94 94 
315 75 265 93 90 90 
315 75 266 92 89 89 
315 75 267 92 88 88 
314 77 264 95 91 91 
314 77 265 94 90 90 
315 76 264 96 92 92 
315 76 265 92 89 88 
315 77 264 95 91 91 
315 77 265 93 89 88 
315 76 266 92 88 88 
315 76 267 92 88 88 
315 77 266 94 90 90 
315 77 267 95 91 90 
314 78 264 99 94 94 
314 78 265 99 94 94 
314 79 264 105 100 100 
314 79 265 105 100 100 
314 78 266 100 96 95 
314 79 266 106 101 100 
314 79 267 110 104 103 
315 78 266 97 93 92 
315 78 267 101 96 95 
315 79 267 107 102 101 
315 76 268 94 90 89 
315 77 268 98 93 93 
315 77 269 101 95 94 
315 78 268 102 97 97 
315 78 269 98 92 91 
315 79 268 106 100 99 
315 79 269 90 83 80 
316 72 264 93 89 89 
316 72 265 94 90 90 
316 73 264 94 90 90 
316 73 265 94 90 90 
317 72 264 93 89 89 
317 72 265 96 91 91 
316 73 266 95 91 92 
316 73 267 97 93 93 
317 72 266 98 94 94 
317 72 267 97 92 91 
317 73 266 97 93 93 
317 73 267 100 95 95 
316 74 264 95 92 93 
316 74 265 94 90 90 
316 75 264 95 91 92 
316 75 265 94 91 91 
316 74 266 94 90 90 
316 74 267 97 93 93 
316 75 266 93 89 89 
316 75 267 93 90 89 
317 72 268 96 90 88 
317 72 269 98 92 91 
317 73 268 103 98 98 
317 73 269 102 97 96 
317 73 270 96 91 89 
317 73 271 91 85 83 
316 74 268 100 96 96 
316 75 268 96 92 92 
316 75 269 97 93 93 
317 74 268 103 98 99 
317 74 269 102 97 97 
317 75 269 98 93 93 
316 75 270 95 90 89 
317 74 270 97 92 91 
317 74 271 90 84 82 
317 75 270 94 89 87 
317 75 271 90 84 82 
318 72 268 88 81 78 
318 72 269 89 82 80 
318 72 270 88 81 78 
318 72 271 85 78 75 
318 73 271 89 82 80 
319 72 271 83 77 74 
318 74 271 89 83 81 
316 76 268 96 91 90 
316 76 269 96 92 91 
316 77 269 99 94 93 
316 76 270 94 89 87 
316 77 270 94 88 86 
317 76 271 93 87 85 
317 77 271 97 91 88 
316 78 269 95 89 86 
316 79 269 85 77 73 
316 78 270 93 86 83 
316 79 270 83 76 72 
317 78 271 100 93 90 
317 79 271 88 79 74 
318 79 271 86 75 69 
319 71 272 83 77 74 
319 71 273 84 78 75 
317 75 272 98 92 89 
318 72 272 85 79 76 
318 73 272 87 81 78 
318 73 273 85 79 75 
319 72 272 83 76 73 
319 72 273 82 76 73 
319 73 273 85 78 75 
319 72 274 85 79 76 
319 73 274 86 79 76 
319 73 275 88 81 78 
318 74 272 92 85 82 
318 74 273 92 85 82 
318 75 272 100 93 91 
318 75 273 108 101 98 
318 75 274 107 99 96 
319 74 274 93 85 81 
319 74 275 92 84 79 
319 75 274 108 99 95 
319 75 275 102 93 89 
317 76 272 105 98 96 
317 77 272 111 104 103 
317 78 272 110 103 102 
318 76 272 112 105 103 
318 76 273 118 111 109 
318 77 272 116 109 108 
318 77 273 120 113 111 
319 76 274 117 108 105 
319 76 275 109 100 96 
319 77 274 127 119 118 
318 78 272 106 99 97 
318 78 273 104 97 93 
318 79 272 89 80 74 
319 78 273 111 104 101 
319 79 272 97 87 81 
319 79 273 108 99 95 
319 78 274 127 120 119 
313 80 256 84 81 81 
313 80 257 88 84 84 
313 81 256 87 83 83 
313 81 257 90 86 86 
313 80 258 93 89 89 
313 80 259 99 94 94 
313 81 258 96 91 91 
313 81 259 99 95 95 
312 82 256 90 86 86 
312 82 257 92 88 88 
312 83 256 93 88 87 
312 83 257 94 90 89 
312 82 258 98 93 93 
312 82 259 98 94 93 
312 83 258 98 93 93 
312 83 259 99 94 94 
313 82 258 97 93 92 
313 82 259 99 94 94 
313 80 260 104 99 99 
313 80 261 108 103 103 
313 81 260 104 99 99 
313 81 261 108 103 103 
313 80 262 111 106 106 
313 80 263 110 106 106 
313 81 262 111 106 106 
313 81 263 110 105 105 
312 83 260 99 95 94 
313 82 260 99 94 94 
313 82 261 101 95 95 
313 83 260 98 93 93 
313 83 261 98 93 92 
313 82 262 106 101 101 
313 82 263 107 102 102 
313 83 262 103 98 98 
313 83 263 104 99 99 
314 80 263 109 105 105 
312 84 256 94 90 89 
312 84 257 96 91 91 
312 85 256 100 95 95 
312 85 257 99 94 94 
312 84 258 98 94 94 
312 84 259 100 96 95 
312 85 258 100 95 95 
312 85 259 100 96 96 
312 86 256 106 101 101 
312 86 257 105 100 100 
312 87 256 96 90 89 
312 87 257 96 90 89 
312 86 258 106 102 102 
312 86 259 106 102 103 
312 87 258 100 95 95 
312 87 259 105 101 101 
312 84 260 101 97 97 
312 84 261 100 96 95 
312 85 260 103 98 98 
312 85 261 101 97 97 
313 84 261 100 95 94 
313 85 261 99 95 94 
313 84 262 101 96 96 
313 84 263 103 98 98 
313 85 262 99 94 94 
313 85 263 102 97 97 
312 86 260 105 101 101 
312 86 261 102 97 97 
312 87 260 104 100 100 
312 87 261 102 97 96 
313 87 261 101 96 96 
313 86 262 100 95 94 
313 86 263 100 95 94 
313 87 262 102 97 96 
313 87 263 102 97 97 
313 81 264 107 103 103 
313 82 264 104 99 99 
313 82 265 106 100 99 
313 83 264 105 99 98 
313 83 265 108 102 101 
314 80 264 107 102 102 
314 80 265 107 101 100 
314 81 264 106 100 100 
314 81 265 107 101 100 
314 80 266 110 103 102 
314 80 267 113 107 106 
314 81 266 112 106 104 
314 81 267 115 109 108 
315 81 267 116 110 109 
314 82 265 108 102 101 
314 83 265 112 106 104 
314 82 266 114 108 106 
314 82 267 116 110 110 
314 83 266 117 111 109 
315 82 267 115 109 108 
315 83 267 110 104 104 
315 80 268 105 99 97 
315 80 269 87 80 76 
315 81 268 103 97 95 
315 82 268 101 95 93 
315 83 268 97 91 90 
313 84 264 106 101 100 
313 84 265 110 104 103 
313 85 264 107 102 101 
313 86 264 103 98 97 
313 87 264 102 97 96 
314 84 265 115 108 107 
314 85 264 111 105 104 
314 85 265 115 109 108 
314 84 266 118 112 111 
314 85 266 118 112 111 
315 84 266 117 111 110 
315 84 267 106 100 100 
315 85 266 115 109 108 
315 85 267 110 104 104 
314 86 264 106 100 99 
314 86 265 111 105 103 
314 87 264 105 99 98 
314 87 265 106 100 98 
315 86 265 107 100 99 
315 87 265 105 99 98 
315 86 266 111 105 103 
315 87 266 104 98 97 
316 80 269 82 74 70 
316 81 268 88 81 78 
316 81 269 80 72 66 
316 80 270 79 71 66 
317 80 270 80 71 66 
317 80 271 81 71 65 
317 81 270 80 70 65 
316 82 268 84 76 72 
316 82 269 80 71 66 
316 83 268 84 75 71 
316 83 269 80 71 66 
317 82 269 80 71 65 
317 83 269 87 78 73 
317 82 270 84 75 70 
318 80 271 88 77 72 
318 81 270 85 76 70 
318 81 271 91 81 76 
319 81 271 114 105 102 
318 83 269 101 94 90 
318 82 270 101 93 90 
318 82 271 99 91 87 
318 83 270 108 101 98 
319 82 270 119 112 111 
319 82 271 120 112 111 
319 83 270 118 111 110 
319 83 271 117 111 110 
316 84 267 92 86 83 
316 85 267 94 88 85 
316 86 266 107 102 100 
316 86 267 105 99 97 
316 87 266 103 97 96 
316 87 267 105 98 97 
317 86 267 108 102 101 
317 87 267 104 98 97 
316 84 268 82 74 69 
316 85 268 87 80 75 
317 84 268 92 84 80 
317 84 269 102 95 92 
317 85 268 101 94 92 
317 86 268 109 102 100 
318 84 269 110 103 101 
318 85 269 117 110 108 
319 85 269 119 113 111 
318 84 270 113 105 103 
319 84 270 115 109 107 
319 85 270 119 112 111 
318 86 268 113 107 106 
318 86 269 118 111 110 
318 87 268 101 95 94 
319 86 269 114 108 107 
319 87 268 101 95 94 
319 87 269 102 96 96 
312 88 256 83 76 73 
312 88 257 83 77 74 
312 89 256 80 73 69 
312 89 257 78 71 67 
312 88 258 89 84 82 
312 88 259 97 92 91 
312 89 258 83 77 74 
312 89 259 91 86 84 
312 90 256 78 71 68 
312 90 257 76 69 65 
312 91 256 78 71 67 
312 91 257 75 68 64 
312 90 258 78 71 67 
312 90 259 84 78 76 
312 91 258 74 66 62 
312 91 259 75 68 63 
312 88 260 99 95 95 
312 88 261 100 95 94 
312 89 260 98 93 92 
312 89 261 102 97 96 
313 88 261 102 97 96 
313 89 261 106 101 100 
313 88 262 103 97 96 
313 88 263 103 97 96 
313 89 262 102 96 95 
313 89 263 94 88 86 
312 90 260 93 87 85 
312 90 261 103 97 97 
312 91 260 79 72 69 
313 90 260 90 84 82 
313 90 261 102 96 95 
313 91 260 80 73 69 
313 91 261 95 89 87 
313 90 262 97 91 89 
313 91 262 95 88 86 
314 88 263 101 95 94 
314 89 263 90 84 81 
314 90 262 90 83 81 
314 90 263 81 74 70 
314 91 262 87 80 78 
314 91 263 78 71 67 
312 92 256 81 74 71 
312 92 257 76 69 65 
312 93 256 93 87 86 
312 93 257 82 76 73 
313 93 257 81 75 72 
312 92 258 74 66 62 
312 92 259 72 65 61 
312 93 258 77 69 66 
313 92 259 73 65 61 
313 93 258 77 71 67 
313 93 259 77 69 66 
313 94 256 100 96 95 
313 94 257 93 88 86 
313 95 256 100 96 96 
313 95 257 101 96 96 
313 94 258 87 80 78 
313 94 259 85 79 77 
313 95 258 98 93 92 
313 95 259 94 89 87 
313 92 260 76 69 64 
313 92 261 90 84 81 
313 93 260 80 72 69 
313 93 261 85 78 75 
313 94 260 86 80 77 
313 94 261 86 80 78 
313 95 260 92 86 85 
313 95 261 89 84 82 
314 92 261 92 86 84 
314 93 261 87 81 78 
314 92 262 86 79 77 
314 92 263 78 71 68 
314 93 262 89 83 80 
314 93 263 88 82 79 
315 92 263 79 72 69 
315 93 263 88 81 79 
314 94 261 85 79 77 
314 95 261 87 82 80 
314 94 262 89 83 82 
314 94 263 94 88 87 
314 95 262 87 81 79 
314 95 263 87 82 80 
315 94 263 94 89 87 
315 95 263 91 85 83 
314 88 264 104 98 97 
314 89 264 89 82 80 
315 88 265 104 98 97 
315 89 264 93 87 85 
315 89 265 90 84 81 
314 90 264 78 70 66 
314 91 264 77 69 65 
315 90 264 77 70 66 
315 90 265 78 71 67 
315 91 264 77 69 65 
315 91 265 75 67 63 
315 92 264 79 72 69 
315 92 265 76 68 65 
315 93 264 87 80 78 
315 93 265 85 78 75 
315 94 264 95 89 87 
315 94 265 96 89 88 
315 95 264 93 87 85 
315 95 265 95 89 87 
316 89 265 93 87 85 
316 88 266 102 96 95 
316 89 266 96 90 89 
317 88 267 100 94 93 
317 89 267 93 88 86 
316 90 265 80 74 70 
316 91 265 74 66 62 
316 90 266 83 76 73 
316 91 266 74 66 61 
317 90 266 78 71 68 
317 90 267 76 70 67 
317 91 266 72 64 59 
317 91 267 72 65 60 
318 88 267 92 87 85 
318 89 267 82 76 74 
318 90 267 75 69 67 
318 88 268 87 82 80 
318 89 268 78 72 70 
319 88 268 86 81 80 
319 88 269 87 82 81 
319 89 268 77 71 69 
319 89 269 77 71 69 
318 90 268 72 65 63 
318 91 268 73 65 61 
319 90 268 70 63 60 
319 90 269 70 63 60 
319 91 269 72 64 60 
319 91 270 76 69 65 
316 92 265 76 68 64 
316 93 265 88 81 78 
316 92 266 78 70 65 
316 93 266 93 86 84 
317 92 266 79 71 67 
317 92 267 81 74 70 
317 93 266 88 81 78 
317 93 267 96 89 87 
316 94 265 99 93 92 
316 95 265 100 94 93 
316 94 266 102 96 95 
316 95 266 103 98 97 
317 94 267 101 95 93 
317 95 267 100 94 93 
317 92 268 87 79 76 
317 93 268 99 92 90 
317 94 268 104 97 95 
317 95 268 107 101 99 
318 92 268 83 76 72 
318 92 269 88 81 77 
318 93 268 101 94 92 
318 93 269 106 100 98 
319 92 269 83 76 72 
318 93 270 112 105 104 
319 92 270 92 85 81 
319 92 271 99 92 90 
319 93 270 109 103 101 
319 93 271 111 105 104 
318 94 268 109 103 101 
318 94 269 113 107 105 
318 95 269 112 106 105 
318 94 270 115 108 107 
318 95 270 112 106 105 
318 95 271 111 105 104 
319 94 271 114 108 107 
319 95 271 112 107 106 
318 80 272 93 82 77 
319 80 272 115 106 104 
319 81 272 126 118 115 
319 93 272 112 106 105 
319 94 272 114 108 107 
319 94 273 114 108 108 
319 95 272 112 107 107 
319 95 273 113 108 108 
319 95 274 111 107 107 
295 127 256 94 92 94 
295 127 257 94 92 94 
295 127 258 91 90 92 
295 127 259 89 88 90 
295 127 260 85 84 86 
295 127 261 81 80 81 
295 127 262 82 80 81 
295 127 263 85 84 85 
295 127 264 88 86 87 
303 119 256 68 66 66 
299 123 256 91 89 90 
299 123 257 91 88 89 
299 123 258 88 85 86 
299 123 259 83 80 81 
299 123 260 81 78 78 
299 123 261 82 80 80 
297 125 256 94 92 94 
297 125 257 94 93 95 
297 125 258 93 91 94 
297 125 259 92 91 93 
296 126 256 95 93 94 
296 126 257 94 93 95 
297 126 256 94 93 94 
297 126 257 95 93 95 
296 126 258 92 91 93 
296 126 259 91 89 92 
298 124 256 93 91 93 
298 124 257 93 91 93 
298 124 258 92 90 92 
298 124 259 89 88 89 
298 125 258 93 91 94 
298 125 259 92 91 93 
297 125 260 91 89 92 
297 125 261 91 89 91 
297 125 262 91 89 91 
296 126 260 89 88 90 
296 126 261 88 87 89 
296 127 260 85 84 86 
296 127 261 84 83 84 
297 126 260 90 89 91 
297 126 261 90 89 91 
296 126 262 89 88 90 
296 126 263 90 89 91 
296 127 262 86 85 86 
296 127 263 89 87 89 
297 126 262 90 88 90 
297 126 263 91 90 91 
298 124 260 88 86 88 
298 124 261 89 87 88 
