ply
format ascii 1.0
comment Created by CloudCompare v2.10.1 (Zephyrus)
comment Created 1/30/20 6:08 PM
obj_info Generated by CloudCompare!
element vertex 1997
property float x
property float y
property float z
property uchar red
property uchar green
property uchar blue
end_header
255 878 326 117 99 97 
255 879 326 118 105 103 
240 880 324 126 106 96 
240 881 324 121 102 93 
240 881 325 121 102 93 
241 880 324 128 107 98 
241 880 325 124 105 95 
241 881 325 120 103 93 
241 881 326 120 104 95 
240 882 325 118 101 93 
240 883 325 113 98 90 
241 882 325 118 101 93 
241 882 326 117 101 92 
241 883 326 112 97 89 
242 880 325 122 103 92 
243 880 325 121 102 90 
242 880 326 119 102 91 
242 881 326 119 103 93 
243 880 326 118 100 89 
243 881 326 118 102 92 
242 882 326 116 101 92 
242 883 326 113 98 89 
242 883 327 110 95 87 
243 882 326 116 102 93 
243 882 327 113 99 90 
243 883 327 107 93 84 
240 884 325 112 97 89 
240 884 326 111 96 88 
240 885 326 110 96 88 
240 885 327 110 96 88 
241 884 326 110 95 87 
241 884 327 110 95 87 
241 885 327 109 95 87 
240 886 326 110 96 88 
240 886 327 111 97 89 
240 887 327 111 97 90 
241 886 327 109 95 87 
242 884 327 108 94 86 
244 880 326 118 101 91 
244 881 326 115 100 91 
244 881 327 114 100 91 
245 880 326 117 101 91 
245 880 327 113 99 90 
245 881 327 111 98 90 
244 882 327 108 95 86 
244 883 327 104 91 82 
245 882 327 106 93 84 
246 880 326 116 101 91 
246 880 327 113 100 90 
246 881 327 109 96 87 
247 880 326 116 101 92 
247 880 327 113 99 90 
247 881 327 108 95 86 
243 883 328 105 92 83 
241 885 328 109 94 87 
240 887 328 111 96 88 
240 887 329 109 95 88 
241 886 328 108 94 87 
241 887 328 109 95 87 
241 887 329 108 93 87 
242 884 328 107 93 85 
242 885 328 107 92 85 
243 884 328 105 92 83 
243 885 328 104 91 83 
243 885 329 103 90 83 
242 886 328 105 91 83 
242 886 329 105 91 83 
242 887 329 106 92 85 
243 886 329 103 89 81 
243 887 329 104 90 83 
242 887 330 107 93 85 
243 887 330 105 91 84 
244 883 328 103 92 84 
245 882 328 103 90 82 
245 883 328 102 90 83 
247 881 328 106 94 85 
246 882 328 104 91 83 
246 883 328 99 86 79 
246 883 329 98 85 78 
247 882 328 103 91 83 
247 883 328 100 88 80 
247 883 329 97 85 78 
244 884 328 102 90 83 
244 884 329 101 89 83 
244 885 328 103 91 84 
244 885 329 102 90 83 
245 884 328 100 88 81 
245 884 329 98 86 79 
245 885 329 98 86 79 
244 886 329 102 89 82 
244 887 329 103 89 83 
245 886 329 99 86 79 
244 887 330 103 89 82 
245 886 330 101 88 81 
245 887 330 102 89 82 
246 884 329 96 83 76 
246 885 329 95 83 76 
247 884 329 94 82 75 
247 885 329 93 81 73 
246 885 330 96 84 77 
247 885 330 92 80 73 
246 886 330 98 86 80 
246 887 330 103 91 84 
247 886 330 96 85 79 
247 887 330 103 91 85 
247 887 331 106 93 87 
240 888 328 110 96 89 
240 888 329 108 94 87 
240 889 329 106 92 85 
241 888 329 108 95 87 
240 889 330 103 90 83 
241 888 330 107 93 85 
241 889 330 105 92 84 
241 889 331 102 89 81 
240 890 330 95 83 76 
240 890 331 86 75 70 
240 891 331 78 68 63 
241 890 331 92 80 74 
242 888 330 106 92 85 
242 889 331 102 89 82 
243 888 330 104 91 83 
243 888 331 103 89 82 
243 889 331 102 88 80 
242 890 331 93 81 75 
243 890 331 98 85 78 
240 891 332 66 60 55 
240 891 333 59 55 52 
241 890 332 82 71 66 
241 891 332 72 64 60 
241 891 333 60 56 53 
242 890 332 87 75 70 
242 891 332 74 66 62 
242 891 333 64 58 56 
243 890 332 89 78 71 
243 891 333 67 61 57 
243 891 334 56 52 51 
240 892 333 56 53 51 
240 892 334 51 49 50 
240 892 335 46 46 47 
241 892 334 53 50 50 
241 892 335 47 46 46 
242 892 334 53 50 50 
242 892 335 48 47 47 
243 892 334 52 50 49 
243 892 335 48 47 47 
244 888 330 103 88 82 
244 888 331 102 88 81 
244 889 331 101 87 79 
245 888 330 102 88 80 
245 888 331 101 87 79 
245 889 331 101 86 79 
246 888 331 102 87 80 
246 889 331 100 86 78 
247 888 331 104 90 83 
247 889 331 101 86 79 
245 889 332 100 86 78 
244 890 332 95 83 76 
244 891 332 81 72 66 
244 891 333 72 64 59 
245 890 332 95 83 75 
245 891 333 74 66 61 
244 891 334 59 54 52 
245 891 334 60 54 51 
245 891 335 54 50 48 
246 889 332 98 84 76 
247 889 332 100 85 78 
246 890 332 96 82 76 
246 891 332 85 74 68 
246 891 333 78 69 63 
247 890 332 96 82 76 
247 890 333 90 78 72 
247 891 333 79 69 64 
246 891 334 65 58 55 
246 891 335 53 49 48 
247 891 334 69 61 57 
247 891 335 55 50 49 
244 892 334 52 49 49 
244 892 335 48 46 47 
245 892 335 51 48 48 
246 892 335 50 47 46 
248 880 326 112 96 88 
248 880 327 108 94 85 
248 881 327 105 93 84 
249 880 326 110 93 85 
249 880 327 104 90 81 
249 881 327 101 89 80 
250 880 327 106 90 83 
250 881 327 99 86 78 
251 880 327 107 92 86 
251 881 327 99 87 81 
252 880 327 104 89 85 
252 881 327 97 85 80 
253 880 327 104 88 85 
253 881 327 92 79 75 
254 880 326 118 106 105 
254 880 327 110 98 96 
254 881 327 89 79 74 
255 880 326 121 113 113 
255 880 327 114 106 106 
255 881 327 95 88 86 
254 882 327 82 74 70 
255 882 327 80 73 69 
248 881 328 104 92 84 
249 881 328 100 88 80 
248 882 328 102 91 83 
248 883 329 97 85 79 
249 882 328 98 87 79 
249 883 329 94 83 77 
249 883 330 88 77 73 
250 881 328 96 84 76 
251 881 328 94 82 77 
250 882 328 94 82 75 
250 883 329 89 78 73 
251 882 328 90 78 73 
251 883 329 85 74 68 
250 883 330 85 73 70 
251 883 330 82 71 65 
248 884 329 93 81 75 
248 884 330 90 79 72 
248 885 330 89 77 70 
249 884 330 87 75 70 
249 885 330 86 75 68 
249 885 331 87 76 70 
248 886 330 93 82 75 
248 886 331 96 85 78 
248 887 330 100 89 83 
248 887 331 103 91 85 
249 886 331 93 82 76 
249 887 331 102 91 84 
250 884 330 82 71 66 
250 885 330 84 73 67 
250 885 331 84 74 68 
251 884 330 79 68 62 
251 885 331 79 70 64 
250 886 331 90 80 74 
250 887 331 98 87 80 
251 886 331 87 77 71 
249 887 332 105 93 86 
250 887 332 103 92 85 
251 887 332 101 90 83 
252 881 328 94 82 78 
253 881 328 92 81 77 
252 882 328 90 79 74 
252 883 328 85 74 69 
252 883 329 83 72 66 
253 882 328 92 83 79 
253 883 328 87 77 72 
253 883 329 83 73 68 
254 882 328 89 80 77 
254 883 328 86 76 73 
254 883 329 82 71 68 
255 882 328 83 76 73 
255 883 328 87 77 76 
253 884 329 81 70 66 
252 884 330 77 68 62 
252 885 330 75 66 61 
252 885 331 76 68 62 
253 884 330 76 67 62 
253 885 330 74 66 61 
253 885 331 75 67 63 
252 886 331 83 73 68 
253 886 331 79 71 67 
254 884 329 76 64 62 
255 884 328 79 68 66 
255 884 329 74 62 61 
255 885 329 68 58 55 
254 884 330 75 65 61 
254 885 330 70 62 59 
255 885 330 65 57 53 
254 886 330 69 63 60 
254 886 331 74 67 64 
255 886 330 65 58 56 
255 886 331 68 62 59 
255 887 331 74 67 64 
252 887 332 100 90 83 
253 887 332 98 88 82 
254 887 332 93 84 79 
255 887 332 89 80 75 
248 888 331 106 93 86 
248 888 332 105 92 84 
248 889 332 102 88 80 
248 889 333 100 86 79 
249 888 332 107 94 86 
249 889 332 104 91 82 
249 889 333 101 88 81 
248 890 333 92 79 73 
249 890 333 97 84 77 
248 890 334 79 68 65 
248 891 334 69 60 57 
248 891 335 59 53 50 
249 890 334 84 73 68 
249 890 335 71 61 58 
249 891 335 65 57 54 
250 888 332 107 94 86 
250 888 333 107 94 85 
250 889 333 103 89 82 
251 888 332 108 95 87 
251 888 333 107 94 86 
251 889 333 103 90 83 
250 890 333 97 85 79 
250 890 334 89 77 72 
250 890 335 75 64 61 
250 891 335 65 55 53 
251 890 334 92 79 74 
251 890 335 76 62 60 
251 891 335 61 51 50 
252 888 333 107 96 88 
252 889 333 104 91 84 
253 888 333 106 95 88 
253 889 333 105 93 86 
252 889 334 98 85 80 
253 889 334 100 87 82 
252 890 334 88 74 71 
252 890 335 74 61 60 
252 891 335 60 49 50 
253 890 334 88 75 72 
253 890 335 76 64 62 
253 891 335 61 51 50 
254 888 333 105 93 87 
254 889 333 105 92 86 
255 888 332 94 85 80 
255 888 333 101 90 84 
255 889 333 103 92 86 
254 889 334 100 88 83 
255 889 334 101 90 84 
254 890 334 88 76 73 
254 890 335 74 63 61 
254 891 335 61 50 49 
255 890 334 92 80 75 
255 890 335 75 62 60 
255 891 335 63 51 51 
240 891 338 57 56 56 
240 891 339 61 59 60 
241 891 338 53 54 56 
241 891 339 58 57 58 
242 891 338 52 52 54 
242 891 339 56 55 57 
243 891 338 51 51 53 
243 891 339 54 54 56 
240 891 340 63 62 62 
240 891 341 66 64 64 
241 891 340 61 60 61 
241 891 341 66 64 64 
240 890 343 74 71 70 
240 891 342 69 66 66 
240 891 343 73 70 70 
241 890 343 74 71 70 
241 891 342 68 65 65 
241 891 343 71 68 67 
242 891 340 61 60 61 
242 891 341 65 63 63 
243 891 340 60 59 60 
243 891 341 64 62 62 
242 890 343 76 72 72 
242 891 342 69 66 65 
242 891 343 71 68 68 
243 890 343 76 72 72 
243 891 342 70 67 66 
243 891 343 71 68 68 
240 892 336 49 49 50 
240 892 337 52 51 52 
241 892 336 46 46 47 
241 892 337 50 49 50 
240 892 338 54 53 55 
241 892 338 53 52 54 
242 892 336 45 45 46 
242 892 337 48 48 49 
243 892 336 45 45 47 
243 892 337 46 47 49 
242 892 338 50 51 52 
243 892 338 48 48 50 
244 891 339 53 53 55 
245 891 339 52 53 55 
247 891 336 47 45 46 
247 891 337 43 43 45 
246 891 338 47 48 51 
246 891 339 52 52 55 
247 891 338 45 46 49 
247 891 339 51 52 54 
244 891 340 58 58 60 
244 891 341 62 61 62 
245 891 340 56 57 59 
245 891 341 61 60 61 
244 890 343 74 71 71 
244 891 342 67 64 65 
244 891 343 71 68 68 
245 891 342 66 64 64 
245 891 343 70 68 68 
246 891 340 55 56 58 
246 891 341 60 59 60 
247 891 340 55 55 58 
247 891 341 59 58 59 
246 891 342 64 62 62 
246 891 343 70 67 67 
247 890 343 71 68 68 
247 891 342 64 62 62 
247 891 343 68 66 65 
244 892 336 45 45 47 
244 892 337 44 45 47 
245 892 336 45 44 45 
245 892 337 45 45 47 
244 892 338 47 47 50 
245 892 338 47 48 50 
246 892 336 45 44 45 
246 892 337 44 44 47 
247 892 336 44 44 46 
247 892 337 43 44 46 
246 892 338 46 46 49 
247 892 338 45 46 49 
240 890 344 74 71 70 
240 890 345 80 77 76 
241 890 344 77 73 72 
241 890 345 81 78 77 
240 891 346 94 89 88 
240 891 347 112 106 105 
241 891 346 90 86 86 
241 891 347 112 106 105 
242 890 344 78 75 74 
242 890 345 82 79 79 
243 890 344 79 76 75 
243 890 345 82 79 79 
242 890 346 87 83 83 
242 891 346 92 89 88 
242 891 347 109 104 104 
243 890 346 86 83 83 
243 891 347 107 102 101 
242 891 348 122 115 113 
243 891 348 125 118 116 
240 892 347 104 99 98 
240 892 348 94 91 92 
240 893 348 96 96 100 
241 892 348 104 99 99 
241 893 348 93 92 96 
240 894 348 116 113 115 
240 895 348 133 126 125 
241 894 348 111 109 112 
241 895 348 127 122 123 
242 892 348 107 100 98 
242 893 348 91 88 90 
242 893 349 93 92 94 
243 892 348 114 106 104 
243 892 349 109 101 98 
243 893 349 93 90 92 
242 894 349 108 107 111 
242 895 349 126 122 123 
243 894 349 106 106 109 
243 895 349 125 121 123 
244 890 344 77 74 74 
244 890 345 81 77 77 
245 890 344 75 72 72 
245 890 345 78 75 74 
244 890 346 85 81 80 
244 890 347 91 86 85 
244 891 347 105 100 99 
245 890 346 83 79 78 
245 890 347 89 85 84 
245 891 347 100 95 94 
246 890 344 74 71 71 
246 890 345 78 75 75 
247 890 344 74 71 71 
247 890 345 77 74 74 
246 890 346 84 80 79 
246 890 347 93 89 88 
246 891 347 100 95 95 
247 890 346 81 78 78 
247 890 347 92 88 89 
244 891 348 126 119 118 
245 891 348 125 118 116 
245 891 349 135 126 123 
246 891 348 121 115 113 
246 891 349 139 130 127 
247 891 348 115 110 109 
247 891 349 139 131 129 
244 892 348 124 116 113 
244 892 349 118 109 107 
244 893 349 93 90 91 
245 892 349 126 117 113 
245 893 349 99 93 92 
245 893 350 91 89 91 
244 894 349 103 103 107 
244 895 349 123 119 121 
245 895 349 122 117 119 
245 894 350 100 99 103 
245 895 350 113 111 114 
246 892 349 131 121 117 
246 893 349 107 100 97 
247 892 349 137 127 123 
246 893 350 97 93 92 
247 892 350 132 123 119 
247 893 350 104 97 95 
246 894 350 98 97 101 
246 895 350 116 113 115 
247 894 350 96 95 98 
247 895 350 112 110 113 
248 891 336 48 46 45 
248 891 337 43 42 44 
249 891 336 52 48 46 
249 891 337 44 42 43 
248 891 338 44 45 47 
248 891 339 49 49 52 
249 891 338 43 43 46 
249 891 339 48 49 50 
250 891 336 53 47 45 
250 891 337 45 43 43 
251 891 336 53 45 46 
251 891 337 46 43 44 
250 891 338 43 43 44 
250 891 339 48 48 50 
251 891 338 43 42 43 
251 891 339 47 47 49 
248 891 340 54 54 56 
248 891 341 58 57 59 
249 891 340 54 54 55 
249 891 341 58 57 59 
248 890 343 71 68 69 
248 891 342 63 61 61 
248 891 343 68 65 65 
249 890 343 71 68 68 
249 891 342 65 62 62 
249 891 343 68 66 66 
250 891 340 53 53 54 
250 891 341 57 56 58 
251 891 340 53 53 55 
251 891 341 58 57 58 
250 890 343 70 67 67 
250 891 342 62 60 60 
250 891 343 68 65 64 
251 890 343 68 65 64 
251 891 342 69 67 67 
251 891 343 68 66 66 
252 891 336 52 45 46 
252 891 337 45 41 43 
253 891 336 53 45 46 
253 891 337 45 40 43 
252 891 338 41 41 43 
252 891 339 47 47 48 
253 891 338 41 41 42 
253 891 339 47 47 48 
254 891 336 51 44 44 
254 891 337 44 41 42 
255 891 336 52 43 45 
255 891 337 44 40 42 
254 891 338 43 41 42 
254 891 339 47 47 48 
255 891 338 43 41 42 
255 891 339 50 48 49 
252 891 340 53 52 54 
252 891 341 58 57 59 
253 891 340 54 53 55 
253 891 341 58 57 59 
252 890 343 68 66 67 
252 891 342 64 62 62 
252 891 343 67 65 66 
253 890 343 69 67 69 
253 891 342 64 63 63 
253 891 343 69 67 67 
254 891 340 55 54 55 
254 891 341 60 58 59 
255 891 340 56 55 55 
255 891 341 61 59 59 
254 891 342 64 62 61 
254 891 343 68 66 66 
255 891 342 64 61 61 
255 891 343 66 63 63 
248 890 344 73 70 69 
248 890 345 76 72 72 
249 890 344 72 69 68 
249 890 345 76 72 72 
248 890 346 78 76 76 
248 890 347 86 84 85 
249 890 346 78 75 76 
249 890 347 83 81 82 
250 890 344 72 69 69 
250 890 345 73 71 71 
251 890 344 71 69 68 
251 890 345 72 70 71 
250 890 346 76 74 75 
250 890 347 81 79 79 
251 890 346 76 74 75 
251 890 347 79 77 78 
248 890 348 100 97 97 
248 891 348 119 114 113 
248 891 349 139 132 130 
249 890 348 101 98 98 
249 891 349 139 132 131 
250 890 348 92 90 91 
250 891 349 133 128 127 
251 890 348 88 86 87 
251 891 349 127 122 122 
248 892 349 145 135 132 
249 892 349 146 137 134 
248 892 350 137 127 123 
248 893 350 109 102 99 
249 892 350 141 130 126 
249 893 350 116 107 104 
248 894 350 94 93 96 
248 895 350 107 106 110 
249 894 350 95 92 93 
249 895 350 103 103 107 
250 892 350 144 134 130 
250 893 350 125 115 111 
251 892 350 144 134 131 
251 893 350 129 119 114 
250 894 350 97 93 92 
250 895 350 101 100 105 
251 894 350 104 96 94 
251 894 351 93 90 90 
251 895 350 99 98 102 
251 895 351 97 96 100 
252 890 344 71 69 69 
252 890 345 73 71 72 
253 890 344 69 67 67 
253 890 345 72 70 71 
252 890 346 75 73 75 
252 890 347 80 78 78 
253 890 346 74 73 73 
253 890 347 79 77 78 
254 890 344 71 70 71 
254 890 345 72 70 70 
255 890 344 69 67 67 
255 890 345 70 67 68 
254 890 346 74 72 73 
254 890 347 80 78 78 
255 890 346 74 72 72 
255 890 347 81 78 79 
252 890 348 88 86 87 
252 891 349 127 122 123 
253 890 348 89 87 88 
253 890 349 111 108 108 
253 891 349 132 127 127 
252 891 350 144 136 135 
253 891 350 145 138 136 
254 890 348 93 90 90 
254 890 349 114 109 109 
254 891 349 136 130 129 
255 890 348 94 90 90 
255 890 349 117 111 110 
255 891 349 138 130 129 
254 891 350 148 140 137 
255 891 350 150 141 138 
252 892 350 146 136 133 
252 893 350 133 122 117 
253 892 350 148 138 134 
253 893 350 136 125 120 
252 894 350 113 104 100 
252 894 351 100 93 91 
252 895 351 94 93 97 
253 894 351 105 97 94 
253 895 351 92 91 94 
254 892 350 150 139 135 
254 893 350 139 128 123 
255 892 350 152 142 138 
255 893 350 142 131 126 
254 894 351 109 101 97 
254 895 351 90 88 91 
255 894 351 115 105 100 
255 895 351 90 87 89 
195 898 317 98 91 87 
195 899 317 99 92 89 
195 899 318 101 94 91 
195 899 319 106 99 96 
194 900 318 108 100 97 
194 900 319 115 107 103 
194 901 319 125 115 110 
195 900 318 107 100 96 
195 900 319 114 107 103 
194 902 319 131 120 114 
197 897 315 105 99 97 
197 898 315 106 99 96 
199 897 313 63 62 63 
198 897 314 85 81 81 
198 897 315 97 92 91 
199 897 314 72 70 71 
199 897 315 87 83 83 
197 897 316 105 98 95 
197 897 317 99 92 88 
197 897 318 96 88 84 
197 897 319 97 90 86 
196 898 316 97 89 85 
196 898 317 96 89 85 
197 898 316 101 94 90 
197 898 317 97 89 85 
196 898 318 99 92 89 
196 898 319 100 94 91 
196 899 318 100 94 92 
196 899 319 102 95 93 
197 898 318 96 89 85 
197 898 319 99 92 89 
198 897 316 105 99 97 
198 897 317 105 98 95 
199 896 317 103 97 96 
199 897 316 99 94 93 
199 897 317 106 100 99 
198 897 318 100 93 89 
198 897 319 96 89 84 
199 896 318 105 99 97 
199 896 319 101 94 90 
199 897 318 105 98 96 
199 897 319 97 90 86 
201 896 311 41 40 42 
202 896 311 42 40 43 
203 896 310 41 41 45 
203 896 311 42 42 44 
200 896 312 43 44 47 
200 896 313 48 49 50 
200 897 313 55 55 57 
201 896 312 42 42 44 
201 896 313 44 44 46 
200 896 314 58 58 59 
200 896 315 72 70 70 
200 897 314 68 66 67 
200 897 315 77 74 74 
201 896 314 50 50 52 
201 896 315 63 61 62 
202 896 312 43 42 43 
202 896 313 44 44 46 
203 896 312 43 43 43 
203 896 313 44 43 44 
202 896 314 47 46 48 
202 896 315 54 53 54 
203 896 314 44 44 47 
200 896 316 84 81 79 
200 896 317 94 89 87 
201 896 316 72 69 68 
201 896 317 81 77 76 
200 896 318 102 96 95 
200 896 319 106 99 96 
201 896 318 93 88 87 
201 896 319 105 99 97 
202 896 316 62 60 60 
202 896 317 71 68 68 
218 952 319 179 164 156 
218 953 319 179 164 156 
219 952 319 181 165 157 
219 953 319 181 165 157 
220 953 318 181 166 157 
220 953 319 182 166 158 
221 953 319 182 166 159 
220 954 318 182 166 158 
221 954 318 182 167 159 
221 954 319 181 166 159 
222 953 319 182 167 159 
222 955 317 185 169 160 
223 955 317 188 171 163 
222 954 318 183 167 159 
222 954 319 182 167 159 
222 955 318 184 168 160 
223 954 318 183 168 160 
223 954 319 183 167 160 
223 955 318 186 170 162 
223 956 317 188 172 163 
224 955 317 188 172 164 
224 954 319 183 168 160 
224 955 318 186 170 162 
224 955 319 184 169 161 
225 954 319 183 168 161 
225 955 318 184 169 162 
225 955 319 183 168 162 
226 955 318 184 170 163 
226 955 319 185 170 163 
227 955 319 188 173 166 
225 957 315 188 172 165 
226 958 315 187 172 165 
226 959 315 189 174 167 
227 958 315 186 171 164 
227 959 314 191 176 168 
227 959 315 189 174 167 
224 956 316 189 172 164 
224 956 317 188 172 164 
224 957 316 189 173 164 
225 956 317 186 171 164 
225 957 316 187 172 165 
225 956 318 185 170 163 
226 956 317 185 170 164 
226 957 316 185 170 164 
226 957 317 185 171 164 
227 957 317 185 171 164 
226 956 318 185 170 163 
227 956 318 186 172 165 
227 956 319 189 173 166 
227 957 318 185 171 164 
226 958 316 185 170 164 
227 958 316 185 170 164 
228 959 315 190 174 167 
229 959 315 193 177 170 
228 957 317 187 172 166 
228 956 319 190 175 167 
228 957 318 187 172 166 
229 956 319 191 175 168 
229 957 318 189 174 167 
229 957 319 190 175 168 
228 958 316 186 171 165 
228 958 317 186 172 166 
228 959 316 187 172 165 
229 958 316 189 174 167 
229 958 317 190 175 168 
229 959 316 192 176 169 
229 958 318 190 175 168 
230 957 318 192 177 169 
230 957 319 192 176 169 
231 957 319 194 178 170 
230 958 317 196 180 173 
230 959 316 197 181 173 
230 959 317 198 182 175 
231 959 316 202 185 177 
231 959 317 201 185 177 
230 958 318 194 178 171 
231 958 318 198 182 174 
231 958 319 195 179 171 
232 957 319 194 178 170 
232 959 316 203 186 178 
232 959 317 203 186 178 
233 959 317 203 186 178 
232 958 318 200 183 175 
232 958 319 196 180 172 
232 959 318 202 185 177 
233 958 318 201 184 175 
233 958 319 197 181 172 
233 959 318 202 185 177 
234 959 317 204 186 177 
235 959 317 204 186 177 
234 958 318 201 184 176 
234 958 319 199 183 174 
234 959 318 203 186 178 
235 958 319 202 185 177 
235 959 318 203 186 177 
235 959 319 203 186 177 
236 958 319 205 188 180 
236 959 318 201 184 176 
236 959 319 203 187 179 
237 959 318 195 180 174 
237 959 319 202 186 180 
238 959 318 184 172 169 
238 959 319 196 182 177 
239 959 318 174 164 164 
239 959 319 188 177 175 
240 959 318 169 161 163 
240 959 319 182 172 172 
241 959 318 165 159 161 
241 959 319 175 167 167 
242 959 319 173 165 165 
243 959 319 182 171 168 
244 959 319 192 179 174 
245 959 319 200 185 179 
246 959 319 204 188 180 
247 959 319 204 186 176 
248 959 319 201 183 173 
249 959 319 199 181 171 
250 959 319 198 180 170 
251 959 319 199 181 171 
252 959 319 200 182 172 
253 959 319 200 182 171 
254 959 318 200 181 171 
254 959 319 199 180 170 
255 959 318 198 180 170 
255 959 319 196 179 169 
194 901 320 121 111 105 
195 900 320 121 112 108 
195 901 320 121 111 106 
195 901 321 115 105 99 
194 902 320 122 112 106 
194 903 320 131 120 114 
195 902 321 112 102 95 
195 903 321 126 116 110 
196 899 320 109 102 98 
196 899 321 114 106 103 
197 898 320 101 95 92 
197 898 321 102 95 92 
197 899 321 109 102 98 
197 898 322 107 100 96 
197 899 322 117 109 106 
197 899 323 122 113 109 
198 897 320 98 91 87 
198 897 321 99 93 90 
199 896 320 97 89 85 
199 897 320 96 88 84 
199 897 321 98 90 87 
198 897 322 101 94 90 
199 897 322 100 94 90 
199 897 323 104 96 92 
198 898 321 100 94 91 
198 898 322 104 97 93 
198 898 323 114 106 102 
198 899 323 121 112 108 
199 898 323 107 99 95 
199 897 324 108 100 96 
198 898 324 122 113 110 
198 899 324 122 113 109 
198 899 325 119 110 105 
199 898 324 118 109 106 
199 898 325 121 112 108 
199 899 325 123 113 109 
199 899 326 128 118 114 
196 900 320 121 113 109 
196 900 321 123 114 110 
196 901 321 120 109 104 
196 900 322 125 116 112 
196 901 322 123 113 107 
196 901 323 128 118 114 
197 900 322 125 116 112 
197 900 323 122 113 108 
197 901 323 126 116 112 
196 902 322 123 112 106 
196 902 323 132 122 117 
196 903 322 133 123 118 
196 903 323 139 128 123 
197 902 323 134 124 119 
197 903 323 140 129 123 
197 900 324 114 104 99 
197 901 324 115 106 100 
197 902 324 130 120 115 
197 903 324 140 129 123 
198 900 324 113 103 97 
198 900 325 110 100 94 
198 901 325 116 107 101 
199 900 325 118 108 102 
199 901 325 127 117 111 
199 900 326 127 117 112 
199 901 326 136 125 120 
198 902 324 136 126 121 
198 902 325 135 125 120 
198 903 324 137 126 120 
198 903 325 136 124 118 
199 902 325 139 128 123 
199 903 325 133 121 115 
199 902 326 140 128 122 
199 903 326 132 119 112 
194 904 320 138 127 121 
194 905 320 135 123 117 
195 904 321 137 126 120 
195 905 320 127 115 108 
195 905 321 126 115 108 
195 906 320 124 114 108 
195 907 320 130 120 116 
196 904 321 134 123 116 
196 905 321 120 108 102 
196 904 322 134 122 116 
196 905 322 122 110 102 
197 904 322 130 118 111 
197 904 323 131 119 112 
197 905 322 121 110 104 
197 905 323 123 112 105 
196 906 320 122 112 108 
196 906 321 116 105 100 
196 907 320 128 118 115 
196 907 321 120 110 106 
197 906 321 109 99 93 
197 907 321 109 100 94 
197 906 322 114 103 98 
197 907 322 101 90 85 
198 905 323 123 111 106 
198 906 322 115 105 99 
198 906 323 125 115 110 
198 907 322 111 101 95 
198 907 323 127 116 111 
199 907 323 133 122 116 
198 904 324 127 116 110 
198 904 325 127 116 110 
198 905 324 126 116 111 
199 904 325 127 116 110 
199 905 324 131 121 116 
199 905 325 131 120 115 
199 904 326 128 116 109 
199 905 326 130 119 113 
199 906 324 133 123 118 
199 906 325 136 125 119 
199 907 324 137 125 120 
199 907 325 138 126 120 
196 908 320 134 124 120 
196 908 321 127 118 114 
196 909 320 138 127 121 
196 909 321 130 121 116 
197 908 321 114 105 101 
197 909 321 103 96 92 
197 908 322 94 86 82 
197 909 322 94 87 83 
196 910 321 127 117 112 
196 911 321 123 114 108 
197 910 321 118 109 105 
196 911 322 115 107 103 
197 910 322 98 90 85 
197 910 323 99 90 86 
197 911 322 109 101 98 
197 911 323 107 99 96 
198 908 322 98 88 84 
198 908 323 119 109 104 
198 909 322 90 82 77 
198 909 323 111 101 96 
199 908 323 128 118 112 
198 910 323 104 95 89 
198 911 323 104 96 92 
199 908 324 135 124 117 
199 908 325 136 124 118 
199 909 324 128 118 112 
199 909 325 130 119 113 
198 910 324 116 106 100 
198 911 324 104 95 91 
198 911 325 106 98 93 
199 910 324 121 111 106 
199 910 325 121 111 106 
199 911 325 110 101 97 
199 910 326 117 108 103 
199 911 326 106 98 94 
200 896 320 100 93 89 
200 896 321 96 88 83 
201 896 320 105 98 95 
201 896 321 99 92 88 
200 896 322 97 90 86 
200 896 323 102 95 92 
200 897 322 100 93 90 
200 897 323 102 95 92 
201 896 322 95 88 83 
201 896 323 101 94 90 
200 896 324 104 97 93 
200 897 324 104 97 93 
200 897 325 108 101 97 
201 896 324 104 97 93 
201 896 325 106 99 95 
200 897 326 115 107 102 
201 896 326 108 100 96 
201 897 326 112 104 99 
201 897 327 120 111 107 
200 898 325 119 110 106 
200 898 326 122 113 109 
200 898 327 120 111 107 
200 899 326 125 115 111 
200 899 327 115 106 101 
201 898 327 119 111 106 
202 896 326 108 100 96 
202 896 327 111 103 98 
202 897 327 117 108 104 
200 900 326 127 118 113 
200 900 327 121 111 106 
200 901 327 134 124 118 
200 902 326 137 125 119 
200 902 327 136 124 118 
200 903 326 130 118 111 
200 903 327 127 116 109 
201 903 327 125 114 108 
201 897 328 125 116 112 
201 898 328 118 109 104 
201 898 329 118 108 102 
201 899 328 109 99 93 
201 899 329 113 102 95 
202 896 328 116 107 102 
202 897 328 122 113 109 
202 897 329 127 117 112 
203 896 328 113 105 100 
203 896 329 119 109 104 
203 897 329 125 116 110 
203 896 330 124 114 109 
203 897 330 122 112 107 
203 897 331 113 104 98 
202 898 329 127 117 111 
202 899 329 126 115 108 
202 898 330 128 117 112 
202 899 330 132 121 115 
203 898 330 122 111 106 
203 898 331 113 103 97 
203 899 330 127 117 111 
203 899 331 125 115 109 
201 900 328 113 103 96 
201 900 329 120 109 103 
201 901 328 132 122 116 
201 901 329 136 125 120 
201 902 328 131 120 113 
201 902 329 132 120 113 
201 903 328 122 110 103 
202 900 329 132 121 115 
202 901 329 138 127 121 
202 900 330 138 127 121 
202 901 330 141 130 124 
203 900 330 137 126 121 
203 900 331 136 126 121 
203 901 330 135 123 117 
203 901 331 133 122 116 
202 902 329 127 115 108 
202 903 329 121 110 103 
203 903 329 123 112 106 
203 902 330 127 115 108 
203 903 330 123 112 105 
204 896 330 123 114 109 
204 896 331 125 116 111 
204 897 331 117 108 102 
204 898 331 111 101 94 
204 899 331 124 114 108 
204 897 332 116 106 100 
205 896 332 129 120 115 
205 897 332 126 116 109 
205 897 333 133 122 116 
204 898 332 116 106 99 
204 899 332 131 121 115 
205 898 332 131 120 114 
205 898 333 137 126 120 
205 899 332 139 128 122 
205 899 333 142 131 125 
206 896 333 131 121 116 
206 897 333 132 121 116 
206 896 334 125 115 109 
206 897 334 126 115 109 
207 896 334 125 115 109 
207 896 335 125 114 108 
207 897 334 123 112 106 
207 897 335 128 118 112 
206 898 333 139 128 122 
206 899 333 141 129 124 
206 898 334 137 126 121 
206 899 334 140 128 122 
207 898 334 138 127 122 
207 898 335 140 129 124 
207 899 334 138 126 120 
207 899 335 136 124 117 
204 900 331 138 128 123 
204 901 331 132 120 114 
204 902 331 128 117 110 
204 903 331 129 119 113 
204 900 332 139 128 122 
204 901 332 132 120 114 
205 900 332 138 126 119 
205 900 333 137 124 117 
205 901 332 132 120 113 
205 901 333 132 120 112 
204 902 332 131 120 114 
205 902 332 133 122 116 
205 903 332 134 123 118 
206 900 333 134 122 114 
206 901 333 132 120 112 
206 900 334 133 121 113 
206 901 334 133 120 113 
207 900 334 132 119 112 
207 900 335 130 117 110 
207 901 334 130 118 111 
207 901 335 125 114 107 
206 902 333 135 123 117 
206 903 333 136 125 119 
207 902 334 131 120 115 
207 903 334 135 124 119 
200 904 326 129 118 112 
200 904 327 128 118 113 
200 905 326 133 123 117 
201 904 327 126 116 111 
201 905 327 132 122 117 
200 906 325 137 126 120 
200 907 325 139 127 121 
200 906 326 137 126 120 
200 907 326 138 127 121 
201 906 326 137 126 121 
201 906 327 136 125 120 
201 907 326 137 126 120 
201 907 327 136 125 120 
200 908 325 137 126 119 
200 908 326 134 123 117 
200 909 326 128 117 111 
200 909 327 125 114 108 
201 908 327 134 122 116 
201 909 327 124 113 107 
200 910 326 117 108 103 
200 910 327 112 104 100 
200 911 326 104 96 93 
200 911 327 107 100 97 
201 904 328 119 108 103 
201 905 328 123 113 109 
201 907 328 132 122 117 
202 904 328 114 104 98 
202 904 329 115 105 99 
202 905 328 114 104 99 
202 905 329 110 100 95 
203 904 329 114 103 96 
203 905 329 105 95 89 
203 904 330 112 101 94 
203 905 330 105 95 87 
202 906 328 124 114 109 
202 906 329 106 97 92 
202 907 328 123 113 108 
202 907 329 106 97 92 
203 906 329 102 93 87 
203 907 329 106 97 91 
203 906 330 101 92 86 
203 907 330 102 93 89 
201 908 328 129 118 112 
201 909 328 121 111 105 
201 909 329 117 107 103 
200 910 328 104 97 93 
200 911 328 114 107 104 
201 910 328 108 100 96 
201 910 329 104 97 94 
201 911 328 108 102 99 
201 911 329 122 114 112 
202 908 328 125 115 110 
202 908 329 114 105 99 
202 909 329 111 103 100 
202 909 330 107 99 97 
203 908 330 107 99 96 
203 908 331 103 95 92 
203 909 330 103 97 95 
203 909 331 99 93 92 
202 910 329 104 97 94 
202 911 329 121 113 110 
202 910 330 107 100 97 
202 911 330 133 125 121 
203 910 330 104 97 94 
203 910 331 111 104 102 
203 911 331 138 129 125 
203 910 332 123 115 113 
203 911 332 140 131 127 
204 904 330 119 109 104 
204 904 331 131 120 114 
204 905 330 111 100 94 
204 905 331 127 116 111 
204 906 330 105 95 91 
204 906 331 119 108 102 
204 907 331 110 100 94 
205 904 332 135 124 119 
205 905 332 134 123 117 
204 906 332 129 118 112 
204 907 332 122 111 105 
205 906 332 132 121 115 
205 907 332 124 114 109 
205 907 333 124 114 109 
206 904 333 136 125 119 
206 905 333 134 123 117 
207 904 334 135 124 119 
207 905 334 133 122 116 
207 905 335 130 120 115 
206 906 333 130 120 114 
206 907 333 123 113 108 
206 906 334 129 118 112 
206 907 334 117 108 103 
207 906 334 129 119 113 
207 906 335 128 117 112 
207 907 334 120 111 106 
207 907 335 112 103 99 
204 908 331 102 94 90 
204 908 332 107 99 95 
204 909 332 101 95 93 
204 909 333 107 101 99 
205 908 332 112 104 101 
205 908 333 107 99 96 
205 909 333 107 100 98 
205 909 334 114 107 105 
204 910 332 121 114 111 
204 910 333 129 122 120 
204 911 332 139 130 126 
204 911 333 143 133 128 
205 910 333 137 129 125 
205 911 333 143 132 128 
205 910 334 142 133 129 
206 908 333 111 103 100 
206 908 334 105 98 95 
206 909 334 122 115 113 
206 909 335 133 125 122 
207 908 335 105 98 96 
207 909 335 125 117 115 
206 910 334 138 129 126 
206 910 335 142 132 127 
206 911 334 132 120 115 
206 911 335 134 123 117 
207 910 335 143 133 128 
207 911 335 140 129 123 
207 909 336 132 125 121 
207 910 336 144 134 129 
196 912 321 113 104 100 
196 912 322 106 99 96 
196 913 322 107 100 97 
197 912 322 104 97 95 
197 912 323 103 96 94 
197 913 323 116 109 106 
196 914 322 131 122 118 
196 914 323 143 132 127 
196 915 323 140 128 122 
197 914 323 144 134 129 
197 915 323 133 121 115 
198 912 323 106 99 96 
197 912 324 100 93 91 
197 913 324 123 116 113 
197 914 324 144 133 128 
197 915 324 131 119 112 
198 912 324 100 93 91 
198 912 325 108 101 98 
198 913 324 126 119 116 
198 913 325 138 129 126 
199 912 326 117 109 106 
199 913 326 141 132 128 
199 913 327 144 135 130 
198 914 325 144 133 128 
198 915 324 132 120 114 
198 915 325 139 127 121 
199 914 326 139 129 124 
199 915 326 137 127 122 
196 916 323 126 116 112 
197 916 323 120 111 107 
197 917 323 138 128 125 
197 918 323 168 155 150 
198 917 323 148 137 133 
198 918 323 172 159 152 
198 919 322 155 136 129 
198 919 323 159 142 134 
199 919 323 133 114 107 
197 916 324 118 107 102 
198 916 324 128 116 110 
198 916 325 139 128 122 
198 917 324 153 142 136 
199 916 325 148 136 131 
199 917 325 169 156 150 
199 916 326 149 138 132 
198 918 324 173 159 152 
199 918 324 165 149 143 
199 918 325 164 147 140 
199 919 324 133 114 108 
198 920 323 125 103 102 
199 920 323 105 86 87 
199 921 322 78 67 78 
199 921 323 65 63 74 
199 922 323 90 98 111 
199 920 324 98 81 79 
200 912 327 129 121 118 
200 913 327 141 130 126 
200 914 327 122 111 106 
200 915 326 129 119 114 
200 915 327 119 109 103 
200 917 325 172 159 152 
200 916 326 148 137 131 
200 916 327 134 123 117 
200 917 326 168 154 148 
201 916 327 155 142 135 
201 917 326 161 146 138 
201 917 327 158 143 137 
200 918 325 151 132 126 
200 919 325 113 89 91 
201 919 325 87 66 75 
200 918 326 152 135 126 
201 918 326 131 111 105 
201 918 327 125 104 101 
201 919 326 87 67 73 
202 918 327 95 75 77 
202 919 326 65 58 68 
202 919 327 77 65 71 
200 912 328 140 130 126 
200 913 328 142 130 125 
201 912 329 144 134 130 
201 913 329 144 132 127 
200 914 328 127 115 110 
201 914 328 127 116 110 
201 914 329 139 128 123 
201 915 328 130 118 111 
201 915 329 144 133 127 
202 913 329 144 133 129 
202 912 330 143 132 128 
202 913 330 132 121 116 
203 912 331 138 127 121 
203 913 331 120 108 101 
202 914 329 145 135 130 
202 915 329 155 143 138 
202 914 330 139 129 125 
203 914 330 129 119 114 
203 914 331 120 109 103 
203 915 330 148 136 131 
203 915 331 134 124 119 
203 912 332 136 124 117 
201 916 328 159 146 139 
202 916 328 160 147 141 
202 916 329 167 153 147 
202 917 328 142 126 119 
203 916 329 161 147 141 
203 917 329 122 104 99 
203 916 330 155 142 135 
202 918 328 106 86 85 
202 919 328 80 67 73 
203 918 328 85 71 75 
203 918 329 95 77 79 
203 919 328 75 71 78 
203 919 329 82 71 77 
204 914 331 134 123 118 
204 915 331 153 141 136 
204 912 332 143 131 125 
204 913 332 138 127 121 
205 912 333 135 124 119 
205 913 332 150 139 135 
205 913 333 144 135 132 
205 912 334 121 110 103 
204 914 332 142 130 125 
204 915 332 158 146 141 
205 914 332 158 147 143 
205 914 333 159 149 145 
205 915 332 159 146 140 
206 912 333 122 113 109 
206 913 333 133 125 122 
206 912 334 119 108 103 
206 913 334 131 122 119 
207 912 335 133 123 118 
207 913 334 133 123 119 
207 913 335 150 139 134 
206 914 333 156 145 141 
206 915 332 142 127 120 
206 915 333 148 134 127 
207 915 333 137 121 115 
207 914 334 153 141 136 
207 914 335 162 150 145 
207 915 334 139 122 117 
204 916 330 137 122 116 
204 916 331 144 129 122 
204 917 330 103 83 83 
204 917 331 113 94 90 
205 916 331 130 112 106 
205 917 331 86 70 74 
204 918 329 86 73 79 
204 919 329 79 80 92 
204 918 330 84 72 77 
204 919 330 81 89 101 
205 918 330 78 69 76 
205 918 331 67 64 75 
205 919 330 83 93 105 
206 917 331 68 59 69 
206 918 331 58 65 79 
206 919 331 94 104 117 
207 919 331 134 137 147 
205 916 332 123 104 101 
206 916 332 108 88 90 
206 916 333 116 95 95 
206 917 332 76 62 70 
207 916 333 95 74 80 
207 917 332 56 57 69 
207 917 333 69 58 68 
207 916 334 102 82 84 
206 918 332 56 59 72 
207 918 332 78 86 98 
207 918 333 71 80 92 
207 919 332 124 128 138 
200 922 323 95 103 115 
200 923 323 145 148 158 
200 920 324 82 69 71 
200 920 325 78 64 71 
200 921 324 59 62 75 
200 921 325 57 60 72 
201 920 325 64 59 68 
201 921 325 72 80 93 
201 920 326 61 59 69 
200 922 324 110 117 128 
200 923 324 151 153 162 
201 922 325 129 133 143 
201 923 324 153 153 161 
201 923 325 155 154 161 
202 920 326 63 70 83 
202 920 327 64 70 83 
202 921 326 96 103 114 
202 921 327 120 125 135 
203 921 327 114 120 132 
202 922 325 135 139 148 
202 923 325 148 147 153 
202 922 326 146 147 155 
202 922 327 136 139 148 
202 923 326 142 140 147 
203 922 327 156 155 162 
203 923 326 136 133 140 
203 923 327 132 128 136 
200 924 323 150 150 158 
200 925 323 116 113 125 
201 925 323 106 101 116 
201 926 323 93 99 115 
201 927 323 128 134 146 
202 927 323 145 149 160 
201 924 324 136 135 142 
201 925 324 95 88 107 
201 926 324 88 91 109 
202 924 324 111 106 118 
202 924 325 110 105 116 
202 925 324 90 82 102 
202 925 325 83 79 98 
203 925 325 82 86 103 
202 924 326 109 105 115 
203 924 326 100 94 108 
203 924 327 100 92 106 
203 925 326 88 88 106 
202 926 324 109 113 127 
202 926 325 94 98 114 
202 927 324 144 147 158 
203 926 325 127 132 143 
203 927 324 149 151 160 
203 927 325 146 147 157 
203 926 326 130 135 146 
204 923 327 122 115 126 
204 924 327 98 93 109 
204 925 326 99 101 118 
204 925 327 107 111 126 
205 925 327 148 150 159 
204 927 325 145 145 154 
204 926 326 142 145 155 
204 926 327 146 148 158 
204 927 326 145 145 153 
205 926 327 154 155 162 
205 927 326 140 139 148 
205 927 327 140 139 149 
206 927 327 140 139 150 
203 920 328 86 95 107 
203 921 328 148 151 160 
204 920 328 111 118 130 
204 920 329 114 120 131 
204 921 328 161 161 168 
205 920 329 146 149 158 
205 921 329 161 161 168 
205 920 330 130 135 146 
205 921 330 159 158 165 
204 922 328 152 150 157 
204 923 328 117 110 122 
205 922 328 132 128 136 
205 922 329 141 137 144 
205 923 328 108 102 117 
205 923 329 109 103 117 
206 920 330 140 144 154 
206 920 331 148 150 160 
206 921 330 150 149 156 
207 920 331 153 153 161 
207 921 331 138 135 142 
206 922 329 126 123 132 
206 923 329 97 95 112 
206 922 330 118 114 126 
206 923 330 90 84 107 
207 922 330 97 90 110 
207 922 331 100 93 110 
207 923 330 88 88 110 
204 924 328 99 92 109 
205 924 328 105 106 121 
205 925 328 133 136 148 
206 924 328 119 124 137 
206 924 329 111 116 130 
206 925 328 149 152 161 
206 925 329 147 150 159 
207 925 329 145 147 156 
207 924 330 123 128 140 
207 925 330 145 146 155 
206 926 328 150 149 158 
206 926 329 151 150 160 
206 927 328 128 128 140 
207 926 329 137 137 147 
207 927 328 120 123 136 
207 927 329 120 122 135 
208 896 335 125 114 108 
208 897 335 129 117 111 
208 898 335 140 129 123 
208 899 335 134 122 115 
208 900 335 126 114 106 
208 901 335 116 105 98 
208 902 335 113 103 98 
208 903 335 118 110 106 
208 904 335 123 113 109 
208 905 335 124 115 110 
208 906 335 124 115 110 
208 907 335 119 110 106 
208 896 336 126 114 108 
208 897 336 136 126 120 
209 896 336 127 116 109 
209 896 337 131 120 113 
209 897 336 137 126 120 
209 897 337 139 128 123 
208 898 336 139 128 122 
208 899 336 132 120 113 
209 898 336 139 127 121 
209 898 337 138 126 119 
209 899 336 133 120 113 
209 899 337 134 121 114 
210 896 337 135 124 118 
210 897 337 141 130 125 
210 897 338 142 130 125 
211 896 338 141 129 124 
211 897 338 141 130 124 
210 898 337 137 125 118 
210 899 337 135 123 116 
210 898 338 136 124 118 
210 899 338 136 124 118 
211 898 338 137 125 119 
211 899 338 137 126 121 
208 900 336 127 115 108 
208 901 336 112 101 94 
209 900 336 129 116 109 
209 900 337 132 120 113 
209 901 336 117 105 96 
209 901 337 123 110 102 
208 902 336 96 86 81 
208 903 336 97 89 85 
209 902 336 98 86 77 
209 902 337 113 102 95 
209 903 336 90 81 75 
209 903 337 105 95 89 
210 900 337 136 124 118 
210 901 337 134 122 116 
210 900 338 137 126 121 
210 901 338 137 127 121 
211 900 338 137 127 121 
211 901 338 137 126 121 
210 902 337 131 120 115 
210 903 337 126 117 113 
211 902 338 137 126 121 
211 902 339 136 126 120 
211 903 338 136 125 120 
211 903 339 136 125 119 
212 896 338 141 130 125 
212 896 339 142 131 126 
212 897 339 140 129 123 
212 898 339 137 126 120 
212 899 339 138 126 121 
212 897 340 140 129 123 
213 896 340 143 132 127 
213 897 340 141 130 125 
212 898 340 139 127 121 
212 899 340 138 127 121 
213 898 340 139 129 123 
213 899 340 139 128 123 
213 899 341 135 125 120 
214 896 340 141 130 125 
214 896 341 140 129 124 
214 897 341 139 129 124 
215 896 341 139 129 124 
215 897 341 134 123 118 
215 896 342 138 128 123 
215 897 342 127 116 111 
214 898 341 131 121 116 
214 899 341 125 115 110 
215 898 342 120 111 105 
215 899 342 121 111 106 
212 900 339 137 127 121 
212 901 339 136 126 121 
212 902 339 135 125 119 
212 903 339 135 124 119 
212 900 340 137 126 120 
212 901 340 135 125 119 
213 900 340 137 126 121 
213 900 341 133 123 118 
213 901 340 135 125 120 
213 901 341 132 122 118 
212 902 340 135 124 119 
212 903 340 134 123 118 
213 902 340 135 124 120 
213 902 341 133 124 120 
213 903 340 134 124 120 
214 900 341 124 114 109 
214 901 341 125 116 111 
215 900 342 123 113 108 
215 900 343 129 119 114 
215 901 342 125 115 110 
215 901 343 131 121 116 
214 902 341 127 118 114 
214 903 341 129 120 116 
215 902 342 126 117 112 
215 903 342 122 113 109 
208 904 336 100 92 88 
208 905 336 108 100 96 
209 904 336 85 77 73 
209 905 336 92 84 80 
209 905 337 95 87 83 
208 906 336 120 111 107 
208 907 336 110 102 99 
209 906 336 111 103 99 
209 906 337 109 102 98 
209 907 337 107 99 96 
210 904 337 116 108 104 
210 905 337 111 103 100 
210 905 338 126 118 114 
211 904 338 132 121 117 
211 904 339 133 123 117 
211 905 338 128 119 115 
211 905 339 129 119 115 
210 906 337 112 105 102 
210 907 337 108 101 98 
210 906 338 119 111 107 
210 907 338 110 102 99 
211 906 338 117 109 106 
211 906 339 120 112 108 
211 907 338 111 104 101 
211 907 339 115 107 104 
208 908 336 114 108 105 
208 909 336 139 130 127 
209 908 337 122 115 112 
209 909 337 147 136 132 
208 910 336 147 137 133 
208 911 336 146 135 131 
209 910 337 141 130 124 
209 911 337 137 126 121 
210 908 338 129 121 118 
210 909 338 149 138 133 
211 908 338 129 121 118 
211 908 339 142 133 130 
211 909 338 149 137 131 
211 909 339 149 138 133 
210 911 337 134 123 118 
210 910 338 139 127 120 
210 911 338 137 126 121 
211 910 338 141 129 122 
211 910 339 143 131 125 
211 911 338 143 132 126 
211 911 339 145 133 128 
212 904 339 133 123 118 
212 905 339 129 119 115 
212 906 339 119 111 107 
212 907 339 115 107 104 
212 904 340 133 122 117 
212 905 340 128 118 114 
213 904 340 133 123 118 
213 904 341 133 123 119 
213 905 340 130 120 115 
213 905 341 130 120 115 
212 906 340 120 112 109 
212 907 340 124 116 113 
213 906 340 123 114 110 
213 906 341 125 116 112 
213 907 340 125 117 114 
213 907 341 130 122 118 
214 904 341 131 122 118 
214 905 341 132 122 118 
215 904 342 121 112 107 
215 905 342 130 121 118 
214 906 341 129 121 117 
214 907 341 135 127 123 
215 906 342 137 129 126 
215 907 342 144 135 132 
212 908 339 137 129 126 
212 910 339 143 131 126 
212 911 339 153 142 137 
213 911 339 166 154 149 
212 908 340 141 132 130 
212 909 340 147 136 132 
213 908 340 144 135 133 
213 908 341 148 138 134 
213 909 340 148 137 133 
213 909 341 150 140 136 
212 910 340 146 134 129 
212 911 340 150 138 133 
213 910 340 153 142 138 
213 911 340 164 152 147 
214 908 341 148 138 135 
214 909 341 153 143 139 
215 909 341 157 147 142 
215 908 342 151 141 138 
215 909 342 158 147 143 
214 910 341 159 148 144 
214 911 340 169 157 151 
215 910 341 167 155 150 
215 911 340 173 159 152 
215 911 341 172 159 152 
216 896 342 134 123 118 
216 897 342 122 111 105 
216 897 343 117 106 101 
217 896 342 134 123 118 
217 896 343 128 117 112 
217 897 343 117 106 101 
216 898 343 120 111 106 
216 899 343 124 116 112 
217 898 343 120 111 107 
217 899 343 119 111 108 
218 896 343 127 116 110 
218 897 343 116 106 100 
219 896 343 128 117 112 
219 897 343 115 105 98 
216 900 343 128 119 116 
216 901 343 136 126 122 
217 900 343 120 112 110 
216 902 343 140 130 126 
216 903 343 135 125 120 
217 902 343 147 137 133 
217 903 343 146 135 131 
217 899 344 118 110 108 
218 897 344 119 109 105 
219 896 344 125 114 109 
219 897 344 119 110 104 
218 898 344 123 114 110 
218 899 344 122 115 112 
219 898 344 128 119 116 
219 899 344 132 125 123 
217 900 344 120 112 110 
217 901 344 132 124 121 
217 902 344 145 136 132 
217 903 344 152 142 138 
218 900 344 120 113 111 
218 901 344 125 118 116 
219 900 344 130 123 121 
219 900 345 138 130 128 
219 901 345 134 126 124 
218 902 344 141 133 131 
218 903 344 153 143 140 
219 902 344 142 134 131 
219 902 345 140 131 128 
219 903 344 153 143 139 
219 903 345 150 140 136 
220 896 344 132 122 116 
220 897 344 123 113 108 
221 896 344 136 126 121 
221 897 344 130 119 113 
220 898 344 130 122 119 
220 899 344 137 129 126 
220 899 345 141 133 130 
221 898 344 132 122 118 
221 899 345 140 131 127 
222 896 344 142 131 126 
222 897 344 138 127 122 
223 896 344 146 135 130 
223 897 344 148 137 131 
222 898 344 137 127 121 
222 899 345 142 131 127 
223 898 344 150 138 132 
223 899 344 153 141 135 
223 899 345 148 137 131 
220 900 345 145 136 134 
220 901 345 149 140 137 
221 900 345 148 138 135 
221 901 345 153 143 140 
220 902 345 152 142 139 
220 903 345 155 145 141 
221 902 345 155 145 141 
221 903 345 154 143 138 
222 900 345 147 137 133 
222 901 345 152 141 137 
223 900 344 158 145 139 
223 900 345 153 141 136 
223 901 344 159 146 139 
223 901 345 155 144 138 
222 902 345 155 144 139 
222 903 344 161 149 144 
222 903 345 158 146 141 
223 902 344 160 147 141 
223 902 345 158 146 141 
223 903 344 162 149 143 
216 904 343 120 110 105 
216 905 343 125 117 114 
217 904 343 128 117 112 
217 905 343 123 114 111 
216 906 343 140 132 131 
216 907 342 149 140 137 
216 907 343 149 140 138 
217 906 343 138 130 128 
217 907 343 147 138 135 
218 906 343 140 132 129 
218 907 343 147 138 135 
219 907 343 155 144 140 
216 908 342 153 142 139 
216 908 343 151 141 138 
216 909 342 159 149 145 
217 908 342 159 148 145 
217 908 343 155 145 141 
217 909 342 165 154 149 
216 910 341 171 158 153 
216 911 341 174 159 152 
217 910 341 173 159 153 
217 911 341 174 159 151 
216 910 342 167 155 151 
217 910 342 171 158 153 
218 908 343 160 149 145 
218 909 342 170 157 151 
219 908 343 165 153 148 
219 909 342 172 158 151 
219 909 343 172 158 151 
218 911 341 173 157 149 
219 911 341 173 156 147 
218 910 342 174 159 152 
219 910 342 174 159 150 
220 907 343 160 148 142 
221 906 343 162 149 143 
221 907 343 166 152 146 
222 906 343 166 152 145 
222 907 343 167 153 145 
223 906 343 167 153 145 
223 907 343 167 153 145 
220 908 343 168 154 147 
220 909 342 173 158 149 
221 908 343 170 155 147 
221 909 342 173 157 148 
220 911 341 173 157 146 
221 911 341 169 153 142 
220 910 342 173 157 149 
221 910 342 173 157 147 
222 908 342 171 156 147 
222 908 343 169 154 146 
222 909 342 171 155 146 
223 908 342 168 152 143 
223 908 343 168 153 144 
223 909 342 165 150 141 
222 911 341 163 146 136 
223 911 341 156 141 131 
222 910 342 169 153 143 
222 911 342 163 147 137 
223 910 342 160 145 135 
223 911 342 156 141 132 
217 904 344 137 126 120 
218 904 344 148 137 132 
218 905 344 128 118 113 
219 904 344 152 141 137 
219 905 344 136 125 120 
218 906 344 132 124 121 
219 906 344 141 131 127 
219 907 344 148 138 134 
220 904 344 151 140 136 
220 904 345 153 142 138 
220 905 344 144 133 128 
221 904 344 153 142 137 
221 905 344 154 142 137 
220 906 344 151 139 134 
221 906 344 158 146 140 
222 904 344 161 149 143 
222 905 344 162 149 143 
223 904 344 164 150 143 
223 905 344 165 151 144 
222 906 344 164 151 144 
223 906 344 167 153 145 
208 912 335 153 142 138 
208 913 335 164 152 146 
208 914 335 160 145 139 
208 915 334 114 95 92 
208 915 335 134 116 110 
209 914 335 145 129 123 
209 915 335 110 90 92 
210 915 335 83 64 74 
208 917 333 59 62 74 
208 916 334 90 73 76 
208 917 334 61 62 73 
209 916 334 64 59 71 
209 916 335 71 61 72 
209 917 334 70 78 90 
209 917 335 65 73 85 
208 918 333 101 106 117 
208 919 332 150 151 158 
208 919 333 151 151 158 
209 919 333 155 155 162 
208 918 334 84 92 103 
209 918 334 122 126 135 
209 919 334 159 158 164 
210 916 335 63 64 77 
210 917 335 97 104 114 
211 917 335 117 122 132 
210 918 334 139 142 150 
210 918 335 148 149 157 
210 919 334 158 156 162 
211 918 335 156 156 162 
211 919 335 139 136 142 
212 919 335 110 105 114 
208 921 331 129 124 132 
208 922 331 86 80 100 
208 923 330 105 109 123 
208 923 331 99 102 117 
209 922 331 82 88 102 
209 923 331 118 121 131 
208 920 332 152 150 155 
208 920 333 155 152 157 
208 921 332 117 111 120 
209 920 333 143 140 145 
209 921 332 88 78 97 
209 921 333 97 90 103 
209 922 332 86 86 103 
209 922 333 77 76 94 
209 923 332 133 136 144 
210 920 333 110 104 113 
210 921 333 79 74 91 
210 920 334 128 123 130 
210 921 334 75 72 91 
211 920 334 104 96 109 
211 920 335 89 80 98 
211 921 334 83 84 101 
211 921 335 79 79 98 
210 922 333 104 109 122 
210 923 332 151 151 157 
210 923 333 148 148 155 
211 922 333 143 145 153 
211 923 333 154 152 159 
211 922 334 125 129 138 
211 923 334 154 151 156 
208 924 330 133 136 146 
208 924 331 141 142 151 
208 925 330 142 143 151 
209 924 331 148 148 155 
209 925 331 133 131 140 
208 927 329 111 115 128 
208 926 330 120 121 132 
208 927 330 108 112 128 
209 926 330 110 111 123 
209 926 331 101 101 114 
209 927 330 102 108 127 
210 925 331 124 121 129 
210 926 331 92 92 108 
210 927 331 102 110 127 
209 924 332 152 150 156 
210 924 332 146 143 149 
210 924 333 150 147 152 
210 925 332 114 109 118 
211 924 333 135 131 136 
211 925 332 95 89 104 
211 925 333 98 93 105 
210 926 332 87 88 106 
211 926 332 90 94 111 
211 926 333 83 85 104 
211 927 332 118 123 135 
212 920 335 79 75 92 
212 921 335 103 107 119 
213 921 335 129 133 141 
212 922 334 154 153 159 
212 922 335 145 146 153 
212 923 334 148 145 150 
212 923 335 138 135 140 
213 922 335 150 148 154 
213 923 335 126 122 128 
212 925 333 86 82 98 
