ply
format ascii 1.0
comment Created by CloudCompare v2.10.1 (Zephyrus)
comment Created 1/30/20 6:09 PM
obj_info Generated by CloudCompare!
element vertex 1921
property float x
property float y
property float z
property uchar red
property uchar green
property uchar blue
end_header
171 742 313 127 119 116 
171 743 312 122 114 111 
171 743 313 123 115 112 
170 742 314 128 120 117 
170 742 315 130 121 117 
170 743 314 126 117 114 
171 742 314 130 122 119 
169 741 317 132 122 118 
168 740 319 136 126 122 
168 741 318 132 122 118 
168 741 319 134 124 120 
169 740 318 135 125 122 
169 740 319 137 127 123 
169 741 318 133 123 119 
169 741 319 134 124 121 
168 742 317 130 120 116 
168 743 316 131 122 118 
168 743 317 131 122 118 
169 742 316 129 119 115 
169 742 317 129 119 115 
169 743 316 129 120 116 
168 742 318 131 121 117 
169 742 318 130 120 116 
170 740 317 137 127 123 
170 741 316 134 124 121 
170 741 317 134 124 120 
171 740 316 138 129 125 
171 740 317 138 128 125 
170 740 318 137 127 124 
170 742 316 130 120 116 
173 737 314 127 118 115 
173 737 315 126 116 113 
172 739 313 139 131 129 
173 738 312 123 114 111 
173 738 313 127 118 114 
173 739 312 131 122 120 
173 739 313 136 127 125 
172 739 314 139 130 128 
172 739 315 135 126 123 
173 738 314 131 122 119 
173 738 315 129 120 116 
173 739 314 136 127 124 
174 736 312 107 98 93 
174 736 313 115 106 102 
174 737 312 113 103 99 
174 737 313 122 113 109 
175 736 312 102 93 89 
175 736 313 108 98 94 
174 736 314 118 110 106 
174 736 315 124 115 112 
174 737 314 124 115 112 
174 737 315 124 115 112 
174 738 312 119 110 106 
173 736 317 128 119 117 
173 737 316 127 118 115 
173 737 317 130 120 117 
172 737 318 138 129 126 
172 737 319 147 137 135 
173 736 318 130 122 119 
173 736 319 136 127 125 
173 737 318 134 125 122 
172 738 316 131 121 118 
172 738 317 133 123 119 
172 739 316 134 124 121 
172 739 317 135 125 122 
173 738 316 130 120 117 
173 738 317 130 121 117 
172 738 318 139 129 126 
172 738 319 148 139 136 
172 739 318 136 126 122 
174 736 316 127 119 116 
174 736 317 127 118 116 
174 736 318 127 118 116 
172 740 312 138 130 129 
172 740 313 140 132 130 
172 741 312 134 126 124 
172 741 313 137 128 126 
173 740 312 136 128 126 
172 740 314 143 134 132 
172 740 315 141 132 130 
169 745 311 123 114 111 
169 747 309 122 113 110 
168 746 311 127 118 114 
168 747 310 126 116 113 
168 747 311 127 118 115 
169 746 310 122 113 110 
169 746 311 125 115 112 
169 747 310 124 115 111 
169 747 311 126 117 113 
170 745 309 118 109 105 
171 744 309 116 108 105 
171 745 309 117 108 105 
170 744 310 117 109 105 
170 744 311 119 111 108 
170 745 310 119 110 107 
170 745 311 121 112 108 
171 744 310 117 109 106 
171 744 311 117 109 106 
170 746 309 119 110 106 
170 746 310 120 111 107 
168 748 309 125 116 112 
168 749 309 127 118 114 
168 748 310 128 118 115 
168 745 313 130 121 117 
169 744 312 123 113 110 
169 744 313 125 116 112 
169 745 312 126 116 113 
169 745 313 128 119 115 
168 744 314 130 121 118 
168 744 315 131 121 118 
168 745 314 131 122 118 
169 744 314 128 118 115 
168 746 312 129 120 116 
168 746 313 130 120 116 
169 746 312 127 117 114 
170 744 312 121 112 109 
160 753 309 135 125 122 
161 753 309 134 124 120 
160 752 311 136 126 122 
160 753 310 135 125 121 
160 753 311 135 125 121 
161 752 310 134 124 120 
161 752 311 136 126 122 
161 753 310 135 125 121 
160 754 308 136 127 123 
160 754 309 135 126 122 
160 755 308 138 128 124 
161 754 308 134 124 121 
162 752 309 133 122 118 
162 753 308 133 123 119 
162 753 309 133 123 119 
163 752 309 133 123 119 
163 753 308 134 124 120 
162 752 310 135 125 121 
163 752 310 136 125 121 
162 754 308 133 123 119 
164 752 309 134 124 120 
164 753 308 133 124 120 
160 752 312 136 126 122 
128 704 351 154 146 144 
128 705 351 157 148 147 
129 704 351 158 150 149 
129 705 351 160 152 151 
128 707 349 160 151 150 
129 707 349 160 152 150 
128 706 350 157 149 148 
128 706 351 158 150 149 
128 707 350 159 151 150 
129 706 350 159 150 149 
129 706 351 161 152 152 
129 707 350 162 153 152 
130 705 351 160 152 151 
131 705 351 160 152 151 
130 706 351 161 153 152 
130 707 350 161 152 151 
130 707 351 161 153 152 
131 706 351 160 151 150 
131 707 350 157 149 148 
131 707 351 158 150 149 
128 709 347 161 152 150 
129 709 347 165 156 154 
128 711 345 159 150 148 
128 710 346 159 150 148 
128 710 347 162 152 151 
128 711 346 159 149 148 
129 710 346 163 154 153 
129 710 347 164 154 152 
129 711 346 164 155 153 
130 710 347 166 156 155 
130 711 346 167 158 157 
131 710 347 163 154 153 
131 711 346 163 154 153 
131 711 347 164 154 153 
128 708 348 159 150 148 
128 708 349 159 150 148 
128 709 348 160 150 148 
129 708 349 162 153 151 
129 709 348 164 155 153 
130 708 349 161 152 151 
130 709 348 163 154 153 
130 709 349 162 153 152 
131 708 349 158 150 149 
131 709 348 163 155 154 
131 709 349 161 152 151 
130 708 350 158 150 149 
131 708 350 157 148 147 
130 710 348 165 156 154 
131 710 348 163 154 153 
132 706 351 153 144 142 
132 707 350 153 145 143 
132 707 351 154 145 144 
133 706 351 149 140 138 
133 707 351 150 141 140 
134 706 351 153 143 141 
134 707 351 153 144 142 
135 707 351 157 148 147 
132 711 346 159 150 148 
132 711 347 158 149 147 
133 711 347 150 141 139 
132 709 349 158 149 148 
133 709 349 154 145 143 
132 708 350 154 145 144 
133 708 350 151 142 140 
133 708 351 150 141 139 
133 709 350 151 142 140 
132 710 348 159 150 148 
132 710 349 159 150 149 
133 710 348 151 142 140 
133 710 349 151 142 140 
133 711 348 149 139 137 
134 708 351 151 142 140 
134 709 350 151 142 140 
135 708 351 156 146 145 
135 709 350 154 145 142 
134 710 349 147 137 135 
134 711 348 144 134 131 
135 710 349 148 139 136 
135 711 348 144 134 131 
135 711 349 146 136 133 
134 710 350 151 142 139 
135 710 350 152 143 140 
128 713 343 165 156 154 
129 713 343 168 159 157 
128 715 341 167 157 156 
129 715 341 162 152 150 
128 714 342 168 158 157 
128 714 343 167 157 156 
128 715 342 168 159 157 
129 714 342 164 155 153 
129 714 343 166 157 155 
129 715 342 163 153 151 
130 715 341 150 141 138 
131 715 341 146 137 134 
130 714 343 159 150 148 
130 715 342 155 145 142 
131 714 343 151 141 138 
131 715 342 146 136 133 
131 715 343 147 137 134 
128 717 339 165 155 153 
129 717 338 157 148 145 
129 717 339 155 145 142 
129 718 338 154 144 142 
130 717 339 147 137 134 
131 717 339 150 140 138 
130 718 337 149 139 136 
130 719 336 147 138 135 
130 719 337 149 139 136 
131 719 337 150 140 138 
130 718 338 149 140 137 
131 718 338 150 141 138 
131 718 339 150 141 138 
128 716 340 166 156 155 
129 716 340 157 147 145 
130 716 340 147 137 134 
130 716 341 149 139 136 
130 717 340 147 137 134 
131 716 340 144 134 131 
131 716 341 142 133 130 
131 717 340 146 137 134 
132 714 343 143 133 130 
132 715 342 143 134 131 
132 715 343 143 133 130 
133 715 343 140 131 128 
134 715 343 140 131 129 
132 717 339 153 143 141 
132 719 337 153 144 141 
133 719 337 156 147 144 
132 718 338 153 143 141 
132 718 339 153 143 140 
132 719 338 152 142 139 
133 718 338 156 146 144 
133 718 339 157 147 145 
133 719 338 157 147 145 
133 719 339 157 147 145 
134 719 338 159 150 147 
134 719 339 158 148 145 
135 719 339 158 149 147 
132 716 340 144 135 133 
132 716 341 145 135 133 
132 717 340 150 141 138 
133 716 341 146 136 134 
133 717 340 152 143 140 
133 717 341 149 140 138 
132 716 342 142 133 130 
133 716 342 145 136 133 
133 716 343 142 133 130 
133 718 340 156 146 143 
134 717 341 151 142 140 
134 716 342 145 136 134 
134 716 343 142 133 131 
134 717 342 148 139 137 
135 716 343 143 134 132 
135 717 342 150 141 139 
135 717 343 147 138 136 
134 718 340 156 146 144 
134 718 341 153 144 142 
135 718 340 155 145 142 
135 718 341 153 144 142 
135 719 340 157 147 145 
135 718 342 151 142 140 
128 712 344 162 153 151 
128 712 345 161 152 150 
128 713 344 163 154 153 
129 712 344 165 156 154 
129 712 345 166 156 155 
129 713 344 167 158 157 
130 712 345 167 158 157 
130 713 344 164 155 153 
130 713 345 166 157 156 
131 712 345 161 152 151 
131 713 344 156 147 145 
131 713 345 160 151 149 
130 712 346 168 159 158 
131 712 346 164 155 154 
131 714 344 151 141 139 
132 713 344 149 139 136 
132 713 345 150 140 138 
133 713 345 143 133 131 
132 712 346 154 145 144 
133 712 346 147 138 136 
133 712 347 145 135 133 
133 713 346 143 134 131 
132 714 344 145 135 132 
133 714 344 140 130 127 
133 714 345 140 131 128 
133 715 344 138 129 126 
134 712 347 143 133 130 
134 713 346 140 131 128 
135 712 347 143 134 131 
135 713 346 141 132 129 
135 713 347 142 132 129 
134 714 345 139 129 127 
134 715 344 140 131 128 
134 715 345 139 130 128 
135 714 345 140 131 128 
135 715 344 141 132 130 
135 715 345 141 132 130 
134 714 346 139 130 127 
135 714 346 140 131 128 
134 712 348 143 133 130 
135 712 348 144 134 131 
135 716 344 141 132 130 
136 706 351 139 132 133 
136 707 351 152 144 144 
137 706 351 127 121 121 
137 707 351 144 137 138 
138 706 351 117 110 111 
138 707 351 129 123 124 
139 706 351 106 98 97 
139 707 351 113 107 108 
136 708 351 156 148 147 
136 709 350 156 147 145 
136 709 351 156 147 146 
137 708 351 156 149 149 
137 709 350 162 154 153 
137 709 351 161 153 153 
136 710 349 151 141 139 
136 711 349 151 142 139 
137 711 349 158 148 147 
136 710 350 156 146 145 
137 710 350 161 152 151 
138 708 351 150 143 144 
138 709 350 160 153 154 
138 709 351 160 152 153 
139 708 350 134 128 129 
139 708 351 125 119 121 
139 709 350 146 139 140 
138 711 349 166 157 157 
139 711 349 171 163 163 
138 710 350 167 159 159 
138 711 350 167 159 159 
139 710 350 160 153 154 
139 711 350 169 161 162 
140 706 351 101 93 90 
140 707 351 104 96 95 
141 706 351 108 98 95 
141 707 351 111 100 97 
142 707 351 123 113 110 
143 707 351 147 137 135 
140 708 350 111 104 104 
140 708 351 108 100 100 
140 709 350 120 114 114 
141 708 350 111 102 101 
141 708 351 111 102 100 
141 709 350 112 104 103 
140 711 349 158 151 152 
141 711 349 139 132 133 
140 710 350 136 130 131 
140 711 350 151 145 146 
141 710 350 116 109 110 
141 711 350 128 121 122 
142 708 351 117 107 106 
142 709 350 110 99 99 
143 708 351 140 129 127 
143 709 350 124 110 110 
143 709 351 132 120 119 
142 711 349 120 111 113 
143 711 349 107 96 98 
142 710 350 107 96 98 
142 711 350 118 110 111 
143 710 350 109 95 97 
136 719 339 158 148 146 
136 716 343 144 135 133 
136 717 342 151 141 139 
136 717 343 148 139 137 
137 717 343 150 141 138 
136 718 341 154 144 142 
136 719 340 158 149 146 
136 719 341 156 147 145 
137 718 341 155 146 143 
137 719 340 160 150 149 
137 719 341 158 149 147 
136 718 342 153 143 141 
137 718 342 154 145 142 
137 718 343 152 143 140 
137 719 342 156 147 145 
138 719 341 159 149 147 
138 718 343 155 145 143 
138 719 342 158 148 146 
139 718 343 156 147 145 
139 719 342 159 149 147 
139 719 343 157 148 145 
140 718 343 160 151 149 
140 719 342 159 149 147 
140 719 343 160 150 148 
141 719 343 161 151 149 
142 719 343 162 152 150 
143 719 343 160 151 149 
136 713 347 144 134 131 
137 713 347 145 135 132 
136 715 345 143 134 132 
137 715 345 143 135 133 
136 714 346 142 133 130 
136 714 347 143 134 131 
136 715 346 144 135 132 
137 714 346 145 136 133 
137 714 347 147 137 135 
137 715 346 145 137 135 
138 714 347 152 143 141 
138 715 346 149 140 138 
138 715 347 150 141 139 
139 715 346 152 143 141 
139 715 347 155 146 144 
136 712 348 147 138 135 
136 712 349 150 140 137 
136 713 348 146 136 133 
137 712 349 154 145 143 
137 713 348 150 141 138 
138 712 349 163 154 153 
138 713 348 156 147 145 
138 713 349 160 151 149 
139 712 349 172 164 164 
139 713 348 164 155 154 
139 713 349 169 160 159 
138 714 348 154 145 143 
139 714 348 162 153 151 
136 716 344 141 132 130 
136 716 345 141 133 130 
137 716 344 143 134 132 
137 716 345 144 135 133 
137 717 344 147 138 136 
137 716 346 148 139 137 
138 716 345 149 141 139 
138 717 344 151 142 141 
138 717 345 150 141 139 
139 717 344 155 146 144 
139 717 345 155 146 144 
138 716 346 149 141 139 
139 716 346 153 144 142 
138 718 344 153 144 142 
139 718 344 156 147 145 
140 715 347 162 153 152 
141 715 347 160 151 150 
142 715 347 143 132 131 
143 715 347 120 106 104 
140 712 349 167 159 159 
140 713 348 172 162 162 
140 713 349 173 164 163 
141 712 349 153 146 147 
141 713 349 161 152 151 
140 714 348 167 158 157 
140 715 348 165 156 155 
141 714 348 157 147 145 
141 715 348 159 149 148 
142 712 349 142 135 135 
142 713 348 146 137 134 
142 713 349 150 142 141 
143 712 349 123 115 116 
143 713 348 141 131 129 
143 713 349 140 132 131 
142 714 348 141 130 128 
142 715 348 141 129 127 
143 714 348 136 124 120 
143 715 348 123 109 107 
140 717 345 159 150 149 
141 717 345 164 155 154 
140 716 346 159 150 149 
140 716 347 163 154 153 
140 717 346 160 151 150 
141 716 346 163 154 154 
141 716 347 163 154 153 
141 717 346 164 155 154 
140 718 344 160 150 148 
140 718 345 161 152 150 
141 718 344 162 153 151 
141 718 345 164 154 153 
142 717 345 165 156 155 
142 716 346 155 147 146 
142 716 347 148 139 137 
142 717 346 158 149 148 
143 716 346 117 105 104 
143 716 347 125 114 112 
143 717 346 139 130 128 
142 718 344 163 153 152 
142 718 345 164 154 153 
142 719 344 163 153 151 
143 718 344 152 142 140 
143 718 345 147 137 135 
143 719 344 157 148 146 
131 721 335 149 139 137 
131 722 334 146 137 134 
132 721 335 149 139 136 
133 721 335 149 139 136 
132 723 333 146 137 134 
133 723 333 146 136 134 
132 722 334 147 137 134 
133 722 334 146 137 134 
133 722 335 148 139 136 
133 723 334 146 137 134 
134 722 334 146 137 134 
134 722 335 148 138 135 
134 723 334 146 137 134 
135 722 335 148 138 135 
135 723 334 146 137 134 
135 723 335 148 138 136 
133 726 331 143 133 131 
133 727 331 142 133 131 
134 727 331 143 134 132 
132 724 333 143 134 130 
132 725 332 146 137 135 
133 724 332 146 136 134 
133 724 333 145 136 133 
133 725 332 145 135 133 
133 726 332 143 134 131 
134 724 333 144 135 132 
134 725 332 142 133 131 
134 725 333 144 134 132 
135 724 333 143 134 132 
135 725 332 140 131 129 
135 725 333 142 133 130 
135 724 334 144 135 132 
134 726 332 143 135 133 
134 727 332 143 134 132 
135 726 332 143 134 132 
135 727 332 143 135 133 
135 735 327 152 143 142 
133 728 331 143 134 132 
133 729 330 142 133 130 
133 729 331 143 134 132 
133 730 330 144 135 133 
133 731 330 145 136 134 
134 728 331 143 134 132 
134 729 330 143 135 132 
134 729 331 144 135 132 
135 728 331 142 134 132 
135 729 331 144 135 133 
134 730 330 146 138 136 
134 731 330 146 137 135 
135 730 330 147 138 137 
135 730 331 147 138 137 
135 731 330 146 138 136 
135 728 332 143 134 132 
133 732 329 149 140 138 
134 732 329 149 141 139 
134 733 328 152 143 142 
134 733 329 152 143 142 
135 732 329 151 142 140 
135 733 328 152 143 142 
135 733 329 152 143 142 
135 732 330 148 139 137 
134 734 328 152 143 142 
135 734 328 152 143 142 
135 735 328 151 143 141 
136 722 335 149 139 137 
136 723 334 145 136 134 
136 723 335 147 138 135 
137 723 335 146 136 133 
138 723 335 144 134 131 
136 725 333 141 132 130 
137 725 333 142 134 131 
136 724 334 144 134 132 
137 724 334 143 134 132 
137 724 335 143 134 131 
137 725 334 143 134 132 
136 726 332 142 134 132 
136 726 333 143 134 132 
136 727 332 142 134 132 
137 726 333 143 134 132 
137 727 332 142 133 131 
137 727 333 143 134 132 
138 724 335 142 133 130 
138 725 334 143 134 132 
138 725 335 144 135 133 
139 724 335 142 133 130 
139 725 334 143 134 131 
139 725 335 143 134 131 
138 726 333 143 134 132 
138 727 333 143 134 131 
139 727 333 142 133 131 
138 726 334 143 134 131 
139 726 334 142 133 131 
139 727 334 142 133 131 
140 725 335 141 132 129 
140 726 334 141 132 129 
140 726 335 141 132 129 
140 727 334 143 134 131 
140 727 335 144 134 132 
141 726 335 145 135 132 
141 727 334 145 136 133 
141 727 335 145 136 133 
142 726 335 145 136 133 
142 727 335 145 136 133 
143 727 335 148 138 135 
136 735 327 151 142 140 
136 729 331 143 135 133 
137 729 331 145 136 134 
136 730 331 146 138 136 
136 731 330 147 139 137 
137 730 331 147 138 136 
137 731 330 150 141 139 
137 731 331 149 140 138 
138 730 331 149 140 138 
138 731 331 151 141 139 
139 731 331 152 142 140 
136 728 332 141 132 130 
136 729 332 141 133 131 
137 728 332 142 133 131 
137 728 333 143 134 132 
137 729 332 144 136 133 
138 728 333 144 136 133 
138 729 332 147 138 136 
139 728 333 144 136 133 
139 729 332 147 138 136 
139 729 333 147 138 136 
138 730 332 147 138 136 
139 730 332 150 141 139 
136 732 329 152 143 141 
136 733 329 152 143 141 
137 732 329 152 143 141 
137 733 329 152 143 142 
136 732 330 151 142 140 
137 732 330 152 143 140 
136 734 328 152 144 142 
136 735 328 151 143 141 
137 734 328 154 145 143 
137 734 329 154 145 143 
137 735 328 152 143 141 
138 733 329 153 144 142 
139 733 329 154 145 143 
138 732 330 151 142 140 
138 733 330 152 143 140 
139 732 330 151 141 139 
139 732 331 151 141 139 
139 733 330 153 144 141 
138 734 329 154 145 143 
138 735 328 152 143 141 
139 734 329 155 146 144 
139 735 328 152 144 142 
139 735 329 154 145 143 
140 731 331 154 144 142 
141 731 331 155 146 144 
140 728 333 146 137 135 
140 729 332 149 139 137 
140 729 333 148 139 137 
141 728 333 147 138 135 
141 729 333 149 140 137 
140 728 334 145 135 133 
141 728 334 147 138 135 
140 730 332 151 142 140 
140 731 332 154 144 142 
141 730 332 152 142 140 
141 730 333 151 141 139 
141 731 332 155 145 143 
142 729 333 151 142 139 
143 729 333 153 143 140 
142 728 334 149 140 137 
142 728 335 147 138 135 
142 729 334 152 142 140 
143 728 334 151 141 139 
143 728 335 151 141 138 
143 729 334 153 143 140 
142 730 332 154 144 142 
142 730 333 152 143 141 
142 731 332 156 146 144 
143 730 332 154 144 142 
143 730 333 153 144 141 
143 731 332 156 147 144 
140 732 330 155 146 144 
140 732 331 155 145 143 
140 733 330 155 145 143 
141 732 330 160 150 148 
141 732 331 159 149 148 
141 733 330 157 147 145 
140 734 329 153 144 142 
140 735 328 151 142 140 
140 735 329 151 142 140 
141 734 329 154 145 143 
141 735 328 150 141 139 
141 735 329 153 143 141 
142 732 330 159 149 147 
142 732 331 158 149 147 
142 733 330 156 147 145 
143 732 331 158 148 146 
143 733 330 156 146 144 
142 734 329 154 145 143 
142 735 328 151 142 140 
142 735 329 153 144 142 
143 734 329 152 143 141 
143 735 328 150 141 139 
143 735 329 151 142 140 
143 734 330 153 144 141 
130 720 336 148 139 136 
131 720 336 149 139 136 
132 720 336 151 142 139 
132 720 337 153 143 141 
133 720 336 152 142 140 
133 720 337 155 145 143 
133 721 336 151 141 138 
134 720 337 156 146 143 
134 721 336 151 141 138 
134 721 337 154 144 141 
135 720 337 157 147 144 
135 721 336 152 141 138 
135 721 337 155 144 142 
134 720 338 160 150 148 
135 720 338 160 150 148 
135 722 336 149 139 136 
136 721 336 153 143 139 
136 721 337 156 146 143 
137 721 337 156 146 144 
136 720 338 158 149 146 
136 720 339 159 150 148 
136 721 338 159 149 146 
137 720 339 159 149 147 
137 721 338 159 149 146 
137 721 339 159 150 148 
136 722 336 151 141 138 
136 722 337 153 143 140 
137 722 336 151 141 139 
137 722 337 154 144 142 
137 723 336 147 137 134 
138 720 339 161 151 149 
138 721 338 158 148 146 
138 721 339 159 150 148 
139 721 338 157 148 146 
139 721 339 159 149 147 
138 722 337 152 142 139 
138 723 336 145 135 132 
139 722 337 151 141 139 
139 723 336 144 134 131 
139 723 337 147 137 133 
139 722 338 155 145 142 
136 720 340 160 151 149 
137 720 340 159 149 147 
138 720 340 160 150 149 
138 720 341 159 150 147 
139 720 340 160 151 149 
139 720 341 161 151 149 
139 721 340 161 151 149 
139 724 336 142 132 129 
140 721 339 157 147 144 
140 722 337 148 138 135 
140 723 336 144 134 131 
140 723 337 147 137 133 
141 723 337 147 137 134 
140 722 338 152 142 140 
140 722 339 156 146 143 
141 722 338 151 141 138 
141 722 339 155 145 142 
141 723 338 149 139 136 
142 722 339 155 145 142 
142 723 338 150 140 137 
143 722 339 158 148 144 
143 723 338 151 141 138 
143 723 339 154 144 140 
140 720 340 161 151 149 
140 720 341 161 152 149 
140 721 340 160 151 148 
141 720 341 162 152 150 
141 721 340 160 150 147 
141 721 341 163 153 150 
140 720 342 161 151 149 
141 720 342 162 152 150 
142 720 341 163 153 150 
142 721 340 161 151 148 
142 721 341 163 153 151 
143 721 340 162 152 148 
143 721 341 163 153 150 
142 720 342 161 151 149 
142 720 343 162 153 151 
143 720 342 163 153 151 
143 720 343 163 153 152 
142 722 340 158 148 145 
143 722 340 161 151 148 
140 724 336 144 134 131 
140 724 337 144 134 131 
140 725 336 142 133 129 
141 724 336 144 134 131 
141 724 337 145 135 131 
141 725 336 142 133 130 
142 724 337 146 136 133 
142 725 336 143 133 130 
142 725 337 145 136 133 
143 724 337 147 137 134 
143 725 336 142 132 129 
143 725 337 144 135 131 
143 724 338 148 138 135 
142 726 336 145 135 132 
143 726 336 145 136 133 
143 727 336 147 138 135 
144 708 351 148 138 136 
144 709 350 142 131 129 
144 709 351 147 136 134 
145 708 351 138 129 128 
145 709 351 139 129 128 
144 711 349 114 102 103 
145 710 349 143 131 129 
145 711 349 136 123 122 
144 710 350 132 119 120 
145 710 350 143 132 130 
146 709 351 134 124 123 
147 709 351 127 117 116 
146 711 349 135 124 122 
147 711 349 124 113 110 
146 710 350 134 123 120 
146 710 351 134 124 122 
146 711 350 131 120 116 
147 710 350 130 119 117 
147 710 351 128 118 116 
147 711 350 122 111 108 
148 710 351 123 112 111 
148 711 350 121 111 109 
148 711 351 126 116 114 
149 711 351 150 141 141 
150 711 351 161 152 153 
144 719 343 156 147 145 
145 719 343 151 141 139 
146 719 343 138 128 124 
147 719 343 124 113 107 
148 718 343 102 87 80 
148 719 343 109 96 89 
149 718 343 108 93 87 
149 719 342 105 91 82 
149 719 343 101 86 78 
150 718 343 119 106 101 
150 719 342 103 88 81 
150 719 343 120 107 101 
151 718 343 131 117 114 
151 719 342 116 101 98 
145 713 347 119 108 105 
144 714 347 129 117 113 
144 715 347 112 97 93 
145 714 347 121 110 105 
145 715 346 107 93 86 
145 715 347 111 97 90 
146 713 347 104 91 89 
147 713 347 94 79 77 
146 714 347 107 95 90 
146 715 346 107 95 88 
146 715 347 110 97 90 
147 714 346 90 76 72 
147 714 347 94 80 77 
147 715 346 101 89 82 
144 712 348 115 104 102 
144 712 349 113 103 102 
144 713 348 131 121 118 
145 712 348 119 108 107 
145 712 349 126 114 113 
145 713 348 119 109 106 
144 714 348 138 127 123 
146 712 348 122 110 109 
146 712 349 132 121 119 
146 713 348 108 95 93 
147 712 348 125 114 112 
147 712 349 127 116 114 
147 713 348 110 96 95 
144 717 345 116 105 102 
145 717 345 100 86 83 
144 716 346 105 91 88 
144 716 347 106 92 90 
144 717 346 113 101 99 
145 716 346 101 86 81 
145 717 346 97 82 79 
144 718 344 132 123 120 
144 718 345 123 113 111 
144 719 344 142 132 130 
145 718 344 119 108 104 
145 718 345 109 97 94 
145 719 344 130 121 118 
146 717 345 95 80 76 
147 716 345 113 100 94 
147 717 344 98 83 77 
147 717 345 109 95 89 
146 716 346 105 92 85 
147 716 346 110 98 91 
146 718 344 108 96 92 
146 719 344 130 119 115 
147 718 344 102 89 83 
148 713 347 107 92 92 
148 714 347 98 82 82 
148 715 346 91 75 73 
149 714 347 113 98 99 
149 715 346 93 75 78 
150 714 347 140 129 130 
150 715 346 121 107 110 
150 715 347 161 151 152 
151 714 347 171 162 163 
151 715 346 166 157 156 
151 715 347 178 169 169 
148 712 349 128 117 116 
148 713 348 122 109 109 
149 712 349 133 123 122 
149 713 348 134 123 122 
149 713 349 136 126 125 
148 712 350 123 113 111 
149 712 350 142 133 132 
149 712 351 154 146 146 
149 714 348 132 121 120 
150 713 348 153 144 144 
150 713 349 159 150 150 
151 713 349 179 171 172 
150 712 350 164 156 156 
150 712 351 167 159 159 
150 713 350 170 162 163 
151 712 351 179 170 171 
151 713 350 183 175 176 
151 713 351 184 175 177 
150 714 348 150 141 141 
151 714 348 179 170 171 
151 714 349 186 178 180 
148 716 345 112 100 96 
148 717 344 111 97 91 
148 717 345 120 108 103 
149 716 345 100 85 84 
149 717 344 114 100 95 
149 717 345 112 99 95 
148 718 344 103 88 81 
149 718 344 107 92 86 
150 716 345 103 87 89 
150 717 344 116 101 98 
150 717 345 104 89 87 
151 716 345 141 129 130 
151 717 344 129 116 115 
151 717 345 148 137 137 
150 716 346 126 114 116 
151 716 346 164 154 154 
150 718 344 123 109 106 
152 719 341 131 114 114 
153 719 341 152 138 137 
152 718 343 155 142 141 
152 719 342 143 127 126 
153 718 343 175 163 163 
153 719 342 170 157 156 
154 719 341 173 162 160 
155 719 341 163 152 151 
154 718 343 184 172 172 
154 719 342 168 156 154 
155 718 343 189 178 178 
155 719 342 164 150 150 
156 719 341 149 135 135 
157 719 340 138 124 125 
157 719 341 152 136 137 
156 718 343 191 180 180 
156 719 342 169 154 155 
156 719 343 183 170 171 
157 718 343 189 178 179 
157 719 342 174 159 159 
157 719 343 184 172 171 
158 719 340 143 130 129 
158 719 341 161 148 146 
159 719 340 147 134 133 
159 719 341 168 156 154 
158 718 343 187 176 176 
158 719 342 179 167 166 
158 719 343 185 173 173 
159 719 342 179 167 166 
159 719 343 177 166 165 
152 715 346 181 172 171 
152 715 347 188 179 179 
153 715 347 192 183 184 
152 713 350 188 180 182 
152 713 351 187 178 180 
153 713 351 188 180 183 
152 714 348 192 183 184 
152 714 349 192 184 186 
152 715 348 193 184 186 
153 714 349 194 186 188 
153 715 348 195 186 188 
153 715 349 195 187 188 
152 714 350 190 182 184 
153 714 350 192 184 186 
153 714 351 190 182 184 
154 715 348 195 186 188 
154 715 349 194 185 187 
155 715 349 191 183 185 
154 714 350 191 184 186 
154 714 351 185 178 180 
154 715 350 193 185 188 
155 714 350 190 182 185 
155 714 351 178 171 173 
155 715 350 189 181 183 
152 716 345 182 173 174 
152 717 344 167 158 158 
152 717 345 178 169 169 
153 717 344 193 184 185 
153 717 345 197 188 189 
152 716 346 183 174 174 
153 716 346 191 182 183 
153 716 347 193 184 185 
153 717 346 196 187 188 
154 717 344 199 189 191 
154 717 345 199 191 192 
155 717 345 198 189 190 
154 716 346 195 186 187 
154 716 347 196 188 189 
154 717 346 198 189 191 
155 716 347 196 188 190 
155 717 346 197 189 191 
155 717 347 197 188 190 
154 718 344 197 187 187 
155 718 344 197 187 188 
154 716 348 196 187 189 
155 716 348 193 185 187 
156 715 349 182 174 176 
156 714 351 172 163 165 
156 715 350 177 169 170 
156 715 351 173 165 167 
157 714 351 179 172 173 
157 715 350 176 169 170 
157 715 351 178 170 172 
158 714 351 184 176 178 
158 715 350 185 177 179 
158 715 351 185 177 179 
159 715 351 186 178 181 
156 717 345 196 187 188 
156 716 347 191 183 186 
156 717 346 195 186 188 
156 717 347 194 185 188 
157 717 346 189 179 180 
157 717 347 187 178 180 
156 718 344 195 185 186 
156 718 345 196 186 187 
157 718 344 191 181 182 
157 718 345 190 181 182 
158 717 346 177 167 169 
158 717 347 179 171 172 
159 717 347 181 173 175 
158 718 344 184 173 174 
158 718 345 177 167 168 
159 718 344 177 167 166 
159 718 345 180 170 170 
158 718 346 175 165 166 
159 718 346 180 171 171 
159 718 347 181 172 173 
156 716 348 188 180 183 
156 716 349 184 176 178 
157 716 348 182 174 176 
157 716 349 178 170 172 
158 716 348 181 173 175 
158 716 349 183 175 177 
158 717 348 182 174 176 
159 716 349 186 178 181 
159 717 348 184 177 179 
159 717 349 184 177 180 
158 716 350 186 178 180 
159 716 350 186 179 182 
159 716 351 187 180 182 
144 727 335 150 141 138 
145 727 335 154 144 141 
146 727 335 155 145 142 
150 727 335 160 150 148 
151 727 335 164 154 152 
144 729 333 153 143 140 
144 728 334 153 143 140 
144 728 335 152 142 139 
144 729 334 154 144 141 
145 728 335 154 144 141 
145 729 334 156 146 143 
144 730 333 154 144 142 
144 731 332 158 148 146 
145 730 333 156 147 144 
145 731 332 158 148 146 
146 728 335 156 146 143 
146 729 334 156 146 144 
147 728 335 156 146 143 
147 729 334 157 147 144 
146 730 333 157 147 145 
146 731 332 158 148 146 
146 731 333 157 148 145 
147 730 333 158 148 146 
147 731 332 158 149 146 
147 731 333 158 148 146 
144 732 331 159 149 147 
144 733 330 156 147 145 
145 732 331 157 148 145 
145 733 330 156 146 144 
144 734 329 151 142 140 
144 735 328 148 139 137 
144 735 329 149 140 138 
145 734 329 149 140 137 
145 735 328 145 136 134 
145 735 329 148 138 136 
145 734 330 151 141 139 
146 732 331 157 147 145 
146 733 330 154 144 142 
147 732 331 156 146 143 
147 733 330 152 143 140 
146 734 329 148 138 136 
146 735 328 143 134 132 
146 735 329 146 137 134 
147 734 329 146 137 135 
147 735 328 137 128 126 
147 735 329 141 132 130 
146 734 330 149 139 137 
147 734 330 147 138 135 
144 732 332 159 149 147 
145 732 332 158 149 147 
146 732 332 158 148 146 
147 732 332 158 148 145 
151 731 331 149 140 138 
148 728 335 155 145 142 
148 729 334 158 148 146 
148 729 335 157 147 144 
149 728 335 155 145 142 
149 729 334 157 147 145 
148 730 333 159 149 147 
148 731 332 158 148 146 
148 731 333 159 150 148 
149 730 333 159 150 147 
149 731 332 158 148 147 
149 731 333 159 149 147 
150 729 333 156 147 144 
151 729 333 156 147 144 
150 728 334 155 145 143 
150 728 335 156 146 143 
150 729 334 157 147 144 
151 728 334 157 148 146 
151 728 335 162 152 149 
151 729 334 156 146 145 
150 730 332 157 148 146 
150 730 333 158 148 146 
150 731 332 157 148 146 
151 730 332 157 148 146 
151 730 333 156 147 145 
151 731 332 155 145 143 
148 732 331 155 145 142 
148 733 330 150 140 138 
149 732 331 154 145 142 
149 733 330 147 138 136 
148 734 329 144 134 132 
148 735 329 133 124 122 
149 734 329 137 128 125 
149 735 329 130 121 118 
149 734 330 142 133 130 
150 732 330 148 139 136 
150 732 331 152 143 141 
150 733 330 144 135 133 
151 732 330 147 138 136 
151 732 331 150 140 138 
151 733 330 140 131 129 
150 734 329 135 127 124 
150 735 329 126 117 114 
151 734 329 131 122 119 
151 735 329 122 114 111 
152 727 335 169 159 157 
153 726 335 173 161 160 
153 727 334 169 158 156 
153 727 335 168 158 155 
154 725 335 160 147 143 
155 725 335 156 144 138 
155 727 333 157 145 140 
154 726 334 163 151 147 
154 726 335 167 156 153 
154 727 334 168 157 153 
154 727 335 170 158 156 
155 726 334 147 134 127 
155 726 335 157 145 140 
155 727 334 154 141 136 
157 723 335 109 96 91 
159 723 333 110 99 95 
158 722 335 92 76 76 
158 723 334 107 94 88 
158 723 335 96 83 79 
159 722 335 95 77 77 
159 723 334 97 86 81 
158 727 331 158 147 144 
159 726 331 158 148 146 
159 727 330 167 156 153 
159 727 331 167 156 153 
157 725 333 144 133 128 
156 724 335 136 123 116 
156 725 334 137 123 115 
156 725 335 140 126 118 
157 724 334 120 107 100 
157 724 335 121 107 99 
157 725 334 135 122 115 
156 726 333 148 136 130 
156 727 333 149 136 131 
157 726 332 149 138 133 
157 726 333 148 136 132 
157 727 332 150 139 134 
157 727 333 149 137 132 
156 726 334 144 130 124 
158 724 333 124 111 106 
158 725 332 138 126 122 
158 725 333 137 125 120 
159 724 333 120 108 103 
159 725 332 131 120 115 
159 725 333 129 117 111 
158 724 334 116 103 97 
158 725 334 132 120 113 
158 726 332 146 135 131 
158 727 332 151 140 136 
159 726 332 143 132 129 
158 733 327 122 112 109 
159 732 327 109 98 93 
159 733 327 112 102 98 
158 734 327 121 112 109 
158 735 327 113 103 100 
159 734 327 108 99 96 
159 735 327 99 88 86 
152 731 331 149 140 139 
153 731 331 149 140 138 
155 729 331 156 145 142 
154 730 331 155 146 145 
154 731 330 148 139 138 
154 731 331 151 142 141 
155 730 331 156 146 144 
155 731 330 151 142 140 
155 731 331 154 145 144 
152 729 333 157 148 146 
153 728 333 165 156 154 
153 729 332 159 150 149 
153 729 333 161 151 150 
152 728 334 162 153 151 
152 728 335 162 153 151 
153 728 334 169 159 157 
152 730 332 155 147 145 
152 731 332 153 144 142 
153 730 332 154 146 144 
154 728 333 166 155 153 
154 729 332 157 147 145 
154 729 333 161 151 149 
155 728 332 149 136 131 
155 728 333 156 144 140 
155 729 332 155 144 140 
154 728 334 174 163 161 
154 730 332 157 148 147 
152 733 329 135 126 123 
153 733 329 132 123 120 
152 732 330 145 136 134 
152 732 331 149 140 138 
152 733 330 138 129 127 
153 732 330 142 133 131 
153 732 331 147 138 136 
153 733 330 135 126 123 
152 734 329 129 120 117 
152 735 328 119 111 109 
152 735 329 122 114 111 
153 734 329 128 119 116 
153 735 328 119 110 107 
153 735 329 122 113 110 
154 732 329 140 131 129 
154 733 329 132 123 121 
155 732 329 142 133 131 
155 733 329 135 126 123 
154 732 330 142 133 131 
155 732 330 144 136 134 
154 734 329 126 118 115 
154 735 328 119 110 108 
154 735 329 122 113 111 
155 734 328 128 119 116 
155 734 329 129 120 117 
155 735 328 120 111 109 
156 729 331 153 141 137 
157 728 331 147 135 130 
157 729 330 143 131 125 
157 729 331 146 134 129 
157 731 329 140 129 125 
156 730 330 150 139 136 
156 730 331 151 140 136 
156 731 330 149 138 135 
157 730 330 140 129 123 
157 731 330 141 130 126 
158 729 329 129 113 105 
159 728 329 141 126 119 
159 729 329 132 117 108 
158 728 330 146 133 127 
158 728 331 148 136 131 
158 729 330 138 124 118 
159 728 330 154 142 137 
158 730 329 132 119 111 
158 731 328 136 125 121 
158 731 329 137 126 121 
159 730 328 133 120 114 
159 730 329 132 118 111 
159 731 328 133 122 117 
158 730 330 133 119 112 
156 728 332 150 137 133 
156 728 333 147 134 128 
157 728 332 150 138 134 
156 732 329 144 135 132 
156 733 328 134 125 123 
156 733 329 136 128 126 
157 732 328 135 125 122 
157 732 329 140 130 127 
157 733 328 133 124 122 
156 734 328 130 121 118 
156 735 328 122 113 111 
157 734 328 130 121 118 
157 735 328 122 113 110 
158 732 328 132 121 117 
158 732 329 138 127 124 
158 733 328 128 118 114 
159 732 328 121 111 106 
158 734 328 128 119 115 
158 735 328 119 110 107 
144 722 339 159 148 145 
144 723 338 152 142 138 
144 723 339 155 144 141 
145 722 339 158 147 144 
145 723 339 154 143 140 
146 723 339 156 145 141 
147 723 339 161 150 147 
144 721 340 162 151 147 
144 721 341 164 153 150 
145 721 341 164 153 150 
144 720 342 165 155 153 
144 720 343 164 154 153 
145 720 342 164 154 151 
145 720 343 163 154 151 
144 722 340 161 150 147 
145 722 340 161 150 147 
146 721 341 162 151 147 
147 721 341 155 143 139 
146 720 342 155 143 139 
146 720 343 151 140 136 
147 720 342 139 127 120 
146 722 340 163 152 149 
147 722 340 162 151 148 
144 724 337 147 137 134 
144 725 337 145 135 132 
145 725 337 149 139 135 
144 724 338 149 138 135 
145 724 338 150 140 136 
144 726 336 146 136 133 
144 726 337 146 137 134 
144 727 336 148 139 136 
145 726 336 151 142 139 
145 726 337 150 140 137 
145 727 336 152 142 139 
146 725 337 150 140 137 
147 725 337 152 141 137 
146 724 338 150 139 135 
146 724 339 152 141 137 
146 725 338 149 139 136 
147 724 338 153 142 138 
147 724 339 157 146 142 
146 726 336 153 143 141 
146 726 337 154 144 140 
146 727 336 155 145 142 
147 726 337 154 143 140 
147 727 336 155 145 142 
148 723 339 168 158 155 
149 723 339 176 166 165 
150 722 339 175 166 166 
150 723 339 182 172 172 
151 722 339 168 160 160 
151 723 338 182 171 170 
151 723 339 177 168 168 
148 720 341 138 125 117 
148 721 340 149 137 132 
148 721 341 143 131 124 
149 720 341 127 114 107 
149 721 340 146 134 131 
149 721 341 136 124 118 
148 720 342 128 115 107 
149 720 342 116 103 94 
148 722 340 161 150 146 
149 722 340 164 154 152 
150 720 341 113 101 95 
150 721 340 145 135 134 
150 721 341 126 115 111 
151 720 341 104 90 87 
151 721 340 136 127 127 
151 721 341 114 105 102 
150 720 342 102 88 80 
150 722 340 166 157 156 
151 722 340 165 157 157 
148 725 337 155 145 141 
149 725 337 161 150 147 
148 724 338 160 149 145 
148 724 339 165 154 151 
149 724 338 170 159 156 
149 724 339 172 161 159 
148 726 337 153 143 139 
148 727 336 154 143 140 
149 726 336 156 146 143 
149 726 337 158 148 145 
149 727 336 154 144 141 
150 725 337 160 148 146 
151 724 337 163 152 148 
151 725 337 160 148 145 
150 724 338 174 163 160 
151 724 338 175 164 162 
150 726 336 160 150 147 
150 726 337 159 148 146 
150 727 336 158 148 145 
151 726 336 166 155 153 
151 727 336 166 156 155 
147 728 336 156 146 142 
148 728 336 155 145 142 
152 721 339 140 133 133 
153 721 339 127 118 119 
152 722 339 160 152 152 
152 723 338 173 163 163 
152 723 339 172 163 163 
153 722 338 152 145 145 
153 722 339 148 140 140 
153 723 338 166 157 157 
154 721 338 109 96 99 
154 721 339 110 96 100 
155 721 338 103 87 91 
155 721 339 121 103 105 
154 723 337 157 149 147 
155 722 337 123 116 116 
155 723 336 152 142 139 
155 723 337 148 139 137 
154 722 338 131 124 124 
154 723 338 157 149 149 
155 722 338 114 106 106 
152 720 341 109 92 93 
152 721 340 127 118 118 
153 720 340 116 99 101 
153 720 341 135 119 119 
153 721 340 121 110 111 
154 720 340 143 128 129 
154 720 341 164 151 150 
154 721 340 115 97 102 
155 720 340 168 157 155 
152 724 337 171 160 158 
152 725 336 172 161 159 
152 725 337 169 158 156 
153 724 337 172 161 159 
153 725 336 165 153 150 
153 725 337 170 159 156 
152 724 338 174 164 162 
153 724 338 174 164 163 
152 726 336 174 164 163 
153 726 336 172 161 159 
154 724 336 153 140 136 
154 724 337 163 152 150 
154 725 336 155 142 138 
155 724 336 153 141 136 
155 725 336 152 139 133 
157 721 337 112 93 94 
156 720 339 166 153 152 
156 721 338 113 94 96 
156 721 339 148 133 131 
157 720 339 173 162 160 
157 721 338 145 129 128 
156 722 337 108 97 98 
156 723 336 138 129 126 
157 722 336 102 89 89 
157 722 337 99 83 84 
157 723 336 114 103 99 
158 721 336 137 120 119 
158 721 337 143 128 126 
159 720 337 167 158 156 
159 721 336 156 141 140 
159 721 337 172 161 159 
158 720 338 170 159 157 
158 720 339 153 143 142 
158 721 338 164 151 149 
159 720 338 150 142 140 
159 720 339 128 117 117 
158 722 336 101 82 83 
159 722 336 120 102 102 
156 720 340 167 157 155 
157 720 340 151 140 140 
158 720 340 134 122 122 
156 724 336 148 137 132 
129 704 352 156 148 147 
130 704 352 156 148 147 
130 705 352 160 152 151 
131 704 352 157 148 147 
131 705 352 160 152 151 
132 704 352 154 145 143 
132 705 352 155 146 144 
133 704 352 151 142 140 
133 705 352 150 141 139 
133 706 352 149 140 138 
134 704 352 147 139 138 
134 705 352 152 144 143 
135 704 352 134 127 127 
135 705 352 141 134 134 
134 706 352 155 146 144 
135 706 352 151 143 142 
136 704 352 119 112 112 
136 705 352 126 120 119 
137 704 352 112 105 103 
137 705 352 116 109 109 
136 706 352 139 132 132 
137 706 352 126 120 120 
138 704 352 112 103 102 
138 705 352 111 103 102 
139 704 352 105 96 92 
139 705 352 106 98 95 
138 706 352 112 105 105 
139 706 352 108 101 101 
140 704 352 99 88 83 
140 705 352 99 90 86 
141 704 352 105 93 87 
141 704 353 116 104 98 
141 705 352 110 99 93 
140 706 352 101 91 88 
141 706 352 109 99 93 
142 704 353 125 113 108 
142 705 352 119 107 101 
142 705 353 121 110 104 
143 704 353 129 119 115 
143 705 353 126 115 111 
143 704 354 131 121 119 
142 706 352 117 106 101 
143 706 352 129 119 114 
143 706 353 127 116 112 
143 707 352 142 132 130 
144 705 353 130 122 120 
145 705 353 126 118 117 
144 704 354 122 114 112 
145 704 354 108 99 97 
145 704 355 106 95 94 
145 705 354 113 105 104 
144 706 352 138 129 126 
144 706 353 135 126 124 
144 707 352 146 136 134 
145 706 353 133 124 124 
145 707 352 140 131 130 
145 707 353 135 126 125 
146 704 355 109 98 97 
146 705 354 106 96 95 
146 705 355 112 102 101 
147 705 355 117 107 106 
146 706 353 112 103 102 
146 707 352 127 119 119 
146 707 353 115 106 106 
147 707 353 108 98 98 
146 706 354 107 97 96 
147 706 354 111 101 99 
147 706 355 123 113 112 
147 707 354 119 109 108 
146 704 356 114 103 101 
147 704 356 118 107 106 
147 704 357 123 114 114 
147 705 356 126 116 116 
144 708 352 143 133 131 
145 708 352 137 128 127 
146 708 352 129 120 119 
147 708 352 113 103 101 
147 708 353 116 106 104 
147 709 352 117 107 105 
147 708 354 128 119 117 
148 706 355 136 127 126 
148 707 354 135 126 125 
148 707 355 145 136 135 
149 707 355 157 149 149 
148 704 357 135 127 127 
148 705 356 133 124 123 
148 705 357 143 135 136 
149 705 357 167 160 162 
148 704 358 156 149 150 
149 704 358 174 166 168 
149 704 359 179 172 174 
149 705 358 177 170 171 
148 706 356 141 132 132 
149 706 356 159 151 152 
149 706 357 175 168 169 
149 707 356 171 163 164 
150 704 359 184 177 180 
150 705 358 187 180 183 
151 704 359 179 172 175 
151 705 358 187 180 183 
151 705 359 181 174 178 
150 706 357 188 181 184 
150 707 356 187 180 182 
150 707 357 189 182 184 
151 707 357 190 183 186 
150 706 358 187 180 183 
151 706 358 186 179 182 
151 707 358 189 182 185 
148 709 352 121 110 109 
148 709 353 140 130 129 
149 709 353 162 152 151 
148 708 354 142 132 131 
148 709 354 155 146 145 
149 708 354 161 152 152 
149 708 355 164 155 155 
149 709 354 167 158 157 
148 710 352 139 129 128 
149 710 352 156 146 146 
149 710 353 161 151 151 
149 711 352 157 148 148 
150 708 355 185 177 178 
150 709 354 177 169 169 
150 709 355 184 175 177 
151 709 355 192 184 185 
150 710 353 161 150 151 
150 711 352 163 153 153 
150 711 353 161 150 150 
151 711 352 167 157 157 
151 711 353 170 159 159 
150 710 354 170 160 160 
151 710 354 182 172 172 
151 710 355 191 183 184 
151 711 354 180 171 171 
150 708 356 186 179 180 
151 708 356 192 184 186 
151 708 357 191 183 186 
151 709 356 193 185 186 
151 704 360 175 167 170 
151 712 352 174 164 165 
152 705 359 178 170 174 
153 705 359 190 182 185 
152 707 357 183 175 177 
152 706 358 181 174 176 
152 706 359 181 173 176 
152 707 358 182 174 176 
153 706 358 184 176 179 
153 706 359 188 180 183 
153 707 358 182 173 175 
154 706 359 196 188 190 
154 707 358 190 182 184 
155 706 359 197 189 191 
155 707 358 192 184 186 
155 707 359 195 187 189 
152 711 353 183 173 173 
152 710 355 192 184 186 
152 711 354 190 180 181 
153 710 355 188 180 182 
153 711 354 190 182 183 
153 711 355 187 179 181 
154 710 355 175 166 168 
154 711 354 180 172 173 
154 711 355 179 171 173 
155 711 354 171 163 165 
155 711 355 172 164 166 
152 708 356 189 181 184 
152 708 357 185 177 179 
152 709 356 190 182 185 
153 708 357 177 169 172 
153 709 356 179 171 174 
153 709 357 175 167 169 
153 710 356 184 176 179 
154 708 357 180 172 174 
154 709 356 172 164 166 
154 709 357 177 169 171 
155 708 357 191 183 185 
155 709 357 192 184 186 
154 708 358 185 177 179 
155 708 358 194 186 188 
154 710 356 172 164 166 
155 710 356 180 172 174 
155 710 357 191 184 186 
156 706 359 196 189 191 
156 707 359 196 188 191 
157 707 359 195 188 191 
158 707 359 194 186 189 
156 711 355 181 174 176 
157 711 355 190 182 185 
156 709 357 197 189 191 
157 709 357 194 186 188 
156 708 358 196 188 190 
156 709 358 197 189 191 
157 708 358 195 187 189 
157 708 359 195 187 190 
157 709 358 194 186 188 
156 710 356 187 180 181 
156 710 357 194 186 187 
156 711 356 185 178 180 
157 710 356 191 184 186 
157 710 357 194 186 188 
157 711 356 195 188 190 
158 708 359 193 186 188 
158 709 358 193 186 188 
158 709 359 193 185 188 
159 708 359 192 185 188 
159 709 359 192 185 188 
158 710 356 199 192 195 
158 710 357 196 188 191 
158 711 356 200 192 195 
158 711 357 200 193 196 
159 710 357 197 189 192 
159 711 356 198 190 193 
159 711 357 198 190 193 
158 710 358 192 185 187 
159 710 358 193 186 189 
152 704 360 180 171 174 
153 704 360 191 183 185 
153 705 360 191 183 185 
154 704 360 196 188 191 
154 704 361 196 188 191 
154 705 360 196 188 191 
155 704 361 195 188 190 
155 705 360 198 190 193 
155 705 361 196 189 192 
154 706 360 198 190 193 
155 706 360 198 190 193 
156 704 361 195 187 190 
156 705 361 197 190 193 
157 705 361 195 187 191 
156 704 362 194 186 189 
157 704 362 190 183 186 
157 705 362 192 185 188 
156 706 360 198 190 193 
157 706 360 196 189 192 
157 706 361 196 189 192 
157 707 360 195 188 191 
158 704 362 188 181 184 
158 704 363 187 180 183 
158 705 362 190 183 186 
158 705 363 188 182 185 
159 704 363 190 183 186 
159 705 362 190 183 187 
159 705 363 191 184 187 
158 706 361 190 183 187 
158 707 360 192 185 188 
158 707 361 191 183 186 
159 707 361 192 184 187 
158 706 362 189 182 185 
159 706 362 191 184 187 
159 704 364 189 182 185 
158 708 360 192 185 187 
159 708 360 193 185 188 
152 712 352 180 171 172 
152 712 353 182 173 174 
152 713 352 184 176 177 
153 712 352 181 173 174 
153 712 353 185 177 178 
153 713 352 181 173 175 
153 712 354 189 181 182 
154 712 353 177 169 171 
154 713 352 176 168 170 
154 713 353 173 165 167 
155 712 353 168 160 162 
155 713 352 168 160 163 
155 713 353 167 159 162 
154 712 354 180 172 174 
155 712 354 170 162 164 
155 714 352 171 163 166 
156 713 352 176 168 171 
156 713 353 174 167 169 
157 713 353 182 175 177 
156 712 354 179 171 174 
156 712 355 183 175 177 
156 713 354 178 171 173 
157 712 354 184 177 179 
157 712 355 185 178 180 
157 713 354 182 174 176 
156 714 352 172 164 166 
157 714 352 182 174 176 
158 713 353 185 178 180 
158 712 354 187 179 182 
158 712 355 191 183 186 
158 713 354 184 177 179 
159 712 355 192 184 186 
159 713 354 186 179 181 
159 713 355 189 181 183 
158 714 352 189 181 184 
158 714 353 187 180 182 
158 715 352 187 179 181 
159 714 352 190 183 186 
159 714 353 189 182 185 
159 715 352 186 179 181 
159 714 354 187 180 182 
158 712 356 196 188 191 
159 712 356 195 187 190 
135 736 326 151 142 141 
135 736 327 152 143 142 
135 737 326 149 141 139 
136 736 326 149 141 139 
136 736 327 150 141 140 
136 737 326 149 140 138 
137 736 327 150 141 140 
137 737 326 148 140 138 
136 738 325 145 137 135 
136 739 324 141 132 131 
136 739 325 142 133 132 
137 738 325 143 134 133 
137 739 324 136 128 126 
137 739 325 139 131 129 
137 738 326 145 136 135 
138 736 327 150 141 140 
138 737 326 147 139 137 
138 737 327 148 139 138 
139 736 327 149 140 139 
139 737 326 146 138 137 
139 737 327 148 139 138 
138 738 325 142 133 132 
138 739 324 131 123 121 
138 739 325 136 128 126 
139 739 325 133 125 123 
138 738 326 145 137 135 
139 738 326 143 135 133 
137 740 323 127 119 118 
137 741 323 120 112 111 
137 742 322 107 99 97 
137 742 323 107 100 98 
137 743 322 96 89 87 
137 743 323 93 86 83 
138 741 323 114 106 105 
138 742 323 105 98 97 
138 743 323 95 87 86 
139 743 323 92 85 83 
136 740 324 137 129 127 
137 740 324 129 121 120 
138 740 324 125 117 116 
138 741 324 116 109 107 
139 740 324 121 113 112 
139 740 325 123 115 114 
139 741 324 112 105 104 
139 742 324 101 93 92 
139 743 324 94 87 86 
140 736 327 145 137 135 
140 737 326 143 135 133 
140 737 327 144 136 134 
141 736 327 146 137 135 
141 737 327 143 134 132 
140 739 325 129 121 120 
141 739 325 124 116 115 
140 738 326 140 132 131 
140 739 326 134 126 125 
141 738 326 137 129 127 
141 739 326 130 122 120 
142 736 327 145 136 134 
142 737 327 140 132 130 
143 736 327 143 135 133 
143 737 327 138 130 129 
142 738 326 134 126 125 
142 739 326 123 114 113 
143 738 326 131 123 121 
143 739 326 117 109 108 
140 740 325 117 109 108 
140 741 324 108 100 99 
140 741 325 106 98 97 
141 740 325 113 105 104 
141 741 325 104 97 95 
140 742 324 99 92 91 
140 742 325 97 90 88 
140 743 324 96 90 89 
141 742 325 97 90 89 
141 743 325 104 97 97 
142 740 325 109 102 100 
142 741 325 101 94 93 
143 741 325 98 92 90 
142 740 326 111 103 101 
143 740 326 105 98 96 
143 741 326 100 93 91 
142 742 325 98 92 92 
142 743 325 114 108 108 
143 742 325 102 97 97 
143 743 325 128 122 123 
143 742 326 99 93 93 
137 736 328 151 143 141 
138 736 328 152 143 141 
139 736 328 151 143 141 
140 736 328 148 139 137 
141 736 328 148 139 137 
142 736 328 148 140 138 
143 736 328 147 138 136 
137 744 322 90 82 79 
137 744 323 88 80 77 
137 745 322 88 80 77 
136 746 322 86 78 74 
136 747 322 95 85 79 
137 746 322 90 81 77 
137 747 322 108 97 92 
138 744 323 89 81 78 
138 745 323 93 84 80 
139 744 323 92 85 83 
139 745 323 104 95 91 
138 746 322 104 94 89 
138 746 323 107 97 93 
138 747 322 125 113 108 
139 746 323 122 111 106 
139 747 322 132 119 113 
139 747 323 132 119 113 
139 744 324 95 88 86 
139 745 324 103 94 92 
137 748 321 123 111 104 
137 749 321 126 112 103 
137 748 322 126 113 107 
136 750 321 126 111 101 
137 750 320 124 109 101 
137 750 321 126 110 100 
137 751 320 122 107 99 
138 749 321 129 114 105 
139 749 321 136 122 114 
138 748 322 131 117 109 
139 748 322 133 118 111 
139 749 322 134 119 111 
138 750 320 126 112 103 
138 750 321 128 113 104 
138 751 320 122 108 101 
139 750 320 129 115 108 
139 750 321 135 121 114 
139 751 320 125 112 105 
140 746 323 139 127 123 
140 747 322 135 120 114 
140 747 323 140 126 120 
141 746 323 158 146 142 
141 747 323 151 138 134 
