ply
format ascii 1.0
comment Created by CloudCompare v2.10.1 (Zephyrus)
comment Created 1/30/20 6:08 PM
obj_info Generated by CloudCompare!
element vertex 1999
property float x
property float y
property float z
property uchar red
property uchar green
property uchar blue
end_header
182 836 252 147 134 129 
183 836 252 144 132 126 
183 836 253 143 132 127 
178 845 247 121 112 108 
179 844 247 82 74 71 
179 845 247 112 104 101 
179 847 245 139 126 119 
178 846 247 138 126 120 
179 846 246 133 121 115 
181 841 247 98 87 80 
180 842 247 94 83 76 
180 843 247 83 73 65 
181 842 247 95 84 77 
181 843 247 89 77 70 
182 840 247 107 95 88 
182 841 247 100 88 81 
183 840 247 114 103 96 
183 841 246 105 92 86 
183 841 247 105 93 86 
183 843 245 109 100 96 
182 842 246 96 85 78 
182 842 247 97 86 79 
182 843 246 95 84 78 
182 843 247 94 83 76 
183 842 246 97 85 78 
183 842 247 96 85 78 
183 843 246 99 88 81 
181 846 243 113 101 94 
183 845 241 124 117 115 
182 845 243 119 110 107 
183 844 242 130 121 119 
183 844 243 128 120 118 
183 845 242 127 119 118 
183 845 243 128 120 117 
182 846 242 115 107 103 
182 846 243 111 102 97 
181 845 245 113 103 99 
180 844 247 80 70 64 
180 845 246 119 110 105 
180 845 247 104 97 93 
181 844 246 97 87 82 
181 844 247 88 77 71 
181 845 246 108 99 94 
180 846 244 125 113 106 
180 846 245 127 115 109 
180 847 244 128 116 109 
181 846 244 116 105 98 
181 846 245 119 108 103 
180 846 246 125 114 109 
182 844 245 108 99 94 
182 845 244 113 104 100 
182 845 245 107 98 93 
183 844 244 121 112 108 
183 844 245 108 99 94 
182 844 246 98 88 83 
182 845 246 102 93 87 
182 846 244 111 102 97 
178 840 248 92 82 77 
178 841 248 87 77 73 
179 840 248 96 85 80 
179 841 248 91 81 74 
178 842 248 84 76 71 
178 843 248 74 65 61 
179 842 248 91 81 76 
179 843 248 79 70 65 
177 845 248 125 115 112 
178 844 248 86 79 77 
179 844 248 78 69 66 
180 840 248 100 89 84 
180 841 248 94 83 76 
181 840 248 110 99 94 
181 841 248 101 90 84 
180 842 248 92 82 76 
180 843 248 85 74 69 
182 840 248 116 104 98 
183 840 248 121 109 103 
186 839 247 127 116 110 
187 839 247 125 114 109 
188 839 247 116 106 100 
189 839 247 110 99 95 
190 839 247 105 95 91 
191 839 247 99 89 85 
184 833 255 145 134 130 
184 835 253 143 132 127 
185 835 253 140 129 124 
184 834 254 144 133 129 
184 834 255 145 134 130 
184 835 254 144 133 129 
185 834 254 140 129 125 
185 834 255 140 130 125 
185 835 254 140 129 125 
186 835 253 133 122 117 
187 835 253 125 113 107 
186 834 254 136 125 119 
186 834 255 134 123 118 
186 835 254 133 122 117 
187 834 255 128 117 112 
187 835 254 126 115 109 
184 837 250 137 125 119 
184 837 251 138 127 121 
185 837 251 137 125 119 
184 838 249 132 121 115 
184 839 248 126 114 109 
184 839 249 130 119 113 
185 838 249 132 121 115 
185 839 248 127 115 109 
185 839 249 131 119 113 
184 838 250 134 123 118 
185 838 250 134 122 117 
186 837 251 132 120 114 
187 837 250 123 111 106 
187 837 251 124 112 106 
186 838 249 132 120 115 
186 839 248 130 119 113 
186 839 249 132 121 115 
187 838 249 126 115 110 
187 839 248 128 117 112 
187 839 249 128 117 112 
186 838 250 131 119 113 
187 838 250 125 114 108 
184 836 252 141 129 124 
184 836 253 142 131 125 
185 836 252 140 128 123 
185 836 253 140 128 124 
185 837 252 139 127 122 
186 836 252 134 122 116 
186 836 253 134 123 117 
186 837 252 132 121 115 
187 836 252 123 111 105 
187 836 253 125 113 107 
187 837 252 124 112 106 
189 833 255 118 107 102 
188 835 253 119 108 101 
189 835 252 111 101 95 
189 835 253 115 104 99 
188 834 254 121 110 104 
188 834 255 124 113 108 
188 835 254 121 110 104 
189 834 254 115 105 99 
189 834 255 118 107 102 
189 835 254 116 105 100 
190 833 255 110 100 94 
191 833 255 101 91 86 
190 834 253 103 94 88 
190 835 252 102 92 88 
190 835 253 107 97 92 
191 834 253 94 85 80 
191 835 252 93 84 79 
190 834 254 107 97 92 
190 834 255 113 102 97 
191 834 254 96 87 81 
188 837 250 120 109 104 
188 837 251 119 108 103 
189 836 251 112 102 97 
189 837 250 115 105 101 
189 837 251 115 105 100 
188 838 249 120 110 104 
188 839 248 118 108 103 
189 838 249 113 103 98 
189 839 248 111 101 96 
188 838 250 121 110 105 
189 838 250 114 105 100 
190 836 251 103 94 89 
190 837 250 106 97 93 
190 837 251 106 97 92 
191 836 251 95 86 82 
191 837 250 96 87 83 
190 838 249 107 98 94 
190 839 248 107 97 93 
191 838 249 97 88 84 
191 839 248 96 87 83 
191 839 249 92 83 79 
188 836 252 117 105 99 
189 836 252 113 102 97 
190 836 252 103 94 89 
191 836 252 93 85 80 
185 843 242 114 107 105 
185 843 243 114 106 104 
186 843 240 115 108 106 
186 843 241 113 105 103 
187 843 240 105 97 95 
187 843 241 103 95 93 
186 842 243 108 99 96 
186 843 242 112 105 103 
186 843 243 110 102 100 
187 842 242 102 94 92 
187 842 243 105 97 94 
187 843 242 106 98 96 
187 843 243 107 100 97 
184 840 247 117 105 99 
184 841 246 111 99 94 
184 841 247 112 100 94 
185 840 246 122 111 105 
185 840 247 123 111 105 
185 841 246 120 109 104 
184 842 245 103 93 86 
184 843 244 117 108 104 
184 843 245 109 99 94 
185 842 244 110 100 95 
185 842 245 111 101 96 
185 843 244 110 101 97 
184 842 246 105 93 87 
186 841 245 116 107 102 
187 841 244 106 96 92 
187 841 245 109 99 94 
186 840 246 125 115 110 
186 840 247 126 115 109 
186 841 246 124 114 109 
187 840 246 116 106 100 
187 840 247 122 111 106 
187 841 246 120 110 105 
186 842 244 110 101 96 
186 842 245 115 106 101 
187 842 244 107 98 94 
184 844 240 117 110 108 
184 844 241 117 109 107 
184 845 240 121 113 112 
184 845 241 117 110 108 
185 844 240 115 107 105 
185 844 241 113 105 103 
184 844 242 120 112 110 
184 844 243 123 114 112 
185 844 242 114 106 104 
185 844 243 116 108 106 
186 844 240 117 109 108 
186 844 241 114 107 105 
184 844 244 123 114 111 
189 841 243 97 88 85 
188 842 241 96 88 86 
188 843 240 98 91 89 
188 843 241 98 89 87 
189 842 240 94 87 85 
189 842 241 93 85 83 
189 843 240 96 89 88 
188 842 242 97 90 88 
188 842 243 101 93 90 
189 842 242 93 85 82 
189 842 243 97 88 85 
190 842 240 99 92 91 
190 842 241 103 96 94 
190 843 240 107 101 100 
190 843 241 112 105 103 
191 843 240 121 113 111 
191 843 241 116 108 105 
190 842 242 102 94 92 
190 842 243 98 90 87 
191 842 242 109 101 99 
191 842 243 105 97 95 
191 843 242 112 104 102 
188 840 245 104 94 89 
188 841 244 102 93 89 
188 841 245 104 94 90 
189 840 245 102 91 87 
189 841 244 99 89 85 
189 841 245 100 90 86 
188 840 246 109 98 92 
188 840 247 112 101 96 
189 840 246 107 96 92 
190 840 245 97 87 82 
190 841 244 95 87 84 
190 841 245 94 85 80 
191 840 245 94 85 80 
191 841 244 98 90 87 
191 841 245 95 87 83 
190 840 246 101 91 86 
190 840 247 104 93 89 
191 840 246 95 85 81 
191 840 247 94 85 81 
191 841 246 94 85 82 
191 842 244 101 92 89 
184 840 248 123 112 106 
190 893 231 108 104 103 
191 892 231 90 87 88 
191 893 231 105 101 101 
191 895 229 108 102 101 
190 894 231 109 104 103 
190 895 231 106 101 100 
191 894 230 110 105 105 
191 895 230 108 103 101 
184 891 239 122 116 115 
185 890 239 108 105 106 
185 891 238 119 114 114 
185 891 239 121 116 115 
186 889 238 85 84 86 
186 889 239 82 81 83 
187 888 239 72 71 74 
187 889 238 76 75 77 
187 889 239 74 74 76 
186 891 236 113 109 110 
186 891 237 114 110 110 
187 890 236 90 89 90 
187 890 237 89 87 89 
187 891 236 107 103 105 
186 890 238 106 103 104 
186 890 239 91 89 91 
186 891 238 117 112 112 
187 890 238 87 85 87 
186 893 235 113 108 106 
187 892 235 114 109 109 
187 893 234 112 107 106 
187 893 235 113 108 107 
186 894 235 112 106 105 
186 895 235 108 103 102 
187 894 234 111 105 104 
187 894 235 112 106 105 
187 895 234 106 101 100 
187 895 235 107 102 102 
185 892 237 117 111 111 
185 893 237 117 111 110 
184 892 239 122 116 114 
184 893 239 122 116 114 
185 892 238 120 114 113 
185 892 239 122 115 114 
185 893 238 119 113 112 
185 893 239 122 115 114 
185 894 237 114 108 107 
185 895 237 113 107 106 
184 894 239 121 114 113 
185 894 238 117 111 110 
185 894 239 120 114 113 
185 895 238 116 110 109 
185 895 239 121 115 114 
186 892 236 115 110 110 
186 892 237 117 112 111 
186 893 236 114 108 107 
186 893 237 115 110 109 
187 892 236 115 110 110 
186 894 236 113 107 106 
186 894 237 114 108 107 
186 895 236 110 104 103 
186 895 237 111 105 104 
188 891 235 95 92 93 
189 890 235 78 77 79 
189 891 234 92 90 90 
189 891 235 85 83 84 
190 891 233 84 82 82 
191 891 232 79 77 78 
191 891 233 79 77 78 
190 890 234 76 75 76 
190 890 235 75 73 75 
190 891 234 81 79 80 
190 891 235 78 76 78 
191 890 234 73 72 74 
191 890 235 71 70 72 
191 891 234 76 74 76 
188 889 237 75 74 76 
189 889 237 73 72 74 
188 888 238 71 70 72 
188 888 239 70 70 72 
188 889 238 72 71 73 
189 888 238 70 70 72 
189 888 239 66 66 70 
189 889 238 71 71 73 
189 889 239 68 67 69 
188 890 236 81 80 82 
188 890 237 77 76 78 
189 890 236 77 75 77 
190 889 237 70 69 72 
191 889 236 70 69 71 
191 889 237 61 61 64 
190 888 238 62 62 65 
190 888 239 57 58 61 
190 889 238 66 66 68 
191 888 238 52 53 56 
191 888 239 48 50 53 
191 889 238 54 55 58 
190 890 236 73 72 74 
191 890 236 68 67 70 
188 893 233 111 106 106 
189 892 233 104 101 101 
189 893 232 110 105 105 
189 893 233 110 106 105 
188 892 234 111 106 107 
188 892 235 109 105 106 
188 893 234 112 107 107 
189 892 234 102 99 99 
188 894 233 110 104 103 
188 895 232 105 100 99 
188 895 233 105 100 99 
189 894 232 109 103 103 
189 894 233 110 105 104 
189 895 232 106 100 100 
188 894 234 111 106 105 
190 892 232 96 93 94 
190 892 233 94 91 92 
190 893 232 108 104 104 
191 892 232 84 82 82 
190 894 232 109 103 102 
181 887 247 124 118 117 
183 885 247 81 79 80 
182 887 245 108 104 105 
183 887 244 91 89 91 
183 887 245 91 89 91 
182 886 247 93 90 91 
182 887 246 110 105 106 
182 887 247 110 105 105 
183 886 246 84 82 84 
183 886 247 86 84 85 
183 887 246 96 94 95 
179 884 255 121 115 113 
179 885 254 126 119 117 
179 885 255 127 120 118 
179 886 253 132 124 122 
179 887 253 132 124 121 
178 886 255 127 119 116 
178 887 255 125 117 114 
179 886 254 131 123 121 
179 886 255 128 120 117 
179 887 254 130 122 119 
179 887 255 128 120 117 
180 883 255 94 90 90 
181 883 255 89 84 83 
182 883 253 83 78 77 
183 883 253 73 70 70 
182 883 254 82 77 76 
182 883 255 84 79 78 
183 883 254 74 71 71 
183 883 255 69 67 67 
181 885 250 94 91 91 
181 885 251 101 97 97 
181 886 249 108 104 104 
181 887 248 121 115 114 
181 887 249 124 118 116 
180 886 250 122 116 114 
180 886 251 125 118 117 
180 887 250 129 121 119 
180 887 251 130 123 121 
181 886 250 111 106 105 
181 886 251 115 109 108 
181 887 250 124 117 116 
182 885 249 90 87 87 
183 885 248 83 81 81 
183 885 249 83 80 79 
182 884 250 86 81 81 
182 884 251 86 82 82 
182 885 250 90 87 87 
183 884 250 81 77 77 
183 884 251 79 76 75 
183 885 250 82 79 78 
182 886 248 94 91 92 
182 886 249 96 93 93 
182 887 248 105 101 102 
183 886 248 87 84 85 
180 884 253 102 97 97 
180 885 252 111 106 105 
180 885 253 118 111 110 
181 884 252 93 89 90 
181 884 253 93 89 89 
181 885 252 99 95 95 
180 884 254 101 97 96 
180 884 255 104 99 99 
180 885 254 113 107 106 
181 884 254 91 86 86 
180 886 252 128 121 119 
180 886 253 130 122 120 
180 887 252 133 125 122 
182 884 252 87 83 82 
182 884 253 85 80 79 
183 884 252 81 77 76 
183 884 253 76 73 72 
182 884 254 86 82 81 
183 888 243 104 101 102 
183 889 242 117 113 114 
183 889 243 121 116 117 
183 890 242 124 118 118 
183 890 243 125 119 118 
183 891 242 124 118 116 
183 891 243 124 117 116 
181 888 247 126 120 118 
181 889 246 127 120 118 
181 889 247 127 120 119 
181 890 246 126 119 118 
181 890 247 126 119 117 
181 891 246 125 118 116 
181 891 247 126 119 117 
182 888 245 119 114 114 
182 889 244 125 119 119 
182 889 245 126 120 119 
183 888 244 106 103 104 
183 889 244 124 118 118 
182 888 246 124 118 117 
182 889 246 126 120 118 
182 890 244 125 118 117 
182 890 245 126 119 117 
182 891 244 124 117 116 
182 891 245 125 118 116 
183 890 244 125 118 117 
183 891 244 124 117 116 
182 890 246 126 119 117 
182 891 246 125 118 116 
183 892 242 124 117 115 
183 892 243 124 117 115 
183 893 242 123 116 114 
183 893 243 123 116 114 
183 894 242 124 117 115 
183 894 243 125 118 116 
183 895 242 128 121 119 
183 895 243 127 120 118 
181 892 247 128 120 118 
181 893 247 127 120 118 
181 894 247 126 118 116 
181 895 247 127 119 117 
182 892 244 125 118 116 
182 892 245 125 117 115 
182 893 244 124 116 114 
182 893 245 125 118 116 
183 892 244 124 117 115 
183 893 244 124 116 114 
182 892 246 126 118 116 
182 893 246 127 120 118 
182 893 247 128 120 118 
182 894 245 127 120 117 
182 895 245 126 119 116 
183 894 244 127 119 117 
183 895 244 127 120 117 
182 894 246 127 119 117 
182 894 247 126 118 116 
182 895 246 126 119 116 
182 895 247 126 119 116 
179 888 253 131 123 120 
179 889 253 131 122 119 
178 888 255 125 116 113 
178 889 255 124 116 113 
179 888 254 130 122 119 
179 888 255 128 119 116 
179 889 254 129 120 118 
179 889 255 127 119 116 
179 890 253 129 121 118 
179 891 253 128 119 116 
178 890 255 123 115 112 
178 891 255 124 116 113 
179 890 254 128 120 117 
179 890 255 126 118 115 
179 891 254 127 118 115 
179 891 255 126 117 114 
179 892 253 127 119 116 
179 893 253 130 121 118 
178 892 255 124 115 112 
179 892 254 127 118 115 
179 892 255 126 117 113 
179 893 254 131 122 118 
179 893 255 131 122 118 
179 894 253 139 130 126 
179 895 253 133 123 119 
179 894 254 137 127 123 
179 894 255 130 121 117 
179 895 254 128 119 114 
179 895 255 120 111 108 
180 888 249 130 122 120 
180 889 249 129 121 118 
181 888 248 128 121 120 
181 888 249 129 122 120 
181 889 248 128 121 118 
181 889 249 128 120 118 
180 888 250 130 122 120 
180 888 251 132 124 121 
180 889 250 130 122 119 
180 889 251 131 123 120 
181 890 248 126 119 116 
181 890 249 128 120 118 
181 891 248 127 120 118 
181 891 249 129 121 119 
180 890 250 130 122 119 
180 890 251 130 122 119 
180 891 250 129 121 119 
180 891 251 129 121 118 
181 891 250 128 121 119 
180 888 252 132 124 122 
180 889 252 131 123 120 
180 890 252 130 122 119 
180 891 252 129 120 118 
181 892 248 128 120 118 
181 892 249 128 120 118 
181 893 248 127 119 117 
181 893 249 126 118 116 
180 892 250 127 119 117 
180 892 251 126 118 116 
180 893 250 125 118 115 
180 893 251 127 118 116 
181 892 250 128 120 118 
181 893 250 126 118 116 
181 894 248 126 118 116 
181 894 249 127 119 116 
181 895 248 129 121 118 
181 895 249 134 125 122 
180 894 250 130 121 118 
180 894 251 132 123 120 
180 895 250 142 133 130 
180 895 251 144 134 131 
181 894 250 128 120 117 
181 895 250 139 130 127 
180 892 252 126 118 115 
180 893 252 127 119 116 
180 893 253 130 120 117 
180 894 252 136 127 123 
180 894 253 139 130 126 
180 895 252 144 134 130 
180 895 253 138 128 124 
184 887 243 82 81 83 
185 887 242 75 75 77 
185 887 243 77 76 78 
186 887 242 74 73 75 
186 887 243 74 73 75 
187 887 242 68 68 72 
187 887 243 67 68 71 
184 885 246 78 76 77 
184 885 247 78 76 77 
185 885 246 73 73 74 
185 885 247 74 72 74 
184 886 245 79 77 79 
184 887 244 81 80 82 
184 887 245 81 80 82 
185 886 244 76 76 78 
185 886 245 75 74 76 
185 887 244 77 76 78 
184 886 246 78 77 78 
185 886 246 74 74 76 
186 885 246 64 64 67 
186 885 247 64 64 67 
187 885 246 55 55 58 
187 885 247 54 54 58 
186 886 244 73 72 75 
186 886 245 70 71 74 
187 886 244 62 62 65 
187 886 245 58 59 63 
186 886 246 69 68 70 
187 886 246 46 46 49 
187 886 247 45 45 48 
188 887 242 55 56 59 
188 887 243 51 53 58 
191 887 242 48 50 54 
191 887 243 51 53 57 
188 886 245 45 47 52 
188 887 244 46 49 54 
188 887 245 43 45 49 
189 887 245 42 44 49 
188 886 246 43 44 48 
188 886 247 44 44 49 
188 887 246 44 45 49 
188 887 247 44 45 49 
189 887 246 43 44 48 
189 887 247 43 43 47 
190 887 245 46 47 51 
191 887 244 51 52 56 
191 887 245 49 50 54 
190 887 246 46 48 51 
190 887 247 45 46 49 
191 886 246 55 57 62 
191 886 247 51 53 58 
191 887 246 52 54 58 
191 887 247 47 48 51 
184 883 253 64 61 61 
184 883 254 59 57 58 
184 883 255 58 56 56 
185 883 254 54 52 52 
185 883 255 58 55 55 
186 883 255 59 57 57 
184 885 248 79 76 77 
184 885 249 78 75 76 
185 885 248 70 68 69 
185 885 249 68 67 69 
184 884 250 71 68 69 
184 884 251 69 66 66 
184 885 250 79 75 75 
185 884 250 60 58 60 
185 884 251 56 54 55 
186 885 248 55 55 58 
186 885 249 53 53 55 
187 885 248 47 47 51 
187 885 249 46 46 49 
186 884 250 52 51 53 
186 884 251 50 49 51 
186 885 250 47 47 49 
186 885 251 48 48 50 
187 885 250 46 46 49 
187 885 251 47 47 49 
187 886 248 45 45 48 
187 886 249 45 45 48 
187 886 250 45 45 48 
184 884 252 65 63 63 
184 884 253 59 57 57 
185 884 252 56 54 55 
185 884 253 52 50 50 
185 884 254 53 50 51 
186 884 252 50 49 51 
186 884 253 50 49 51 
186 885 252 49 48 51 
187 884 253 51 50 52 
187 885 252 49 48 50 
187 885 253 51 50 52 
186 884 254 53 52 54 
186 884 255 58 56 58 
187 884 255 59 57 59 
187 885 254 56 54 56 
187 885 255 59 58 60 
188 886 248 45 45 49 
188 886 249 45 46 50 
188 887 248 44 45 49 
188 887 249 46 46 50 
189 887 248 44 45 49 
189 887 249 46 46 50 
188 886 250 46 46 49 
188 886 251 46 46 49 
188 887 250 47 46 50 
189 887 250 47 47 51 
189 887 251 49 49 53 
191 885 249 52 54 58 
191 885 250 58 61 65 
191 885 251 63 66 71 
190 887 248 45 46 49 
190 887 249 47 48 51 
191 886 248 50 52 56 
191 886 249 52 54 58 
191 887 248 49 51 55 
190 886 251 52 53 56 
190 887 250 48 48 52 
190 887 251 50 50 54 
191 886 250 55 55 59 
191 886 251 57 58 62 
188 885 252 48 48 50 
188 885 253 51 50 53 
188 885 254 53 52 54 
188 886 252 48 48 51 
188 886 253 53 52 55 
189 886 252 51 50 54 
189 886 253 58 57 60 
189 887 252 51 51 54 
189 887 253 56 56 59 
188 886 254 58 58 60 
188 886 255 62 61 63 
189 886 254 62 62 64 
189 886 255 66 66 68 
189 887 254 64 64 66 
189 887 255 65 64 67 
191 885 252 65 66 70 
191 885 253 68 70 74 
191 884 254 72 73 77 
191 884 255 74 74 76 
191 885 254 73 73 77 
191 885 255 76 76 79 
190 886 252 56 57 60 
190 886 253 61 61 64 
190 887 252 52 52 55 
191 886 252 60 61 65 
191 886 253 65 66 69 
190 886 254 67 67 70 
190 886 255 70 70 73 
191 886 254 72 71 75 
191 886 255 74 74 77 
184 889 241 107 104 105 
185 888 241 79 79 81 
185 889 240 92 90 92 
185 889 241 96 94 96 
184 888 242 92 90 92 
184 888 243 87 86 88 
184 889 242 110 106 108 
185 888 242 78 78 81 
184 890 240 118 113 113 
184 890 241 120 115 116 
184 891 240 123 117 116 
184 891 241 124 118 116 
185 890 240 109 105 106 
184 890 242 122 117 117 
186 888 240 75 75 77 
186 888 241 75 75 77 
186 889 240 80 79 82 
187 888 240 72 72 74 
187 888 241 70 70 73 
186 888 242 73 73 75 
187 888 242 70 70 73 
184 892 240 123 117 115 
184 892 241 124 117 116 
184 893 240 122 116 115 
184 893 241 122 115 114 
184 893 242 123 116 115 
184 894 240 122 116 114 
184 894 241 123 116 114 
184 895 240 125 118 116 
184 895 241 126 119 117 
184 894 242 123 116 114 
184 895 242 128 120 119 
188 888 240 68 68 70 
188 888 241 62 62 65 
189 888 240 61 61 64 
189 888 241 54 54 57 
188 888 242 61 62 65 
189 888 242 50 51 54 
189 888 243 46 48 52 
190 888 240 51 52 55 
190 888 241 49 50 53 
191 888 240 46 47 50 
191 888 241 45 47 51 
190 888 242 47 49 53 
190 888 243 47 48 52 
191 888 242 48 50 54 
191 888 243 51 53 57 
189 888 244 45 47 52 
189 888 245 45 47 52 
190 888 244 48 49 53 
190 888 245 46 48 52 
200 851 223 161 148 142 
201 850 223 158 145 138 
202 850 223 155 141 135 
203 850 222 150 137 132 
203 850 223 150 137 132 
203 851 223 151 138 133 
205 850 221 137 125 120 
204 850 222 142 130 125 
204 851 222 142 129 124 
204 851 223 146 133 128 
205 850 222 138 126 121 
205 851 222 139 127 122 
205 851 223 138 126 121 
206 850 221 135 123 118 
207 850 220 133 122 117 
207 851 220 133 121 116 
207 851 221 133 122 116 
206 851 222 135 123 118 
206 851 223 135 124 119 
207 851 222 133 122 117 
207 851 223 132 121 116 
215 852 215 127 116 110 
215 853 215 126 114 108 
208 850 219 133 121 116 
209 851 219 130 119 115 
210 851 218 130 119 115 
210 851 219 127 116 112 
211 851 218 127 116 112 
208 850 220 132 121 116 
208 851 220 131 120 115 
208 851 221 131 120 115 
209 851 220 129 118 114 
209 851 221 129 118 113 
208 851 222 130 119 114 
208 851 223 129 118 113 
209 851 222 128 117 113 
209 851 223 127 117 112 
210 852 219 126 115 111 
211 852 218 127 115 111 
211 852 219 125 115 111 
209 852 220 127 116 111 
209 852 221 128 118 113 
208 852 223 127 117 111 
209 852 222 127 116 112 
209 852 223 126 116 111 
210 852 220 127 116 111 
210 852 221 126 115 110 
211 852 220 124 114 109 
211 852 221 124 114 109 
210 852 222 125 115 110 
210 852 223 124 114 109 
211 852 222 124 114 109 
211 853 222 123 112 108 
211 853 223 121 111 106 
212 851 217 128 116 112 
212 852 217 126 114 110 
213 852 216 126 115 110 
213 852 217 124 113 109 
212 852 218 125 114 109 
212 852 219 124 113 108 
213 852 218 124 113 108 
213 852 219 123 112 107 
213 853 218 124 112 108 
213 853 219 122 111 106 
214 852 216 126 114 109 
214 852 217 125 113 109 
214 853 217 123 112 107 
215 853 216 125 113 107 
215 853 217 123 112 106 
214 853 218 121 111 106 
214 853 219 121 110 106 
215 854 217 122 111 106 
214 854 219 119 109 106 
215 854 218 121 110 106 
215 854 219 119 110 106 
215 855 219 119 109 105 
212 852 220 123 113 108 
212 853 220 122 112 107 
212 853 221 122 111 107 
213 853 220 121 111 106 
212 853 222 121 110 106 
212 853 223 120 110 105 
212 854 221 120 109 105 
213 854 220 119 109 104 
213 854 221 119 109 104 
212 854 222 119 109 104 
212 854 223 118 108 103 
213 854 222 118 108 103 
213 854 223 117 107 103 
213 855 222 117 107 102 
213 855 223 116 106 102 
214 854 220 118 109 104 
214 855 220 118 108 104 
214 855 221 117 107 103 
215 855 220 117 108 104 
215 855 221 116 107 103 
214 855 222 115 106 101 
214 855 223 114 105 101 
215 856 221 114 104 100 
214 856 222 113 103 99 
214 856 223 111 102 98 
214 857 223 108 97 93 
215 856 222 111 101 96 
215 857 222 108 97 93 
215 857 223 105 92 88 
216 853 214 126 115 108 
216 853 215 124 112 106 
217 853 214 125 114 108 
217 853 215 124 113 107 
217 854 215 123 112 107 
218 853 213 126 114 108 
219 852 213 126 114 109 
219 853 213 126 114 109 
218 853 214 125 113 108 
219 853 214 125 114 109 
218 854 214 125 114 109 
218 854 215 124 113 108 
219 854 214 125 114 108 
219 854 215 123 112 107 
222 852 211 129 117 112 
223 852 211 127 114 109 
223 853 211 126 113 107 
220 853 212 127 114 110 
220 853 213 125 113 108 
221 852 212 128 116 111 
221 853 212 126 114 109 
221 853 213 124 111 105 
220 854 213 124 112 106 
221 854 213 122 110 103 
220 854 214 123 110 105 
220 854 215 120 108 103 
220 855 215 118 105 100 
221 854 214 120 106 100 
221 854 215 118 103 99 
221 855 215 116 101 96 
222 853 212 125 112 107 
222 853 213 121 108 101 
223 853 212 123 109 103 
223 853 213 119 103 98 
222 854 213 119 105 99 
223 854 213 118 101 96 
222 854 214 117 101 96 
222 854 215 116 97 94 
222 855 215 115 95 93 
223 854 214 115 96 93 
223 854 215 114 92 91 
223 855 215 114 90 90 
216 853 216 123 111 106 
216 854 216 123 112 106 
216 854 217 123 111 106 
217 854 216 124 113 108 
217 854 217 123 112 107 
217 855 217 121 110 105 
216 854 218 121 111 107 
216 855 218 120 110 105 
216 855 219 118 108 103 
217 855 218 119 108 102 
217 855 219 117 106 100 
218 854 216 123 113 108 
218 855 216 123 112 106 
218 855 217 120 109 103 
219 855 216 121 109 104 
219 855 217 118 105 100 
218 855 218 116 104 98 
219 855 218 115 102 96 
216 855 220 116 106 101 
220 855 216 117 104 98 
220 855 217 114 98 93 
221 855 216 114 97 93 
221 855 217 112 92 89 
222 855 216 113 92 90 
222 855 217 111 88 87 
223 855 216 113 88 88 
223 855 217 112 86 86 
217 856 219 115 103 97 
218 856 218 113 100 94 
218 856 219 111 97 92 
219 856 218 112 96 91 
219 856 219 109 90 86 
216 856 220 114 103 98 
216 856 221 111 100 96 
216 857 221 106 92 88 
217 856 220 111 99 93 
217 856 221 108 93 89 
217 857 221 106 90 86 
216 857 222 105 90 86 
216 857 223 103 86 83 
217 857 222 104 84 81 
216 858 223 103 82 80 
217 858 223 103 80 78 
218 856 220 107 90 85 
218 857 221 105 84 82 
219 856 220 106 85 82 
219 857 220 105 83 81 
219 857 221 105 81 79 
218 857 222 103 81 79 
219 857 222 105 80 78 
218 858 222 104 79 78 
218 858 223 104 79 77 
219 858 222 105 80 79 
219 858 223 106 81 79 
220 856 217 110 90 87 
221 856 217 111 89 87 
220 856 218 110 89 86 
220 856 219 108 85 83 
221 856 218 110 85 83 
221 856 219 109 84 82 
222 856 217 111 87 86 
223 856 217 110 86 85 
222 856 218 110 85 84 
222 856 219 110 84 83 
222 857 219 109 84 82 
223 856 218 110 85 84 
223 856 219 111 86 84 
223 857 219 110 86 84 
220 857 220 107 83 80 
220 857 221 107 82 79 
221 857 220 108 83 81 
221 857 221 108 82 81 
220 858 221 108 82 80 
221 858 221 108 83 81 
220 858 222 107 83 81 
220 858 223 107 82 80 
220 859 223 107 83 80 
221 858 222 108 83 80 
221 859 222 109 84 82 
221 859 223 109 83 81 
222 857 220 109 84 82 
223 857 220 110 86 85 
222 858 221 109 85 83 
223 858 221 111 87 85 
222 858 222 109 85 82 
222 859 222 110 85 83 
222 859 223 110 85 82 
223 859 222 111 87 85 
223 859 223 111 86 84 
223 860 223 111 86 83 
192 847 230 156 147 147 
192 847 231 152 144 144 
192 845 235 132 122 119 
192 846 233 133 124 122 
192 847 232 139 131 129 
192 847 233 133 125 122 
193 847 232 131 122 119 
193 847 233 124 114 110 
192 846 234 131 121 118 
192 846 235 129 119 116 
193 846 234 126 116 113 
193 846 235 122 111 107 
193 847 234 120 110 106 
193 847 235 116 105 101 
194 847 233 116 105 102 
194 847 234 114 103 99 
194 847 235 113 102 97 
195 847 234 112 102 97 
195 847 235 117 106 101 
192 844 237 141 132 129 
192 845 236 137 127 124 
192 845 237 139 129 126 
193 845 236 130 120 117 
193 845 237 126 116 112 
192 844 238 137 128 125 
192 844 239 131 121 119 
193 844 239 118 107 103 
193 845 238 122 112 107 
193 845 239 115 105 100 
192 846 236 132 122 118 
193 846 236 122 112 107 
193 846 237 118 108 103 
194 845 239 118 108 103 
194 846 236 115 104 99 
194 846 237 117 106 101 
195 846 237 119 109 104 
195 847 236 119 109 104 
195 847 237 122 112 107 
194 846 238 118 108 103 
194 846 239 119 109 104 
195 846 238 122 111 106 
195 846 239 122 112 106 
196 847 235 121 111 106 
196 847 236 122 112 107 
196 847 237 123 113 108 
196 846 239 122 112 106 
196 847 238 122 112 108 
196 847 239 122 111 106 
197 847 239 120 109 104 
192 835 251 83 74 70 
192 833 255 99 89 84 
193 833 255 96 87 82 
192 834 252 88 79 74 
192 834 253 89 80 75 
192 835 252 84 75 71 
193 834 253 85 76 72 
193 835 252 81 73 69 
193 835 253 83 74 70 
192 834 254 93 83 78 
193 834 254 90 80 75 
193 834 255 93 84 80 
194 833 255 91 81 77 
194 835 253 83 73 69 
194 834 254 87 77 73 
194 834 255 89 79 75 
194 835 254 85 74 69 
195 834 255 86 75 72 
195 835 254 88 77 72 
195 835 255 92 81 77 
192 836 251 87 79 75 
192 837 250 90 81 78 
193 836 251 82 74 71 
193 837 250 86 77 74 
193 837 251 85 77 74 
192 838 249 87 78 75 
192 839 248 88 79 75 
192 839 249 88 79 75 
193 838 249 88 79 75 
193 839 249 91 82 78 
192 838 250 89 80 77 
193 838 250 88 79 75 
194 836 251 84 76 72 
194 837 251 87 78 75 
194 839 249 99 90 86 
194 838 250 92 82 78 
194 838 251 95 86 81 
194 839 250 103 93 89 
195 838 251 106 96 92 
195 839 251 111 101 96 
194 836 252 84 75 72 
194 836 253 85 76 71 
194 837 252 93 82 79 
195 836 253 93 83 79 
195 837 252 95 85 81 
195 837 253 103 93 88 
195 836 254 99 88 84 
195 836 255 104 94 88 
195 837 254 110 99 93 
195 838 252 106 96 91 
195 838 253 111 100 94 
195 839 252 113 102 97 
195 839 253 113 102 96 
195 838 254 113 102 96 
196 836 255 112 101 94 
196 837 254 112 101 95 
196 837 255 113 101 94 
196 839 253 114 102 96 
196 838 254 114 103 96 
196 838 255 115 103 96 
196 839 254 116 104 97 
196 839 255 117 104 97 
197 839 254 116 104 96 
197 839 255 117 104 97 
192 843 240 122 112 109 
192 843 241 114 104 100 
192 842 243 105 96 93 
192 843 242 109 99 96 
192 843 243 105 95 92 
193 843 242 108 97 92 
193 843 243 110 100 95 
192 841 245 98 88 84 
192 840 247 91 82 79 
192 841 246 94 85 82 
192 841 247 93 84 80 
193 841 246 101 92 88 
193 841 247 101 92 88 
192 842 244 102 92 88 
192 842 245 100 90 85 
193 842 244 107 97 93 
193 842 245 108 99 95 
193 843 244 111 102 97 
193 843 245 110 101 97 
193 842 246 106 97 94 
194 842 245 113 104 100 
194 843 244 116 106 102 
194 843 245 116 106 102 
194 842 246 113 103 100 
194 842 247 112 102 98 
194 843 246 115 106 102 
194 843 247 115 105 101 
195 843 246 117 107 102 
195 843 247 116 106 102 
192 844 240 122 112 108 
193 844 240 113 102 97 
193 844 241 113 103 98 
193 845 240 116 106 101 
193 844 242 114 104 100 
193 844 243 115 106 102 
194 845 240 120 110 105 
194 845 241 120 110 105 
195 845 241 123 113 108 
194 844 242 119 109 105 
194 844 243 119 109 105 
194 845 242 120 110 106 
195 845 242 123 112 107 
195 845 243 121 111 106 
195 846 240 123 113 107 
195 846 241 123 112 107 
195 846 242 122 111 106 
194 844 244 118 108 103 
194 844 245 119 109 105 
195 844 244 120 110 105 
195 844 245 120 110 106 
195 845 244 121 111 106 
195 844 246 118 109 104 
196 845 243 121 111 105 
196 846 240 124 113 108 
196 846 241 123 112 107 
196 847 240 121 110 104 
196 847 241 122 111 106 
197 847 240 120 109 104 
197 847 241 120 109 103 
196 846 242 121 111 105 
196 846 243 121 110 105 
196 847 242 120 109 104 
197 846 243 119 108 103 
197 847 242 119 109 104 
197 847 243 118 108 103 
198 847 242 118 108 103 
198 847 243 118 108 104 
196 845 244 120 109 105 
196 845 245 118 108 104 
196 844 246 117 107 102 
196 844 247 115 105 101 
196 845 246 117 107 103 
196 845 247 116 106 102 
197 845 246 117 108 103 
197 845 247 116 106 102 
196 846 244 119 108 103 
197 846 244 118 108 104 
197 846 245 118 108 104 
197 847 244 119 109 104 
197 847 245 119 109 105 
197 846 246 117 107 103 
197 846 247 117 107 103 
198 847 244 117 107 103 
198 847 245 117 107 102 
198 846 247 117 106 102 
198 847 246 117 106 102 
198 847 247 117 106 101 
199 847 246 117 106 102 
199 847 247 117 106 101 
192 840 248 89 80 76 
193 840 248 97 88 85 
193 840 249 99 90 86 
193 841 248 104 95 92 
194 840 249 107 98 94 
194 841 248 109 100 96 
194 841 249 111 102 98 
195 841 249 114 104 100 
194 840 250 108 99 94 
195 840 250 112 102 97 
195 840 251 114 103 97 
195 841 250 115 104 99 
195 841 251 114 103 97 
194 842 248 112 103 98 
195 842 248 115 105 100 
195 842 249 115 105 100 
195 843 248 115 105 101 
195 843 249 114 104 99 
195 842 250 115 105 99 
195 840 252 114 103 97 
196 841 251 114 103 96 
196 843 248 115 105 100 
196 843 249 114 104 99 
196 842 250 115 104 98 
196 842 251 114 102 96 
196 843 250 114 104 98 
196 843 251 114 102 96 
197 843 250 115 105 99 
197 843 251 115 103 97 
196 840 252 114 103 97 
196 840 253 114 102 96 
196 841 252 115 103 97 
196 841 253 114 102 96 
197 841 253 114 102 95 
196 840 254 115 103 97 
197 840 254 116 104 96 
197 840 255 116 103 96 
197 841 254 115 103 96 
196 842 252 114 102 96 
197 842 252 115 103 97 
197 842 253 115 103 96 
197 843 252 115 103 97 
197 842 254 114 103 96 
198 840 255 117 104 96 
198 841 254 115 103 96 
198 841 255 116 103 96 
199 841 255 117 104 97 
198 843 252 115 104 97 
198 843 253 116 104 97 
198 842 254 115 103 96 
198 843 254 115 103 97 
199 842 254 117 104 97 
199 842 255 117 104 98 
199 843 254 116 104 97 
196 844 248 114 104 100 
196 844 249 115 104 99 
197 844 248 115 105 100 
197 844 249 116 106 100 
197 845 248 116 106 102 
197 845 249 117 106 101 
197 844 250 116 105 100 
197 844 251 115 104 98 
198 845 249 117 106 100 
198 844 250 115 104 99 
198 844 251 115 104 98 
198 845 250 117 105 100 
198 845 251 116 105 99 
199 845 251 117 106 100 
198 846 248 117 106 102 
198 846 249 117 106 101 
198 847 248 118 107 102 
199 847 248 117 106 100 
199 847 249 117 106 100 
198 846 250 117 106 100 
199 846 250 117 106 100 
199 846 251 117 105 99 
199 847 250 117 105 99 
198 844 252 116 105 98 
199 844 252 116 104 97 
199 844 253 116 104 97 
199 845 252 116 104 98 
199 845 253 116 104 97 
199 846 252 116 104 97 
200 841 255 117 105 98 
200 842 255 117 104 97 
200 843 254 116 104 97 
200 843 255 116 103 96 
201 843 255 115 103 95 
200 847 249 117 105 99 
200 846 251 116 104 98 
200 847 250 116 105 98 
200 847 251 116 104 97 
201 847 251 115 103 97 
200 844 253 115 103 96 
200 845 253 115 103 96 
200 844 254 115 103 96 
200 844 255 115 103 95 
200 845 254 115 103 96 
201 844 254 115 103 95 
201 844 255 115 103 95 
201 845 254 115 103 95 
201 845 255 115 103 95 
200 846 252 115 103 97 
200 846 253 115 103 96 
200 847 252 115 103 97 
201 846 253 114 103 96 
201 847 252 115 103 97 
201 847 253 114 102 96 
201 846 254 115 103 96 
201 847 254 115 103 95 
202 844 255 115 103 95 
202 845 255 115 103 95 
202 847 253 114 102 94 
202 846 254 115 103 95 
202 846 255 114 102 94 
202 847 254 115 102 94 
202 847 255 114 101 93 
203 847 255 114 101 93 
194 850 227 140 132 132 
195 850 226 151 141 139 
195 850 227 143 134 131 
193 848 229 143 134 133 
193 849 228 139 130 130 
193 849 229 136 127 126 
192 848 230 152 143 143 
192 848 231 147 139 138 
193 848 230 139 130 129 
193 848 231 133 124 122 
193 849 230 133 124 122 
193 849 231 128 119 116 
194 849 228 137 130 129 
194 849 229 132 124 123 
195 849 229 132 124 121 
194 848 231 123 114 111 
194 849 230 127 119 117 
194 849 231 119 110 107 
195 849 230 122 113 111 
195 849 231 112 102 99 
194 850 228 139 131 131 
195 850 228 139 130 129 
195 850 229 133 124 121 
197 851 225 158 146 142 
196 850 226 149 139 135 
196 850 227 145 135 131 
196 851 226 149 139 137 
197 850 227 145 134 130 
197 851 226 152 140 136 
197 851 227 150 137 133 
198 851 224 161 149 143 
198 851 225 163 150 144 
199 851 224 164 151 145 
199 851 225 167 154 148 
198 851 226 164 150 145 
198 851 227 161 147 142 
199 851 226 169 156 150 
199 851 227 170 157 151 
196 849 230 111 102 100 
196 849 231 106 95 92 
196 850 228 137 127 124 
196 850 229 127 117 114 
197 850 228 143 131 128 
197 850 229 140 128 125 
196 850 230 121 110 108 
197 850 230 139 127 124 
197 850 231 126 115 112 
198 850 228 154 140 137 
198 850 229 149 136 134 
199 851 228 166 153 147 
199 851 229 163 150 145 
198 850 230 143 132 129 
198 850 231 142 131 128 
199 851 230 158 146 141 
199 851 231 147 136 132 
192 848 232 142 134 133 
193 848 232 128 119 116 
194 848 232 118 108 105 
194 848 233 115 105 101 
195 848 232 110 100 96 
195 848 233 111 101 96 
195 849 232 106 96 93 
195 848 234 113 103 99 
196 848 233 117 106 102 
196 849 232 110 99 94 
196 849 233 119 108 105 
197 849 232 122 112 108 
197 849 233 126 116 112 
196 848 234 121 111 107 
196 848 235 122 112 108 
197 848 235 124 115 111 
197 849 234 125 115 111 
197 849 235 126 116 111 
197 850 232 125 115 111 
197 850 233 130 120 116 
198 849 233 128 119 115 
198 849 234 128 118 114 
198 849 235 125 115 111 
198 850 232 135 125 121 
198 850 233 130 120 116 
199 850 233 129 118 114 
199 851 232 137 127 122 
199 851 233 130 120 115 
198 850 234 126 116 112 
198 850 235 125 115 111 
199 850 234 126 116 111 
199 850 235 124 114 110 
199 851 234 126 116 111 
199 851 235 122 112 108 
196 848 236 122 112 108 
197 848 236 122 113 108 
197 848 237 121 111 107 
197 849 236 123 113 109 
197 849 237 121 111 107 
197 848 238 119 109 104 
197 848 239 118 108 103 
198 849 236 123 113 109 
198 849 237 120 110 106 
198 849 238 118 108 104 
198 849 239 117 107 102 
198 850 236 123 113 108 
198 850 237 119 109 105 
199 850 236 121 111 107 
199 850 237 118 108 104 
199 851 236 118 109 104 
199 851 237 116 106 102 
198 850 238 117 107 103 
198 850 239 114 105 100 
199 850 238 116 106 102 
199 850 239 114 104 100 
199 851 238 114 105 100 
199 851 239 113 103 99 
200 850 224 162 149 144 
200 850 225 164 151 145 
200 851 224 164 151 145 
200 851 225 166 153 147 
201 850 224 161 147 141 
201 850 225 162 149 143 
200 851 226 168 154 148 
200 851 227 171 157 151 
201 850 226 165 151 145 
201 851 226 165 151 145 
201 851 227 167 153 147 
202 850 224 156 143 136 
202 850 225 156 143 138 
202 851 224 154 141 135 
202 851 225 157 144 138 
203 851 224 152 139 133 
203 851 225 153 140 135 
202 851 226 162 149 143 
202 851 227 160 147 142 
203 851 226 155 143 138 
203 851 227 154 141 136 
200 851 228 167 154 149 
200 851 229 163 150 146 
201 851 228 164 151 146 
201 851 229 156 144 139 
200 851 230 152 141 136 
200 851 231 143 131 127 
201 851 230 149 137 132 
201 851 231 140 129 124 
202 851 228 158 145 140 
202 851 229 153 141 136 
203 852 227 146 135 131 
201 852 230 147 135 130 
201 852 231 139 128 123 
202 852 228 151 140 135 
202 852 229 145 134 130 
203 852 228 146 134 130 
203 852 229 142 131 127 
203 853 229 138 128 125 
202 852 230 141 130 126 
202 852 231 135 125 121 
202 853 231 132 122 118 
203 852 230 138 128 124 
203 853 230 134 125 121 
203 853 231 130 120 116 
204 851 224 146 134 129 
204 851 225 146 135 130 
205 851 224 138 127 123 
205 851 225 139 128 124 
204 851 226 149 137 132 
206 851 224 135 124 120 
207 851 224 132 121 117 
205 852 225 138 127 123 
204 852 226 142 131 127 
204 852 227 142 131 127 
204 853 227 139 129 125 
205 852 226 137 127 124 
205 852 227 137 127 124 
205 853 227 136 126 123 
206 852 225 134 123 120 
207 852 224 131 120 116 
207 852 225 129 119 115 
206 852 226 133 123 120 
206 852 227 135 125 123 
206 853 227 134 124 121 
207 852 226 129 119 116 
207 853 226 130 120 116 
207 853 227 129 120 117 
204 852 228 141 131 127 
204 853 228 139 129 126 
204 853 229 136 127 124 
205 853 228 136 126 123 
204 853 230 131 122 118 
204 854 229 134 125 122 
205 854 229 132 123 119 
204 854 230 127 117 113 
204 854 231 125 115 110 
204 855 231 123 113 108 
205 854 230 126 115 111 
205 855 230 124 113 109 
205 855 231 122 112 107 
206 853 228 134 125 122 
207 853 228 131 122 119 
206 854 228 133 124 121 
206 854 229 131 122 119 
206 855 229 126 115 111 
207 854 228 130 120 117 
207 855 228 127 117 114 
207 855 229 124 114 110 
206 855 230 123 112 108 
200 851 232 134 123 119 
200 851 233 128 118 113 
201 851 232 134 123 119 
200 851 234 124 114 110 
200 851 235 121 111 107 
200 851 236 117 108 103 
200 851 237 116 106 102 
200 851 238 114 104 99 
200 851 239 112 102 98 
200 852 233 128 117 113 
201 852 232 131 120 116 
201 852 233 125 115 111 
200 852 234 123 114 110 
200 852 235 120 110 106 
201 852 234 121 111 107 
201 852 235 118 108 104 
201 853 234 119 110 106 
201 853 235 117 107 103 
202 852 232 128 118 115 
202 853 232 126 116 112 
202 853 233 122 112 109 
203 853 232 127 117 112 
202 853 234 119 110 105 
202 853 235 116 106 102 
202 854 233 120 111 106 
203 854 232 124 114 109 
203 854 233 121 111 106 
202 854 234 118 109 105 
202 854 235 114 105 101 
203 854 234 117 108 104 
203 854 235 114 104 100 
203 855 234 116 107 102 
203 855 235 113 103 98 
200 852 236 117 107 102 
200 852 237 113 103 99 
201 852 236 115 105 101 
201 852 237 112 102 98 
201 853 236 114 104 100 
201 853 237 111 101 97 
200 852 238 113 103 98 
200 852 239 111 101 97 
201 853 238 111 101 97 
201 853 239 110 100 96 
201 854 238 109 100 96 
201 854 239 109 100 96 
202 853 236 113 104 100 
202 853 237 111 102 98 
202 854 236 112 102 98 
202 854 237 110 101 97 
203 855 236 111 101 97 
203 855 237 110 101 97 
202 854 238 109 100 96 
202 854 239 109 100 95 
202 855 238 108 99 95 
202 855 239 108 99 95 
203 855 238 109 100 96 
203 855 239 108 99 95 
204 854 232 123 112 107 
204 855 232 121 111 106 
204 855 233 118 108 104 
205 855 232 121 111 106 
205 855 233 118 108 104 
204 855 234 116 106 102 
204 855 235 113 104 100 
204 855 236 111 102 97 
206 856 231 119 109 104 
207 856 230 120 110 105 
207 856 231 119 109 105 
207 857 231 116 107 103 
203 856 239 107 98 93 
205 856 232 119 109 104 
205 856 233 117 107 103 
204 856 234 116 106 102 
204 856 235 114 104 100 
205 856 234 115 106 102 
205 856 235 114 105 101 
205 857 234 114 105 101 
205 857 235 112 103 100 
206 856 232 119 108 104 
206 857 232 117 107 102 
206 857 233 115 106 102 
207 857 232 114 104 101 
207 857 233 112 103 99 
206 857 234 113 104 100 
206 857 235 111 102 98 
207 858 232 111 101 97 
207 858 233 110 99 95 
206 858 234 112 101 98 
206 858 235 110 98 95 
207 858 234 110 96 93 
207 858 235 109 94 92 
207 859 235 112 94 92 
204 856 236 110 101 98 
204 856 237 110 100 97 
205 857 236 111 101 98 
205 857 237 110 99 96 
204 856 238 109 99 95 
204 856 239 108 98 93 
204 857 238 109 99 94 
204 857 239 108 96 91 
205 857 238 109 98 93 
205 857 239 109 96 91 
205 858 237 109 96 92 
205 858 238 109 94 89 
205 858 239 110 93 89 
206 858 236 110 96 94 
206 858 237 110 94 91 
207 859 236 114 94 92 
207 859 237 115 94 92 
206 858 238 111 92 89 
206 858 239 112 91 87 
206 859 238 115 93 90 
206 859 239 115 91 88 
207 859 238 117 93 91 
207 860 237 117 94 91 
206 860 239 116 89 86 
207 860 238 117 93 90 
207 860 239 116 91 88 
207 861 239 116 93 89 
197 848 240 117 107 101 
197 848 241 118 107 102 
198 848 240 117 107 102 
198 848 241 116 106 101 
198 849 240 115 105 101 
198 849 241 115 105 100 
198 848 242 116 105 100 
198 848 243 117 106 102 
198 849 242 116 105 100 
198 849 243 115 104 100 
199 849 242 115 104 99 
199 849 243 114 103 98 
198 850 240 113 103 99 
199 850 240 113 103 99 
199 850 241 113 102 98 
199 851 240 112 102 98 
199 850 242 113 102 98 
199 850 243 113 102 97 
198 848 244 116 105 101 
198 848 245 116 105 101 
199 848 244 115 105 101 
199 848 245 115 104 100 
199 849 244 114 104 100 
199 849 245 114 103 99 
199 848 246 116 105 101 
199 848 247 117 105 100 
199 849 246 114 103 98 
199 850 244 114 104 99 
199 850 245 113 103 98 
199 848 248 116 105 99 
200 851 240 111 101 96 
200 851 241 111 100 95 
200 850 243 112 101 96 
200 851 242 112 101 96 
200 851 243 112 101 95 
200 848 247 115 104 98 
200 849 246 115 104 98 
200 849 247 115 104 98 
200 850 244 112 102 97 
200 850 245 113 103 97 
200 851 244 111 101 95 
200 851 245 113 103 97 
201 851 245 112 101 96 
200 850 246 112 102 96 
200 850 247 113 103 97 
200 851 246 112 102 97 
201 850 247 112 102 95 
201 851 246 112 101 96 
201 851 247 110 99 93 
202 851 247 110 99 93 
200 852 240 110 100 95 
200 852 241 110 100 95 
201 853 240 109 100 95 
201 853 241 109 99 94 
200 852 242 110 100 95 
200 852 243 111 101 95 
201 852 242 109 99 94 
201 852 243 110 100 95 
201 853 242 109 98 93 
201 853 243 109 99 94 
201 854 240 109 99 95 
201 854 241 109 99 94 
201 854 242 108 99 94 
202 853 243 109 99 95 
202 854 240 109 99 94 
202 854 241 108 98 93 
202 855 240 108 98 93 
202 855 241 108 98 93 
203 855 240 108 98 93 
203 855 241 107 97 92 
202 854 242 108 98 93 
202 854 243 108 99 94 
202 855 243 108 98 93 
203 855 242 107 98 93 
203 855 243 108 98 93 
201 852 244 111 100 95 
201 852 245 111 100 95 
201 853 244 110 100 95 
201 852 246 112 101 96 
202 853 244 110 100 95 
202 853 245 110 100 95 
202 852 246 111 101 95 
202 852 247 109 99 93 
202 853 246 110 100 94 
202 853 247 109 98 93 
203 853 247 108 98 92 
202 854 244 109 100 96 
202 854 245 110 100 95 
203 854 244 109 100 95 
203 854 245 109 99 93 
203 855 244 108 98 92 
203 855 245 108 96 91 
202 854 246 109 98 93 
203 854 246 108 97 92 
203 854 247 108 96 91 
203 855 246 108 95 89 
204 855 245 107 95 89 
204 855 246 108 93 87 
204 855 247 107 91 86 
200 848 248 115 104 98 
200 848 249 116 105 99 
200 849 248 115 104 98 
200 849 249 115 103 97 
201 849 248 114 103 97 
201 849 249 114 103 97 
200 848 250 116 105 98 
201 848 250 115 104 97 
201 848 251 114 102 95 
201 849 250 114 103 96 
201 849 251 113 101 94 
201 850 248 111 100 94 
201 850 249 111 99 93 
201 851 248 110 99 93 
201 850 250 113 101 95 
202 849 251 113 101 94 
202 850 249 110 99 94 
202 851 248 110 99 94 
202 851 249 110 99 94 
202 850 250 111 99 93 
202 850 251 111 99 93 
202 851 250 109 98 92 
202 851 251 111 99 93 
203 851 251 110 98 92 
201 848 252 114 102 95 
201 848 253 114 102 94 
202 848 252 114 102 95 
202 848 253 113 101 94 
202 849 252 113 101 94 
202 849 253 112 100 93 
202 848 254 114 101 94 
202 849 254 112 100 93 
203 848 255 114 101 94 
203 849 254 113 100 94 
203 849 255 113 100 93 
202 850 252 111 99 93 
202 850 253 111 99 93 
203 850 252 110 98 92 
203 850 253 111 99 93 
203 851 252 110 98 92 
203 851 253 110 96 90 
203 850 254 112 98 92 
203 850 255 113 98 91 
203 851 254 111 94 88 
203 851 255 112 94 88 
202 852 248 109 99 93 
202 852 249 109 98 93 
202 853 248 108 98 92 
203 852 249 109 98 93 
203 853 248 108 97 92 
203 853 249 109 98 93 
203 852 250 108 96 91 
203 852 251 109 96 90 
203 853 250 108 94 89 
203 853 251 107 90 86 
203 854 248 107 94 89 
203 854 249 106 93 88 
203 854 250 105 89 85 
203 852 252 108 93 88 
203 852 253 109 92 86 
203 853 252 107 88 84 
204 851 254 111 92 86 
204 851 255 113 91 85 
204 854 248 106 90 85 
204 854 249 105 88 84 
204 855 248 106 87 82 
204 855 249 105 84 80 
204 854 250 105 85 81 
204 854 251 105 82 79 
204 855 250 105 80 77 
204 855 251 105 78 75 
204 852 253 110 88 83 
204 853 252 107 86 83 
204 853 253 109 86 81 
204 852 254 112 89 84 
204 852 255 115 88 83 
204 853 254 112 86 82 
204 853 255 114 85 81 
204 854 252 106 80 78 
204 854 253 108 80 77 
204 855 252 105 78 74 
204 855 253 105 77 73 
205 855 252 105 78 73 
205 855 253 104 77 72 
204 854 254 109 80 76 
204 854 255 111 80 77 
205 854 254 106 76 72 
205 854 255 107 76 73 
205 855 254 103 75 70 
205 855 255 103 74 69 
203 856 240 108 98 93 
203 856 241 108 97 92 
203 856 242 107 96 91 
203 856 243 107 97 91 
204 856 240 107 97 91 
204 856 241 108 96 91 
204 857 240 108 95 88 
204 857 241 108 94 88 
205 857 240 109 95 89 
204 856 242 108 95 90 
204 856 243 108 95 89 
204 857 242 110 94 88 
204 857 243 110 92 87 
205 858 240 112 92 87 
205 858 241 113 92 88 
205 858 242 114 92 89 
205 858 243 115 91 88 
206 858 240 113 90 86 
206 859 240 116 89 87 
206 859 241 116 89 87 
206 859 242 116 89 87 
206 859 243 116 90 87 
204 856 244 109 95 90 
204 856 245 109 93 88 
204 857 244 111 92 87 
204 857 245 111 90 86 
205 857 244 113 91 87 
205 857 245 112 89 85 
204 856 246 109 90 85 
204 856 247 108 87 83 
205 857 246 112 88 84 
205 857 247 111 87 83 
205 858 244 115 90 87 
205 858 245 116 90 87 
205 858 246 115 89 86 
205 858 247 114 88 84 
206 858 244 116 90 87 
206 858 245 116 90 87 
206 859 244 116 90 86 
206 859 245 116 89 85 
206 858 246 115 89 85 
206 858 247 115 89 85 
206 859 246 115 90 85 
206 859 247 114 90 85 
206 860 240 116 89 86 
206 860 241 115 88 86 
207 860 240 116 89 86 
207 861 240 114 90 87 
207 861 241 113 89 86 
206 860 242 115 88 85 
206 860 243 114 88 85 
207 860 243 113 87 83 
207 861 242 112 88 84 
207 861 243 112 87 83 
207 862 241 112 90 87 
207 862 242 110 87 84 
207 862 243 109 86 83 
207 863 242 108 87 85 
207 863 243 105 84 82 
206 860 244 115 89 84 
206 860 245 114 89 84 
207 860 244 114 88 84 
207 860 245 114 88 84 
207 861 244 111 87 82 
207 861 245 110 86 82 
206 860 247 113 89 85 
207 860 246 113 88 84 
207 860 247 111 88 83 
207 861 246 110 86 82 
207 861 247 109 86 81 
207 862 244 107 84 80 
207 862 245 105 83 79 
207 863 244 103 82 78 
207 863 245 100 80 75 
207 862 246 104 82 78 
207 862 247 102 80 76 
207 863 246 98 78 74 
207 863 247 97 78 73 
204 856 248 107 84 80 
204 856 249 107 82 78 
205 856 249 109 83 79 
205 857 248 111 85 82 
205 857 249 111 85 81 
204 856 250 107 81 77 
205 856 250 108 81 77 
205 856 251 107 80 76 
205 857 250 110 84 80 
205 857 251 110 85 80 
205 858 248 114 88 84 
205 858 249 113 87 83 
205 858 250 112 88 83 
205 858 251 112 87 82 
205 859 251 109 85 80 
206 858 248 114 89 85 
206 859 248 113 89 85 
206 859 249 112 88 83 
206 859 250 111 87 82 
206 859 251 109 85 80 
205 856 252 107 81 76 
205 856 253 106 80 75 
205 857 252 110 85 80 
205 857 253 109 84 79 
205 856 254 105 79 73 
205 856 255 105 79 74 
205 857 254 108 83 77 
205 857 255 106 81 76 
205 858 252 111 86 81 
205 858 253 109 84 79 
205 859 252 107 84 78 
205 859 253 105 82 76 
205 858 254 106 82 76 
205 858 255 105 80 74 
205 859 254 103 80 73 
205 859 255 101 78 71 
206 860 248 111 88 83 
206 860 249 109 86 81 
206 861 248 107 84 79 
206 861 249 105 83 77 
207 861 248 106 84 79 
206 860 250 107 85 79 
206 860 251 105 83 77 
206 861 250 102 81 75 
206 861 251 100 80 73 
206 862 249 99 79 74 
207 862 248 100 80 75 
207 862 249 100 79 74 
207 863 248 96 77 72 
207 863 249 94 76 71 
206 862 250 97 78 73 
206 862 251 95 77 71 
206 863 250 93 76 71 
206 863 251 92 75 70 
