ply
format ascii 1.0
comment Created by CloudCompare v2.10.1 (Zephyrus)
comment Created 1/30/20 6:08 PM
obj_info Generated by CloudCompare!
element vertex 2210
property float x
property float y
property float z
property uchar red
property uchar green
property uchar blue
end_header
309 605 134 72 68 67 
309 605 135 68 65 63 
308 606 132 73 69 69 
308 606 133 74 71 71 
309 606 132 70 66 65 
309 606 133 72 68 67 
309 607 132 62 59 58 
309 607 133 66 63 62 
309 606 134 70 67 67 
310 605 135 71 67 66 
310 606 133 66 62 62 
310 607 132 58 55 54 
310 607 133 59 56 55 
311 607 133 56 52 51 
310 606 134 67 64 62 
310 606 135 70 66 65 
311 606 134 62 58 57 
311 606 135 64 60 58 
311 607 134 57 54 52 
311 607 135 58 54 52 
310 603 138 53 50 48 
310 603 139 50 47 46 
311 603 139 51 48 47 
311 602 141 46 44 43 
311 603 140 50 47 47 
311 602 142 46 44 44 
309 604 136 65 61 60 
309 604 137 63 59 59 
310 604 137 63 59 59 
310 605 136 70 67 65 
310 605 137 69 65 65 
311 605 136 69 66 65 
311 605 137 68 65 65 
310 604 138 59 55 54 
311 604 138 62 59 58 
311 604 139 57 54 54 
311 605 138 67 64 64 
310 606 136 71 67 67 
311 606 136 67 63 62 
312 602 141 47 45 44 
312 603 140 50 48 47 
312 603 141 50 48 47 
312 602 142 45 44 44 
312 602 143 45 44 44 
312 603 142 50 48 48 
312 603 143 48 47 47 
313 603 142 53 52 52 
313 603 143 51 50 50 
312 605 137 64 61 60 
312 604 139 60 57 57 
312 605 138 63 60 60 
312 605 139 62 59 59 
313 605 139 59 57 57 
312 606 136 61 56 54 
312 606 137 61 57 56 
313 606 137 59 55 53 
312 604 140 57 55 55 
312 604 141 55 54 54 
313 604 140 59 57 57 
313 604 141 58 56 56 
313 605 140 58 55 55 
313 604 142 56 54 55 
314 604 142 55 54 54 
312 601 145 46 44 43 
312 601 146 46 44 43 
312 601 147 46 43 42 
313 601 147 48 46 45 
312 602 144 47 46 46 
312 602 145 46 45 45 
313 602 145 49 47 47 
313 603 144 52 50 51 
313 603 145 53 51 52 
313 602 146 51 49 49 
313 602 147 54 51 52 
314 603 144 55 53 54 
314 603 145 56 54 55 
314 602 147 59 57 58 
312 600 149 48 46 46 
312 601 148 47 44 44 
313 600 149 48 46 45 
313 601 148 49 47 47 
313 601 149 53 51 51 
312 600 150 49 47 46 
312 600 151 49 47 46 
313 600 150 51 49 49 
313 600 151 52 49 49 
313 601 150 55 53 53 
313 602 148 56 54 54 
312 600 152 51 48 47 
305 608 128 61 59 59 
306 608 128 65 62 62 
307 608 128 63 60 60 
307 608 129 64 61 61 
307 609 128 60 58 58 
308 608 129 57 55 55 
308 609 128 57 55 55 
309 608 129 54 52 52 
309 609 128 53 52 52 
309 609 129 52 50 51 
308 608 130 58 56 55 
309 608 130 54 52 52 
309 608 131 55 52 52 
309 609 130 52 50 50 
310 608 131 52 49 48 
310 609 130 51 49 49 
310 608 132 54 52 51 
311 608 132 52 49 48 
178 638 95 105 100 99 
178 639 94 102 97 96 
178 639 95 104 99 98 
179 638 95 104 99 98 
179 639 94 102 97 96 
179 639 95 106 100 99 
180 639 93 99 95 94 
181 639 93 99 95 94 
180 638 95 96 91 90 
180 639 94 98 93 92 
180 639 95 99 94 93 
181 638 94 95 91 89 
181 638 95 94 89 87 
181 639 94 96 91 90 
182 639 93 93 89 89 
183 639 93 93 89 88 
182 638 94 94 89 89 
182 638 95 92 87 86 
182 639 94 93 89 88 
183 638 95 93 88 87 
183 639 94 95 90 89 
184 639 93 99 94 93 
185 639 93 101 96 95 
184 638 94 96 91 89 
184 638 95 94 89 88 
184 639 94 96 91 90 
185 638 94 96 90 89 
185 638 95 93 88 87 
185 639 94 97 92 90 
186 639 93 104 99 98 
187 639 93 103 99 98 
186 638 94 97 92 92 
186 638 95 92 88 87 
186 639 94 100 95 94 
187 638 94 98 93 93 
187 638 95 92 88 87 
187 639 94 101 97 96 
188 639 93 97 92 91 
189 639 92 100 95 94 
189 639 93 96 91 90 
188 638 94 94 90 89 
188 638 95 92 87 87 
188 639 94 95 90 90 
189 638 94 94 89 88 
189 638 95 92 88 87 
190 637 95 91 87 87 
191 637 95 90 86 86 
190 639 92 98 93 92 
190 639 93 96 91 90 
191 639 92 96 91 90 
191 639 93 93 88 87 
190 638 94 93 88 88 
190 638 95 92 87 87 
191 638 94 90 86 85 
191 638 95 90 86 86 
179 638 96 100 95 94 
179 638 97 95 91 90 
182 635 103 75 73 75 
183 635 102 71 70 70 
183 635 103 72 70 72 
180 637 97 90 86 86 
181 637 97 89 85 85 
180 637 98 85 82 81 
180 637 99 80 76 76 
181 637 98 84 81 80 
181 637 99 79 76 75 
180 638 96 94 90 89 
180 638 97 92 87 87 
181 638 96 92 88 87 
181 638 97 92 88 87 
182 637 97 89 84 83 
183 637 97 89 84 84 
182 637 98 82 79 79 
182 637 99 77 74 74 
183 637 98 84 80 80 
183 637 99 80 76 76 
182 638 96 92 88 87 
183 638 96 92 87 86 
180 636 100 76 73 73 
180 637 100 79 76 76 
181 636 100 75 72 72 
181 636 101 72 70 70 
181 637 100 78 74 74 
181 636 102 73 71 71 
182 636 100 73 71 71 
182 636 101 71 69 70 
182 637 100 76 73 73 
183 636 100 76 74 74 
183 636 101 73 72 73 
183 637 100 76 73 73 
182 636 102 73 71 72 
183 636 102 72 70 71 
182 635 104 76 74 76 
182 635 105 76 74 76 
183 635 104 74 72 74 
183 635 105 76 74 75 
183 635 106 76 74 74 
183 635 107 75 72 73 
190 631 110 65 65 67 
191 631 110 65 65 67 
184 635 102 70 68 69 
184 635 103 70 68 69 
185 635 102 71 68 68 
185 635 103 70 68 68 
186 635 102 74 71 71 
186 635 103 72 70 70 
187 635 102 79 76 77 
187 635 103 76 74 74 
184 637 96 89 84 82 
184 637 97 87 83 82 
185 637 96 88 83 82 
185 637 97 85 81 80 
184 636 99 81 78 78 
184 637 98 84 80 80 
184 637 99 82 79 78 
185 636 99 81 77 77 
185 637 98 83 79 79 
185 637 99 81 78 78 
184 638 96 91 86 85 
185 638 96 89 85 84 
186 637 96 87 83 82 
186 637 97 85 81 81 
187 637 96 88 84 84 
187 637 97 87 83 83 
186 636 99 80 77 77 
186 637 98 83 80 79 
186 637 99 82 78 78 
187 636 99 83 79 80 
187 637 98 85 82 82 
187 637 99 83 80 80 
186 638 96 88 84 83 
187 638 96 89 85 84 
184 636 100 78 76 76 
184 636 101 73 71 71 
185 636 100 78 74 74 
185 636 101 73 70 70 
184 636 102 71 68 69 
185 636 102 71 68 68 
186 636 100 78 75 75 
186 636 101 77 74 74 
187 636 100 81 78 78 
187 636 101 82 79 80 
186 636 102 75 72 72 
188 635 102 83 80 80 
188 635 103 80 78 78 
189 635 102 84 82 82 
189 635 103 82 80 81 
190 635 102 87 83 84 
190 635 103 84 81 82 
191 635 102 84 81 82 
191 635 103 84 82 83 
188 637 96 88 84 83 
188 637 97 86 82 81 
189 637 96 89 85 85 
189 637 97 89 85 85 
188 636 99 87 84 84 
188 637 98 87 83 83 
189 636 98 90 86 86 
189 636 99 89 85 86 
189 637 98 90 86 86 
190 637 96 91 87 87 
190 637 97 93 89 89 
191 637 96 90 87 87 
191 637 97 92 88 88 
190 636 98 93 89 89 
190 636 99 92 88 88 
190 637 98 93 89 89 
191 636 98 93 89 89 
191 636 99 92 88 89 
191 637 98 93 89 89 
188 636 100 86 83 83 
188 636 101 86 82 83 
189 636 100 89 85 86 
189 636 101 88 84 84 
190 636 100 90 87 87 
190 636 101 89 85 86 
191 636 100 90 87 88 
191 636 101 87 84 84 
184 635 104 72 69 70 
184 635 105 73 71 71 
185 635 104 72 69 69 
185 635 105 73 71 71 
184 635 106 74 72 73 
184 635 107 75 72 73 
185 635 106 74 72 73 
185 635 107 74 72 73 
186 635 104 72 70 70 
186 635 105 73 70 71 
187 635 104 75 72 73 
187 635 105 73 70 71 
186 634 107 70 68 70 
186 635 106 73 71 72 
186 635 107 72 70 72 
187 634 107 68 66 68 
187 635 106 70 68 69 
187 635 107 70 68 69 
185 632 111 61 61 63 
185 633 110 61 61 63 
185 633 111 62 61 64 
184 634 109 68 67 68 
184 635 108 73 71 72 
184 635 109 70 68 69 
185 634 109 67 65 67 
185 635 108 72 70 72 
185 635 109 69 68 69 
184 634 110 67 65 67 
185 634 110 63 62 64 
187 633 109 59 59 60 
186 632 110 59 59 62 
186 632 111 60 60 63 
186 633 110 59 59 61 
187 632 110 59 59 62 
187 633 110 59 59 61 
186 634 108 68 67 68 
186 634 109 63 62 64 
186 635 108 71 70 72 
187 634 108 65 64 65 
187 634 109 61 60 62 
186 634 110 59 59 62 
188 635 104 77 75 75 
188 635 105 74 72 72 
189 635 104 79 77 78 
189 635 105 76 73 74 
188 634 107 65 64 65 
188 635 106 69 67 68 
189 634 106 68 66 67 
189 634 107 67 65 66 
189 635 106 71 69 70 
190 635 104 84 81 82 
190 635 105 82 80 80 
191 635 104 86 83 84 
191 635 105 84 82 83 
190 634 106 79 77 78 
190 634 107 77 75 76 
190 635 106 80 78 79 
191 634 106 82 80 81 
191 634 107 80 78 79 
191 635 106 83 81 82 
188 632 109 59 59 61 
188 633 109 59 58 60 
189 633 109 60 60 62 
188 632 110 60 60 62 
189 632 110 62 62 65 
188 634 108 61 60 61 
189 634 108 63 62 64 
189 634 109 62 61 63 
190 632 109 64 63 66 
190 633 108 65 64 66 
190 633 109 62 61 64 
191 632 109 64 63 65 
191 633 108 67 66 67 
190 632 110 64 64 66 
190 634 108 70 69 70 
191 634 108 77 75 76 
192 637 95 89 86 86 
193 637 95 88 85 85 
192 639 92 95 91 90 
192 639 93 92 88 87 
193 639 92 96 91 91 
193 639 93 93 88 87 
192 638 94 89 85 85 
192 638 95 88 85 84 
193 638 94 88 84 84 
193 638 95 87 84 84 
194 637 95 85 81 82 
195 637 95 84 81 81 
194 638 93 93 88 88 
194 639 92 97 92 91 
194 639 93 94 89 89 
195 638 93 93 89 88 
195 639 92 97 91 90 
195 639 93 94 90 89 
194 638 94 89 85 85 
194 638 95 86 83 83 
195 638 94 90 86 86 
195 638 95 86 83 83 
197 639 91 97 92 90 
198 639 91 93 88 86 
199 639 90 94 89 86 
199 639 91 95 89 88 
196 637 95 89 86 87 
197 637 95 85 81 81 
196 638 93 93 88 88 
196 639 92 97 91 90 
196 639 93 94 89 89 
197 638 93 89 85 83 
197 639 92 94 89 87 
196 638 94 90 86 86 
196 638 95 90 86 87 
197 638 94 86 82 81 
198 637 95 81 77 76 
199 637 94 86 82 81 
199 637 95 81 77 76 
198 638 92 89 84 82 
198 638 93 86 81 79 
198 639 92 92 87 85 
199 638 92 89 84 81 
199 638 93 90 84 83 
199 639 92 91 85 83 
198 638 94 83 79 77 
199 638 94 89 84 83 
200 639 90 98 93 91 
200 639 91 98 93 92 
201 639 90 96 91 90 
201 639 91 95 90 89 
202 639 89 97 92 90 
203 639 89 97 91 90 
202 638 91 96 91 90 
202 639 90 96 91 90 
202 639 91 97 92 90 
203 638 91 94 89 88 
203 639 90 96 90 89 
203 639 91 95 90 89 
200 637 94 84 80 79 
200 637 95 76 73 72 
201 636 95 70 66 64 
201 637 94 84 79 78 
201 637 95 74 70 68 
200 638 92 91 86 85 
200 638 93 90 85 85 
200 639 92 95 90 88 
201 638 92 91 86 84 
201 638 93 89 85 83 
200 638 94 88 84 83 
202 637 93 93 88 87 
203 637 93 87 83 81 
202 636 95 75 71 70 
202 637 94 90 86 85 
202 637 95 81 76 75 
203 636 95 82 78 78 
203 637 94 86 82 80 
203 637 95 84 80 79 
202 638 92 93 88 86 
202 638 93 93 88 86 
203 638 92 91 86 84 
203 638 93 89 84 82 
204 639 89 96 91 90 
205 639 88 96 91 90 
205 639 89 96 91 90 
204 638 91 93 88 86 
204 639 90 95 90 88 
205 638 90 95 90 89 
205 638 91 94 89 87 
205 639 90 96 91 89 
206 639 88 92 86 85 
206 639 89 93 88 86 
207 639 88 89 83 81 
207 639 89 91 86 84 
206 638 90 95 89 87 
206 638 91 94 89 87 
206 639 90 94 89 87 
207 638 90 92 87 84 
207 638 91 93 88 87 
204 637 93 85 80 79 
205 637 93 88 84 83 
204 636 95 81 77 76 
204 637 94 82 78 77 
204 637 95 81 77 77 
205 636 95 80 77 76 
205 637 94 85 81 81 
205 637 95 82 79 78 
204 638 92 88 83 82 
205 638 92 90 86 84 
206 637 92 93 88 87 
206 637 93 92 87 86 
207 637 92 93 88 86 
207 637 93 91 87 85 
206 636 95 85 81 80 
206 637 94 89 85 84 
206 637 95 87 83 82 
207 636 95 92 87 86 
207 637 94 90 86 85 
207 637 95 90 85 84 
206 638 92 93 88 87 
207 638 92 93 88 87 
208 639 87 86 81 80 
209 639 87 87 82 80 
210 639 87 86 82 81 
211 639 87 89 84 84 
212 639 87 88 84 83 
213 639 87 80 75 73 
214 639 86 76 70 68 
214 639 87 83 78 76 
215 639 86 77 72 69 
215 639 87 86 81 79 
208 639 88 89 83 81 
208 639 89 90 85 83 
209 638 89 90 85 84 
209 639 88 89 84 83 
209 639 89 90 85 84 
208 638 90 92 86 84 
208 638 91 92 88 86 
209 638 90 90 85 83 
209 638 91 90 85 84 
210 637 91 90 86 85 
211 637 91 90 85 84 
210 638 89 91 86 85 
210 639 88 89 84 83 
210 639 89 91 86 85 
211 638 89 91 87 86 
211 639 88 91 87 86 
211 639 89 92 87 87 
210 638 90 90 85 84 
210 638 91 90 85 84 
211 638 90 91 87 86 
211 638 91 91 86 85 
208 637 92 92 87 86 
208 637 93 91 86 85 
209 637 92 92 87 86 
209 637 93 93 89 88 
208 636 94 93 89 89 
208 636 95 96 92 92 
208 637 94 91 87 86 
209 636 94 95 90 90 
209 636 95 96 92 91 
209 637 94 93 89 89 
208 638 92 92 87 86 
210 637 92 91 87 86 
210 637 93 92 88 87 
211 637 92 90 86 85 
211 637 93 92 87 87 
210 636 94 95 90 90 
210 636 95 96 92 91 
211 636 94 95 91 91 
211 636 95 96 92 91 
213 635 95 90 87 88 
214 635 95 84 82 83 
215 635 94 89 85 86 
215 635 95 86 83 84 
212 637 91 89 84 84 
213 637 90 88 83 83 
213 637 91 90 86 86 
212 638 88 90 86 85 
212 638 89 89 85 84 
212 639 88 89 85 84 
213 638 88 89 85 84 
213 638 89 87 83 82 
213 639 88 87 82 81 
212 638 90 88 84 83 
212 638 91 89 84 83 
213 638 90 87 83 82 
214 637 89 86 81 81 
215 637 89 85 81 80 
214 637 90 87 83 82 
214 637 91 88 84 84 
215 637 90 85 81 80 
215 637 91 84 80 80 
214 638 88 89 85 84 
214 638 89 87 82 81 
214 639 88 89 85 83 
215 638 88 90 85 83 
215 638 89 87 82 81 
212 636 93 96 93 93 
212 637 92 93 88 88 
212 637 93 95 91 91 
213 636 92 91 88 88 
213 636 93 92 88 89 
213 637 92 93 89 89 
212 636 94 96 92 92 
212 636 95 95 91 92 
213 636 94 91 88 88 
213 636 95 90 87 88 
214 636 92 88 85 85 
214 636 93 87 84 85 
214 637 92 89 86 86 
215 636 92 87 84 84 
215 636 93 89 86 86 
214 636 94 86 84 84 
214 636 95 86 83 84 
215 636 94 88 84 85 
216 639 85 75 69 67 
217 639 85 77 72 70 
216 638 87 88 82 81 
216 639 86 78 73 70 
216 639 87 84 78 77 
217 638 86 90 85 83 
217 638 87 93 88 86 
217 639 86 84 79 77 
219 637 87 97 92 90 
218 639 84 76 72 70 
218 639 85 82 77 75 
219 638 85 91 86 84 
219 639 84 77 73 72 
219 639 85 82 78 76 
218 638 86 92 87 85 
218 638 87 96 90 88 
219 638 86 95 89 88 
219 638 87 97 91 90 
221 639 83 81 76 75 
222 639 83 88 83 82 
223 639 83 91 86 86 
220 637 87 101 96 94 
221 637 86 102 96 94 
221 637 87 104 98 96 
220 638 85 92 86 84 
220 639 84 79 75 74 
220 639 85 83 79 77 
221 638 85 94 88 86 
221 639 84 85 80 78 
221 639 85 88 82 80 
220 638 86 99 93 91 
221 638 86 101 96 94 
222 637 86 101 95 94 
222 637 87 102 97 96 
223 637 86 101 95 93 
223 637 87 102 97 95 
222 638 84 98 93 91 
222 638 85 97 91 89 
222 639 84 93 88 87 
223 638 84 97 91 90 
223 638 85 98 93 91 
223 639 84 95 90 90 
222 638 86 99 94 92 
219 635 91 93 88 88 
216 635 93 96 92 91 
217 635 93 98 95 95 
216 635 94 95 91 91 
216 635 95 92 89 89 
217 635 94 98 94 94 
217 635 95 96 92 92 
218 635 92 99 95 95 
218 635 93 99 95 95 
219 635 92 98 93 94 
219 635 93 98 94 94 
218 634 95 97 93 94 
218 635 94 99 95 95 
218 635 95 98 94 94 
219 634 94 98 94 94 
219 634 95 98 93 93 
219 635 94 98 94 94 
216 637 88 90 85 84 
216 637 89 88 84 83 
217 637 88 94 89 88 
217 637 89 93 88 87 
216 636 91 90 85 84 
216 637 90 89 85 84 
216 637 91 89 84 83 
217 636 90 92 87 86 
217 636 91 92 88 86 
217 637 90 92 87 86 
216 638 88 88 83 82 
217 638 88 93 88 86 
218 637 88 94 89 88 
218 637 89 90 85 83 
219 636 89 83 78 75 
219 637 88 93 87 85 
219 637 89 85 80 77 
218 636 90 88 84 82 
218 636 91 93 88 88 
218 637 90 90 85 84 
219 636 90 85 80 78 
219 636 91 91 86 85 
216 636 92 92 88 87 
216 636 93 96 92 91 
217 636 92 97 92 92 
218 636 92 98 94 94 
219 636 92 97 93 93 
220 635 91 89 84 83 
221 635 91 85 81 80 
222 635 91 84 80 79 
223 635 91 90 85 85 
220 635 92 95 90 90 
220 635 93 97 93 93 
221 635 92 89 85 85 
221 635 93 94 90 90 
220 634 94 96 92 92 
220 634 95 97 93 92 
220 635 94 98 94 94 
221 634 94 95 91 91 
221 634 95 94 90 90 
222 634 93 92 87 87 
222 635 92 85 81 80 
222 635 93 89 85 84 
223 634 93 89 85 84 
223 635 92 83 78 77 
223 635 93 86 82 81 
222 634 94 94 90 89 
222 634 95 94 90 90 
223 634 94 93 89 89 
223 634 95 97 92 92 
220 636 89 88 82 80 
220 637 88 97 91 90 
220 637 89 90 84 83 
221 636 89 95 90 89 
221 637 88 101 95 94 
220 636 90 84 79 77 
220 636 91 84 79 78 
221 636 90 88 83 81 
221 636 91 84 79 78 
222 636 89 98 93 91 
222 637 88 102 96 95 
223 636 88 102 97 96 
223 636 89 101 96 96 
223 637 88 103 98 96 
222 636 90 94 89 87 
222 636 91 89 84 83 
223 636 90 98 93 93 
193 631 109 62 62 65 
192 631 110 63 63 66 
194 631 109 59 60 63 
195 631 109 57 58 61 
195 630 111 60 60 63 
195 631 110 57 58 62 
196 630 111 60 60 63 
196 631 110 58 59 62 
196 631 111 59 60 63 
197 630 111 61 61 63 
197 631 111 59 60 63 
198 630 111 60 61 63 
198 631 111 59 60 63 
199 631 111 60 61 64 
192 635 101 86 83 83 
193 635 101 82 80 81 
192 635 102 84 82 82 
192 635 103 83 81 82 
193 635 102 81 79 80 
193 635 103 79 77 78 
194 635 100 76 74 75 
194 635 101 77 76 77 
195 635 100 77 75 76 
195 635 101 78 76 77 
194 635 102 77 75 77 
194 635 103 78 76 77 
195 635 102 78 76 77 
195 635 103 79 77 77 
192 637 96 89 86 86 
192 637 97 91 88 88 
193 637 96 88 85 86 
193 637 97 88 85 86 
192 636 98 90 87 87 
192 636 99 90 86 87 
192 637 98 91 87 88 
193 636 98 87 85 86 
193 636 99 86 84 85 
194 636 97 78 77 78 
194 637 96 83 80 80 
194 637 97 81 79 80 
195 636 97 78 77 78 
195 637 96 81 79 79 
195 637 97 79 77 78 
194 636 98 79 77 78 
194 636 99 77 75 76 
195 636 98 78 76 77 
195 636 99 76 74 75 
192 636 100 88 85 86 
192 636 101 87 84 85 
193 636 100 84 82 83 
193 636 101 84 82 83 
194 636 100 77 75 77 
195 636 100 77 75 76 
197 635 99 83 80 81 
198 635 99 81 78 79 
199 635 98 79 76 77 
199 635 99 77 75 75 
196 635 100 80 78 78 
196 635 101 80 78 79 
197 635 100 82 79 80 
197 635 101 81 79 79 
196 635 102 80 77 78 
196 635 103 79 77 78 
197 635 102 80 78 79 
197 635 103 79 77 79 
198 635 100 81 78 79 
198 635 101 80 78 79 
199 635 100 77 75 76 
199 635 101 78 76 77 
198 634 102 79 77 79 
198 634 103 79 77 79 
198 635 102 80 78 79 
199 634 102 79 77 78 
199 634 103 79 77 78 
199 635 102 79 77 78 
196 636 97 83 80 81 
196 637 96 86 84 84 
196 637 97 84 81 82 
197 636 97 85 82 83 
197 637 96 85 81 82 
196 636 98 82 80 81 
196 636 99 80 78 78 
197 636 98 85 82 83 
197 636 99 82 80 80 
198 636 97 83 80 80 
198 637 96 81 77 77 
199 636 96 77 75 75 
199 636 97 80 78 78 
199 637 96 78 75 75 
198 636 98 84 81 81 
198 636 99 84 81 82 
199 636 98 80 78 79 
192 633 107 71 69 70 
193 633 107 68 66 67 
192 635 104 82 80 81 
192 635 105 81 78 79 
193 634 105 78 76 77 
193 635 104 79 77 78 
193 635 105 78 76 78 
192 634 106 79 77 77 
192 634 107 76 74 75 
193 634 106 76 74 75 
193 634 107 72 70 71 
194 633 107 67 66 68 
194 634 105 78 76 78 
194 635 104 79 76 78 
194 635 105 78 77 78 
195 634 105 79 77 78 
195 635 104 79 77 78 
195 635 105 79 77 78 
194 634 106 77 75 76 
194 634 107 73 71 72 
195 634 106 78 76 77 
195 634 107 74 73 74 
192 632 108 64 63 65 
192 632 109 65 64 66 
192 633 108 67 65 67 
193 632 108 62 62 63 
193 633 108 64 63 64 
194 632 108 61 61 63 
194 632 109 58 59 61 
194 633 108 65 63 65 
195 632 108 60 60 62 
195 632 109 57 58 61 
195 633 108 64 63 65 
195 633 109 57 57 60 
195 632 110 56 57 61 
196 634 105 78 76 78 
196 635 104 79 77 78 
196 635 105 79 77 78 
197 634 104 78 76 77 
197 634 105 76 74 76 
197 635 104 78 77 78 
196 634 106 77 76 77 
196 634 107 72 70 72 
197 634 106 72 72 74 
197 634 107 67 67 70 
198 634 104 78 76 78 
198 634 105 74 73 75 
199 634 104 77 76 77 
199 634 105 75 73 75 
198 634 106 70 70 72 
198 634 107 64 65 67 
199 634 106 69 68 71 
199 634 107 63 63 65 
196 632 109 56 57 60 
196 633 108 63 63 65 
196 633 109 57 57 59 
197 632 109 55 56 59 
197 633 108 61 61 64 
197 633 109 56 57 60 
196 632 110 56 57 61 
196 632 111 57 58 62 
197 632 110 56 57 61 
197 632 111 57 58 62 
197 634 108 61 61 64 
198 633 109 57 58 61 
199 633 108 59 59 61 
199 633 109 58 59 61 
198 632 110 56 58 61 
198 632 111 57 58 62 
198 633 110 57 58 61 
199 632 110 57 58 61 
199 632 111 58 59 63 
199 633 110 57 58 61 
198 634 108 59 60 63 
199 634 108 59 60 62 
200 631 111 60 61 64 
202 631 111 59 61 64 
203 630 111 58 59 62 
203 631 111 57 59 62 
207 631 105 58 58 60 
206 631 106 57 57 59 
206 631 107 55 56 59 
207 630 107 55 56 59 
207 631 106 57 57 60 
205 631 108 55 56 59 
205 631 109 55 57 60 
204 630 111 59 60 63 
204 631 110 56 58 61 
204 631 111 57 59 62 
205 630 110 57 59 63 
205 630 111 58 60 63 
205 631 110 56 58 61 
206 629 110 60 60 63 
206 629 111 61 61 63 
207 629 110 60 61 63 
206 630 108 55 56 60 
206 630 109 56 57 61 
206 631 108 54 56 59 
207 630 108 56 57 60 
207 630 109 57 59 62 
206 630 110 57 59 63 
206 630 111 59 60 63 
200 635 98 76 74 75 
200 635 99 75 73 74 
201 635 98 75 72 72 
201 635 99 76 74 74 
202 635 98 77 73 73 
202 635 99 78 75 75 
203 635 98 78 74 74 
203 635 99 77 74 74 
200 634 101 80 77 78 
200 635 100 76 74 75 
200 635 101 79 76 77 
201 634 101 80 78 79 
201 635 100 79 76 77 
200 634 102 79 77 78 
200 634 103 79 77 78 
201 634 102 80 78 79 
201 634 103 79 77 78 
202 634 101 79 76 77 
202 635 100 79 77 77 
203 634 101 75 72 73 
203 635 100 76 73 73 
202 634 102 78 76 77 
202 634 103 77 75 77 
203 634 102 75 73 74 
203 634 103 75 73 75 
200 636 96 75 72 72 
200 636 97 77 75 75 
200 637 96 74 71 71 
201 636 96 70 67 66 
201 636 97 74 72 71 
200 636 98 77 75 76 
201 636 98 75 73 73 
202 636 96 75 71 70 
202 636 97 76 73 72 
203 636 96 80 76 76 
203 636 97 79 75 75 
204 635 98 75 72 72 
204 635 99 73 71 72 
205 635 98 75 73 73 
205 635 99 74 72 73 
207 635 97 92 88 88 
206 635 98 80 76 77 
206 635 99 75 73 74 
207 635 98 87 83 83 
207 635 99 81 78 78 
204 634 101 71 70 71 
204 635 100 72 70 71 
205 634 100 69 68 69 
205 634 101 68 67 69 
205 635 100 71 70 71 
204 634 102 71 70 72 
204 634 103 71 70 72 
205 634 102 67 67 69 
205 634 103 68 67 70 
207 632 103 63 62 64 
207 633 103 64 62 64 
206 634 100 70 69 70 
206 634 101 69 67 69 
206 635 100 72 70 72 
207 634 100 74 71 71 
207 634 101 70 68 69 
207 635 100 76 74 74 
206 634 102 66 66 68 
206 634 103 66 65 67 
207 634 102 66 65 67 
204 636 96 79 76 75 
204 636 97 77 74 74 
205 636 96 79 76 76 
205 636 97 78 75 75 
206 636 96 84 80 79 
206 636 97 83 79 79 
207 636 96 92 87 87 
207 636 97 91 87 86 
200 634 104 77 76 77 
200 634 105 74 73 74 
201 634 104 77 76 77 
201 634 105 73 72 74 
200 634 106 68 68 70 
200 634 107 62 62 64 
201 634 106 68 67 69 
201 634 107 61 61 64 
202 634 104 76 74 76 
202 634 105 72 70 72 
203 634 104 73 72 74 
203 634 105 69 68 70 
202 634 106 66 66 68 
202 634 107 61 61 63 
203 634 106 64 64 66 
203 634 107 59 60 62 
200 633 108 59 59 62 
200 633 109 58 59 61 
201 633 109 57 58 61 
200 632 110 57 58 62 
200 632 111 59 60 63 
200 633 110 57 57 60 
201 632 110 58 60 63 
201 632 111 60 61 64 
201 633 110 57 59 62 
200 634 108 59 59 62 
201 634 108 58 58 61 
202 633 109 56 57 60 
203 632 109 55 56 59 
203 633 108 56 57 60 
203 633 109 56 57 60 
202 632 110 57 59 63 
202 632 111 59 60 64 
202 633 110 57 58 62 
203 632 110 56 57 61 
203 632 111 57 58 62 
203 633 110 56 58 61 
202 634 108 58 58 61 
203 634 108 57 58 61 
205 633 105 61 61 62 
204 633 106 57 57 60 
204 633 107 56 56 59 
205 632 107 56 56 58 
205 633 106 57 57 59 
205 633 107 56 56 58 
204 634 104 70 69 71 
204 634 105 66 66 68 
205 634 104 67 66 68 
205 634 105 63 62 64 
204 634 106 61 61 63 
204 634 107 57 58 60 
206 632 105 59 59 61 
206 633 104 63 62 63 
206 633 105 61 60 62 
207 632 104 62 61 63 
207 632 105 59 59 61 
207 633 104 62 61 63 
206 632 106 57 57 59 
206 632 107 56 56 58 
204 632 109 55 56 60 
204 633 108 55 56 59 
204 633 109 54 55 58 
205 632 108 56 56 59 
205 632 109 56 57 60 
205 633 108 55 56 59 
204 632 110 56 58 61 
196 630 112 61 61 63 
197 630 112 62 62 64 
198 629 113 64 64 66 
199 629 113 64 64 66 
198 630 112 62 62 64 
199 630 112 62 62 65 
199 631 112 60 61 64 
200 629 112 64 64 66 
200 629 113 65 65 67 
201 629 113 64 64 66 
200 630 112 63 63 66 
200 631 112 61 61 64 
201 630 112 63 63 65 
201 631 112 60 61 64 
202 629 113 63 63 65 
203 629 112 61 62 64 
203 629 113 62 62 64 
202 630 112 62 62 65 
202 631 112 60 61 64 
203 630 112 60 61 64 
204 629 112 60 61 63 
204 629 113 61 62 64 
205 629 112 60 61 63 
204 630 112 59 60 63 
205 630 112 59 60 63 
211 631 103 61 61 63 
212 631 103 58 58 61 
213 631 103 56 57 60 
208 631 104 60 60 62 
208 630 107 54 56 60 
209 630 107 53 55 60 
210 630 106 54 56 59 
209 629 109 57 58 62 
213 630 105 53 55 58 
213 631 104 55 56 59 
214 630 105 53 54 57 
214 631 104 54 55 58 
214 631 105 52 53 56 
215 630 105 53 54 57 
215 631 105 52 53 56 
212 629 108 56 57 60 
208 635 97 94 90 90 
209 635 97 95 91 91 
208 635 98 91 87 87 
208 635 99 86 82 83 
209 635 98 93 90 90 
209 635 99 89 86 86 
210 635 96 94 90 90 
210 635 97 93 89 89 
211 635 96 95 91 91 
211 635 97 93 89 89 
210 635 98 91 88 88 
210 635 99 88 84 85 
211 635 98 90 87 87 
211 635 99 86 83 84 
208 632 103 63 62 64 
208 633 102 69 67 68 
208 633 103 66 65 66 
209 632 102 66 64 66 
209 633 102 68 67 68 
208 634 100 78 75 75 
208 634 101 74 72 72 
208 635 100 81 77 78 
209 634 100 81 78 78 
209 634 101 78 75 75 
209 635 100 83 80 80 
208 634 102 70 68 69 
209 634 102 73 71 72 
210 632 102 69 67 69 
210 633 102 71 70 71 
211 632 102 70 68 69 
211 632 103 64 64 65 
211 633 102 70 69 70 
211 633 103 68 66 68 
210 634 101 78 76 76 
210 635 100 82 79 80 
211 634 101 77 74 75 
211 635 100 80 78 78 
211 635 101 75 73 74 
210 634 102 74 72 73 
211 634 102 72 70 71 
211 634 103 69 68 69 
211 635 102 74 72 73 
208 636 96 96 92 92 
208 636 97 95 91 91 
209 636 96 96 92 92 
210 636 96 95 91 91 
211 636 96 95 92 92 
212 635 96 93 90 90 
212 635 97 91 88 88 
213 635 96 88 86 87 
213 635 97 86 84 85 
212 635 98 87 84 85 
212 635 99 84 81 82 
213 634 99 80 78 80 
213 635 98 83 81 82 
213 635 99 81 79 81 
214 635 96 83 81 82 
214 635 97 82 79 81 
215 634 97 83 80 81 
215 635 96 84 82 83 
215 635 97 83 80 81 
214 634 98 79 77 79 
214 634 99 78 76 78 
214 635 98 80 78 80 
215 634 98 80 78 79 
215 634 99 79 76 77 
212 632 103 60 61 63 
212 633 103 65 65 68 
213 633 103 62 62 64 
212 635 100 79 77 78 
212 635 101 76 74 75 
213 634 100 77 75 77 
213 634 101 75 74 76 
213 635 100 79 77 79 
213 635 101 77 76 77 
212 634 102 72 70 72 
212 634 103 69 69 71 
212 635 102 73 72 73 
213 634 102 73 72 74 
213 634 103 68 68 70 
215 633 103 69 69 71 
214 634 100 76 75 76 
214 634 101 75 74 75 
215 634 100 78 76 77 
215 634 101 78 76 77 
214 634 102 74 73 74 
214 634 103 71 70 72 
215 634 102 75 74 75 
215 634 103 71 70 72 
212 636 96 94 91 91 
213 632 104 58 59 61 
213 633 104 61 61 63 
214 632 104 57 57 60 
214 633 104 62 61 64 
215 632 104 55 55 58 
215 632 105 53 54 56 
215 633 104 60 60 62 
214 634 104 66 65 68 
216 629 107 56 57 60 
217 629 107 56 57 61 
216 631 105 52 53 56 
216 630 106 54 55 58 
216 631 106 53 55 58 
217 630 107 56 57 61 
217 631 106 54 56 59 
217 631 107 56 57 61 
218 631 107 56 57 61 
219 631 107 57 58 62 
217 629 108 58 59 61 
217 630 108 57 58 61 
218 628 109 62 62 64 
218 629 108 60 60 63 
218 629 109 62 62 64 
219 628 109 63 63 66 
219 629 109 63 63 65 
218 630 108 58 59 61 
218 631 108 57 58 61 
219 630 108 62 62 64 
219 630 109 61 61 63 
219 631 108 59 59 62 
223 627 110 67 66 69 
222 631 107 60 61 64 
223 631 107 60 61 64 
220 628 109 65 65 67 
220 629 109 64 64 66 
221 628 109 65 65 67 
221 629 109 65 65 67 
221 628 110 66 66 68 
221 629 110 65 65 67 
220 630 109 62 62 65 
220 631 108 59 59 62 
221 630 109 62 62 65 
221 631 108 60 61 64 
221 631 109 60 61 64 
221 630 110 63 63 66 
222 628 110 66 66 68 
222 629 110 65 64 67 
223 628 110 65 65 68 
223 629 110 64 64 66 
222 630 109 62 62 65 
222 631 108 60 61 64 
222 631 109 60 61 64 
223 630 109 60 60 63 
223 631 108 60 61 64 
223 631 109 60 60 63 
222 630 110 63 63 66 
223 630 110 62 62 64 
216 633 99 78 75 76 
217 633 99 78 76 77 
216 634 97 86 83 83 
216 635 96 90 87 87 
217 634 96 93 89 89 
217 634 97 89 85 85 
217 635 96 93 89 89 
216 634 98 82 79 79 
216 634 99 78 76 77 
217 634 98 83 80 81 
218 633 98 83 80 80 
218 633 99 81 78 79 
219 633 98 87 83 84 
219 633 99 85 82 82 
218 634 96 94 91 91 
218 634 97 89 86 86 
219 634 96 95 91 91 
219 634 97 91 87 87 
218 634 98 85 82 82 
219 634 98 88 85 85 
216 633 100 76 74 75 
216 633 101 75 74 75 
217 633 100 77 75 77 
217 633 101 75 73 75 
216 633 102 73 72 74 
216 633 103 65 65 67 
217 633 102 71 70 72 
217 633 103 62 61 63 
216 634 100 77 75 76 
218 633 100 79 77 78 
218 633 101 76 74 76 
219 632 101 75 73 74 
219 633 100 81 79 80 
219 633 101 77 75 76 
218 632 103 58 58 61 
218 633 102 71 69 71 
218 633 103 64 63 65 
219 632 102 70 68 70 
219 632 103 61 60 62 
219 633 102 68 67 68 
221 633 97 91 87 87 
220 633 98 90 86 86 
220 633 99 87 84 84 
221 633 98 89 85 85 
221 633 99 86 83 83 
220 634 96 95 91 90 
220 634 97 92 88 88 
221 634 96 92 88 88 
221 634 97 91 87 87 
220 634 98 91 87 87 
222 633 97 90 86 86 
223 633 96 96 92 92 
223 633 97 93 89 89 
222 633 98 88 84 84 
222 633 99 85 82 82 
223 633 98 90 87 87 
223 633 99 85 82 83 
222 634 96 92 88 88 
222 634 97 91 87 87 
223 634 96 95 91 91 
220 632 101 74 72 73 
220 633 100 83 80 81 
220 633 101 79 76 77 
221 632 101 75 73 75 
221 633 100 83 80 81 
221 633 101 79 77 78 
220 632 102 68 67 67 
220 632 103 61 60 62 
221 632 102 70 69 70 
221 632 103 63 62 64 
222 632 101 76 74 76 
222 633 100 82 80 80 
222 633 101 79 76 78 
223 632 101 79 77 78 
223 633 100 82 80 81 
223 633 101 80 78 79 
222 632 102 72 70 72 
222 632 103 63 63 65 
223 632 102 72 71 72 
223 632 103 64 63 65 
216 632 105 52 53 56 
216 633 104 56 57 59 
217 632 104 55 56 58 
217 632 105 53 54 57 
217 633 104 56 56 59 
217 632 106 53 55 58 
218 632 104 56 56 58 
218 632 105 55 56 58 
219 632 104 56 56 58 
219 632 105 56 56 59 
218 632 106 55 56 60 
218 632 107 56 57 61 
219 632 106 56 57 60 
219 632 107 57 58 61 
220 632 104 57 57 59 
220 632 105 57 57 60 
221 632 104 58 59 61 
221 632 105 57 59 62 
220 632 106 57 58 61 
220 632 107 58 59 62 
221 632 106 57 59 63 
221 632 107 58 60 63 
222 632 104 59 59 62 
222 632 105 57 59 62 
223 632 104 60 61 63 
223 632 105 58 59 62 
222 632 106 57 59 63 
222 632 107 59 60 63 
223 632 106 58 59 63 
223 632 107 59 60 64 
220 632 108 59 60 63 
221 632 108 60 61 64 
222 632 108 60 61 64 
223 632 108 60 61 64 
224 639 83 76 72 71 
225 639 83 75 71 70 
226 639 83 74 70 68 
227 639 83 75 70 67 
224 637 85 103 97 96 
225 637 85 101 95 93 
224 637 86 102 96 95 
224 637 87 100 95 93 
225 636 87 94 89 86 
225 637 86 100 93 91 
225 637 87 97 91 89 
224 638 84 93 88 86 
224 638 85 99 94 92 
224 639 84 82 77 76 
225 638 84 89 84 83 
225 638 85 101 95 93 
226 637 85 97 91 89 
227 637 85 99 93 91 
226 636 87 94 88 85 
226 637 86 96 90 87 
226 637 87 94 88 85 
227 636 87 97 91 88 
227 637 86 100 93 91 
227 637 87 98 92 89 
226 638 84 90 85 83 
226 638 85 98 92 90 
226 639 84 81 75 73 
227 638 84 91 86 83 
227 638 85 98 92 90 
227 639 84 81 76 74 
228 639 83 74 69 67 
229 639 83 75 70 68 
230 639 83 75 71 69 
231 638 83 75 69 66 
231 639 82 75 70 67 
231 639 83 75 70 67 
228 636 87 92 86 83 
228 637 86 100 94 91 
228 637 87 94 87 84 
229 637 86 97 90 88 
229 637 87 90 83 79 
228 638 84 93 88 86 
228 638 85 102 96 95 
228 639 84 80 75 72 
229 638 84 94 88 86 
229 638 85 102 96 94 
229 639 84 80 75 73 
230 637 85 99 93 91 
231 637 85 94 88 86 
230 636 87 88 81 78 
230 637 86 94 88 85 
230 637 87 89 82 79 
231 636 87 87 80 75 
231 637 86 90 84 81 
231 637 87 88 81 77 
230 638 84 94 88 86 
230 638 85 99 94 92 
230 639 84 81 76 74 
231 638 84 88 82 80 
231 638 85 99 94 92 
224 635 90 92 87 87 
224 635 91 89 84 83 
225 635 90 91 87 86 
225 635 91 93 89 88 
226 635 89 98 92 91 
227 635 89 91 84 81 
226 635 90 96 91 90 
226 635 91 94 89 87 
227 635 90 88 81 78 
227 635 91 85 78 75 
225 633 95 100 96 96 
224 634 92 83 79 77 
224 634 93 86 82 81 
224 635 92 83 78 77 
225 634 92 89 85 84 
225 634 93 89 84 84 
225 635 92 90 86 85 
224 634 94 94 89 89 
224 634 95 99 95 95 
225 634 94 95 90 90 
225 634 95 98 94 94 
226 633 95 98 93 93 
227 633 95 95 90 88 
226 634 92 89 83 81 
226 634 93 86 80 78 
226 635 92 94 89 87 
227 634 92 84 77 74 
227 634 93 86 80 77 
226 634 94 89 85 84 
226 634 95 94 90 89 
227 634 94 91 85 83 
224 636 88 96 90 89 
224 636 89 95 90 89 
224 637 88 99 93 92 
225 636 88 92 87 85 
225 636 89 90 85 84 
224 636 90 93 88 87 
226 636 88 94 89 86 
226 636 89 97 91 89 
227 636 88 94 87 84 
227 636 89 96 89 86 
228 635 88 83 76 73 
228 635 89 82 75 71 
229 635 88 82 76 73 
229 635 89 79 74 71 
228 634 91 82 76 73 
228 635 90 81 75 72 
228 635 91 82 76 73 
229 634 91 84 79 77 
229 635 90 80 74 72 
229 635 91 82 77 75 
230 635 88 85 78 75 
230 635 89 83 77 74 
231 635 88 88 81 77 
231 635 89 87 80 76 
230 634 91 83 77 74 
230 635 90 81 75 72 
230 635 91 81 75 73 
231 634 91 82 76 72 
231 635 90 84 77 73 
231 635 91 82 76 72 
228 633 94 94 88 86 
228 633 95 93 87 85 
229 633 94 93 87 85 
229 633 95 90 84 81 
228 634 92 83 78 75 
228 634 93 89 83 80 
229 634 92 88 83 81 
229 634 93 93 88 86 
228 634 94 93 87 85 
229 634 94 94 89 87 
230 633 94 83 77 74 
230 633 95 80 74 71 
231 633 94 80 74 71 
231 633 95 79 73 70 
230 634 92 87 81 79 
230 634 93 88 82 80 
231 634 92 81 75 72 
231 634 93 81 75 72 
230 634 94 88 82 79 
231 634 94 80 74 71 
228 636 88 87 81 77 
229 636 88 86 79 76 
230 636 88 87 80 77 
231 636 88 88 81 77 
232 638 83 75 71 68 
232 639 82 74 69 67 
232 639 83 74 69 67 
233 638 83 73 68 67 
233 639 82 73 68 67 
233 639 83 73 69 67 
234 638 83 75 70 68 
234 639 82 73 68 67 
235 638 83 78 73 71 
235 639 82 75 70 68 
235 639 83 77 72 70 
232 637 84 84 78 76 
232 637 85 86 80 78 
233 637 84 76 71 69 
233 637 85 81 76 75 
232 636 86 88 81 78 
232 636 87 86 79 76 
232 637 86 88 81 78 
233 636 86 84 79 77 
233 636 87 83 78 75 
233 637 86 87 81 79 
232 638 84 80 75 72 
233 638 84 76 71 68 
234 637 84 75 71 69 
234 637 85 74 70 68 
235 637 84 79 74 72 
235 637 85 76 71 69 
234 636 86 77 72 71 
234 636 87 79 75 73 
234 637 86 74 70 68 
235 636 86 74 70 67 
235 636 87 77 72 70 
235 637 86 74 69 67 
234 638 84 76 71 70 
235 638 84 80 75 73 
236 638 83 78 73 72 
236 639 82 78 73 71 
236 639 83 80 75 73 
237 638 83 75 70 67 
237 639 82 79 73 69 
237 639 83 77 71 69 
238 639 81 96 89 86 
238 638 83 82 77 76 
238 639 82 90 85 82 
239 638 82 90 86 84 
239 638 83 87 82 81 
239 639 82 92 87 85 
236 637 84 76 71 69 
236 637 85 75 70 68 
237 637 84 72 68 66 
237 637 85 71 67 65 
236 636 86 74 69 67 
236 636 87 74 69 68 
236 637 86 74 69 67 
237 636 86 72 68 66 
237 636 87 73 69 67 
237 637 86 71 66 64 
237 637 87 71 67 65 
236 638 84 77 72 71 
237 638 84 73 68 67 
238 637 84 75 70 68 
238 637 85 74 69 67 
239 637 84 77 72 70 
239 637 85 76 71 69 
238 636 86 72 68 66 
238 636 87 74 69 67 
238 637 86 71 67 65 
239 636 86 75 70 68 
239 636 87 78 73 70 
239 637 86 74 69 67 
238 638 84 77 72 70 
239 638 84 79 75 73 
232 635 88 88 81 77 
232 635 89 88 81 78 
233 635 88 90 85 82 
233 635 89 94 89 88 
232 634 91 84 78 75 
232 635 90 87 80 77 
232 635 91 85 79 76 
233 634 91 88 82 79 
233 635 90 96 90 89 
233 635 91 91 86 84 
234 635 89 89 84 82 
235 635 89 83 78 76 
234 634 91 89 83 81 
234 635 90 94 89 88 
234 635 91 93 88 86 
235 634 91 92 87 85 
235 635 90 88 83 81 
235 635 91 93 88 87 
232 633 94 80 74 72 
232 633 95 80 74 71 
233 633 94 82 76 73 
233 633 95 82 76 73 
232 634 92 81 75 72 
232 634 93 81 75 72 
233 634 92 84 78 75 
233 634 93 81 75 72 
232 634 94 81 75 72 
233 634 94 82 76 73 
234 633 94 89 83 81 
234 633 95 89 83 81 
235 633 94 94 88 86 
235 633 95 93 87 86 
234 634 92 86 80 77 
234 634 93 86 81 78 
235 634 92 89 84 82 
235 634 93 92 86 84 
234 634 94 88 82 80 
235 634 94 93 88 86 
232 636 88 86 79 75 
233 636 88 85 79 77 
234 636 88 82 77 76 
235 636 88 79 74 73 
235 636 89 81 76 74 
236 635 89 79 74 72 
236 634 91 93 89 88 
236 635 90 82 77 75 
236 635 91 90 85 84 
237 634 91 92 87 86 
237 635 90 80 75 73 
237 635 91 88 83 82 
238 635 89 83 77 75 
239 635 88 84 79 77 
239 635 89 85 80 78 
238 634 91 86 81 79 
238 635 90 82 77 75 
238 635 91 85 80 79 
239 634 90 85 80 77 
239 634 91 85 80 78 
239 635 90 85 80 78 
236 633 94 94 89 87 
236 633 95 92 87 85 
237 633 94 98 93 92 
237 633 95 94 89 88 
236 634 92 96 91 90 
236 634 93 95 90 88 
237 634 92 98 93 93 
237 634 93 99 95 94 
236 634 94 93 88 86 
238 633 93 100 95 94 
239 633 93 97 92 91 
238 633 94 99 94 93 
238 633 95 96 91 90 
239 633 94 99 94 93 
239 633 95 97 92 91 
238 634 92 95 90 88 
238 634 93 99 94 93 
239 634 92 90 85 83 
239 634 93 95 90 89 
236 636 88 77 72 70 
236 636 89 78 73 71 
237 636 88 75 70 68 
237 636 89 78 73 71 
238 636 88 78 72 70 
238 636 89 81 76 73 
239 636 88 81 76 74 
240 635 87 86 80 78 
241 635 86 85 78 75 
241 635 87 87 81 78 
242 635 85 83 77 74 
243 635 85 86 79 76 
242 635 86 83 77 74 
242 635 87 86 79 77 
243 635 86 83 77 74 
243 635 87 83 77 74 
240 637 83 88 83 80 
241 637 83 91 86 83 
240 639 81 86 81 79 
241 639 81 88 83 81 
240 638 82 96 91 89 
240 638 83 90 85 84 
240 639 82 91 85 84 
241 638 82 99 94 93 
241 638 83 98 92 91 
241 639 82 95 90 89 
242 637 83 89 83 81 
243 637 83 85 78 75 
242 639 81 86 80 78 
243 639 81 79 73 70 
242 638 82 93 87 85 
242 638 83 92 86 84 
242 639 82 90 85 83 
243 638 82 79 73 71 
243 638 83 82 76 73 
243 639 82 78 73 70 
240 636 85 84 78 75 
240 637 84 80 75 72 
240 637 85 81 75 73 
241 636 85 84 78 75 
241 637 84 85 78 75 
241 637 85 84 78 75 
240 636 86 83 77 75 
240 636 87 84 78 76 
241 636 86 85 79 75 
242 636 84 84 78 75 
242 636 85 84 77 74 
242 637 84 87 81 77 
243 636 84 86 80 77 
243 636 85 87 80 77 
243 637 84 86 80 77 
244 635 86 98 92 90 
244 635 87 91 85 82 
245 635 86 109 103 102 
245 635 87 103 97 96 
246 635 86 107 101 99 
246 635 87 101 95 93 
247 635 86 100 95 92 
247 635 87 99 93 91 
244 639 81 86 80 77 
245 639 81 96 90 87 
244 638 82 83 77 74 
244 638 83 87 80 77 
244 639 82 83 77 74 
245 638 82 94 88 85 
245 638 83 95 88 86 
245 639 82 92 87 84 
246 637 83 99 93 90 
247 637 83 104 99 97 
246 639 81 98 93 91 
247 639 81 104 99 98 
246 638 82 95 90 88 
246 638 83 96 90 88 
246 639 82 95 89 87 
247 638 82 101 96 95 
247 638 83 102 96 94 
244 636 84 89 83 80 
244 636 85 97 90 88 
244 637 84 88 82 79 
245 636 84 97 90 87 
245 636 85 104 98 96 
245 637 84 92 86 82 
246 636 84 104 97 95 
246 636 85 107 101 99 
246 637 84 101 95 92 
247 636 84 105 99 97 
247 636 85 102 96 93 
247 637 84 106 100 98 
246 636 86 110 104 102 
241 633 91 93 88 86 
240 634 89 87 81 79 
240 635 88 86 80 78 
240 635 89 86 80 78 
241 634 89 92 86 84 
241 635 88 87 81 79 
241 635 89 87 82 79 
240 634 90 88 82 80 
240 634 91 89 84 82 
241 634 90 94 89 87 
241 634 91 93 88 87 
242 633 91 97 92 91 
243 633 91 100 95 94 
242 634 88 92 86 84 
242 634 89 95 90 88 
242 635 88 89 83 80 
243 634 88 89 83 82 
243 634 89 95 90 88 
242 634 90 97 91 90 
242 634 91 97 91 90 
243 634 90 98 93 91 
243 634 91 99 93 92 
240 633 92 90 85 84 
240 633 93 93 88 87 
241 633 92 90 85 84 
241 633 93 90 85 83 
240 633 94 95 90 89 
240 633 95 93 88 87 
241 632 95 86 80 78 
241 633 94 90 85 83 
241 633 95 89 83 81 
240 634 92 90 85 83 
241 634 92 91 86 85 
242 633 92 97 92 91 
242 633 93 95 90 89 
243 633 92 104 99 98 
243 633 93 102 97 96 
242 632 94 92 87 86 
242 632 95 87 82 80 
242 633 94 92 87 85 
243 632 94 98 92 91 
243 632 95 92 87 85 
243 633 94 97 92 90 
244 633 91 103 97 96 
245 633 91 100 94 93 
244 634 88 88 83 81 
244 634 89 92 87 86 
245 634 88 89 83 81 
245 634 89 86 81 78 
245 635 88 94 88 86 
244 634 90 95 90 89 
245 634 90 89 83 81 
246 633 91 98 93 91 
247 633 91 99 94 93 
246 634 88 87 81 78 
246 634 89 86 80 77 
246 635 88 93 87 84 
247 634 88 91 85 83 
247 634 89 89 83 81 
247 635 88 95 89 87 
246 634 90 87 81 79 
246 634 91 91 86 84 
247 634 90 89 84 82 
247 634 91 94 88 87 
244 633 92 108 102 101 
244 633 93 107 102 101 
245 633 92 108 102 101 
245 633 93 108 103 102 
244 632 94 103 98 96 
244 632 95 98 92 90 
245 632 94 105 99 98 
245 632 95 98 93 92 
246 633 92 103 98 97 
246 633 93 104 99 99 
247 633 92 103 98 98 
247 633 93 102 98 98 
246 632 94 101 96 96 
246 632 95 92 87 86 
247 632 94 98 93 93 
247 632 95 86 82 80 
251 631 95 89 84 82 
252 631 95 97 91 89 
253 631 94 104 99 97 
253 631 95 105 100 98 
255 631 93 100 95 94 
254 631 94 102 97 95 
254 631 95 105 99 98 
255 631 94 105 100 99 
255 631 95 108 103 102 
248 635 85 106 101 100 
249 635 85 107 102 101 
248 635 86 104 99 97 
248 635 87 102 96 95 
249 635 86 103 98 97 
249 635 87 98 92 91 
250 635 85 108 103 102 
251 635 84 112 106 106 
251 635 85 107 103 102 
250 635 86 106 101 101 
250 635 87 103 98 98 
251 634 87 105 100 100 
251 635 86 105 101 100 
251 635 87 106 101 101 
248 636 83 106 100 99 
248 637 82 107 102 100 
248 637 83 105 100 98 
249 636 83 108 103 101 
249 637 82 109 104 103 
249 637 83 109 103 102 
248 639 81 109 104 102 
249 638 81 106 101 99 
249 639 81 111 106 105 
248 638 82 106 100 99 
249 638 82 106 101 100 
250 636 83 108 103 102 
250 637 82 109 104 103 
251 636 83 111 105 104 
251 637 82 110 104 103 
251 637 83 110 104 103 
250 638 81 107 102 101 
250 639 81 113 107 106 
251 638 81 108 103 102 
251 639 80 116 111 110 
251 639 81 113 108 108 
250 638 82 108 103 102 
251 638 82 107 102 101 
248 636 84 107 102 100 
248 636 85 108 102 101 
249 636 84 109 103 102 
249 636 85 109 103 102 
250 636 84 108 103 102 
251 636 84 111 106 105 
255 635 83 103 97 96 
252 635 84 112 107 106 
252 635 85 110 105 104 
253 635 84 113 108 107 
253 635 85 112 107 106 
252 634 86 107 102 101 
252 634 87 104 99 98 
252 635 86 109 103 103 
253 634 86 110 105 104 
253 634 87 106 102 101 
255 633 87 116 110 108 
254 634 85 113 108 108 
254 635 84 114 109 108 
254 635 85 114 109 108 
255 634 85 115 109 109 
255 635 84 113 108 107 
255 635 85 114 109 109 
254 634 86 113 108 108 
254 634 87 113 108 107 
255 634 86 116 110 109 
255 634 87 115 110 108 
252 636 83 113 108 106 
252 637 82 111 106 105 
252 637 83 113 108 107 
253 636 83 114 109 108 
253 637 82 113 107 106 
252 638 81 108 103 102 
252 639 80 116 111 110 
252 639 81 114 109 108 
253 638 81 109 103 102 
253 639 80 116 111 110 
253 639 81 114 109 108 
253 638 82 109 104 103 
255 637 81 102 97 96 
254 636 83 113 108 107 
254 637 82 110 105 104 
255 636 82 100 95 94 
255 636 83 107 101 100 
255 637 82 102 97 96 
254 638 81 109 103 102 
254 639 80 117 112 110 
255 638 80 112 107 107 
255 638 81 107 102 101 
255 639 80 116 110 110 
252 636 84 113 108 107 
253 636 84 115 109 109 
254 636 84 115 109 108 
248 633 91 108 103 102 
249 633 91 104 98 97 
248 634 88 99 94 92 
248 634 89 97 91 90 
248 635 88 102 96 95 
249 634 88 98 93 92 
249 634 89 99 94 92 
249 635 88 97 91 89 
248 634 90 100 95 94 
248 634 91 105 100 99 
249 634 90 101 95 94 
251 633 89 91 85 84 
250 633 90 92 86 84 
250 633 91 98 92 90 
251 633 90 92 86 84 
251 633 91 95 89 87 
250 634 88 101 96 95 
250 634 89 95 89 88 
251 634 88 99 94 93 
251 634 89 92 87 85 
250 634 90 93 87 85 
248 632 93 100 95 94 
248 633 92 108 103 102 
248 633 93 104 99 98 
249 632 93 96 91 89 
249 633 92 101 96 94 
249 633 93 100 94 93 
248 632 94 96 91 90 
248 632 95 81 77 76 
249 632 94 91 86 85 
249 632 95 83 79 78 
250 632 93 99 94 92 
250 633 92 101 95 93 
251 632 92 96 90 88 
251 632 93 98 93 91 
251 633 92 99 94 92 
250 632 94 97 92 91 
250 632 95 93 89 88 
251 632 94 99 94 93 
251 632 95 93 88 87 
252 633 89 92 87 85 
253 633 88 96 91 90 
253 633 89 93 88 87 
252 633 90 90 85 83 
252 633 91 92 87 85 
253 632 91 91 86 85 
253 633 90 90 85 83 
253 633 91 90 85 83 
252 634 88 98 93 92 
252 634 89 94 89 87 
253 634 88 101 96 95 
254 633 88 104 99 98 
254 633 89 95 90 89 
255 633 88 112 106 105 
255 633 89 106 100 99 
254 632 91 89 84 82 
254 633 90 91 86 84 
254 633 91 89 83 82 
255 632 90 99 94 93 
255 632 91 92 87 86 
255 633 90 100 94 93 
254 634 88 107 102 101 
252 632 92 94 89 86 
252 632 93 95 89 87 
252 633 92 93 87 85 
253 632 92 98 92 91 
253 632 93 104 99 98 
252 632 94 96 90 88 
252 632 95 94 88 86 
253 632 94 105 99 98 
254 632 92 95 90 88 
254 632 93 102 96 95 
255 632 92 92 87 86 
255 632 93 97 92 91 
229 631 103 63 62 64 
230 631 103 63 61 63 
231 631 103 67 65 66 
224 627 110 65 65 68 
225 627 110 65 65 67 
226 627 109 63 63 66 
227 627 109 63 64 66 
225 631 105 57 58 60 
224 631 106 58 59 62 
224 631 107 59 60 63 
225 631 106 57 58 61 
225 631 107 58 59 62 
227 629 107 60 61 64 
226 631 105 58 59 61 
227 631 104 60 60 62 
227 631 105 59 59 62 
226 630 107 58 59 62 
226 631 106 58 59 62 
226 631 107 58 59 62 
227 630 106 59 60 63 
227 630 107 59 60 63 
227 631 106 59 60 62 
225 629 109 62 62 64 
224 628 110 64 64 67 
224 629 110 63 63 65 
225 628 110 63 63 66 
225 629 110 62 63 65 
224 630 109 60 60 63 
224 631 108 60 60 63 
224 631 109 60 60 63 
225 630 108 58 59 62 
225 630 109 60 60 63 
225 631 108 59 59 62 
224 630 110 61 61 64 
226 628 109 62 63 65 
226 629 109 61 61 64 
227 628 108 63 63 66 
227 628 109 63 63 66 
227 629 108 61 61 64 
226 628 110 63 63 65 
226 630 108 59 60 63 
226 630 109 60 61 63 
227 630 108 60 61 64 
228 627 109 64 64 66 
229 627 108 64 64 66 
228 628 107 62 62 65 
228 629 107 61 61 64 
229 628 106 64 64 66 
229 628 107 63 64 66 
229 629 106 63 63 66 
229 629 107 62 62 65 
228 631 104 61 60 62 
228 631 105 60 60 63 
229 630 105 61 61 64 
229 631 104 62 62 64 
229 631 105 61 61 64 
228 630 106 60 61 64 
228 630 107 60 61 64 
228 631 106 60 60 63 
229 630 106 61 62 64 
230 629 105 63 63 65 
231 629 105 64 64 66 
230 628 106 65 65 66 
230 629 106 64 64 66 
231 628 106 65 65 66 
230 630 105 63 62 64 
230 631 104 63 62 64 
230 631 105 63 63 65 
231 630 104 63 62 64 
231 630 105 63 63 65 
231 631 104 64 63 64 
228 628 108 63 63 66 
224 633 96 99 95 95 
224 633 97 97 93 93 
225 633 96 100 96 95 
225 633 97 99 95 95 
224 633 98 94 90 90 
224 633 99 89 86 86 
225 632 99 92 88 88 
225 633 98 96 92 92 
225 633 99 93 89 89 
224 634 96 99 95 95 
226 633 96 101 96 95 
226 633 97 101 96 96 
227 633 96 99 94 93 
227 633 97 101 96 95 
226 632 99 95 91 90 
226 633 98 99 95 94 
226 633 99 96 91 91 
227 632 99 96 91 91 
227 633 98 100 95 94 
224 632 100 85 83 83 
224 632 101 81 78 79 
224 633 100 86 83 84 
225 632 100 89 85 85 
225 632 101 83 80 80 
224 632 102 73 72 73 
224 632 103 65 64 66 
225 632 102 73 71 71 
225 632 103 65 64 65 
226 632 100 91 87 87 
226 632 101 84 80 79 
227 632 100 90 86 85 
227 632 101 83 79 78 
226 632 102 74 71 71 
226 632 103 65 64 64 
227 632 102 75 71 71 
227 632 103 65 63 64 
228 633 96 93 87 85 
228 633 97 93 88 86 
229 633 96 84 78 75 
229 633 97 81 75 73 
228 632 99 88 83 81 
228 633 98 92 87 85 
228 633 99 90 85 83 
229 633 98 80 75 73 
229 633 99 80 76 75 
230 633 96 78 72 70 
230 633 97 78 72 70 
231 633 96 78 72 69 
231 633 97 78 72 69 
230 633 98 79 75 73 
230 633 99 82 78 77 
231 633 98 79 74 72 
231 633 99 81 77 75 
228 632 100 84 79 78 
228 632 101 80 76 75 
229 632 100 81 77 76 
229 632 101 81 77 77 
228 632 102 75 72 72 
228 632 103 66 64 65 
229 632 102 74 72 72 
229 632 103 66 64 66 
230 632 100 83 79 79 
230 632 101 81 78 78 
231 632 100 82 78 77 
231 632 101 80 77 76 
230 632 102 76 73 74 
230 632 103 68 66 67 
231 632 102 76 73 73 
231 632 103 69 67 68 
224 632 104 60 60 62 
224 632 105 57 58 61 
225 632 104 58 58 60 
225 632 105 57 58 60 
224 632 106 58 59 62 
224 632 107 58 59 62 
226 632 104 60 60 62 
226 632 105 59 59 61 
227 632 104 62 61 62 
228 632 104 62 61 63 
229 632 104 63 62 64 
232 631 103 68 65 66 
233 631 102 72 69 69 
233 631 103 69 67 68 
234 631 102 73 70 69 
234 631 103 71 69 70 
235 631 102 75 71 71 
235 631 103 73 71 71 
236 630 103 77 74 74 
236 631 102 77 73 73 
236 631 103 75 72 73 
237 630 103 79 77 77 
237 631 102 79 75 74 
237 631 103 79 75 75 
238 630 103 81 78 78 
238 631 102 81 77 76 
238 631 103 81 77 77 
239 630 103 82 79 79 
239 631 102 83 78 77 
239 631 103 83 79 78 
235 627 106 70 69 70 
232 628 105 66 65 67 
232 629 105 66 65 67 
233 628 105 68 66 67 
233 629 104 69 67 69 
233 629 105 69 67 68 
232 628 106 67 65 67 
232 630 104 66 65 67 
232 630 105 64 64 66 
232 631 104 65 64 66 
233 630 104 69 67 68 
234 628 105 69 68 68 
234 629 104 70 68 69 
234 629 105 70 68 68 
235 628 105 72 70 71 
235 629 104 73 71 72 
235 629 105 73 71 71 
234 630 104 70 68 69 
235 630 104 73 71 72 
236 627 106 73 71 72 
237 627 106 76 73 74 
238 627 106 79 77 77 
239 627 106 83 80 80 
236 628 105 75 72 73 
236 629 104 76 74 74 
236 629 105 76 73 74 
237 628 105 77 74 74 
237 629 104 79 76 76 
237 629 105 78 75 75 
236 630 104 76 74 74 
237 630 104 79 76 77 
238 628 105 81 77 77 
238 629 104 81 78 78 
238 629 105 81 78 78 
239 628 105 83 80 80 
239 629 104 83 80 80 
239 629 105 83 80 80 
238 630 104 80 77 77 
239 630 104 81 78 78 
232 633 96 79 74 70 
232 633 97 79 73 70 
233 633 96 81 75 72 
233 633 97 80 74 71 
232 633 98 80 74 72 
232 633 99 81 77 75 
233 633 98 80 75 73 
233 633 99 81 76 74 
234 633 96 87 82 80 
234 633 97 85 79 77 
235 633 96 91 85 83 
235 633 97 87 81 79 
234 633 98 83 78 76 
234 633 99 81 76 75 
235 633 98 84 78 76 
235 633 99 82 77 75 
232 632 100 82 78 77 
232 632 101 80 77 76 
233 632 100 82 78 77 
233 632 101 80 76 76 
232 632 102 74 71 71 
233 632 102 76 73 73 
234 632 100 81 76 75 
234 632 101 79 75 74 
