ply
format ascii 1.0
comment Created by CloudCompare v2.10.1 (Zephyrus)
comment Created 1/30/20 6:08 PM
obj_info Generated by CloudCompare!
element vertex 2016
property float x
property float y
property float z
property uchar red
property uchar green
property uchar blue
end_header
193 594 103 78 75 76 
193 595 103 78 76 77 
194 592 101 75 72 72 
195 592 101 74 71 71 
194 592 102 75 72 72 
194 593 102 76 73 74 
195 592 102 74 71 71 
195 593 102 74 72 72 
194 594 103 77 74 75 
194 595 103 77 75 76 
195 594 103 75 73 73 
195 595 103 76 74 75 
196 592 101 75 72 71 
196 592 102 75 71 71 
196 593 102 75 72 72 
196 594 103 75 72 72 
196 595 103 75 72 73 
192 595 104 80 77 78 
193 595 104 79 76 77 
192 596 104 80 78 79 
192 597 104 81 79 79 
192 597 105 82 79 80 
193 596 104 79 77 78 
193 597 104 80 78 79 
193 597 105 82 79 80 
192 598 105 83 80 81 
192 599 105 83 80 81 
193 598 105 82 80 81 
193 599 105 82 80 80 
192 599 106 83 80 81 
193 599 106 82 80 80 
194 596 104 78 75 76 
194 597 104 79 77 78 
195 596 104 77 74 75 
195 597 104 78 75 76 
194 598 105 81 78 79 
194 599 105 81 79 80 
195 598 105 79 76 77 
195 599 105 80 78 78 
196 596 104 76 73 74 
196 597 104 77 74 75 
196 598 105 78 75 76 
196 599 105 79 77 77 
192 600 106 85 82 82 
192 601 106 86 83 84 
192 601 107 87 84 85 
193 600 106 83 80 81 
193 601 106 85 82 83 
192 602 107 88 85 86 
192 603 107 88 85 86 
193 602 107 86 83 84 
193 603 107 88 85 86 
194 600 106 82 79 80 
194 601 106 82 80 80 
195 600 106 80 78 79 
195 601 106 80 78 79 
194 602 106 83 80 81 
194 602 107 84 82 83 
194 603 107 87 84 85 
195 602 107 82 80 81 
195 603 107 85 83 84 
192 603 108 87 84 85 
194 604 107 88 85 86 
195 604 107 86 84 85 
192 604 108 87 84 85 
192 605 108 87 84 85 
193 604 108 87 85 85 
193 605 108 87 85 86 
192 606 108 86 83 84 
192 607 108 84 81 82 
193 606 108 87 84 85 
193 607 108 85 82 83 
194 604 108 87 85 86 
194 605 108 88 85 86 
195 605 108 86 84 85 
194 606 108 87 84 85 
194 607 108 86 83 84 
195 606 108 86 84 85 
195 607 108 86 83 84 
196 600 106 80 77 78 
196 601 106 80 77 78 
196 601 107 80 77 78 
196 602 107 82 79 80 
196 603 107 83 81 82 
196 604 107 84 82 83 
196 605 108 84 82 83 
196 606 108 84 81 82 
196 607 108 85 82 83 
192 608 108 82 80 81 
192 609 108 81 79 79 
193 608 108 84 81 82 
193 609 108 82 80 81 
192 610 108 80 78 79 
192 610 109 79 77 78 
192 611 109 77 75 76 
193 610 108 81 79 80 
193 610 109 80 78 79 
193 611 109 79 77 78 
194 608 108 85 83 84 
194 609 108 84 81 82 
195 608 108 86 84 85 
195 609 108 85 83 83 
194 610 108 82 80 81 
194 611 108 82 80 81 
194 611 109 81 79 80 
195 610 108 84 81 82 
195 611 108 83 81 82 
195 611 109 82 80 81 
192 612 109 75 73 74 
193 612 109 77 75 76 
193 613 109 72 71 72 
192 612 110 73 72 73 
192 613 110 70 69 70 
193 614 109 69 68 69 
193 615 109 67 66 68 
192 614 110 68 67 69 
192 615 110 67 66 67 
194 612 109 79 77 78 
194 613 109 74 73 74 
195 612 109 80 78 79 
195 613 109 76 74 76 
194 614 109 71 69 71 
194 615 109 69 68 69 
195 614 109 72 71 72 
195 615 109 70 69 71 
196 608 108 85 82 83 
196 609 108 85 82 83 
196 610 108 84 81 82 
196 611 109 83 81 81 
196 612 109 81 79 79 
196 613 109 77 76 77 
196 614 109 74 72 73 
196 615 109 72 71 72 
193 616 109 67 66 68 
192 616 110 66 66 67 
192 617 110 66 65 67 
192 617 111 65 65 66 
193 616 110 66 66 67 
193 617 110 65 65 66 
194 616 109 68 67 69 
195 616 109 69 68 70 
194 616 110 68 67 69 
194 617 110 67 66 68 
195 616 110 69 68 70 
195 617 110 67 67 69 
196 616 109 70 69 70 
196 616 110 69 69 71 
196 617 110 69 68 70 
128 571 135 74 69 67 
129 571 135 74 69 67 
130 571 135 65 57 53 
131 571 135 74 66 62 
128 575 128 125 117 114 
128 575 129 134 126 125 
129 575 128 144 136 135 
129 575 129 146 140 140 
128 574 131 122 117 118 
128 575 130 132 126 126 
129 574 131 126 122 123 
129 575 130 142 136 138 
130 575 128 154 147 147 
130 575 129 149 143 144 
131 575 129 137 131 131 
130 574 131 114 109 110 
130 575 130 138 133 135 
131 574 131 93 87 85 
131 575 130 121 115 115 
131 575 131 101 95 93 
128 573 132 88 84 84 
128 573 133 72 68 68 
129 573 132 95 91 91 
129 573 133 81 77 77 
128 572 134 69 66 66 
128 572 135 72 68 68 
128 573 134 65 63 63 
129 572 134 76 72 72 
128 574 132 104 100 101 
129 574 132 103 99 100 
130 573 132 88 83 81 
130 573 133 86 81 80 
131 573 132 82 75 70 
131 573 133 80 72 69 
130 572 134 75 69 67 
131 572 134 69 62 58 
131 572 135 75 67 64 
131 573 134 72 64 60 
130 574 132 91 87 86 
131 574 132 83 76 72 
132 575 129 115 108 106 
133 575 129 100 92 89 
132 574 131 85 78 73 
132 575 130 102 95 92 
132 575 131 93 85 81 
133 575 130 99 91 87 
133 575 131 94 85 81 
134 575 130 97 89 85 
134 575 131 93 85 80 
132 573 133 76 68 63 
132 572 134 75 67 62 
132 572 135 91 83 79 
132 573 134 70 61 55 
133 573 134 83 74 69 
133 573 135 99 90 86 
132 574 132 83 75 71 
132 574 133 74 66 61 
133 574 132 80 72 68 
133 574 133 77 68 63 
133 575 132 83 75 71 
133 574 134 83 74 69 
133 574 135 104 94 90 
134 574 133 77 68 62 
134 575 132 80 72 67 
134 575 133 81 72 67 
134 574 134 88 79 74 
134 574 135 103 94 89 
134 575 134 90 80 75 
134 575 135 102 93 88 
128 569 138 89 80 75 
128 569 139 96 87 83 
129 569 138 92 83 78 
129 569 139 99 91 87 
128 570 137 76 68 64 
128 571 136 68 62 59 
128 571 137 69 62 59 
129 570 136 69 61 57 
129 570 137 75 67 62 
129 571 136 66 59 54 
128 570 138 87 78 74 
129 570 138 83 74 69 
130 569 138 97 88 84 
130 569 139 101 92 89 
131 569 139 102 94 90 
130 570 136 74 65 60 
130 570 137 82 74 69 
130 571 136 67 59 54 
131 570 137 92 83 79 
131 571 136 79 71 66 
131 571 137 95 86 82 
130 570 138 91 83 79 
131 570 138 103 95 91 
131 570 139 103 95 91 
128 568 140 101 92 88 
128 568 141 103 94 90 
128 569 140 99 91 87 
129 568 140 101 92 89 
129 568 141 104 95 92 
129 569 140 107 98 95 
128 568 142 105 96 91 
128 568 143 106 97 92 
129 568 142 103 94 90 
129 568 143 105 96 93 
130 568 140 100 92 88 
130 568 141 99 91 87 
130 569 140 99 91 87 
130 569 141 98 90 86 
131 569 140 99 90 86 
131 569 141 99 90 86 
130 568 142 101 92 88 
130 568 143 104 95 91 
131 569 142 101 92 87 
131 569 143 104 94 90 
131 570 140 101 93 88 
131 570 141 100 91 87 
131 570 142 102 93 88 
131 570 143 104 95 90 
131 571 143 105 95 90 
132 571 136 93 84 80 
132 571 137 102 93 88 
132 570 139 107 99 96 
132 571 138 109 100 97 
132 571 139 110 102 98 
132 570 140 104 96 92 
132 570 141 103 94 89 
132 571 140 108 100 96 
132 571 141 107 98 94 
132 570 142 102 93 88 
132 571 142 105 96 91 
132 571 143 105 96 91 
132 572 136 102 93 88 
132 572 137 104 95 89 
133 572 136 106 96 92 
133 572 137 107 97 93 
133 573 136 108 98 94 
133 573 137 107 98 93 
132 572 138 108 99 96 
132 572 139 111 103 99 
132 573 138 110 102 98 
132 573 139 113 104 101 
133 573 138 108 99 94 
133 573 139 112 103 99 
133 574 136 109 100 95 
133 574 137 109 100 96 
133 575 137 109 100 96 
133 574 138 107 98 94 
133 574 139 108 99 95 
133 575 138 107 99 95 
133 575 139 106 97 94 
134 575 136 108 99 95 
134 575 137 109 100 96 
132 572 140 110 102 99 
132 572 141 109 100 97 
132 573 140 113 105 102 
132 573 141 113 105 102 
132 572 142 107 98 94 
132 572 143 107 97 93 
132 573 142 112 103 100 
132 573 143 111 102 98 
132 574 141 115 107 104 
133 574 140 112 104 101 
133 574 141 113 105 103 
133 575 140 108 100 97 
133 575 141 111 103 101 
132 574 142 114 106 103 
132 574 143 114 106 103 
132 575 143 115 108 106 
133 574 142 115 107 104 
133 575 142 113 106 104 
133 575 143 115 108 106 
128 567 144 108 99 94 
128 567 145 110 100 96 
128 567 146 112 103 99 
128 567 147 118 109 105 
129 567 146 114 105 101 
129 567 147 118 110 107 
128 567 148 120 112 109 
128 567 149 120 111 109 
129 567 148 121 113 110 
128 567 150 117 109 106 
128 567 151 115 106 103 
128 567 152 113 103 100 
128 567 153 111 101 96 
128 567 154 112 101 95 
128 567 155 113 102 96 
128 567 156 115 104 98 
128 568 144 108 98 94 
128 568 145 112 103 99 
129 568 144 107 98 94 
129 568 145 110 101 97 
129 568 146 111 102 98 
129 568 147 116 107 103 
130 568 144 106 97 93 
130 568 145 109 99 95 
130 569 145 109 99 95 
131 569 144 106 97 92 
131 569 145 108 99 94 
130 568 146 110 101 97 
130 568 147 113 104 101 
130 569 146 110 101 97 
130 569 147 113 104 100 
131 569 146 109 100 96 
131 570 144 106 97 92 
131 570 145 108 98 94 
131 571 144 106 97 92 
131 571 145 107 98 93 
130 570 147 111 102 97 
131 570 146 109 99 94 
131 570 147 110 101 96 
131 571 146 109 99 94 
131 571 147 109 100 96 
129 568 148 120 111 108 
129 568 149 122 113 111 
129 569 149 122 114 111 
128 568 151 116 107 104 
129 568 150 120 112 109 
129 568 151 119 110 107 
129 569 150 122 114 111 
129 569 151 120 112 109 
129 570 150 123 114 111 
129 570 151 122 114 110 
130 569 148 117 109 106 
130 569 149 120 112 109 
130 570 148 113 103 99 
130 570 149 117 108 105 
130 571 148 111 102 97 
130 571 149 113 104 99 
131 571 148 110 101 97 
130 570 150 121 112 109 
130 570 151 121 113 110 
130 571 150 117 108 104 
130 571 151 120 111 108 
131 572 145 107 98 93 
131 572 146 108 99 94 
131 572 147 109 99 95 
131 573 146 107 98 94 
131 573 147 108 99 95 
131 574 146 109 100 97 
131 574 147 107 98 95 
131 575 146 113 105 102 
131 575 147 109 101 98 
130 572 149 111 102 98 
130 573 149 108 100 96 
131 572 148 109 100 96 
131 573 148 107 98 94 
130 572 150 113 104 101 
130 572 151 117 109 106 
130 573 150 110 101 98 
130 573 151 113 104 101 
130 574 149 106 98 95 
130 575 149 105 98 95 
131 574 148 106 98 95 
131 575 148 107 99 97 
130 574 150 107 99 96 
130 574 151 108 101 97 
130 575 150 106 98 95 
130 575 151 107 99 97 
132 571 144 106 96 91 
132 572 144 107 97 93 
132 572 145 107 98 93 
132 573 144 110 101 97 
132 573 145 109 100 96 
132 573 146 108 99 95 
132 574 144 114 105 102 
132 574 145 113 105 101 
132 575 144 115 108 106 
132 575 145 116 108 106 
132 574 146 111 102 99 
132 575 146 116 108 106 
128 568 152 115 106 102 
128 568 153 113 103 99 
128 569 153 113 104 100 
129 568 152 117 108 104 
129 569 152 118 109 106 
129 569 153 116 107 103 
128 568 154 111 101 96 
128 568 155 111 101 95 
128 569 154 112 102 98 
128 569 155 111 101 97 
129 569 154 114 104 100 
129 570 152 121 112 109 
129 570 153 118 109 106 
129 571 152 121 113 111 
129 571 153 120 112 110 
128 570 155 112 103 99 
129 570 154 115 106 103 
129 570 155 113 104 101 
129 571 154 118 110 107 
129 571 155 115 107 104 
130 571 152 120 112 110 
128 568 156 113 102 96 
128 568 157 116 105 99 
128 569 156 111 100 96 
128 569 157 112 101 96 
128 568 158 118 107 101 
128 568 159 117 107 102 
128 569 158 114 103 98 
128 569 159 117 106 101 
128 570 156 111 102 98 
128 570 157 110 100 95 
128 571 156 112 103 99 
128 571 157 111 102 98 
129 570 156 112 103 100 
129 571 156 113 105 102 
128 570 158 110 100 95 
128 570 159 112 101 96 
128 571 158 110 101 96 
128 571 159 109 100 95 
129 572 153 121 113 111 
129 573 153 118 111 108 
129 572 154 120 112 110 
129 572 155 118 110 108 
129 573 154 119 112 110 
129 573 155 120 113 111 
129 574 153 113 105 103 
129 575 153 109 102 99 
129 574 154 116 108 106 
129 574 155 119 112 110 
129 575 154 112 104 102 
129 575 155 117 109 106 
130 572 152 119 111 109 
130 572 153 119 111 109 
130 573 152 114 107 104 
130 573 153 117 109 106 
130 574 152 110 102 100 
130 574 153 112 104 102 
130 575 152 108 101 98 
130 575 153 109 101 98 
128 572 157 112 103 100 
129 572 156 116 107 105 
129 572 157 113 104 102 
129 573 156 119 110 108 
129 573 157 115 107 104 
128 572 158 111 102 99 
128 572 159 110 101 97 
128 573 158 113 104 101 
128 573 159 112 104 100 
129 573 158 115 106 103 
129 574 156 121 113 110 
129 574 157 118 110 107 
129 575 156 120 112 109 
129 575 157 122 113 110 
128 574 158 115 106 103 
128 574 159 114 105 102 
129 574 158 117 108 105 
129 574 159 116 107 104 
129 575 158 121 112 109 
129 575 159 120 111 108 
128 555 187 85 79 77 
129 555 187 84 78 76 
128 555 188 90 82 79 
128 555 189 91 83 80 
129 554 188 88 81 78 
129 554 189 89 82 79 
129 555 188 90 82 79 
128 554 190 90 82 79 
128 554 191 89 82 79 
128 555 190 89 82 78 
129 554 190 88 80 76 
129 554 191 89 82 78 
130 554 189 88 81 78 
130 555 188 86 79 76 
130 555 189 85 78 75 
130 554 190 88 80 77 
130 554 191 89 82 78 
131 554 190 86 79 76 
131 554 191 86 79 76 
131 555 190 86 79 76 
131 555 191 88 81 78 
128 556 187 84 78 77 
128 557 186 86 81 80 
128 557 187 84 79 78 
129 556 187 83 77 76 
128 558 187 89 84 83 
128 559 187 95 90 90 
128 557 188 82 76 75 
129 556 188 83 77 75 
129 557 188 82 76 74 
129 557 189 81 75 73 
128 558 188 83 78 77 
128 559 188 89 84 84 
128 559 189 91 86 86 
129 558 188 82 76 74 
129 558 189 81 75 73 
129 559 189 84 79 79 
129 558 190 81 75 73 
129 559 190 83 78 77 
130 556 188 85 78 76 
130 556 189 85 78 76 
130 557 189 82 76 73 
130 556 190 85 78 75 
130 557 190 84 77 74 
131 556 190 85 78 75 
131 556 191 87 79 77 
131 557 191 87 79 76 
130 558 190 82 75 73 
130 558 191 84 77 75 
130 559 190 83 77 76 
130 559 191 84 78 76 
131 558 191 86 79 77 
128 567 173 141 131 127 
128 566 174 143 133 130 
128 566 175 143 133 130 
128 567 174 142 132 129 
128 567 175 143 133 130 
129 567 174 141 131 128 
129 567 175 142 132 129 
128 569 160 120 109 103 
128 569 161 122 111 106 
128 570 160 115 104 99 
128 570 161 119 108 103 
128 571 160 111 101 96 
128 571 161 114 104 99 
128 570 162 121 111 106 
128 570 163 122 112 106 
128 571 162 117 106 101 
128 571 163 119 108 103 
129 571 163 118 107 101 
128 570 164 123 112 107 
128 570 165 123 113 108 
128 571 164 120 110 105 
128 571 165 121 111 106 
129 571 164 119 108 103 
129 571 165 121 110 104 
128 570 166 123 113 108 
128 570 167 128 118 113 
128 571 166 124 114 109 
128 571 167 128 117 113 
129 571 166 125 115 110 
129 571 167 128 118 114 
128 572 160 109 100 95 
128 572 161 110 100 96 
128 573 160 111 102 98 
129 572 161 110 101 96 
129 573 160 111 101 97 
129 573 161 110 101 96 
129 572 162 112 103 98 
129 572 163 115 104 99 
129 573 162 111 101 96 
129 573 163 112 102 97 
128 574 160 113 104 100 
129 574 160 113 104 100 
129 574 161 112 103 99 
129 575 160 118 109 105 
129 575 161 116 107 104 
129 574 162 112 103 99 
129 574 163 112 102 97 
129 575 162 114 106 102 
129 575 163 114 104 100 
129 572 164 117 106 101 
129 572 165 119 108 103 
129 573 164 114 104 98 
129 573 165 116 106 100 
129 572 166 122 112 107 
129 572 167 128 117 112 
129 573 166 120 109 104 
129 573 167 124 113 108 
129 574 164 113 103 98 
129 574 165 114 104 99 
129 575 164 114 105 100 
129 575 165 114 104 99 
130 573 167 126 116 111 
130 574 165 115 105 99 
130 575 165 114 104 99 
130 574 166 117 107 101 
130 574 167 121 110 105 
130 575 166 115 105 100 
130 575 167 119 109 104 
128 568 171 134 123 118 
128 569 171 132 121 116 
128 570 168 132 122 118 
128 570 169 135 125 122 
128 571 168 131 120 116 
128 571 169 135 125 121 
129 571 168 130 120 115 
129 571 169 132 122 117 
128 570 170 135 125 121 
128 570 171 132 121 116 
128 571 170 136 126 122 
129 570 171 131 121 116 
129 571 170 135 124 120 
129 571 171 132 122 117 
130 571 171 132 122 117 
128 568 172 138 127 123 
128 568 173 140 130 126 
128 569 172 136 125 121 
129 568 173 139 129 125 
129 569 172 135 124 120 
129 569 173 139 128 124 
129 568 174 140 130 127 
129 568 175 142 132 129 
129 569 174 140 129 125 
129 570 172 135 124 119 
129 570 173 139 128 123 
129 571 172 133 122 117 
130 568 175 141 131 128 
130 569 174 140 129 126 
130 569 175 140 130 127 
130 570 173 138 127 123 
130 571 172 133 122 117 
130 571 173 137 126 122 
131 571 173 137 126 122 
130 570 174 140 129 125 
130 570 175 140 130 126 
131 570 174 141 130 126 
131 570 175 139 129 126 
131 571 174 140 130 125 
131 571 175 140 130 126 
129 572 168 130 119 115 
129 572 169 130 120 115 
130 572 169 129 119 114 
130 573 168 128 118 113 
130 573 169 128 117 112 
130 572 170 132 121 117 
130 572 171 133 122 117 
130 573 170 129 118 113 
131 572 171 132 121 117 
131 573 170 128 117 112 
131 573 171 131 120 115 
130 574 168 127 116 112 
130 574 169 129 118 113 
130 575 168 123 112 107 
131 574 169 131 120 116 
131 575 168 125 115 110 
131 575 169 128 118 114 
131 574 170 131 120 116 
131 574 171 131 121 116 
131 575 170 131 121 116 
131 575 171 132 122 117 
131 572 172 133 123 118 
131 572 173 136 125 121 
131 573 172 131 120 116 
131 572 174 138 128 123 
132 571 175 142 131 127 
132 574 171 131 121 116 
132 575 171 130 120 115 
132 572 173 136 126 121 
132 573 172 132 121 116 
132 573 173 135 124 120 
132 572 174 140 129 125 
132 572 175 141 131 126 
132 573 174 136 126 122 
133 573 174 135 125 121 
133 573 175 137 127 123 
132 574 172 131 120 115 
132 574 173 133 123 118 
132 575 172 129 119 113 
133 574 173 133 123 119 
133 575 173 131 121 116 
132 574 174 135 124 120 
133 574 174 133 123 119 
133 574 175 135 125 121 
133 575 174 133 122 118 
133 575 175 134 123 119 
134 575 175 134 123 119 
128 563 183 139 131 130 
128 565 177 143 134 132 
128 564 179 142 134 132 
128 565 178 143 134 132 
128 565 179 143 134 133 
128 566 176 143 134 131 
128 566 177 143 134 132 
129 566 177 142 133 131 
129 567 176 142 132 130 
129 567 177 141 132 129 
128 566 178 142 134 132 
129 566 178 141 132 130 
129 566 179 141 133 131 
129 567 178 141 132 129 
130 567 177 140 131 128 
130 566 179 141 131 129 
130 567 178 140 130 127 
130 567 179 140 130 128 
131 567 179 140 131 127 
128 564 180 142 134 133 
128 564 181 142 134 132 
128 565 180 142 134 133 
128 565 181 142 134 132 
129 565 181 140 132 129 
128 564 182 141 133 132 
128 564 183 141 133 132 
128 565 182 140 132 130 
129 565 182 140 131 129 
129 565 183 140 131 129 
129 566 180 141 132 130 
129 566 181 140 131 129 
129 566 182 140 131 129 
129 566 183 140 131 128 
130 566 180 140 130 127 
130 566 181 140 131 128 
130 567 180 140 130 128 
130 567 181 140 131 127 
131 567 180 140 130 127 
131 567 181 141 131 127 
130 566 182 140 130 127 
130 566 183 140 131 128 
130 567 182 140 130 127 
131 566 183 140 129 126 
131 567 182 141 131 127 
131 567 183 140 129 125 
132 567 181 142 132 128 
132 567 182 142 132 128 
132 567 183 141 131 127 
133 567 183 142 132 128 
128 560 187 112 106 107 
128 561 187 124 118 117 
128 563 184 139 131 130 
128 563 185 138 130 129 
128 562 187 131 124 124 
128 563 186 137 129 128 
128 563 187 136 129 127 
128 560 188 104 99 99 
128 560 189 98 94 94 
128 561 188 117 111 111 
128 561 189 109 103 103 
129 560 189 93 88 89 
129 560 190 91 86 86 
129 560 191 93 88 87 
129 561 190 105 99 98 
129 561 191 104 98 96 
128 562 188 128 121 120 
128 562 189 124 117 116 
128 563 188 135 127 126 
128 563 189 133 126 124 
129 562 189 123 116 115 
129 563 188 136 128 127 
129 563 189 133 125 124 
129 562 190 122 115 114 
129 562 191 119 112 110 
129 563 190 131 123 122 
129 563 191 129 121 120 
130 560 191 89 83 82 
128 564 184 141 133 131 
128 564 185 141 132 130 
129 564 184 141 132 130 
129 564 185 140 131 129 
129 565 184 140 131 128 
129 565 185 140 131 129 
128 564 186 140 131 129 
128 564 187 139 131 129 
129 564 186 140 131 129 
129 564 187 139 130 128 
129 565 186 140 131 128 
129 565 187 139 130 127 
130 565 185 140 131 128 
130 565 186 140 130 128 
130 565 187 140 130 127 
130 566 184 140 131 128 
130 566 185 140 130 127 
131 566 184 139 129 125 
131 566 185 139 129 126 
130 566 186 140 130 127 
131 566 186 140 131 127 
131 566 187 140 130 127 
129 564 188 139 130 128 
129 564 189 137 128 126 
129 564 190 136 127 125 
129 564 191 134 125 123 
130 564 189 138 129 126 
130 565 188 140 130 127 
130 565 189 139 130 127 
130 564 191 135 127 124 
130 565 190 139 129 126 
130 565 191 137 128 125 
131 566 188 140 130 126 
131 566 189 139 129 125 
131 566 190 138 128 125 
131 566 191 137 128 124 
132 566 185 139 129 125 
132 567 184 140 130 126 
132 567 185 139 129 126 
133 567 184 142 131 127 
133 567 185 141 130 126 
132 566 186 139 130 126 
132 566 187 139 129 125 
132 567 186 139 129 125 
132 567 187 139 128 124 
133 567 186 140 129 125 
133 567 187 139 128 124 
134 567 185 142 131 127 
134 567 186 140 130 126 
134 567 187 139 128 124 
132 566 188 139 129 125 
132 566 189 139 128 124 
132 567 188 139 128 124 
132 567 189 139 129 124 
133 567 188 138 127 123 
133 567 189 139 128 123 
132 566 190 139 129 125 
132 567 190 138 127 123 
132 567 191 138 128 124 
133 567 190 138 127 122 
133 567 191 137 127 123 
134 567 188 138 128 123 
130 568 176 141 132 129 
130 568 177 141 131 128 
130 569 176 141 131 128 
130 569 177 141 132 128 
131 568 177 141 131 128 
131 569 176 137 127 124 
131 569 177 138 128 125 
130 568 178 140 130 127 
131 568 178 140 130 127 
131 568 179 140 130 127 
131 569 178 140 130 127 
131 570 176 139 129 126 
131 570 177 139 129 126 
131 568 180 141 130 127 
132 569 177 140 130 126 
132 568 179 141 130 127 
132 569 178 142 131 127 
132 569 179 142 132 128 
133 569 179 142 131 127 
132 570 177 140 130 126 
132 571 176 141 130 127 
132 571 177 141 131 127 
133 571 177 142 132 128 
132 570 178 141 131 127 
133 570 178 142 131 127 
133 570 179 142 131 127 
133 571 178 142 132 128 
134 570 179 142 132 128 
134 571 178 143 132 129 
134 571 179 142 132 128 
132 568 180 141 131 127 
132 568 181 141 131 127 
132 569 180 142 131 127 
133 568 181 142 132 128 
133 569 180 142 132 128 
133 569 181 142 132 128 
132 568 182 142 132 128 
133 568 182 143 132 129 
133 568 183 143 132 128 
133 570 180 142 132 128 
134 569 181 142 132 128 
134 568 183 142 132 129 
134 569 182 142 132 128 
134 569 183 141 131 127 
135 569 183 140 130 126 
134 570 180 142 132 128 
134 570 181 142 132 128 
134 571 180 142 132 129 
134 571 181 142 132 128 
135 571 180 142 132 129 
135 571 181 142 132 128 
134 570 182 142 131 128 
135 570 182 141 131 127 
135 570 183 139 129 125 
135 571 182 140 130 126 
135 571 183 138 128 124 
132 572 176 142 131 127 
133 572 176 141 131 126 
133 572 177 142 132 128 
133 573 176 139 128 124 
133 573 177 141 130 126 
134 572 177 143 132 128 
134 573 176 138 127 123 
134 573 177 140 130 126 
134 572 178 143 133 129 
134 572 179 142 132 128 
134 573 178 141 130 126 
134 573 179 141 131 127 
135 572 179 142 131 128 
135 573 178 139 129 124 
135 573 179 140 129 125 
134 574 176 137 126 122 
134 574 177 137 127 122 
134 575 176 135 124 120 
134 575 177 134 124 120 
134 574 178 137 127 123 
134 575 178 134 123 119 
135 574 178 137 126 122 
135 574 179 136 126 121 
135 575 178 134 123 119 
135 575 179 133 123 119 
135 572 180 142 131 128 
135 572 181 140 130 127 
135 573 180 139 128 124 
135 573 181 137 127 122 
135 572 182 138 128 124 
135 574 180 136 125 121 
135 574 181 134 124 120 
135 575 180 133 123 119 
135 575 181 134 124 119 
133 568 184 142 132 128 
134 568 184 142 132 128 
134 568 185 142 132 128 
135 568 184 142 131 127 
135 568 185 141 131 127 
135 569 184 140 129 125 
135 569 185 139 128 124 
135 568 186 141 130 126 
135 568 187 140 129 124 
135 570 184 139 128 124 
135 571 184 138 127 124 
133 568 189 139 128 123 
133 568 190 139 128 124 
133 568 191 139 129 125 
134 568 188 140 129 125 
134 568 189 139 128 123 
135 568 188 140 129 124 
135 568 189 139 128 124 
135 569 189 139 128 123 
134 568 190 140 129 124 
134 568 191 139 129 125 
134 569 190 139 128 124 
134 569 191 138 127 123 
135 569 190 139 128 123 
135 569 191 137 127 122 
136 571 183 137 127 123 
136 573 181 135 125 120 
136 572 182 136 126 123 
136 572 183 137 127 123 
136 573 182 134 124 120 
136 573 183 135 125 121 
136 574 181 134 124 120 
136 575 181 135 125 121 
136 574 182 133 123 119 
136 574 183 134 124 120 
136 575 182 135 125 122 
136 575 183 135 126 122 
136 569 185 139 128 124 
136 569 186 140 129 125 
136 569 187 140 128 124 
136 570 185 139 129 124 
136 571 184 137 127 123 
136 571 185 138 127 123 
136 570 186 140 129 124 
136 570 187 141 130 126 
136 571 186 139 128 124 
137 571 186 140 129 124 
137 571 187 141 130 125 
136 569 188 140 129 125 
136 569 189 140 129 125 
136 570 189 141 130 126 
137 570 188 142 132 128 
137 570 189 143 132 127 
137 571 188 142 131 127 
137 571 189 142 132 127 
136 570 190 140 130 126 
136 570 191 140 129 125 
137 570 190 142 132 129 
137 571 190 142 132 128 
137 571 191 142 131 127 
136 572 184 137 127 123 
136 572 185 138 127 123 
136 573 184 135 125 121 
136 573 185 137 127 122 
136 572 186 138 128 123 
137 572 186 139 128 124 
137 572 187 140 129 124 
137 573 186 138 127 122 
137 573 187 138 127 123 
136 574 184 134 124 120 
136 574 185 136 125 121 
136 575 184 136 126 122 
136 575 185 136 126 122 
137 574 185 136 126 122 
137 574 186 136 126 122 
137 574 187 136 126 121 
137 575 186 135 125 121 
137 575 187 135 125 120 
137 572 188 141 130 125 
137 572 189 142 131 127 
137 573 188 138 127 123 
137 572 190 143 132 128 
137 574 188 136 126 121 
137 575 188 135 125 120 
138 572 189 140 130 125 
138 573 189 138 127 123 
138 572 190 141 130 126 
138 572 191 143 132 128 
138 573 190 138 128 123 
138 573 191 140 130 125 
138 574 188 135 125 121 
138 574 189 136 125 121 
138 575 188 135 124 120 
138 575 189 134 124 120 
138 574 190 136 125 121 
138 574 191 138 127 122 
138 575 190 134 124 119 
139 574 191 137 126 121 
139 575 191 135 124 119 
128 519 206 123 114 112 
128 519 207 125 117 114 
128 520 203 108 101 98 
128 521 203 105 97 94 
128 523 201 106 100 99 
128 522 202 111 104 102 
128 522 203 104 97 95 
128 523 202 106 100 98 
128 523 203 101 96 94 
129 523 203 97 91 89 
128 520 204 106 99 96 
128 520 205 113 106 104 
128 521 204 103 95 92 
129 520 205 120 113 113 
129 521 204 108 100 97 
129 521 205 118 111 109 
128 520 206 124 117 116 
128 520 207 124 115 112 
129 520 206 129 121 120 
129 520 207 124 116 114 
129 521 206 130 123 123 
129 522 204 103 95 92 
129 522 205 112 105 103 
129 523 204 100 94 92 
130 521 206 128 121 120 
130 521 207 129 121 120 
131 521 207 127 119 118 
130 522 205 122 115 113 
130 523 205 119 113 112 
130 522 206 127 120 119 
130 523 206 125 118 117 
131 522 206 126 119 118 
131 522 207 127 120 119 
131 523 206 125 119 118 
131 523 207 127 121 120 
128 524 201 90 86 86 
128 525 201 74 72 74 
128 524 202 89 85 85 
128 524 203 86 82 82 
128 525 202 73 71 72 
128 525 203 72 70 71 
129 524 203 85 80 79 
129 525 203 72 69 71 
128 526 201 68 67 70 
128 526 202 68 67 70 
128 526 203 68 68 70 
128 527 202 65 65 69 
128 527 203 65 65 68 
129 526 203 69 68 70 
129 524 204 91 86 85 
129 525 204 74 71 71 
129 526 204 69 67 69 
129 527 204 63 63 66 
129 527 205 63 62 64 
130 524 205 106 100 100 
130 525 205 80 76 76 
131 524 206 108 103 103 
131 525 206 82 78 78 
130 526 205 69 67 68 
130 527 205 61 61 63 
130 526 206 70 68 68 
130 527 206 59 58 61 
131 526 206 69 66 67 
131 527 206 61 60 62 
132 523 207 128 121 121 
132 524 207 113 107 107 
132 525 207 85 81 81 
132 526 207 70 67 68 
132 527 207 59 59 61 
128 512 212 131 125 126 
128 512 213 131 125 126 
128 513 212 118 113 112 
128 513 213 115 109 109 
129 512 213 131 125 125 
129 513 213 121 115 115 
129 512 214 130 124 124 
129 513 214 114 108 107 
128 514 213 104 98 98 
128 514 214 103 97 96 
128 515 214 101 95 93 
128 515 215 102 95 93 
129 514 214 103 97 95 
129 514 215 102 95 94 
129 515 215 100 94 92 
130 512 214 131 125 126 
130 512 215 132 126 126 
130 513 214 122 116 116 
130 513 215 114 108 107 
131 512 215 130 124 125 
130 514 215 102 96 94 
128 519 208 126 117 115 
128 516 215 105 98 95 
128 519 214 136 130 131 
128 519 215 135 129 130 
129 519 215 131 125 126 
128 515 216 102 95 93 
129 515 216 100 93 91 
130 513 216 104 98 96 
131 512 216 130 124 125 
131 513 216 115 109 109 
131 513 217 105 99 97 
130 514 216 102 95 93 
130 515 216 103 96 94 
130 515 217 104 97 95 
131 514 216 105 98 96 
131 514 217 102 96 94 
131 515 217 103 96 94 
130 515 218 110 103 102 
131 514 218 103 97 95 
131 515 218 106 99 98 
131 515 219 109 103 102 
128 516 216 105 97 95 
128 517 216 112 106 104 
128 517 217 121 115 114 
129 516 216 106 99 97 
129 516 217 114 107 106 
129 517 217 125 119 119 
129 517 218 131 126 127 
128 518 216 131 125 126 
128 519 216 135 129 130 
129 518 217 136 130 132 
129 519 216 134 128 129 
129 519 217 138 132 133 
129 518 218 139 133 135 
130 516 217 113 106 105 
130 516 218 121 115 115 
130 516 219 122 116 116 
130 517 218 134 129 130 
130 517 219 137 132 133 
131 516 219 121 116 116 
131 517 219 137 132 134 
130 519 216 133 127 128 
130 519 217 139 133 134 
131 519 217 139 133 134 
130 518 218 145 139 141 
130 519 218 145 140 141 
131 518 219 146 140 142 
131 519 218 144 138 140 
132 512 217 132 126 126 
132 513 217 114 108 107 
132 513 218 110 104 103 
133 512 218 132 126 127 
133 513 218 114 108 107 
132 514 218 103 97 96 
132 515 218 101 95 94 
132 515 219 106 100 99 
133 514 218 104 98 97 
133 514 219 103 97 95 
133 515 219 102 97 95 
134 512 218 133 127 127 
134 512 219 130 124 124 
134 513 218 119 113 113 
134 513 219 111 104 103 
135 512 219 132 126 126 
135 513 219 111 104 103 
134 514 219 101 95 92 
134 515 219 103 97 95 
135 514 219 103 96 94 
135 515 219 106 100 99 
132 516 219 119 114 115 
132 517 219 138 133 135 
133 516 219 113 108 107 
133 517 219 131 126 128 
132 519 217 134 127 128 
133 519 216 127 119 118 
133 519 217 130 123 123 
132 518 219 142 137 139 
132 519 218 139 133 134 
132 519 219 140 135 136 
133 518 219 135 130 132 
133 519 218 134 128 129 
134 516 219 107 102 101 
134 517 219 108 103 103 
135 516 219 102 96 95 
135 517 218 105 98 97 
135 517 219 99 93 92 
134 519 216 127 119 118 
134 519 217 126 119 118 
135 518 217 120 114 114 
135 519 216 126 118 116 
135 519 217 123 116 116 
134 518 218 124 117 118 
134 518 219 120 115 116 
134 519 218 127 121 121 
135 518 218 115 108 108 
132 516 220 123 118 119 
132 517 220 133 128 130 
133 516 220 114 109 109 
133 517 220 124 119 120 
134 516 220 109 104 103 
134 517 220 111 107 107 
128 520 208 124 116 113 
128 520 209 126 119 118 
129 520 208 121 113 111 
129 520 209 122 115 113 
128 520 210 126 118 117 
128 520 211 126 119 117 
129 520 210 121 113 111 
129 520 211 122 114 113 
130 520 208 124 116 113 
130 521 208 127 120 118 
130 521 209 125 117 115 
131 521 208 127 119 118 
131 521 209 129 121 119 
130 520 211 120 113 111 
130 521 210 121 113 110 
130 521 211 121 113 111 
131 521 210 125 116 115 
131 521 211 122 114 112 
131 522 208 126 118 117 
128 520 212 127 120 120 
128 520 213 130 124 124 
129 520 212 125 117 117 
129 520 213 126 119 119 
128 520 214 133 127 128 
129 520 214 127 121 122 
129 520 215 129 124 124 
130 520 212 123 116 114 
130 520 213 123 116 115 
131 520 212 122 114 112 
131 520 213 122 114 112 
131 521 212 122 114 112 
130 520 214 122 116 115 
130 520 215 125 118 118 
131 520 214 121 114 113 
131 520 215 123 116 115 
132 521 209 128 120 119 
132 521 210 127 119 117 
132 521 211 125 117 115 
133 521 210 127 119 118 
133 521 211 126 118 117 
132 522 208 127 120 120 
132 522 209 128 121 120 
132 523 208 129 123 122 
133 522 209 132 125 125 
133 523 208 130 123 123 
133 523 209 137 130 130 
133 522 210 130 123 122 
134 521 211 126 118 117 
134 523 209 139 132 133 
134 522 210 133 126 126 
134 522 211 129 122 121 
134 523 210 139 133 134 
135 522 211 132 126 126 
135 523 210 139 132 133 
135 523 211 137 131 131 
132 520 213 121 112 110 
132 521 212 122 113 111 
132 521 213 120 111 109 
133 520 213 122 114 111 
133 521 212 126 118 117 
133 521 213 124 116 114 
132 520 214 122 114 112 
132 520 215 126 118 117 
133 520 214 124 115 113 
133 520 215 127 118 116 
134 521 212 128 121 120 
134 521 213 127 119 118 
135 521 212 128 121 120 
135 521 213 128 121 120 
134 520 214 125 116 114 
134 520 215 125 116 114 
135 520 214 124 115 113 
135 520 215 124 116 114 
135 521 214 126 118 116 
135 522 212 128 121 121 
132 524 208 124 117 117 
133 524 208 116 109 109 
133 524 209 125 119 118 
133 525 208 87 82 81 
133 526 208 71 68 68 
133 527 208 60 60 62 
133 527 209 58 58 60 
134 524 209 118 112 111 
134 525 209 89 84 83 
134 524 210 135 128 129 
135 524 210 124 118 119 
135 525 210 88 84 83 
134 526 209 73 69 69 
134 527 209 60 59 61 
135 526 210 71 68 67 
135 527 210 59 58 60 
130 520 216 129 122 123 
131 520 216 129 123 123 
132 520 216 128 121 121 
132 520 217 132 126 126 
133 520 216 128 121 120 
134 520 216 126 119 117 
136 519 215 127 120 118 
137 519 215 129 122 121 
138 519 215 130 123 122 
139 519 215 131 125 124 
140 518 215 131 125 125 
140 519 215 133 126 127 
141 518 215 125 118 118 
141 519 215 127 121 121 
142 518 215 118 111 110 
142 519 215 119 112 112 
143 519 215 119 111 110 
136 512 219 134 127 127 
136 513 219 112 105 103 
137 513 219 112 104 102 
136 514 219 103 96 94 
136 515 219 104 98 97 
137 514 219 102 95 92 
137 515 219 102 96 94 
138 513 219 111 103 100 
139 513 219 118 109 106 
138 514 219 103 95 92 
138 515 218 102 96 95 
138 515 219 101 95 93 
139 514 219 106 97 93 
139 515 218 102 95 92 
139 515 219 102 93 91 
136 512 220 136 129 129 
137 512 220 138 132 132 
137 513 220 126 119 118 
138 512 220 141 133 133 
138 513 220 126 118 116 
139 512 220 140 132 132 
139 513 220 129 121 119 
137 517 217 124 119 119 
136 516 219 97 91 91 
136 517 218 108 102 101 
136 517 219 98 92 91 
137 516 218 106 102 101 
137 516 219 100 95 94 
137 517 218 117 112 112 
136 518 217 122 115 115 
136 519 216 127 120 119 
136 519 217 125 118 117 
137 518 216 127 120 120 
137 518 217 123 117 117 
137 519 216 128 121 120 
136 518 218 115 109 109 
138 517 217 127 122 123 
139 517 217 126 121 122 
138 516 218 111 106 107 
138 517 218 123 118 119 
139 516 218 108 102 102 
138 518 216 127 121 120 
138 518 217 126 120 120 
139 518 216 129 122 122 
140 514 219 113 103 100 
140 515 218 104 95 92 
141 514 219 119 109 105 
141 515 218 107 96 92 
142 514 219 122 112 108 
142 515 218 107 95 90 
142 515 219 111 99 94 
143 514 219 123 113 108 
143 515 218 110 97 91 
143 515 219 114 101 96 
140 512 220 140 132 131 
140 512 221 146 139 139 
140 513 220 131 123 120 
141 512 220 145 138 137 
141 512 221 148 141 140 
141 513 220 137 129 127 
142 512 221 150 142 142 
142 513 220 137 129 127 
142 513 221 145 137 136 
143 512 221 153 145 145 
143 513 220 134 124 121 
143 513 221 143 134 133 
143 512 222 155 148 148 
142 514 220 131 122 119 
140 516 217 108 100 99 
140 517 216 128 122 122 
140 517 217 118 112 111 
141 516 217 105 94 91 
141 517 216 113 105 104 
141 517 217 106 97 95 
140 516 218 105 96 94 
140 518 216 131 124 125 
141 518 216 121 114 114 
142 516 217 101 88 84 
142 517 216 105 94 91 
142 517 217 101 89 85 
143 516 217 106 92 86 
143 517 216 105 94 89 
143 517 217 101 88 83 
142 518 216 112 104 101 
143 518 216 116 107 104 
136 523 211 133 127 128 
136 521 213 129 122 122 
137 521 213 128 122 122 
136 520 214 127 119 117 
136 520 215 126 118 116 
136 521 214 130 122 121 
137 520 214 130 123 122 
137 520 215 129 121 120 
137 521 214 130 123 124 
136 522 212 129 122 122 
136 523 212 131 125 126 
137 522 212 128 122 123 
137 522 213 128 122 123 
137 523 212 130 124 125 
137 523 213 130 124 124 
138 521 213 126 120 120 
138 520 214 132 125 125 
138 520 215 132 125 125 
138 521 214 128 122 122 
139 520 214 129 122 122 
139 520 215 131 124 124 
139 521 214 125 118 118 
138 522 213 131 125 126 
138 523 213 134 128 129 
139 522 213 132 126 127 
139 523 213 135 130 131 
139 522 214 130 125 126 
136 524 210 110 104 104 
136 524 211 122 117 117 
136 525 210 88 84 83 
136 525 211 87 82 82 
137 524 211 113 107 108 
137 525 211 85 81 80 
136 526 210 71 67 67 
136 526 211 70 67 67 
136 527 211 58 57 59 
137 526 211 70 66 66 
137 527 211 58 58 60 
137 524 212 118 112 112 
137 525 212 84 79 78 
137 526 212 69 66 65 
137 527 212 59 58 60 
138 524 212 110 105 104 
138 524 213 119 113 114 
138 525 212 83 78 77 
138 525 213 82 78 77 
139 524 213 115 110 110 
139 525 213 81 76 76 
138 526 212 69 65 64 
138 526 213 68 64 64 
138 527 213 58 57 58 
139 526 213 67 64 63 
139 527 213 58 57 58 
139 527 214 58 56 58 
140 520 214 128 121 121 
140 520 215 132 125 125 
140 521 214 128 122 122 
141 520 215 129 123 123 
141 521 214 131 125 126 
141 521 215 130 124 125 
140 522 214 131 125 126 
140 523 214 132 126 127 
141 522 214 131 126 127 
141 523 214 129 124 126 
142 520 215 119 113 113 
142 521 214 120 114 114 
142 521 215 120 114 114 
143 520 215 113 106 104 
143 521 215 114 107 105 
142 522 214 120 115 115 
142 523 214 119 114 115 
143 522 214 113 108 108 
143 522 215 114 107 106 
143 523 214 111 107 107 
143 523 215 106 101 101 
140 524 214 115 110 110 
140 525 214 83 79 79 
141 524 214 109 105 106 
141 525 214 77 74 74 
140 526 214 66 63 63 
140 527 214 58 57 58 
141 526 214 66 63 63 
141 526 215 63 61 60 
141 527 214 60 58 59 
141 527 215 57 56 58 
142 524 214 103 99 100 
142 524 215 86 83 84 
142 525 214 78 75 76 
142 525 215 71 68 69 
143 524 214 103 99 100 
143 524 215 89 85 85 
143 525 215 68 65 65 
142 526 215 64 61 62 
142 527 215 57 56 58 
143 526 215 63 60 61 
143 527 215 58 58 60 
143 527 216 57 57 60 
128 528 202 59 60 64 
128 528 203 58 59 63 
128 529 202 55 56 60 
128 529 203 55 56 60 
129 529 203 55 55 59 
128 530 202 55 56 59 
128 530 203 55 55 59 
128 531 202 54 55 59 
128 531 203 54 55 58 
129 530 203 54 55 58 
129 531 203 54 54 57 
129 528 204 57 58 61 
129 528 205 56 56 60 
129 529 204 54 55 58 
129 529 205 54 55 58 
129 530 204 54 54 57 
129 531 204 54 54 57 
130 528 205 56 56 60 
130 529 205 54 54 57 
130 528 206 55 56 59 
130 529 206 53 54 58 
131 528 206 55 56 59 
131 528 207 55 55 59 
131 529 206 54 55 58 
130 530 205 53 53 56 
130 531 204 53 53 56 
130 531 205 52 53 56 
130 530 206 52 53 57 
131 530 206 53 54 57 
131 531 206 52 53 56 
128 532 202 54 54 57 
128 532 203 54 55 58 
128 533 202 54 55 58 
128 533 203 54 55 58 
129 532 203 54 55 58 
129 533 203 54 54 57 
128 534 202 54 54 57 
128 534 203 53 54 57 
128 535 202 55 55 58 
128 535 203 54 54 57 
129 534 203 54 54 57 
129 532 204 54 54 57 
129 533 204 53 54 57 
129 534 204 53 54 57 
129 535 204 54 55 58 
130 532 204 53 54 57 
130 532 205 52 53 56 
130 533 204 52 53 56 
130 533 205 52 53 57 
131 532 205 52 53 56 
131 533 205 52 53 56 
131 532 206 52 53 56 
131 533 206 52 53 56 
130 534 204 53 53 57 
130 534 205 52 53 57 
130 535 204 54 55 58 
130 535 205 54 55 58 
131 534 205 52 53 56 
131 535 205 54 55 58 
131 534 206 51 53 56 
131 535 206 54 55 58 
132 528 207 54 55 58 
132 529 207 53 54 58 
132 530 207 53 54 57 
132 531 206 53 53 56 
132 531 207 53 53 56 
132 532 207 53 53 56 
132 533 207 52 53 56 
133 533 207 53 53 56 
132 534 207 52 53 56 
132 535 207 54 54 57 
133 534 207 52 53 56 
133 535 207 54 55 57 
128 536 202 56 56 59 
128 536 203 55 55 58 
128 537 203 54 54 57 
128 538 203 53 54 57 
128 539 203 53 53 56 
129 536 204 54 55 57 
129 537 204 53 53 56 
129 538 204 53 54 56 
129 538 205 54 54 56 
129 539 204 53 53 56 
129 539 205 53 53 56 
130 536 205 54 55 58 
130 537 205 53 54 56 
131 536 205 54 55 58 
131 536 206 54 55 58 
131 537 206 53 53 57 
130 538 205 53 54 56 
130 539 205 53 53 56 
130 539 206 53 53 56 
131 538 206 52 53 55 
131 538 207 52 53 56 
131 539 206 52 53 56 
131 539 207 52 52 55 
128 540 202 52 53 56 
128 540 203 52 53 56 
128 541 202 53 53 56 
128 541 203 52 53 56 
128 542 202 52 53 57 
128 542 203 53 53 57 
128 543 202 53 54 57 
128 543 203 53 55 58 
129 540 204 52 53 56 
129 540 205 53 53 56 
129 541 204 52 53 56 
129 541 205 52 53 56 
128 542 204 53 54 57 
128 543 204 53 54 58 
129 542 204 52 53 56 
129 542 205 53 54 57 
129 543 204 54 55 58 
129 543 205 54 55 58 
130 540 205 53 53 55 
130 541 205 53 53 55 
130 540 206 53 53 56 
130 541 206 53 54 56 
131 540 206 53 53 56 
131 540 207 52 53 56 
131 541 207 53 53 56 
130 542 205 54 54 57 
130 543 205 54 54 58 
130 542 206 54 54 57 
130 542 207 53 54 57 
130 543 206 54 55 58 
130 543 207 53 54 57 
131 542 207 53 54 57 
131 543 207 53 54 57 
132 536 207 54 55 58 
132 537 207 53 54 57 
133 536 207 54 55 58 
133 537 207 54 54 57 
132 538 207 53 53 56 
132 539 207 53 53 56 
132 540 207 53 53 56 
132 528 208 55 55 59 
132 529 208 53 54 57 
133 528 208 54 55 58 
133 528 209 54 55 59 
133 529 208 53 54 57 
133 529 209 53 54 57 
132 530 208 53 54 57 
133 530 208 53 54 57 
133 530 209 54 54 57 
133 531 208 53 53 56 
133 531 209 53 53 56 
134 528 209 53 54 58 
134 529 209 53 54 57 
134 528 210 54 55 58 
134 529 210 53 53 57 
135 528 210 53 54 58 
135 529 210 52 53 56 
135 529 211 53 53 56 
134 530 209 53 54 57 
134 531 209 52 53 56 
134 531 210 53 53 56 
135 530 210 53 53 56 
135 530 211 52 53 56 
135 531 210 52 53 56 
135 531 211 52 53 56 
133 532 208 53 54 57 
133 533 208 52 53 56 
133 534 208 52 53 56 
133 535 208 54 54 57 
134 532 209 52 53 56 
134 533 209 52 53 56 
134 532 210 52 53 56 
134 533 210 52 53 56 
135 532 210 52 53 56 
135 533 210 52 53 56 
134 534 209 52 53 56 
134 535 209 53 54 57 
135 534 210 52 53 56 
135 535 210 53 54 57 
131 542 208 54 54 57 
131 543 208 54 54 57 
133 536 208 54 55 57 
133 537 208 53 54 57 
132 539 208 53 54 56 
133 538 208 53 54 57 
133 539 208 54 54 57 
133 539 209 53 54 57 
134 536 209 53 54 57 
134 537 209 52 53 56 
135 536 210 53 53 56 
135 537 210 52 53 56 
134 538 209 52 53 57 
134 539 209 53 54 57 
134 538 210 52 53 57 
134 539 210 53 54 57 
135 538 210 52 53 56 
135 539 210 53 54 57 
135 539 211 54 54 57 
132 540 208 53 54 56 
132 541 208 54 54 56 
133 540 208 54 54 57 
133 540 209 54 54 57 
133 541 209 54 54 57 
132 542 208 54 55 58 
132 542 209 55 55 58 
132 543 208 54 55 58 
132 543 209 54 55 58 
133 542 209 55 56 58 
133 543 209 54 55 58 
133 543 210 54 55 57 
134 541 209 54 55 58 
134 540 210 54 55 58 
134 541 210 55 55 58 
135 540 210 53 54 57 
135 540 211 54 55 58 
135 541 211 55 55 58 
134 542 210 55 55 58 
134 542 211 55 56 59 
134 543 210 54 54 57 
134 543 211 54 55 58 
135 542 211 56 56 58 
135 543 211 55 55 58 
135 543 212 55 55 58 
136 528 211 53 54 58 
136 529 211 53 54 57 
136 530 211 53 53 56 
136 531 211 53 53 56 
137 528 212 54 55 59 
137 529 212 54 55 58 
136 530 212 53 54 57 
136 531 212 53 54 56 
137 530 212 54 55 58 
137 531 212 54 54 57 
138 528 213 55 56 59 
138 529 213 54 55 58 
139 528 213 55 55 59 
139 529 213 55 55 59 
139 528 214 55 55 58 
139 529 214 54 55 58 
138 530 213 54 55 58 
138 531 213 54 54 57 
139 530 213 54 55 58 
139 531 213 53 54 57 
139 530 214 53 54 57 
139 531 214 53 54 57 
136 532 211 53 53 56 
136 533 211 53 53 56 
136 534 210 53 54 57 
136 534 211 53 54 57 
136 535 210 54 54 57 
136 535 211 54 54 57 
136 532 212 53 54 56 
136 533 212 53 54 56 
137 532 212 54 54 57 
137 533 212 54 54 57 
137 534 212 55 55 58 
137 535 212 55 56 59 
138 532 213 54 54 57 
138 533 213 54 55 57 
139 532 214 54 54 57 
139 533 214 54 54 57 
138 534 213 55 55 58 
138 535 213 55 56 59 
139 534 214 55 55 58 
139 535 214 56 56 60 
140 528 214 56 56 58 
140 528 215 57 56 58 
140 529 214 55 55 58 
140 529 215 56 56 58 
141 528 215 57 57 59 
141 529 215 56 56 59 
140 530 214 54 55 58 
140 530 215 54 55 57 
140 531 214 53 54 57 
140 531 215 54 54 57 
141 530 215 55 55 58 
141 531 215 54 55 58 
142 528 215 57 57 60 
140 532 214 54 54 57 
140 532 215 54 54 57 
140 533 215 54 54 57 
140 534 215 55 56 59 
140 535 215 56 56 60 
141 530 216 55 56 59 
141 531 216 55 56 59 
142 528 216 57 57 61 
142 529 216 56 57 60 
143 528 216 57 57 61 
143 529 216 56 57 61 
143 529 217 56 57 61 
142 530 216 56 57 60 
142 531 216 56 57 60 
142 531 217 57 57 60 
143 530 216 56 57 61 
143 530 217 56 57 61 
143 531 217 56 57 60 
143 531 218 55 56 59 
141 532 216 56 57 60 
141 533 216 56 57 60 
141 534 216 57 57 60 
141 535 216 57 58 61 
142 532 217 56 57 60 
142 533 217 56 57 60 
143 532 217 56 56 59 
142 533 218 55 56 59 
143 532 218 55 55 58 
143 533 218 55 56 58 
142 534 217 57 58 61 
142 535 217 56 57 60 
143 534 218 56 57 60 
143 534 219 56 56 59 
143 535 218 55 56 59 
136 536 210 53 54 57 
136 536 211 54 55 58 
136 537 210 53 54 57 
136 537 211 54 54 57 
137 536 211 55 55 58 
136 538 211 53 54 57 
136 539 211 54 54 57 
137 536 212 55 55 59 
137 537 212 54 54 58 
136 538 212 54 54 57 
136 539 212 54 55 58 
137 538 212 54 54 58 
137 539 212 54 55 58 
137 539 213 54 55 58 
138 536 213 55 56 59 
138 537 213 54 55 58 
139 536 213 55 56 59 
139 536 214 54 55 59 
139 537 214 54 55 58 
138 538 213 54 55 58 
138 539 213 54 55 58 
139 538 214 54 55 58 
139 539 214 54 55 58 
139 539 215 54 55 58 
136 540 211 54 55 58 
136 540 212 54 55 58 
136 541 212 55 55 58 
137 540 212 54 54 57 
137 540 213 54 55 58 
137 541 212 55 55 58 
137 541 213 55 55 58 
136 542 212 55 55 58 
136 543 212 55 56 59 
136 543 213 55 55 58 
137 542 213 55 55 58 
137 543 213 55 55 58 
138 540 213 54 55 58 
138 541 213 54 55 58 
138 540 214 54 55 58 
138 541 214 54 55 58 
139 540 214 54 55 58 
139 540 215 54 55 58 
139 541 214 53 54 58 
139 541 215 54 55 58 
138 542 214 54 55 58 
138 543 214 54 55 58 
139 542 214 54 54 58 
139 542 215 54 54 58 
139 543 214 54 55 58 
139 543 215 54 55 58 
140 536 215 55 56 59 
140 537 215 54 55 58 
140 538 215 54 55 58 
140 539 215 55 55 59 
140 540 215 55 55 59 
140 541 215 54 55 58 
140 542 215 54 55 58 
141 536 216 57 58 61 
141 537 216 56 57 60 
141 538 216 56 57 60 
141 539 216 57 58 61 
142 536 217 55 56 59 
142 537 217 55 56 59 
143 536 217 55 56 59 
143 536 218 55 55 58 
143 537 218 55 55 59 
142 538 217 54 55 59 
142 539 217 56 57 60 
143 538 217 54 55 59 
143 539 217 55 56 60 
143 538 218 55 56 59 
143 539 218 55 56 59 
140 540 216 55 56 59 
140 541 216 55 56 59 
141 540 216 56 57 60 
141 541 216 56 57 60 
141 541 217 56 57 60 
140 542 216 55 56 59 
140 543 216 55 56 59 
141 542 216 56 57 60 
141 542 217 56 57 60 
141 543 217 56 57 60 
142 540 217 56 57 60 
142 541 217 56 57 60 
143 540 218 55 55 59 
143 541 218 55 56 59 
142 542 217 55 56 59 
142 543 217 55 56 59 
142 542 218 55 56 59 
142 543 218 55 56 59 
143 542 218 55 56 59 
143 543 218 55 56 59 
143 543 219 54 55 59 
144 519 215 128 119 117 
145 519 215 133 125 124 
146 519 215 133 125 124 
144 514 219 121 109 104 
144 515 218 116 103 97 
144 515 219 117 104 98 
145 514 219 120 106 100 
145 515 218 118 105 98 
145 515 219 119 106 99 
146 514 219 121 107 101 
146 515 218 120 106 100 
146 515 219 120 107 100 
147 515 218 121 107 101 
147 515 219 121 107 101 
144 512 221 149 140 139 
144 513 220 129 118 114 
144 513 221 136 126 123 
145 512 221 139 130 127 
145 513 220 126 113 108 
145 513 221 129 117 113 
144 512 222 152 145 145 
145 512 222 150 141 141 
144 514 220 126 115 110 
145 514 220 124 111 106 
146 512 221 134 124 120 
146 513 221 127 114 110 
147 513 221 126 114 109 
146 512 222 144 135 134 
147 512 222 136 125 123 
146 514 220 124 111 106 
147 514 220 124 110 105 
144 516 217 112 99 92 
144 517 216 116 104 99 
144 517 217 119 107 101 
145 516 217 122 110 104 
145 517 216 136 126 122 
145 517 217 131 120 116 
144 516 218 114 101 94 
145 516 218 118 105 98 
144 518 216 127 118 115 
145 518 216 138 129 128 
145 519 216 135 127 125 
146 516 217 125 113 108 
146 517 217 136 126 123 
147 517 217 139 130 128 
146 516 218 120 108 102 
147 516 218 123 111 105 
146 518 216 141 133 132 
146 519 216 135 127 126 
147 518 216 139 131 130 
147 518 217 141 133 132 
147 519 216 134 126 125 
148 515 219 122 108 102 
149 515 219 123 108 102 
150 515 219 123 109 102 
148 513 221 128 116 112 
149 513 221 133 122 118 
148 512 222 135 125 123 
149 512 222 137 128 128 
148 514 220 124 110 105 
149 514 220 125 112 105 
149 515 220 124 110 102 
150 513 221 141 131 129 
151 513 221 146 137 134 
150 512 222 142 134 134 
151 512 222 148 140 141 
150 514 220 129 116 109 
150 515 220 125 111 103 
151 514 220 130 118 111 
151 514 221 131 119 113 
151 515 220 126 112 104 
148 517 217 137 128 126 
148 516 218 124 113 107 
148 516 219 121 107 100 
148 517 218 133 123 120 
149 516 218 122 110 104 
149 516 219 121 108 101 
149 517 218 124 114 110 
148 518 217 135 127 125 
148 519 216 129 122 121 
148 519 217 131 124 123 
149 518 217 125 116 114 
149 519 217 125 117 116 
150 516 218 121 109 104 
150 516 219 121 108 102 
150 517 218 120 109 105 
150 517 219 122 110 105 
151 516 219 123 111 104 
151 517 218 116 107 102 
151 517 219 116 106 102 
150 518 217 119 111 109 
150 519 217 117 109 108 
150 518 218 118 109 105 
151 518 218 108 100 98 
151 519 218 108 101 100 
144 520 215 125 117 115 
144 521 215 125 118 117 
145 520 215 132 125 124 
145 521 215 131 124 124 
144 522 215 120 114 113 
144 523 215 105 100 100 
145 522 215 123 117 117 
145 523 215 102 97 97 
