ply
format ascii 1.0
comment Created by CloudCompare v2.10.1 (Zephyrus)
comment Created 1/30/20 6:07 PM
obj_info Generated by CloudCompare!
element vertex 1944
property float x
property float y
property float z
property uchar red
property uchar green
property uchar blue
end_header
336 425 276 126 118 115 
336 426 276 126 118 117 
336 427 276 119 112 109 
336 427 277 115 108 106 
337 427 276 118 110 108 
337 428 275 120 112 110 
338 428 273 118 108 104 
339 428 272 106 97 93 
339 428 273 110 101 95 
339 429 272 103 94 89 
339 429 273 103 94 89 
338 428 274 121 113 111 
338 428 275 122 115 112 
338 429 275 115 108 106 
339 428 274 114 106 103 
339 429 274 108 101 98 
339 429 275 111 104 101 
339 430 273 99 90 86 
339 430 274 98 91 88 
339 430 275 104 97 94 
336 428 277 112 106 105 
337 428 276 115 108 105 
337 428 277 114 108 106 
337 429 276 109 102 99 
337 429 277 112 105 104 
336 428 278 111 105 103 
336 429 278 110 104 103 
336 429 279 109 104 103 
337 429 278 111 106 105 
337 429 279 111 106 106 
337 430 279 114 109 109 
338 429 276 110 102 99 
338 429 277 109 103 101 
338 430 277 106 99 97 
339 430 276 105 97 94 
339 430 277 104 98 95 
339 431 277 103 96 94 
338 430 278 110 105 104 
338 430 279 112 107 107 
338 431 279 124 118 118 
339 430 278 110 105 104 
339 431 278 109 103 101 
339 431 279 117 112 111 
340 430 272 99 90 85 
340 430 273 96 88 84 
340 431 272 98 90 86 
340 431 273 91 83 79 
340 430 274 91 84 81 
340 430 275 97 90 87 
340 431 274 87 80 77 
340 431 275 92 85 82 
340 431 276 97 90 86 
340 431 277 101 93 90 
336 430 280 128 122 122 
336 430 281 134 127 127 
336 431 281 161 155 155 
337 430 280 128 122 122 
337 431 280 147 140 140 
338 431 280 132 126 126 
339 439 261 138 130 129 
339 438 262 136 128 126 
339 438 263 131 124 124 
339 439 262 135 128 126 
339 439 263 125 118 117 
343 433 257 144 136 134 
343 432 258 146 139 138 
343 432 259 142 135 134 
343 433 258 144 136 135 
343 433 259 141 134 133 
342 435 257 141 133 132 
343 434 256 129 119 113 
343 434 257 139 130 128 
343 435 256 128 118 113 
343 435 257 136 128 124 
342 434 258 142 134 133 
342 434 259 141 134 133 
342 435 258 141 133 132 
342 435 259 141 133 132 
343 434 258 141 134 133 
343 434 259 141 133 132 
341 432 263 155 146 145 
341 433 262 145 136 134 
341 433 263 143 134 132 
341 434 260 141 133 131 
341 434 261 142 133 130 
341 435 260 142 134 132 
341 435 261 142 133 131 
340 434 263 127 116 111 
340 435 262 136 127 123 
340 435 263 130 120 116 
341 434 262 139 129 126 
341 434 263 133 123 120 
341 435 262 139 129 126 
342 432 261 142 133 132 
342 433 260 140 132 131 
342 433 261 142 133 131 
343 432 260 141 133 133 
343 432 261 142 134 133 
343 433 260 140 132 131 
342 432 262 144 135 134 
342 432 263 152 143 142 
342 433 262 143 134 132 
342 434 260 140 132 131 
342 434 261 142 132 130 
342 435 260 142 134 132 
341 436 259 140 132 131 
341 437 258 140 132 130 
341 437 259 140 132 131 
341 438 257 140 132 131 
341 439 257 138 131 131 
340 439 259 137 130 129 
341 438 258 139 132 131 
341 438 259 139 132 131 
341 439 258 139 132 131 
341 439 259 138 131 130 
342 436 256 139 131 128 
342 436 257 142 134 132 
342 437 256 140 132 131 
342 437 257 140 132 131 
343 436 256 137 128 125 
342 436 258 142 134 132 
342 436 259 141 133 132 
342 437 258 140 132 131 
342 438 256 139 132 132 
342 438 257 140 132 131 
342 439 256 139 132 132 
342 439 257 138 131 131 
340 436 261 141 132 130 
340 437 261 140 131 129 
341 436 260 140 132 130 
341 436 261 141 132 130 
341 437 260 140 132 131 
341 437 261 140 131 129 
340 436 262 138 130 127 
340 436 263 133 125 122 
340 437 262 138 130 128 
340 437 263 135 128 128 
340 438 260 139 131 130 
340 438 261 139 131 129 
340 439 260 138 131 129 
340 439 261 139 131 129 
341 438 260 140 133 132 
340 438 262 137 129 128 
340 438 263 135 128 128 
339 434 265 130 122 121 
339 435 265 120 114 113 
339 434 266 113 107 106 
339 435 266 108 102 100 
339 435 268 103 100 100 
339 436 265 111 105 104 
339 437 264 120 114 114 
339 437 265 103 98 97 
339 436 266 100 96 96 
339 436 267 103 99 101 
339 437 266 100 96 97 
339 437 267 96 93 94 
339 438 264 113 108 107 
339 438 265 93 90 91 
339 439 264 99 95 95 
339 439 265 77 76 79 
339 438 266 94 91 92 
339 438 267 81 79 81 
339 439 266 75 74 77 
339 439 267 72 69 70 
337 439 271 168 155 151 
339 436 268 91 87 87 
339 437 268 76 73 73 
339 437 269 73 69 68 
339 437 270 77 72 70 
339 437 271 87 82 80 
338 439 268 102 95 92 
338 439 269 116 107 104 
339 438 268 71 69 68 
339 438 269 88 82 80 
339 439 268 82 78 76 
338 438 271 129 117 111 
338 439 270 127 117 111 
338 439 271 143 130 123 
339 438 270 109 101 97 
339 438 271 114 105 102 
340 432 264 155 147 146 
340 432 265 144 136 134 
340 433 264 139 130 127 
340 433 265 129 120 117 
341 432 264 158 150 149 
341 433 264 145 137 135 
340 432 266 140 132 131 
340 432 267 134 127 126 
340 433 266 119 110 107 
340 433 267 111 104 101 
340 434 264 130 120 115 
340 434 265 130 122 120 
340 435 264 132 123 120 
340 435 265 127 120 118 
340 434 266 116 109 106 
340 434 267 100 93 91 
340 435 266 99 94 93 
340 435 267 104 99 99 
340 432 268 105 97 94 
340 432 269 96 89 86 
340 433 268 95 88 84 
340 433 269 95 89 87 
340 432 270 96 89 87 
340 432 271 94 87 84 
340 433 270 94 88 86 
340 433 271 85 79 77 
340 434 268 103 98 97 
340 434 269 92 87 87 
340 435 268 103 100 100 
340 435 269 83 80 81 
340 434 270 85 81 80 
340 434 271 69 66 64 
340 435 270 75 74 75 
340 435 271 69 68 69 
340 436 264 130 122 120 
340 437 264 130 123 122 
340 436 266 99 94 94 
340 436 267 104 100 100 
340 436 268 83 80 80 
340 436 269 73 71 71 
340 437 269 71 69 69 
340 436 270 70 69 71 
340 436 271 70 68 69 
340 437 270 69 67 67 
339 441 259 143 135 134 
339 443 257 150 140 137 
338 443 259 133 124 122 
339 442 258 149 141 140 
339 442 259 142 135 134 
339 443 258 152 142 140 
339 443 259 140 132 130 
337 443 261 112 102 100 
336 443 262 148 135 130 
336 443 263 140 127 121 
337 442 262 100 91 86 
337 442 263 115 105 101 
337 443 262 129 118 112 
337 443 263 128 117 111 
338 441 261 124 118 117 
339 440 260 139 131 129 
339 440 261 138 130 128 
339 441 260 142 134 133 
339 441 261 135 128 127 
338 441 262 107 103 103 
338 441 263 87 84 86 
339 440 262 132 125 125 
339 440 263 112 107 107 
339 441 262 123 117 117 
339 441 263 99 95 96 
338 442 260 136 129 128 
338 442 261 114 107 106 
338 443 260 121 113 112 
338 443 261 106 97 96 
339 442 260 141 134 132 
338 442 262 94 88 86 
338 442 263 95 88 86 
337 445 258 153 145 144 
337 445 259 119 112 112 
336 447 257 129 118 113 
337 446 257 145 135 132 
337 447 256 139 130 127 
337 447 257 135 124 119 
336 446 258 108 100 99 
336 446 259 109 102 101 
336 447 258 108 97 92 
336 447 259 105 97 95 
337 446 258 137 129 127 
337 446 259 106 100 100 
338 445 257 151 140 136 
339 444 257 141 130 126 
339 445 256 135 123 117 
339 445 257 135 123 117 
338 444 258 147 136 132 
338 444 259 127 117 114 
338 445 258 157 147 145 
338 445 259 138 130 127 
339 444 258 154 143 139 
338 446 256 140 129 125 
338 446 257 145 135 131 
338 447 256 136 126 122 
339 446 256 144 133 129 
336 444 261 160 147 142 
336 445 260 126 115 110 
336 445 261 156 143 137 
337 444 260 107 96 94 
337 444 261 122 111 107 
337 445 260 109 98 96 
336 444 262 159 147 142 
336 444 263 148 135 130 
336 446 260 135 125 120 
338 444 260 114 104 102 
340 441 257 140 133 131 
341 440 256 139 132 132 
341 440 257 138 132 131 
341 441 256 141 132 131 
341 441 257 139 132 131 
340 440 258 137 130 129 
340 440 259 138 130 129 
340 441 258 141 133 132 
340 441 259 141 133 132 
341 440 258 137 130 130 
340 442 257 139 130 127 
340 443 256 128 116 110 
340 443 257 134 123 118 
341 442 256 134 124 120 
341 443 256 129 117 111 
340 442 258 147 138 137 
342 440 256 139 132 132 
342 441 256 140 133 132 
340 440 260 139 131 129 
340 444 256 130 117 110 
340 445 256 131 119 112 
337 441 266 130 121 118 
337 441 267 136 126 122 
336 442 265 126 111 100 
336 443 264 130 114 107 
336 443 265 128 113 103 
337 442 264 119 108 100 
337 442 265 124 113 105 
337 443 264 129 116 108 
336 442 266 122 107 96 
336 442 267 125 113 105 
337 442 266 127 116 109 
337 442 267 137 127 123 
338 441 264 75 73 74 
338 441 265 87 81 81 
339 440 264 80 78 80 
339 440 265 64 62 66 
339 441 264 76 74 78 
338 440 266 78 72 73 
338 440 267 93 86 83 
338 441 266 109 101 99 
338 441 267 126 116 112 
339 440 266 66 62 66 
339 440 267 75 69 71 
336 441 268 136 125 119 
336 441 269 140 128 123 
337 440 269 133 121 115 
337 441 268 133 122 116 
337 441 269 135 123 117 
336 440 270 145 133 128 
336 440 271 145 132 125 
336 441 270 143 131 126 
337 440 270 138 125 119 
337 440 271 157 145 140 
336 442 268 132 121 115 
338 440 268 117 108 103 
338 440 269 129 119 113 
338 440 270 133 121 114 
344 432 256 145 137 135 
344 432 257 153 145 144 
344 433 256 131 121 117 
344 433 257 143 134 132 
344 432 258 151 144 143 
344 434 256 127 115 109 
339 434 275 118 109 105 
339 435 274 100 91 85 
339 435 275 129 118 113 
337 433 279 169 160 160 
337 435 277 159 145 139 
336 434 278 165 155 154 
336 434 279 172 162 162 
336 435 278 174 163 160 
337 434 278 163 153 152 
337 434 279 169 160 160 
337 435 278 161 149 146 
339 432 277 104 97 94 
339 433 277 116 109 107 
338 432 279 143 136 137 
338 433 279 158 150 149 
339 432 278 115 108 106 
339 432 279 132 125 125 
339 433 278 137 129 127 
339 433 279 147 139 137 
338 434 277 152 142 138 
338 435 276 147 133 126 
338 435 277 149 136 129 
339 434 276 129 121 118 
339 434 277 134 127 125 
339 435 276 143 132 127 
339 435 277 149 139 134 
338 434 278 159 150 148 
338 434 279 164 155 155 
339 434 278 145 137 135 
336 437 275 132 116 107 
337 436 275 142 126 120 
337 437 274 137 121 111 
337 437 275 135 119 111 
336 439 272 143 129 122 
336 439 273 130 116 108 
337 438 272 151 140 135 
337 438 273 141 128 121 
337 439 272 158 146 140 
337 439 273 138 125 119 
336 438 274 131 115 104 
336 438 275 133 117 106 
337 438 274 137 120 111 
338 437 273 135 121 114 
339 436 272 99 93 91 
339 436 273 108 100 96 
339 437 272 112 104 102 
339 437 273 121 112 107 
338 436 275 142 129 123 
338 437 274 135 121 113 
338 437 275 138 123 115 
339 436 274 117 106 100 
339 436 275 134 122 116 
339 437 274 125 113 107 
338 438 272 138 126 121 
338 438 273 141 128 121 
339 438 272 124 114 109 
338 438 274 140 125 116 
336 436 276 141 124 116 
336 436 277 166 152 147 
336 437 276 136 118 110 
337 436 276 145 128 120 
337 436 277 159 144 138 
338 436 276 146 130 122 
340 432 272 93 86 83 
340 432 273 83 77 74 
340 433 272 75 70 68 
340 433 273 66 62 60 
340 432 274 80 74 70 
340 432 275 84 77 73 
340 433 274 67 62 60 
340 433 275 73 66 61 
340 434 272 61 59 58 
340 434 273 57 54 53 
340 435 272 72 69 69 
340 435 273 75 69 66 
340 434 274 60 55 53 
340 434 275 77 69 63 
340 435 274 81 74 69 
340 435 275 95 86 80 
340 432 276 90 81 78 
340 432 277 98 90 87 
340 433 276 84 76 74 
340 433 277 102 95 93 
340 434 276 105 98 97 
340 436 272 82 77 76 
340 436 273 95 88 85 
336 432 280 171 163 164 
336 432 281 174 166 167 
336 433 280 177 169 169 
337 432 280 162 155 156 
337 433 280 170 162 162 
338 432 280 146 139 139 
336 440 272 146 132 125 
321 417 291 118 109 104 
320 419 291 156 147 146 
321 418 291 134 126 123 
321 419 291 154 146 145 
323 417 289 111 102 98 
322 416 291 116 105 100 
322 417 291 113 103 98 
323 416 290 117 107 101 
323 416 291 121 111 106 
323 417 290 112 102 96 
323 417 291 109 99 92 
323 418 289 111 102 99 
323 419 289 123 114 111 
322 418 290 129 120 118 
322 418 291 132 123 121 
322 419 290 147 139 138 
323 418 290 121 112 109 
323 419 290 135 126 124 
320 416 292 119 108 101 
320 416 293 117 105 97 
320 417 292 122 111 106 
320 417 293 121 110 103 
321 416 292 116 105 98 
321 417 292 120 110 106 
320 418 292 133 123 119 
320 419 292 145 136 134 
322 416 292 116 105 99 
321 421 289 156 149 149 
320 420 290 164 156 155 
320 420 291 162 154 153 
320 421 290 161 153 153 
321 420 290 161 153 152 
321 420 291 161 153 153 
321 421 290 159 152 152 
320 423 289 156 149 149 
321 422 289 154 147 147 
321 423 289 153 146 146 
320 422 290 159 151 151 
320 423 290 160 152 153 
322 420 289 156 148 148 
322 421 289 156 148 148 
323 420 288 141 133 132 
323 420 289 145 136 135 
323 421 288 149 142 142 
323 421 289 153 146 146 
322 420 290 155 146 145 
322 422 288 150 143 143 
322 422 289 152 144 145 
322 423 288 147 139 139 
322 423 289 149 142 142 
323 422 288 150 142 142 
323 423 288 146 138 137 
324 416 289 113 103 96 
324 417 289 117 108 104 
325 416 288 105 94 86 
325 416 289 107 96 89 
325 417 288 102 92 84 
325 417 289 109 99 93 
324 416 290 116 105 99 
324 418 288 100 91 86 
324 418 289 104 95 91 
324 419 288 107 98 94 
325 418 288 99 90 84 
325 419 288 102 93 88 
326 416 288 104 93 85 
324 420 288 132 124 122 
320 424 289 147 140 139 
320 425 289 137 130 129 
321 424 289 145 137 137 
321 425 289 135 127 126 
320 425 290 140 132 131 
320 426 289 130 123 122 
320 427 289 126 120 120 
321 426 289 129 123 122 
321 427 289 122 116 116 
320 426 290 130 124 123 
320 427 290 124 118 118 
322 424 288 141 134 134 
322 425 288 132 125 125 
323 424 288 138 131 131 
323 425 288 130 123 122 
322 426 288 124 117 116 
322 426 289 125 118 117 
322 427 288 118 112 111 
322 427 289 119 113 113 
323 426 288 121 114 112 
323 427 288 113 107 106 
320 429 289 162 155 157 
321 428 289 140 134 135 
321 429 289 158 152 154 
320 428 290 139 134 135 
320 429 290 160 154 155 
320 430 289 162 156 157 
320 431 289 162 155 156 
321 430 289 162 155 157 
321 431 288 161 154 155 
321 431 289 162 155 156 
320 430 290 163 157 158 
322 428 289 135 129 129 
322 429 289 156 150 151 
323 428 288 129 122 122 
323 428 289 140 134 134 
323 429 288 154 148 149 
323 429 289 151 144 145 
322 430 289 162 155 156 
322 431 288 165 157 158 
323 430 288 160 153 154 
323 431 288 162 155 155 
324 427 288 111 105 105 
324 428 288 132 126 126 
324 429 288 156 150 151 
324 430 288 160 153 154 
324 431 288 158 150 151 
325 430 288 163 157 158 
320 432 288 163 156 157 
320 432 289 165 158 158 
320 433 288 169 162 163 
321 432 288 162 155 155 
322 432 288 164 156 157 
352 408 257 137 129 127 
352 409 256 142 134 133 
352 409 257 148 140 139 
353 408 256 137 129 127 
353 408 257 132 125 124 
353 409 256 140 132 130 
352 408 258 139 131 128 
352 410 256 147 140 139 
352 410 257 142 134 133 
352 411 256 141 134 133 
321 455 263 152 140 136 
323 453 263 175 164 160 
323 455 261 159 147 144 
322 454 263 169 159 156 
322 455 262 147 136 132 
322 455 263 156 146 143 
323 454 262 173 164 162 
323 454 263 175 165 163 
323 455 262 158 148 144 
325 451 263 145 131 124 
327 449 263 141 130 126 
327 451 261 141 127 119 
326 450 263 139 123 117 
326 451 262 141 126 120 
326 451 263 143 127 122 
327 450 262 137 122 114 
327 450 263 137 121 115 
327 451 262 139 125 117 
327 451 263 140 124 117 
327 453 259 144 130 123 
326 455 259 150 136 129 
327 454 259 157 144 138 
327 455 258 171 161 157 
327 455 259 164 151 146 
325 453 261 140 127 122 
324 452 263 164 151 145 
324 453 262 168 156 151 
324 453 263 175 163 159 
325 452 262 149 135 129 
325 452 263 154 140 135 
325 453 262 149 135 129 
324 454 261 159 149 147 
324 455 261 166 156 153 
325 454 261 148 136 133 
325 455 260 154 143 139 
325 455 261 159 148 146 
324 454 262 164 153 151 
326 453 261 138 123 119 
327 452 261 141 127 118 
327 453 260 140 125 119 
327 453 261 140 124 118 
326 452 262 142 127 121 
326 453 262 141 125 118 
327 452 262 141 126 118 
326 454 260 141 127 124 
326 454 261 140 127 124 
326 455 260 144 131 124 
327 454 260 143 128 123 
321 449 267 166 157 156 
320 450 267 162 153 152 
320 451 266 173 164 162 
320 451 267 175 165 164 
321 450 266 164 155 155 
321 450 267 158 149 148 
321 451 266 168 158 156 
322 449 267 165 157 157 
323 448 267 171 163 163 
323 449 266 155 146 150 
323 449 267 168 160 161 
322 451 265 156 144 142 
323 450 265 148 134 137 
323 451 264 148 132 126 
323 451 265 150 135 133 
322 450 266 157 149 149 
322 451 266 161 151 151 
323 450 266 152 142 145 
320 448 269 182 174 175 
320 449 268 170 162 162 
320 449 269 174 166 166 
321 448 268 172 164 164 
321 448 269 175 166 167 
321 449 268 172 164 164 
320 448 270 184 175 177 
320 450 268 157 148 147 
322 448 268 170 162 162 
322 449 268 171 163 163 
323 448 268 167 159 159 
320 452 265 157 146 143 
320 453 265 145 131 127 
321 452 265 159 147 144 
321 453 264 143 132 127 
321 453 265 145 134 131 
320 452 266 172 162 160 
320 453 266 151 139 135 
321 452 266 167 157 155 
320 454 264 144 130 125 
320 454 265 147 132 128 
320 455 264 154 142 138 
321 454 264 150 138 133 
321 455 264 149 137 131 
322 452 264 145 131 124 
322 452 265 149 136 131 
322 453 264 152 140 136 
323 452 264 152 138 130 
323 452 265 148 133 127 
323 453 264 160 148 142 
322 454 264 163 153 150 
324 449 265 141 127 128 
325 449 265 144 132 131 
324 448 266 156 148 149 
324 448 267 162 154 154 
324 449 266 156 147 148 
324 449 267 165 158 159 
325 448 266 160 152 150 
325 448 267 161 153 153 
325 449 266 152 142 140 
324 450 264 139 123 120 
324 450 265 137 121 123 
324 451 264 145 130 123 
325 450 264 140 125 121 
325 450 265 136 120 119 
325 451 264 144 129 124 
326 448 265 159 150 149 
326 449 264 146 135 132 
326 449 265 152 143 140 
327 448 264 153 144 142 
327 448 265 165 156 155 
327 449 264 150 141 139 
327 449 265 158 149 148 
326 448 266 163 155 154 
326 450 264 139 124 119 
324 452 264 153 139 131 
322 459 259 138 125 117 
323 458 259 136 123 117 
323 459 259 136 123 116 
320 456 263 165 154 151 
320 457 262 149 135 129 
320 457 263 155 142 135 
321 456 262 143 130 124 
321 456 263 148 137 132 
321 457 262 143 129 122 
320 459 261 147 133 127 
321 458 261 143 129 122 
321 459 260 143 128 121 
321 459 261 144 130 123 
320 458 262 147 133 126 
320 459 262 150 135 130 
321 458 262 144 130 123 
322 456 261 141 126 120 
322 457 261 141 127 119 
323 456 260 147 133 127 
323 456 261 147 134 127 
323 457 260 138 125 117 
323 457 261 140 125 117 
322 456 262 140 126 121 
322 457 262 140 127 119 
323 456 262 143 130 124 
322 458 260 141 126 117 
322 458 261 142 127 119 
322 459 260 140 126 118 
323 458 260 137 123 115 
323 459 260 138 124 116 
321 461 259 146 133 128 
320 463 259 174 165 163 
321 462 259 164 153 150 
321 463 258 170 160 158 
321 463 259 172 161 159 
322 460 259 138 124 115 
322 461 259 140 127 120 
323 460 258 137 123 114 
323 460 259 137 123 114 
323 461 258 136 121 113 
323 461 259 137 122 114 
322 463 257 159 147 143 
323 462 257 137 122 114 
323 463 256 137 123 115 
323 463 257 145 131 124 
322 462 258 148 135 129 
322 462 259 150 138 133 
322 463 258 156 144 139 
323 462 258 138 124 116 
323 463 258 142 128 120 
320 460 261 150 138 133 
320 461 260 150 139 135 
320 461 261 155 144 142 
321 460 260 144 131 125 
321 461 260 144 132 127 
320 462 260 163 152 149 
320 463 260 174 164 162 
321 462 260 158 147 144 
322 460 260 141 127 120 
324 457 259 152 141 138 
325 456 259 165 153 149 
325 457 259 166 156 154 
325 459 257 136 122 114 
324 458 259 144 133 128 
324 459 258 135 121 114 
324 459 259 136 124 117 
325 458 258 151 140 135 
325 458 259 156 146 143 
325 459 258 137 123 116 
327 456 257 157 144 137 
327 457 257 158 144 137 
326 456 258 166 153 148 
326 456 259 164 151 146 
326 457 258 167 155 150 
327 456 258 163 151 146 
326 458 257 157 145 138 
326 459 256 137 123 116 
326 459 257 141 127 120 
327 458 256 157 144 139 
327 458 257 164 151 145 
327 459 256 143 130 123 
326 458 258 156 144 139 
326 459 258 140 126 119 
324 456 260 159 147 143 
324 456 261 166 154 151 
324 457 260 146 134 129 
325 456 260 159 147 143 
324 461 257 137 123 114 
325 460 257 136 122 115 
325 461 256 137 123 115 
325 461 257 137 123 115 
324 460 258 136 122 114 
324 461 258 136 122 114 
325 460 258 135 121 113 
324 462 256 134 120 111 
324 462 257 136 122 114 
324 463 256 135 121 112 
324 463 257 136 121 113 
325 462 256 135 121 113 
325 462 257 136 123 114 
325 463 256 134 120 112 
326 460 256 137 124 117 
326 460 257 138 124 117 
326 461 256 137 124 117 
327 460 256 137 123 116 
326 462 256 138 124 117 
320 456 264 177 166 164 
330 451 259 147 136 133 
331 450 259 152 140 136 
331 451 258 168 159 159 
331 451 259 160 150 149 
328 449 262 135 123 118 
328 449 263 149 138 136 
329 448 263 153 142 139 
329 449 262 139 126 122 
329 449 263 155 145 142 
328 451 261 141 126 116 
329 450 261 137 121 113 
329 451 260 142 127 118 
329 451 261 140 124 114 
328 450 262 134 120 114 
329 450 262 134 118 113 
330 449 261 138 123 119 
331 448 261 156 146 145 
331 449 260 147 134 131 
331 449 261 146 134 132 
330 448 262 146 135 130 
330 448 263 149 137 134 
330 449 262 146 134 130 
331 448 262 147 135 132 
330 450 260 140 125 118 
330 450 261 138 122 114 
330 451 260 141 128 121 
331 450 260 145 132 126 
328 453 259 156 144 140 
329 452 259 162 153 152 
329 453 258 174 164 163 
329 453 259 168 159 158 
328 455 257 164 154 151 
329 454 257 168 159 158 
329 455 257 168 158 156 
328 454 258 166 154 151 
328 454 259 164 152 148 
328 455 258 163 153 150 
329 454 258 166 157 154 
330 453 257 175 167 167 
331 452 257 177 170 171 
331 453 256 167 158 157 
331 453 257 176 167 167 
330 452 258 172 164 165 
330 452 259 159 151 151 
330 453 258 175 167 167 
331 452 258 176 169 170 
331 453 258 176 169 170 
330 454 256 174 165 164 
330 454 257 174 165 165 
330 455 256 162 151 148 
330 455 257 173 164 163 
331 454 256 165 155 154 
331 455 256 163 153 151 
328 452 260 143 129 121 
328 452 261 143 128 118 
328 453 260 143 129 123 
329 452 260 150 139 135 
332 449 259 158 147 143 
333 449 258 156 145 141 
333 449 259 157 146 142 
332 451 257 166 159 159 
333 450 257 162 153 151 
333 451 257 164 156 156 
332 450 258 161 151 149 
332 450 259 159 148 145 
332 451 258 166 158 157 
333 450 258 159 149 147 
334 449 257 162 151 148 
335 448 257 155 144 141 
335 449 256 162 152 150 
335 449 257 162 152 149 
334 448 258 132 120 115 
334 448 259 134 122 116 
334 449 258 152 141 138 
334 449 259 143 131 126 
335 448 258 123 109 105 
335 448 259 111 96 91 
335 449 258 157 146 143 
334 450 256 164 154 153 
334 450 257 161 151 149 
334 451 256 164 155 155 
334 451 257 163 155 154 
335 450 256 164 154 153 
332 448 261 164 154 153 
332 449 260 150 140 137 
333 448 260 162 152 151 
333 448 261 169 159 158 
333 449 260 152 142 139 
334 448 260 158 148 145 
332 452 256 174 165 164 
332 452 257 175 166 167 
332 453 256 162 152 150 
333 452 256 171 163 163 
333 452 257 171 163 163 
333 453 256 162 153 151 
332 454 256 149 138 135 
334 452 256 165 157 157 
328 448 264 151 141 138 
328 449 264 153 144 143 
329 448 264 149 137 133 
328 456 257 167 155 151 
328 457 256 164 151 145 
328 457 257 166 153 147 
329 456 256 158 146 141 
329 456 257 169 157 154 
329 457 256 154 140 135 
328 456 258 166 155 153 
328 458 256 152 139 132 
328 459 256 143 129 122 
330 456 256 145 132 126 
321 465 257 173 163 162 
320 464 258 170 161 159 
320 464 259 162 153 152 
320 465 258 156 146 143 
320 465 259 144 133 130 
321 464 258 175 165 164 
321 465 258 173 163 161 
320 466 257 169 159 157 
320 467 256 161 152 150 
320 467 257 168 158 157 
321 466 256 152 141 138 
321 466 257 164 154 152 
321 467 256 152 142 139 
320 466 258 162 153 150 
320 467 258 170 161 159 
322 464 257 171 160 158 
322 465 256 154 144 141 
322 465 257 167 157 155 
323 464 256 141 127 120 
323 464 257 158 147 143 
323 465 256 142 130 124 
322 464 258 173 162 160 
322 466 256 143 131 127 
322 467 256 139 127 122 
323 466 256 139 127 122 
320 468 256 144 134 131 
320 468 257 152 142 139 
320 469 256 142 131 129 
321 468 256 144 134 131 
320 470 256 144 133 131 
324 464 256 135 120 112 
336 448 256 147 137 135 
336 448 257 145 134 130 
336 449 256 155 145 143 
337 448 256 145 136 134 
336 448 258 125 112 106 
258 512 227 117 110 108 
259 512 227 116 109 107 
257 512 228 115 108 106 
258 512 228 113 106 104 
258 512 229 113 105 103 
259 512 228 112 104 102 
259 512 229 112 105 103 
262 513 227 113 106 104 
263 513 227 111 104 103 
260 512 228 111 103 101 
260 512 229 112 104 102 
261 512 228 110 102 100 
261 512 229 113 105 103 
261 513 228 111 103 101 
260 512 230 115 107 106 
261 512 230 115 108 107 
262 512 229 114 107 105 
262 513 228 112 104 103 
263 512 229 115 108 107 
263 513 228 110 103 102 
263 513 229 114 107 105 
262 512 230 117 110 109 
262 512 231 118 111 110 
263 512 230 118 111 110 
263 512 231 121 114 114 
264 513 227 106 99 98 
266 514 227 102 95 93 
267 514 226 104 98 98 
267 514 227 102 95 94 
264 513 228 109 101 100 
264 513 229 115 108 107 
265 513 228 108 101 99 
265 513 229 117 110 109 
264 512 230 119 112 112 
264 512 231 124 117 117 
264 513 230 120 113 112 
265 512 230 123 117 116 
265 512 231 129 123 124 
265 513 230 124 117 117 
265 514 228 102 94 92 
266 513 228 110 103 101 
266 513 229 120 113 112 
267 513 228 115 107 106 
267 513 229 126 119 119 
266 512 231 138 132 133 
266 513 230 129 122 122 
266 513 231 138 132 132 
267 512 231 146 141 142 
267 513 230 136 129 130 
267 513 231 143 137 138 
266 514 228 105 98 96 
267 514 228 113 105 104 
268 514 226 103 96 95 
268 514 227 104 97 96 
269 514 227 108 101 99 
270 515 227 116 109 108 
271 515 226 111 104 103 
271 515 227 122 115 114 
268 513 229 132 126 126 
269 513 229 138 132 133 
268 512 231 150 144 146 
268 513 230 141 135 136 
268 513 231 147 142 143 
269 512 231 150 145 147 
269 513 230 144 139 140 
269 513 231 149 144 145 
268 514 228 118 111 111 
268 514 229 131 125 125 
269 514 228 123 116 116 
269 514 229 137 131 131 
270 513 230 146 140 142 
270 513 231 149 143 145 
271 513 230 146 140 142 
271 513 231 148 143 144 
270 514 228 131 124 124 
270 514 229 140 134 135 
270 515 228 128 121 121 
271 514 228 136 130 130 
271 514 229 140 134 135 
271 515 228 132 125 125 
270 514 230 145 140 141 
271 514 230 144 138 139 
264 512 232 127 120 121 
265 512 232 134 128 129 
266 512 232 144 138 140 
267 512 232 149 144 146 
268 512 232 149 144 146 
269 512 232 149 144 146 
269 512 233 148 142 144 
270 512 232 148 142 144 
270 512 233 148 143 145 
271 512 232 148 143 145 
271 512 233 148 142 144 
272 515 226 114 107 106 
272 515 227 122 115 114 
273 515 227 119 113 112 
272 513 230 145 139 140 
272 513 231 148 142 144 
273 513 231 148 142 144 
272 514 228 136 130 130 
272 514 229 139 133 134 
272 515 228 132 126 126 
273 514 229 136 130 131 
273 515 228 130 124 124 
272 514 230 143 137 138 
273 514 230 142 136 137 
274 513 231 148 143 145 
275 513 231 148 143 145 
274 514 229 132 126 127 
274 515 228 120 114 115 
274 515 229 127 121 122 
275 514 229 126 121 121 
275 515 228 111 105 105 
275 515 229 119 113 113 
274 514 230 139 133 135 
275 514 230 137 131 132 
275 514 231 146 140 141 
274 516 227 107 101 100 
275 516 227 101 94 93 
274 516 228 111 104 104 
275 516 228 104 98 97 
276 513 231 145 139 140 
277 513 231 147 142 143 
276 515 228 101 95 95 
276 515 229 111 104 104 
277 515 229 110 104 104 
276 514 230 134 129 129 
276 514 231 144 138 140 
276 515 230 123 117 117 
277 514 230 135 129 131 
277 514 231 145 140 141 
277 515 230 121 115 116 
278 513 231 152 147 149 
279 513 231 155 150 152 
278 515 229 126 121 122 
279 515 229 137 131 133 
278 514 230 134 129 130 
278 514 231 145 140 142 
278 515 230 126 121 121 
279 514 230 144 138 140 
279 514 231 152 146 149 
279 515 230 133 128 129 
276 516 227 98 92 92 
278 517 227 147 141 143 
276 516 228 100 93 93 
277 516 228 110 104 104 
277 517 228 127 122 123 
278 516 228 141 135 137 
278 516 229 136 131 132 
278 517 228 148 143 144 
279 516 228 152 147 150 
279 516 229 147 143 145 
279 517 228 151 145 147 
272 512 232 149 144 146 
272 512 233 146 140 142 
273 512 232 150 144 147 
273 512 233 144 139 141 
274 512 232 152 146 149 
274 512 233 150 145 147 
274 513 232 152 147 149 
275 512 232 153 148 150 
275 512 233 154 149 151 
275 513 232 150 145 147 
276 512 232 149 143 144 
276 512 233 154 148 150 
276 513 232 146 140 141 
277 512 232 149 143 144 
277 512 233 151 146 147 
277 513 232 148 142 144 
278 512 232 148 142 144 
278 512 233 148 142 144 
278 513 232 150 144 146 
279 512 232 152 147 149 
279 512 233 149 143 145 
279 513 232 155 149 151 
280 513 231 157 151 153 
281 513 231 151 145 146 
281 515 229 138 132 133 
280 514 230 149 143 145 
280 514 231 154 148 150 
280 515 230 136 131 133 
281 514 230 152 146 147 
281 514 231 152 146 147 
281 515 230 145 140 141 
282 513 231 144 138 139 
283 513 231 144 138 139 
282 515 229 138 132 133 
283 515 229 139 133 134 
282 514 230 150 144 145 
282 514 231 149 143 144 
282 515 230 147 141 142 
283 514 230 148 142 144 
283 515 230 148 142 143 
282 518 227 149 141 142 
283 518 227 136 128 127 
280 516 229 141 136 138 
280 517 228 154 149 150 
281 516 229 133 128 129 
281 517 228 151 145 146 
282 516 229 124 117 117 
282 517 228 137 130 131 
283 516 229 119 112 111 
283 517 228 121 113 112 
284 513 231 145 140 141 
285 513 231 149 144 145 
284 515 229 144 138 139 
285 515 229 153 147 149 
284 514 230 149 143 144 
284 515 230 150 144 146 
285 514 230 156 150 153 
286 513 231 152 146 148 
287 513 231 155 149 151 
286 515 229 157 151 153 
287 515 229 158 152 154 
286 514 230 160 154 157 
287 514 230 160 155 157 
285 517 227 106 98 96 
284 518 227 126 119 118 
285 518 227 123 116 116 
286 517 227 102 94 92 
287 517 227 101 94 94 
286 518 227 117 111 110 
286 519 227 140 134 135 
287 518 227 110 104 105 
287 519 226 138 133 135 
284 516 228 121 114 114 
284 516 229 124 117 117 
284 517 228 110 102 100 
285 516 228 121 114 113 
285 516 229 139 133 134 
285 517 228 104 96 93 
286 516 228 128 122 122 
286 516 229 144 138 139 
286 517 228 106 98 97 
287 516 228 142 136 137 
287 516 229 147 142 143 
287 517 228 111 104 103 
280 512 232 156 151 153 
280 513 232 157 152 154 
281 512 232 151 145 147 
281 513 232 151 145 146 
282 512 232 146 140 141 
282 513 232 144 138 139 
283 512 232 144 138 139 
284 512 232 147 141 143 
285 512 232 150 144 146 
286 512 232 148 142 144 
287 512 232 151 146 147 
293 520 223 119 114 114 
294 520 223 125 119 120 
295 520 223 129 123 124 
296 519 223 121 115 115 
297 519 223 118 112 112 
298 519 223 112 105 104 
299 519 223 112 105 103 
300 519 223 120 113 112 
301 519 223 126 119 118 
296 520 222 137 132 133 
296 520 223 128 122 123 
297 520 222 132 127 128 
297 520 223 123 118 118 
299 521 221 129 123 123 
298 520 222 122 116 116 
298 520 223 113 106 106 
298 521 222 133 126 127 
299 520 222 110 102 101 
299 520 223 108 101 100 
299 521 222 120 113 113 
300 521 221 126 120 120 
301 521 221 122 116 116 
300 520 222 108 101 100 
300 520 223 112 105 104 
300 521 222 115 108 108 
301 520 222 112 105 104 
301 520 223 116 110 109 
301 521 222 114 108 107 
302 521 221 117 110 110 
303 521 221 112 106 105 
302 520 222 113 107 106 
302 520 223 127 120 120 
302 521 222 112 106 105 
303 520 222 117 110 109 
303 520 223 131 124 124 
303 521 222 111 104 103 
303 522 221 117 111 110 
308 519 223 117 107 102 
309 519 223 143 134 132 
310 519 223 157 149 148 
311 518 223 171 163 162 
311 519 222 151 142 141 
311 519 223 164 156 155 
304 521 221 109 102 100 
305 521 221 110 103 102 
304 520 222 120 112 111 
304 520 223 135 128 127 
304 521 222 111 105 103 
305 520 222 121 114 113 
305 520 223 134 126 125 
305 521 222 115 108 107 
304 522 220 112 105 104 
304 522 221 110 104 102 
305 522 220 108 102 100 
305 522 221 109 102 101 
306 521 221 114 107 106 
307 521 221 113 106 104 
306 520 222 115 107 105 
306 520 223 119 111 108 
306 521 222 115 108 107 
307 520 222 110 100 97 
307 520 223 109 99 95 
307 521 222 115 106 104 
306 522 220 112 105 104 
306 522 221 112 105 104 
307 522 220 112 105 103 
307 522 221 112 105 104 
308 523 219 107 100 98 
309 522 219 116 108 106 
309 523 218 107 100 98 
309 523 219 110 102 101 
310 522 219 119 110 109 
310 523 218 117 110 108 
310 523 219 117 109 107 
311 522 218 130 122 123 
311 522 219 123 115 115 
311 523 218 129 121 121 
308 521 221 116 108 106 
309 520 221 128 120 119 
309 521 220 117 109 106 
309 521 221 121 113 111 
308 520 222 116 107 103 
308 520 223 114 104 100 
308 521 222 116 107 104 
309 520 222 131 122 120 
309 520 223 132 123 120 
308 522 220 111 103 101 
308 523 220 109 102 101 
309 522 220 116 107 105 
310 520 221 134 127 125 
310 521 220 119 110 107 
310 521 221 126 117 115 
311 520 221 139 131 130 
311 521 220 120 112 109 
311 521 221 130 122 120 
310 520 222 142 134 133 
311 520 222 144 136 135 
310 522 220 120 111 110 
313 517 223 150 139 135 
312 519 221 148 140 138 
313 519 221 144 135 132 
312 518 223 167 157 156 
312 519 222 155 146 144 
312 519 223 167 158 156 
313 518 222 153 142 138 
313 518 223 159 148 145 
313 519 222 145 134 131 
314 516 223 137 125 120 
314 517 223 142 129 124 
315 516 223 129 117 110 
315 517 222 137 124 118 
315 517 223 139 126 119 
314 519 221 140 130 126 
315 518 221 133 121 115 
315 519 220 142 133 130 
315 519 221 137 126 122 
314 518 222 139 127 122 
315 518 222 135 123 117 
317 513 223 117 104 96 
316 514 223 116 101 92 
316 515 223 119 105 97 
317 514 223 121 108 100 
317 515 222 131 119 112 
317 515 223 125 111 105 
318 512 223 145 135 131 
318 513 223 134 123 117 
319 512 222 156 147 145 
319 512 223 155 145 143 
319 513 222 140 129 125 
319 514 221 135 123 117 
319 515 221 135 122 115 
318 514 222 133 121 114 
318 514 223 128 116 110 
318 515 222 135 123 116 
319 514 222 135 123 117 
319 515 222 135 123 116 
316 519 219 133 123 118 
317 519 219 131 119 114 
319 517 219 124 111 104 
319 519 217 126 115 109 
318 518 219 129 117 112 
318 519 218 128 117 112 
318 519 219 130 119 113 
319 518 218 124 112 106 
319 518 219 126 114 107 
319 519 218 125 114 108 
316 517 221 134 121 114 
317 516 221 136 123 115 
317 517 221 133 120 113 
316 516 222 129 116 109 
316 516 223 123 110 102 
316 517 222 135 122 115 
317 516 222 134 121 114 
316 518 220 130 118 112 
316 518 221 132 120 114 
316 519 220 135 124 119 
316 519 221 133 121 116 
317 518 220 129 118 112 
317 518 221 130 119 112 
317 519 220 130 118 113 
318 516 221 134 121 114 
318 517 220 128 115 108 
318 517 221 131 118 110 
319 516 220 128 115 107 
319 516 221 132 119 112 
319 517 220 125 112 105 
318 516 222 137 124 116 
318 518 220 128 116 110 
315 523 215 139 131 130 
315 524 215 137 130 129 
317 523 213 134 128 127 
316 522 215 136 128 127 
316 523 214 138 130 129 
316 523 215 137 129 128 
317 522 214 136 129 128 
317 522 215 138 130 129 
317 523 214 136 129 128 
318 521 215 145 137 136 
319 521 214 142 134 132 
319 521 215 139 130 127 
318 522 213 138 130 130 
318 523 213 136 129 130 
319 522 213 138 131 130 
319 523 212 139 131 131 
319 523 213 138 131 130 
318 522 214 138 131 130 
318 522 215 142 133 132 
319 522 214 140 133 132 
319 524 211 152 145 146 
317 524 213 122 115 114 
316 524 214 129 122 121 
318 524 212 139 133 134 
318 524 213 130 123 123 
319 524 212 143 136 136 
312 521 219 127 120 119 
313 521 218 137 129 129 
313 521 219 137 130 129 
312 523 217 135 128 126 
313 522 217 139 133 133 
313 523 216 140 132 131 
313 523 217 139 132 131 
312 522 218 135 128 128 
312 522 219 128 121 120 
312 523 218 136 129 128 
313 522 218 138 130 130 
315 521 217 143 135 134 
314 520 219 142 134 133 
314 521 218 140 132 131 
314 521 219 140 133 132 
315 520 218 138 130 128 
315 520 219 139 131 129 
315 521 218 140 132 131 
314 522 217 142 135 134 
314 523 216 141 134 133 
314 523 217 140 133 133 
315 522 216 139 131 130 
315 522 217 142 135 134 
315 523 216 139 131 130 
312 520 220 140 132 130 
312 520 221 143 135 133 
312 521 220 131 123 121 
313 520 220 142 134 133 
313 520 221 145 136 135 
313 521 220 139 131 130 
314 520 220 145 136 134 
315 520 220 143 135 132 
316 521 217 141 133 133 
317 520 217 136 127 124 
317 521 216 145 137 137 
317 521 217 141 134 132 
316 520 218 134 125 122 
316 520 219 133 123 119 
316 521 218 139 130 128 
317 520 218 130 120 115 
316 522 216 140 133 132 
317 522 216 143 135 134 
318 520 217 132 121 117 
318 521 216 145 136 134 
318 521 217 143 135 133 
319 520 216 133 122 117 
319 520 217 129 118 113 
319 521 216 134 124 120 
318 520 218 128 117 112 
288 513 231 158 152 154 
289 513 231 156 150 152 
288 515 229 159 153 155 
289 515 228 154 148 150 
289 515 229 158 153 155 
288 514 230 160 155 157 
289 514 230 158 152 154 
290 513 231 153 148 150 
291 513 231 148 142 144 
290 515 228 154 148 150 
290 515 229 157 152 154 
291 515 228 157 150 151 
291 515 229 156 151 152 
290 514 230 156 150 153 
291 514 230 154 149 151 
288 517 227 103 96 95 
289 517 227 108 102 101 
288 518 226 111 106 107 
288 518 227 102 97 97 
288 519 226 134 129 132 
289 518 226 104 99 99 
289 518 227 98 92 92 
289 519 226 123 119 121 
290 517 227 119 112 111 
291 517 226 117 109 107 
291 517 227 129 121 120 
290 519 225 117 113 113 
291 519 225 110 105 106 
290 518 226 100 94 94 
290 519 226 114 110 110 
291 518 226 104 97 97 
291 519 226 107 101 102 
288 516 228 149 143 144 
288 517 228 125 119 119 
289 516 228 148 142 143 
289 517 228 130 124 124 
290 516 228 147 141 142 
291 516 228 152 145 146 
292 513 231 143 138 140 
293 513 231 144 138 140 
292 515 228 159 152 153 
292 515 229 158 152 154 
293 515 228 159 152 153 
293 515 229 159 152 154 
292 514 230 152 147 149 
293 514 230 153 147 150 
294 513 231 149 144 146 
295 513 231 154 149 151 
294 515 228 155 148 148 
294 515 229 159 152 154 
295 515 228 155 147 147 
295 515 229 158 152 153 
294 514 230 156 151 153 
295 514 230 159 153 155 
292 517 226 117 108 106 
292 517 227 134 125 123 
293 517 226 119 109 105 
293 517 227 133 123 121 
292 518 225 106 98 99 
292 519 225 111 105 106 
293 518 225 108 100 101 
293 519 224 116 111 112 
293 519 225 111 105 107 
292 518 226 108 100 99 
293 518 226 112 103 101 
294 516 227 129 118 114 
294 517 226 119 108 104 
294 517 227 124 113 109 
295 516 227 130 119 115 
295 517 226 122 111 107 
295 517 227 126 114 110 
294 518 225 111 102 101 
294 519 224 118 111 113 
294 519 225 111 104 105 
295 518 225 112 104 102 
295 519 224 115 109 109 
295 519 225 110 102 102 
294 518 226 115 105 102 
295 518 226 119 108 105 
292 516 228 155 147 148 
293 516 228 152 144 143 
294 516 228 141 132 130 
295 516 228 141 132 129 
288 512 232 156 151 153 
288 513 232 157 151 153 
289 512 232 155 149 151 
289 513 232 156 150 152 
290 512 232 152 146 148 
290 513 232 153 147 149 
291 512 232 144 138 140 
291 512 233 143 137 139 
291 513 232 145 139 141 
292 512 232 140 134 135 
292 512 233 140 134 134 
292 513 232 140 134 135 
293 512 232 142 136 137 
293 513 232 141 135 136 
294 512 232 144 138 139 
294 513 232 144 139 140 
295 512 232 148 143 144 
292 520 224 117 112 112 
293 520 224 120 114 116 
294 520 224 122 117 118 
296 513 231 160 154 157 
297 513 230 161 156 158 
297 513 231 163 157 160 
296 515 229 158 151 152 
297 515 228 157 151 151 
297 515 229 158 151 153 
296 514 230 159 154 156 
297 514 230 160 154 156 
298 512 231 159 153 155 
298 513 230 159 154 156 
298 513 231 160 155 157 
299 512 231 152 145 147 
299 513 230 151 144 145 
299 513 231 151 145 147 
298 515 228 158 151 152 
298 515 229 159 153 154 
299 514 229 160 154 155 
299 515 228 158 152 153 
299 515 229 160 154 155 
298 514 230 160 154 155 
299 514 230 156 149 151 
296 517 226 127 117 114 
296 517 227 132 122 119 
297 517 226 144 136 135 
297 517 227 144 136 135 
296 518 225 116 108 107 
296 519 224 114 107 107 
297 518 225 126 118 116 
297 519 224 115 108 107 
296 518 226 130 121 119 
297 518 226 141 133 132 
298 517 226 154 147 148 
298 517 227 156 149 149 
299 517 226 149 142 141 
299 517 227 151 143 143 
298 518 225 137 130 129 
298 519 224 116 108 107 
299 518 225 147 140 139 
299 519 224 124 116 115 
299 519 225 136 128 127 
298 518 226 153 145 145 
299 518 226 151 143 143 
296 516 228 146 138 137 
297 516 228 153 146 146 
298 516 228 157 150 151 
299 516 228 155 148 148 
300 512 231 150 143 144 
300 513 230 148 141 142 
300 513 231 148 141 142 
301 512 230 155 148 148 
301 512 231 154 147 148 
301 513 230 150 143 143 
300 514 229 158 151 152 
300 515 228 156 148 148 
300 515 229 159 151 152 
301 514 229 153 145 145 
301 515 228 140 130 127 
301 515 229 148 139 137 
300 514 230 154 147 148 
302 513 229 152 144 143 
303 513 229 152 142 140 
302 512 230 163 156 158 
302 512 231 162 155 156 
302 513 230 157 150 150 
303 512 230 168 161 162 
303 513 230 165 157 157 
302 514 229 137 127 123 
302 515 228 118 105 99 
303 514 228 111 96 89 
303 514 229 122 109 103 
303 515 228 107 93 86 
300 516 227 132 123 121 
300 517 226 129 121 119 
300 517 227 127 119 116 
301 516 227 111 98 93 
301 517 226 107 96 93 
301 517 227 105 93 88 
300 518 225 146 139 139 
300 519 224 133 126 126 
300 519 225 141 134 134 
301 518 225 139 131 131 
301 519 224 138 131 131 
301 519 225 145 138 138 
300 518 226 138 130 130 
301 518 226 117 108 105 
302 516 227 105 91 85 
302 517 226 102 89 85 
302 517 227 102 89 83 
303 516 227 104 90 84 
303 517 226 102 89 84 
303 517 227 102 89 82 
302 518 225 132 124 123 
302 519 224 142 135 135 
302 519 225 144 137 137 
303 518 225 122 113 111 
303 519 224 143 136 136 
303 519 225 140 132 131 
302 518 226 107 96 92 
303 518 226 105 94 90 
300 516 228 146 137 136 
301 516 228 125 114 109 
302 516 228 109 95 89 
303 516 228 106 92 86 
296 512 232 157 151 154 
297 512 232 161 155 157 
298 512 232 158 152 154 
305 515 227 113 100 94 
306 514 227 115 101 97 
306 515 227 120 109 105 
307 514 227 120 108 103 
307 515 227 129 118 115 
304 512 229 169 161 161 
304 513 229 148 138 135 
305 512 229 169 161 162 
305 513 228 125 112 106 
305 513 229 150 139 136 
304 512 230 170 162 163 
305 512 230 170 163 164 
304 514 228 112 97 90 
304 515 228 108 94 87 
305 514 228 113 99 92 
305 515 228 111 97 91 
306 512 229 169 161 161 
306 513 228 138 127 123 
306 513 229 163 155 154 
307 512 229 168 161 161 
307 513 228 151 141 138 
306 514 228 114 100 95 
307 514 228 119 105 101 
304 516 227 105 92 85 
304 517 226 102 90 83 
304 517 227 103 90 83 
305 516 227 113 101 95 
305 517 226 106 93 86 
304 518 225 110 100 96 
304 519 224 142 135 135 
304 519 225 134 126 124 
305 518 225 105 94 89 
305 519 224 135 128 126 
305 519 225 119 110 107 
306 517 225 109 96 90 
307 517 225 113 101 95 
306 516 226 135 125 121 
306 516 227 134 124 121 
306 517 226 116 104 97 
307 516 226 147 137 134 
307 516 227 145 136 134 
307 517 226 125 112 107 
306 518 225 107 95 89 
306 519 224 118 109 106 
306 519 225 108 98 93 
307 518 224 117 106 101 
307 518 225 113 101 96 
307 519 224 113 101 97 
308 513 227 151 140 137 
309 513 227 165 156 154 
308 514 227 136 125 122 
308 515 226 141 131 128 
308 515 227 138 128 125 
309 514 227 155 146 143 
309 515 226 141 131 128 
309 515 227 146 137 134 
310 513 227 166 157 155 
311 512 227 170 161 161 
311 513 227 161 151 150 
311 515 225 122 110 104 
310 514 226 152 142 139 
310 514 227 156 146 144 
310 515 226 135 124 119 
311 514 226 135 124 121 
311 515 226 127 116 110 
308 512 228 170 162 163 
308 512 229 169 162 163 
308 513 228 161 151 149 
309 512 228 170 163 163 
309 512 229 169 162 163 
309 513 228 169 160 160 
310 512 228 171 163 164 
310 513 228 170 161 160 
311 512 228 169 161 161 
308 517 225 120 109 104 
309 516 225 125 113 106 
309 517 225 129 119 114 
308 516 226 140 130 126 
308 517 226 128 116 111 
309 516 226 127 115 110 
308 518 224 135 125 122 
308 518 225 129 119 116 
308 519 224 124 114 110 
309 518 224 157 149 148 
309 519 224 153 145 143 
310 516 225 130 118 112 
310 517 224 158 149 148 
310 517 225 141 131 128 
311 516 225 132 121 116 
311 517 224 156 148 147 
311 517 225 147 137 134 
310 516 226 125 112 105 
310 518 224 169 161 161 
310 519 224 170 162 162 
311 518 224 170 162 162 
312 512 227 164 155 154 
312 513 226 136 125 121 
312 513 227 159 150 148 
313 512 226 159 150 147 
313 512 227 159 149 147 
313 513 226 131 119 114 
312 515 225 125 115 110 
313 514 225 131 119 114 
313 515 225 144 135 132 
312 514 226 124 112 107 
312 515 226 123 112 107 
313 514 226 124 112 107 
314 513 225 121 107 99 
315 512 225 138 126 120 
315 513 225 121 106 100 
314 512 226 157 147 144 
314 512 227 162 153 151 
314 513 226 131 119 113 
315 512 226 152 141 137 
314 514 225 134 120 115 
314 515 224 154 142 138 
314 515 225 151 140 137 
315 514 224 125 110 101 
315 514 225 122 107 99 
315 515 224 134 121 113 
312 512 228 163 155 154 
312 516 224 142 132 129 
312 516 225 135 125 120 
312 517 224 153 144 142 
313 516 224 146 136 133 
313 516 225 145 135 132 
313 517 224 144 133 130 
314 516 224 144 133 128 
315 516 224 135 123 116 
316 512 225 117 104 97 
316 513 224 113 99 91 
316 513 225 115 101 93 
317 512 224 111 98 92 
317 512 225 110 97 91 
317 513 224 113 101 94 
316 514 224 116 99 91 
316 515 224 119 104 94 
318 512 224 124 113 108 
323 512 142 111 107 107 
323 512 143 104 101 101 
323 512 144 104 100 100 
324 512 144 101 96 96 
324 512 145 98 93 91 
324 512 146 98 93 90 
324 512 147 96 90 87 
324 513 146 94 88 86 
324 513 147 94 87 85 
325 513 146 95 89 88 
325 513 147 93 88 86 
325 512 148 96 90 87 
325 512 149 106 99 96 
325 513 148 93 87 84 
325 513 149 100 93 91 
325 512 150 113 106 104 
325 513 150 109 103 101 
326 513 149 90 84 82 
326 512 151 113 106 104 
326 513 150 98 92 90 
326 513 151 95 90 88 
326 514 148 87 82 80 
326 514 149 85 80 78 
326 514 150 81 76 74 
326 514 151 76 71 69 
327 514 151 74 69 67 
326 512 152 106 100 97 
326 512 153 95 88 84 
326 513 152 88 83 81 
326 513 153 83 77 73 
327 513 153 73 68 65 
326 512 154 97 90 87 
327 512 154 103 96 94 
327 512 155 97 90 87 
327 513 154 84 77 74 
327 513 155 85 78 75 
327 514 152 68 64 63 
327 514 153 67 62 61 
327 514 154 71 66 64 
327 514 155 74 69 65 
327 512 156 84 78 73 
327 512 157 79 72 69 
327 513 156 80 73 69 
327 513 157 78 71 67 
327 514 156 74 67 63 
328 515 151 71 66 64 
328 515 152 66 62 59 
328 515 153 66 60 58 
328 514 155 71 65 62 
328 515 154 70 65 62 
328 515 155 72 66 62 
329 515 155 74 67 62 
328 513 157 78 72 69 
328 512 158 84 78 75 
328 512 159 87 81 79 
328 513 158 81 77 75 
328 513 159 76 71 69 
328 514 156 72 66 62 
328 514 157 76 70 67 
328 515 156 71 65 61 
328 515 157 74 69 65 
329 515 156 72 65 60 
329 515 157 75 70 66 
328 514 158 76 71 69 
328 514 159 69 65 64 
329 514 159 66 63 62 
329 515 158 75 69 66 
329 515 159 68 64 62 
330 515 159 71 67 66 
329 516 155 79 72 68 
329 516 156 76 70 65 
329 516 157 74 68 64 
330 516 156 79 72 67 
330 516 157 76 70 65 
331 517 157 88 81 77 
330 516 158 74 68 63 
330 516 159 74 68 63 
331 517 158 86 79 74 
331 517 159 81 74 69 
332 517 159 89 82 77 
328 512 160 72 66 62 
328 512 161 77 71 68 
328 513 160 69 64 61 
329 512 161 85 79 78 
329 513 160 70 66 66 
329 513 161 79 75 73 
329 512 162 100 95 94 
329 512 163 103 99 98 
329 513 162 78 74 72 
329 513 163 79 75 74 
329 514 160 70 67 68 
329 514 161 69 66 65 
329 515 160 75 73 73 
329 514 162 67 61 58 
329 514 163 73 68 66 
330 515 160 77 74 75 
330 515 161 68 65 64 
330 514 162 70 65 62 
330 514 163 88 84 83 
330 515 162 71 67 64 
330 515 163 90 85 83 
329 512 164 98 94 94 
329 512 165 90 86 87 
329 513 164 90 86 86 
330 512 165 88 83 82 
330 513 164 101 97 96 
330 513 165 104 99 97 
330 512 166 88 83 82 
330 512 167 96 91 89 
330 513 166 107 101 99 
330 513 167 110 104 102 
331 513 167 117 110 108 
330 514 164 108 104 103 
330 514 165 115 109 108 
330 515 164 103 99 98 
331 514 165 113 107 105 
331 515 164 103 98 96 
331 515 165 106 99 96 
330 514 166 118 111 109 
331 514 166 116 109 107 
331 514 167 118 111 109 
331 515 166 107 99 95 
331 515 167 114 106 103 
330 516 160 77 73 72 
330 516 161 73 69 68 
331 516 161 77 72 69 
331 517 160 83 76 73 
331 517 161 81 75 72 
330 516 162 75 71 69 
331 516 162 83 77 75 
331 516 163 92 86 84 
331 517 162 83 77 74 
331 516 164 97 92 90 
331 516 165 98 91 87 
332 515 167 109 101 98 
332 517 160 89 82 78 
332 517 161 88 81 78 
332 517 162 91 84 81 
332 517 163 96 90 87 
332 518 161 93 86 82 
333 518 160 99 91 87 
333 518 161 95 88 84 
332 518 162 94 87 84 
333 518 162 95 88 83 
333 518 163 93 86 82 
332 516 164 96 89 86 
332 516 165 95 87 83 
332 517 164 95 89 86 
332 517 165 94 87 82 
333 517 164 96 89 87 
333 517 165 96 89 85 
332 516 166 95 87 82 
332 516 167 98 91 87 
332 517 166 94 86 81 
