ply
format ascii 1.0
comment Created by CloudCompare v2.10.1 (Zephyrus)
comment Created 1/30/20 6:08 PM
obj_info Generated by CloudCompare!
element vertex 2016
property float x
property float y
property float z
property uchar red
property uchar green
property uchar blue
end_header
141 772 159 51 48 46 
140 774 156 97 90 87 
140 774 157 95 89 87 
140 775 156 89 83 81 
140 775 157 90 85 82 
141 774 156 98 91 88 
141 775 156 90 84 82 
140 774 158 89 83 81 
136 777 159 91 86 85 
137 776 159 91 85 84 
137 777 158 91 86 86 
137 777 159 93 88 87 
136 779 157 83 79 78 
137 778 157 75 71 70 
137 779 156 100 95 94 
137 779 157 81 77 76 
136 778 158 75 71 70 
136 778 159 85 81 80 
136 779 158 74 70 69 
137 778 158 78 74 73 
138 777 157 85 82 81 
139 776 156 82 78 78 
139 776 157 88 84 83 
139 777 156 77 73 72 
139 777 157 83 79 79 
138 776 158 89 84 83 
138 776 159 86 81 79 
138 777 158 91 87 87 
139 776 158 86 81 79 
138 778 157 74 71 70 
138 779 156 96 91 90 
138 779 157 77 73 72 
139 778 156 79 74 73 
139 778 157 74 69 68 
139 779 156 101 96 95 
138 780 155 116 110 109 
138 781 155 112 105 103 
139 780 155 114 108 107 
139 781 155 108 101 98 
138 782 155 108 101 98 
139 782 155 102 95 92 
136 780 156 98 93 92 
136 780 157 94 90 89 
136 781 156 104 97 95 
137 780 156 106 100 99 
137 781 156 113 105 102 
136 782 156 117 109 105 
136 783 156 129 119 115 
136 783 157 136 124 119 
137 782 156 118 110 107 
137 783 156 117 109 106 
138 780 156 116 109 108 
139 780 156 118 113 112 
138 782 156 105 97 94 
138 783 156 99 91 88 
139 783 156 100 93 90 
140 777 155 79 75 75 
141 776 155 83 78 77 
141 777 155 81 77 75 
140 778 155 87 83 82 
140 779 155 103 98 98 
141 778 155 86 81 80 
141 779 154 109 103 102 
141 779 155 99 94 93 
143 776 153 111 104 102 
143 777 153 111 104 102 
142 776 154 97 91 89 
142 777 154 98 92 90 
143 778 153 109 102 99 
143 779 153 109 101 99 
142 778 154 100 93 92 
142 779 154 105 98 97 
143 778 154 106 99 97 
143 779 154 103 96 94 
140 776 156 83 79 79 
140 777 156 81 77 77 
140 778 156 84 80 79 
140 779 156 98 94 93 
140 780 155 109 103 102 
140 781 155 112 104 102 
141 780 154 114 108 106 
141 780 155 113 106 105 
141 781 154 112 105 103 
141 781 155 114 106 104 
140 782 155 109 102 100 
141 782 155 109 102 99 
143 780 153 109 102 99 
143 781 153 112 105 102 
142 780 154 110 104 102 
142 781 154 110 102 99 
143 781 154 109 101 98 
143 782 153 112 104 102 
142 782 154 107 100 97 
142 782 155 105 97 95 
142 783 155 105 98 95 
143 782 154 109 102 99 
143 783 154 109 101 97 
143 783 155 110 102 99 
140 783 156 105 98 97 
141 783 156 106 99 98 
141 783 157 104 97 96 
142 783 156 102 95 93 
133 784 159 147 135 130 
135 784 157 138 126 119 
134 784 158 143 131 125 
134 784 159 140 127 121 
134 785 159 134 121 113 
135 784 158 138 125 118 
135 785 158 132 118 110 
135 785 159 130 116 108 
136 784 157 129 117 111 
136 785 157 125 113 106 
137 784 157 117 107 102 
137 785 157 118 107 102 
136 785 158 129 116 108 
136 785 159 129 116 107 
137 785 158 120 109 102 
136 786 159 130 117 109 
137 786 158 124 112 106 
137 786 159 128 116 110 
138 784 156 92 85 82 
138 784 157 102 94 91 
138 785 157 104 96 93 
139 784 156 91 85 83 
139 784 157 91 84 82 
138 785 158 112 103 100 
139 785 158 97 90 88 
138 786 158 113 104 100 
138 786 159 117 108 104 
139 786 159 106 99 97 
139 787 159 117 108 105 
143 784 155 109 101 99 
140 784 157 97 91 90 
141 784 157 103 96 95 
140 784 158 99 93 92 
140 785 158 95 89 87 
140 785 159 99 93 91 
141 784 158 105 98 97 
141 785 158 106 100 98 
141 785 159 107 101 100 
140 786 159 103 96 95 
141 786 159 105 99 98 
142 784 156 100 93 92 
142 784 157 101 94 92 
142 785 157 105 98 96 
143 784 156 109 101 98 
143 784 157 106 98 96 
143 785 156 111 103 101 
143 785 157 111 104 101 
142 784 158 104 98 96 
142 785 158 110 103 101 
143 785 158 111 104 101 
143 786 157 113 106 103 
142 786 158 120 112 110 
142 786 159 116 109 108 
143 786 158 117 109 107 
143 786 159 123 116 113 
143 787 159 125 117 115 
144 770 135 116 108 104 
144 771 135 116 107 105 
144 773 128 158 147 144 
144 773 129 150 140 136 
144 773 130 132 123 119 
144 773 131 115 107 104 
144 774 128 158 148 145 
144 774 129 158 147 144 
145 774 128 152 142 138 
145 774 129 161 150 147 
145 775 128 160 150 146 
145 775 129 165 154 150 
144 774 130 141 131 127 
144 774 131 115 106 103 
145 774 130 149 139 135 
145 774 131 119 110 107 
145 775 130 159 148 144 
145 775 131 129 119 115 
146 775 128 161 150 147 
146 775 129 167 155 152 
146 775 130 160 149 145 
146 775 131 128 119 115 
144 772 132 122 113 113 
144 772 133 124 115 114 
144 773 132 108 99 98 
144 773 133 111 100 101 
145 773 133 99 87 89 
144 772 134 120 112 110 
144 772 135 114 107 104 
144 773 134 106 96 97 
145 772 135 99 91 88 
145 773 134 94 84 86 
145 773 135 88 80 81 
145 774 132 104 96 95 
145 774 133 92 85 84 
145 774 134 82 72 74 
145 774 135 80 72 76 
146 773 135 79 73 73 
146 775 132 106 99 97 
146 775 133 96 89 87 
146 774 134 79 70 72 
146 774 135 80 73 73 
146 775 134 86 77 75 
146 775 135 93 84 80 
144 768 136 120 111 107 
144 768 137 121 111 107 
144 769 136 117 109 104 
144 769 137 121 111 105 
145 768 137 116 105 100 
145 769 137 109 99 93 
144 768 138 116 107 102 
145 768 138 100 91 85 
145 768 139 85 76 70 
145 769 138 100 91 85 
144 770 136 113 103 98 
145 770 136 102 92 87 
145 770 137 96 86 80 
145 771 136 91 80 74 
145 771 137 76 61 56 
146 768 139 73 64 59 
146 769 138 88 79 75 
146 769 139 70 60 58 
146 771 137 79 67 61 
146 770 138 93 83 77 
146 770 139 77 68 63 
146 771 138 92 82 77 
147 770 139 74 66 62 
147 771 139 76 68 63 
145 768 143 107 100 98 
146 768 140 77 68 63 
146 768 141 81 71 65 
147 768 141 82 73 67 
147 769 140 75 68 65 
147 769 141 79 70 65 
146 768 142 93 84 80 
146 768 143 105 98 95 
146 769 143 101 93 90 
147 768 142 87 78 73 
147 769 142 86 78 73 
147 769 143 95 87 83 
147 770 140 78 70 67 
147 770 141 79 71 65 
147 771 140 78 71 67 
147 770 142 84 76 72 
147 770 143 94 87 84 
147 771 143 95 87 84 
145 772 136 79 69 66 
146 772 136 73 64 62 
146 772 137 74 62 58 
146 773 136 81 74 73 
146 773 137 96 88 86 
146 772 138 83 74 69 
147 772 138 85 77 74 
147 772 139 74 67 65 
147 773 138 102 95 94 
147 773 139 82 76 74 
146 774 136 90 82 79 
146 774 137 105 97 95 
146 775 136 104 96 91 
147 774 137 114 107 105 
147 775 136 121 112 109 
147 775 137 123 115 111 
147 774 138 116 109 107 
147 775 138 117 110 107 
148 771 140 76 69 65 
148 771 141 77 70 65 
148 771 142 79 71 67 
148 771 143 88 81 78 
148 772 139 67 62 60 
148 773 139 80 75 74 
148 774 139 86 81 80 
148 775 138 107 100 97 
148 775 139 86 80 78 
148 772 140 68 62 59 
148 772 141 69 63 60 
148 773 140 69 64 63 
149 772 141 70 65 63 
149 773 140 71 66 64 
149 773 141 70 66 65 
148 772 142 77 70 66 
148 772 143 89 83 81 
148 773 143 92 86 85 
149 772 142 73 67 63 
149 773 142 75 69 67 
149 773 143 88 83 82 
148 774 140 72 67 65 
149 774 140 73 68 67 
149 774 141 75 70 69 
149 775 140 73 68 67 
149 775 141 79 75 73 
149 774 142 81 76 74 
149 774 143 90 85 85 
150 775 141 89 84 82 
150 774 142 88 83 82 
150 774 143 94 89 89 
150 775 142 93 87 86 
150 775 143 99 94 94 
146 776 128 146 136 134 
146 776 129 144 133 129 
147 776 128 116 105 103 
147 776 129 115 103 100 
147 777 128 95 85 79 
147 777 129 93 82 77 
146 776 130 143 132 128 
146 776 131 127 117 114 
147 776 130 114 103 99 
147 776 131 107 98 94 
147 777 130 94 84 78 
147 777 131 94 84 77 
147 778 128 113 104 99 
147 778 129 116 106 101 
147 779 128 111 101 97 
147 779 129 116 106 103 
147 778 130 117 106 101 
147 778 131 117 106 100 
147 779 130 119 109 105 
147 779 131 119 109 104 
146 776 132 106 98 95 
146 776 133 93 86 84 
147 776 132 98 90 86 
147 776 133 92 84 80 
147 777 132 97 87 82 
147 777 133 102 92 87 
146 776 134 89 80 76 
147 776 134 94 84 80 
147 776 135 109 98 92 
147 777 134 109 100 94 
147 777 135 114 103 97 
147 778 132 119 109 103 
147 778 133 123 112 107 
147 778 134 123 112 108 
147 778 135 110 100 95 
147 780 128 98 90 87 
147 780 129 100 91 88 
147 781 128 113 108 107 
147 781 129 107 100 99 
147 780 130 106 97 93 
148 778 131 122 112 106 
148 779 130 113 104 100 
148 779 131 112 102 97 
148 778 132 120 109 103 
148 778 133 120 109 103 
148 779 132 106 96 90 
148 779 133 104 93 88 
148 779 134 108 98 93 
148 779 135 107 98 95 
148 781 128 137 131 131 
148 781 129 124 118 116 
148 780 130 99 91 87 
148 780 131 99 90 86 
148 781 130 122 115 114 
148 781 131 111 104 101 
148 782 128 151 144 143 
148 782 129 150 142 141 
148 783 128 140 131 129 
148 783 129 141 132 130 
148 782 130 148 140 139 
148 782 131 133 125 122 
148 783 130 139 129 126 
148 783 131 124 115 111 
148 780 132 95 86 82 
148 780 133 97 88 84 
148 781 132 108 101 98 
148 781 133 110 102 99 
148 780 134 105 97 93 
148 780 135 108 100 97 
148 781 134 113 105 102 
148 781 135 107 99 96 
149 781 135 101 93 90 
148 782 132 123 115 112 
148 782 133 117 109 105 
148 783 132 114 106 102 
148 783 133 106 97 94 
148 782 134 115 106 103 
148 782 135 114 106 103 
149 782 134 109 101 97 
149 782 135 98 90 86 
149 783 134 99 90 88 
149 783 135 84 74 70 
147 776 136 125 115 110 
147 776 137 130 120 116 
147 777 136 113 101 96 
147 777 137 114 104 98 
147 776 138 123 115 113 
147 777 138 116 107 103 
147 778 136 102 91 87 
147 778 137 106 97 93 
147 779 137 109 101 98 
147 778 138 110 102 98 
148 776 138 115 108 106 
148 776 139 100 94 92 
148 777 138 109 102 100 
148 777 139 100 94 92 
148 779 136 102 94 91 
148 779 137 105 97 95 
148 778 138 111 104 101 
148 778 139 101 95 93 
148 779 138 112 105 102 
148 779 139 112 105 102 
149 778 139 103 96 94 
149 779 139 107 99 97 
149 776 140 79 74 73 
149 776 141 77 71 71 
149 777 140 83 77 77 
149 777 141 66 56 58 
149 778 140 90 83 82 
149 779 140 101 94 90 
150 776 141 86 79 78 
150 777 141 66 57 57 
150 776 142 100 94 93 
150 776 143 110 105 105 
150 777 142 95 87 85 
151 776 143 110 104 104 
151 777 142 81 73 73 
151 777 143 107 101 99 
150 778 141 67 60 60 
150 779 140 91 85 82 
150 779 141 79 74 73 
151 778 141 54 45 48 
151 779 141 65 60 60 
151 778 142 70 62 64 
151 778 143 94 86 86 
151 779 142 61 55 54 
151 779 143 80 73 72 
148 780 136 99 90 87 
148 780 137 99 91 87 
148 781 136 95 87 83 
149 781 136 94 86 83 
149 781 137 98 90 87 
148 780 138 105 97 93 
149 780 138 107 99 95 
149 780 139 105 97 93 
149 781 138 102 95 91 
149 782 136 91 83 81 
149 782 137 96 89 86 
149 783 136 81 72 69 
149 782 138 100 92 88 
150 781 138 106 98 95 
150 781 139 104 97 94 
150 782 137 92 84 80 
150 783 136 80 72 68 
150 783 137 85 76 71 
150 782 138 97 89 84 
150 782 139 103 95 91 
150 783 138 92 83 79 
151 782 139 106 98 96 
151 783 138 94 85 81 
151 783 139 101 92 88 
150 780 140 96 89 86 
150 781 140 97 89 85 
151 780 141 84 78 77 
151 781 140 92 84 79 
151 781 141 88 80 76 
151 780 142 69 63 61 
151 781 142 81 74 71 
151 782 140 95 87 83 
151 782 141 90 82 78 
151 783 140 97 89 84 
152 779 143 88 80 78 
152 780 143 74 67 64 
152 781 142 78 71 67 
152 781 143 70 62 58 
153 781 143 70 62 58 
152 782 141 90 82 78 
152 783 140 91 83 78 
152 783 141 92 84 79 
152 782 142 87 79 75 
152 782 143 72 65 60 
152 783 142 92 83 78 
153 782 143 72 65 60 
153 783 142 90 82 77 
153 783 143 77 69 64 
145 768 144 108 101 99 
145 768 145 111 104 102 
145 769 145 105 97 94 
144 768 146 114 106 105 
144 769 146 111 103 100 
144 769 147 110 102 100 
145 769 146 106 98 95 
145 770 145 103 95 91 
144 770 146 109 101 98 
144 770 147 110 103 100 
144 771 147 116 109 107 
145 770 146 106 98 94 
145 771 146 116 109 108 
145 771 147 117 111 110 
146 768 144 109 102 100 
146 769 144 108 100 98 
146 769 145 104 96 93 
146 770 144 110 103 101 
146 770 145 106 98 95 
146 771 145 115 108 106 
147 770 144 112 104 102 
147 771 144 112 105 103 
147 771 145 114 107 106 
146 771 146 116 109 107 
144 770 148 109 102 99 
144 771 148 113 106 104 
144 771 149 112 105 103 
145 772 147 112 106 105 
145 773 147 102 96 95 
147 772 144 103 96 93 
147 772 145 100 92 90 
147 773 145 96 90 88 
146 772 146 113 107 106 
146 773 146 98 93 91 
146 773 147 98 92 91 
147 772 146 103 96 94 
147 773 146 99 93 92 
146 774 147 96 91 90 
147 774 146 97 92 92 
147 774 147 96 91 90 
147 775 146 104 98 98 
147 775 147 106 101 100 
144 772 148 114 107 106 
144 772 149 113 106 105 
144 773 149 114 107 106 
145 772 148 114 107 106 
145 773 148 107 101 100 
145 773 149 112 106 105 
144 773 150 113 107 105 
144 774 149 112 106 105 
145 774 148 107 101 100 
145 774 149 113 107 106 
145 775 149 119 113 112 
144 774 150 113 107 106 
144 774 151 112 106 105 
144 775 150 111 104 103 
144 775 151 107 101 99 
145 775 150 115 108 107 
146 774 148 104 99 98 
146 775 148 110 105 104 
146 775 149 119 113 112 
147 775 148 113 107 108 
148 772 144 95 88 86 
148 773 144 93 88 86 
148 773 145 94 88 86 
148 774 144 92 87 86 
148 774 145 98 93 92 
148 775 145 103 98 98 
149 774 144 92 87 86 
149 775 144 98 92 91 
149 775 145 104 99 98 
148 774 146 102 97 96 
148 775 146 110 105 105 
148 775 147 113 108 107 
149 775 146 114 109 109 
150 775 144 102 96 96 
144 775 152 107 100 98 
144 776 151 108 101 100 
145 776 150 120 114 113 
145 776 151 115 109 107 
145 777 151 117 110 109 
146 776 149 121 115 114 
147 776 148 120 114 114 
147 776 149 120 114 113 
147 777 149 124 117 116 
146 776 150 125 118 117 
146 777 150 123 116 115 
146 777 151 121 114 113 
147 777 150 121 115 114 
147 778 149 122 115 113 
146 778 151 110 103 102 
146 779 151 113 105 103 
147 778 150 119 112 110 
147 778 151 115 108 106 
147 779 150 120 112 111 
147 779 151 119 111 109 
147 780 151 124 116 114 
147 781 151 123 115 113 
149 776 145 114 108 107 
148 776 147 119 113 113 
149 776 146 119 112 111 
149 776 147 124 117 117 
149 777 147 132 125 125 
149 778 147 140 133 132 
150 776 144 114 108 108 
150 776 145 116 110 109 
150 777 144 124 118 117 
150 777 145 126 118 117 
151 777 144 122 115 114 
151 777 145 125 117 115 
150 776 146 120 114 113 
150 777 146 128 121 120 
150 777 147 135 128 127 
151 777 146 128 121 119 
151 778 144 112 104 103 
151 778 145 118 110 108 
151 779 144 100 93 91 
150 778 147 136 128 126 
151 778 146 127 119 117 
151 778 147 132 123 121 
151 779 146 118 109 106 
151 779 147 126 117 114 
148 776 148 124 118 118 
148 777 148 131 125 124 
148 777 149 129 123 122 
149 777 148 135 129 129 
148 778 149 128 121 119 
149 778 148 134 127 126 
149 778 149 128 120 118 
149 779 149 128 120 118 
148 778 150 123 116 114 
148 779 150 125 117 116 
149 779 150 126 118 116 
150 778 148 134 126 124 
150 779 148 131 122 120 
150 779 149 126 117 114 
151 779 148 129 120 117 
148 780 150 125 117 115 
148 780 151 125 117 115 
148 781 151 122 114 112 
149 780 150 122 114 112 
149 781 150 118 110 108 
149 781 151 117 110 108 
148 782 151 113 105 103 
149 782 151 106 99 97 
149 783 151 99 94 93 
150 780 149 116 107 104 
151 780 148 114 104 100 
151 780 149 107 97 93 
151 781 149 102 94 91 
150 780 150 112 103 100 
150 781 150 111 104 100 
151 781 150 106 98 95 
150 782 150 107 100 98 
150 782 151 99 93 92 
150 783 151 98 93 92 
151 782 150 100 94 92 
151 783 150 96 91 91 
151 783 151 97 92 91 
144 776 152 109 102 101 
144 777 152 109 102 100 
144 777 153 108 101 98 
145 776 152 113 107 105 
145 777 152 113 106 105 
144 778 152 105 98 96 
144 778 153 107 99 96 
144 779 152 108 100 97 
144 779 153 109 101 98 
145 778 152 107 100 98 
145 779 152 110 102 99 
146 779 152 111 104 101 
144 780 152 114 106 104 
144 780 153 113 105 103 
144 781 153 114 106 103 
145 780 152 117 110 107 
145 781 152 116 108 105 
144 782 153 109 101 98 
144 783 153 104 97 94 
145 782 152 109 102 99 
145 782 153 105 97 95 
145 783 153 101 94 92 
144 783 154 104 97 94 
146 780 152 121 113 111 
146 781 152 120 112 110 
147 781 152 121 113 111 
146 782 152 109 102 99 
146 782 153 104 97 95 
146 783 153 102 96 94 
147 782 152 110 103 100 
147 783 152 102 96 94 
147 783 153 102 95 94 
148 782 152 106 98 96 
148 783 152 101 95 93 
149 783 152 100 95 94 
152 779 144 98 90 88 
152 779 145 105 98 95 
152 779 146 109 100 96 
152 779 147 116 107 103 
152 780 144 85 77 74 
152 780 145 94 86 83 
152 781 144 76 68 65 
153 780 145 91 84 81 
153 781 144 76 68 63 
153 781 145 82 75 72 
152 780 146 99 90 86 
152 780 147 103 93 88 
153 780 146 93 86 83 
153 780 147 92 82 77 
153 781 146 87 78 74 
153 781 147 87 79 75 
153 782 144 75 68 64 
154 781 145 83 76 74 
154 781 146 83 76 73 
154 781 147 84 76 72 
154 782 144 76 69 66 
154 782 145 78 71 67 
154 783 144 76 69 65 
154 783 145 77 70 66 
154 782 146 81 75 72 
154 782 147 82 75 73 
154 783 146 77 71 67 
154 783 147 80 74 72 
152 780 148 103 92 87 
152 780 149 98 89 84 
152 781 149 99 91 87 
153 781 148 92 83 80 
153 781 149 96 89 86 
152 782 149 96 91 90 
152 783 149 93 88 88 
153 782 148 88 82 80 
153 782 149 91 86 84 
153 783 149 90 86 85 
152 782 150 98 93 92 
152 783 150 96 91 91 
154 782 148 85 79 77 
154 783 148 85 79 78 
154 783 149 87 82 81 
148 784 128 131 123 120 
148 784 129 134 125 123 
148 785 128 130 122 119 
148 785 129 128 119 116 
148 784 130 134 125 121 
148 784 131 123 115 111 
148 785 130 132 123 120 
148 785 131 130 122 120 
148 786 128 133 124 121 
148 786 129 132 124 120 
149 786 128 136 126 123 
149 786 129 146 137 134 
149 787 128 143 134 130 
149 787 129 153 145 143 
148 786 130 140 132 129 
148 786 131 135 127 125 
149 786 130 150 142 140 
149 786 131 141 133 131 
149 787 130 153 145 144 
149 787 131 147 139 138 
148 784 132 114 106 103 
148 784 133 106 98 96 
148 785 132 118 111 109 
149 784 133 99 91 88 
149 785 132 117 110 108 
149 785 133 106 100 98 
149 784 134 90 82 80 
149 784 135 74 66 62 
149 785 134 94 87 85 
149 785 135 76 71 68 
149 786 132 121 115 113 
149 786 133 111 105 104 
149 787 132 129 122 121 
149 787 133 115 109 108 
149 786 134 101 95 93 
149 786 135 86 81 80 
149 787 134 104 98 97 
149 787 135 91 87 86 
149 788 128 148 140 139 
149 788 129 156 148 148 
149 789 129 158 150 150 
149 788 130 156 148 148 
149 788 131 152 144 143 
149 789 130 158 150 150 
149 789 131 154 146 146 
150 788 128 144 136 135 
150 789 128 149 142 141 
150 789 129 157 150 150 
150 789 131 155 147 146 
150 790 128 144 137 137 
150 790 129 157 150 151 
150 791 129 160 153 154 
151 790 128 141 134 133 
151 791 128 152 145 145 
151 791 129 164 156 157 
150 790 130 160 153 153 
150 790 131 154 146 146 
150 791 130 165 158 159 
150 791 131 160 152 151 
149 788 132 137 130 129 
149 788 133 119 112 110 
149 789 132 142 135 134 
149 789 133 121 114 112 
149 788 134 107 100 98 
149 788 135 97 91 90 
149 789 134 109 102 100 
149 789 135 104 98 96 
150 789 132 143 135 134 
150 789 133 122 115 113 
150 789 134 110 102 100 
150 789 135 99 93 90 
150 790 132 143 134 133 
150 790 133 126 118 115 
150 791 132 150 141 139 
150 791 133 137 128 126 
150 790 134 112 104 101 
150 790 135 104 97 94 
150 791 134 113 105 102 
150 791 135 108 100 97 
151 791 134 114 106 102 
151 791 135 107 100 98 
149 784 136 72 63 60 
149 785 136 69 62 60 
149 786 136 72 66 65 
149 787 136 75 70 69 
150 784 136 76 67 65 
150 784 137 83 73 69 
150 785 136 70 63 61 
150 785 137 81 73 70 
150 784 138 89 80 74 
150 785 138 89 80 75 
151 784 138 92 82 77 
151 784 139 96 88 83 
151 785 138 89 80 76 
151 785 139 94 85 81 
150 786 137 78 71 68 
150 787 136 73 69 68 
150 787 137 76 70 68 
150 786 138 86 79 76 
150 787 138 85 79 76 
151 786 138 89 82 78 
151 786 139 91 83 79 
151 787 138 89 83 80 
151 787 139 90 82 79 
151 784 140 103 95 91 
149 788 136 79 74 72 
150 788 136 77 72 71 
150 788 137 76 71 69 
150 789 136 82 76 74 
150 789 137 78 72 71 
150 788 138 83 77 75 
151 788 138 89 83 81 
151 788 139 88 81 78 
151 789 138 84 79 77 
151 789 139 87 81 78 
150 790 136 88 82 79 
150 790 137 79 73 71 
151 790 137 77 72 70 
151 791 136 97 92 90 
151 791 137 81 76 75 
151 790 138 80 74 71 
151 790 139 84 78 75 
151 791 138 75 69 67 
151 791 139 76 70 66 
151 789 140 93 86 82 
151 792 128 150 144 144 
151 792 129 161 154 154 
151 793 129 155 147 146 
151 792 130 166 158 159 
151 792 131 165 157 157 
151 793 130 160 152 151 
151 793 131 158 149 148 
151 792 132 159 151 151 
151 792 133 148 140 140 
151 793 132 153 145 144 
151 793 133 147 140 139 
151 792 134 116 109 108 
151 792 135 105 98 97 
151 793 134 120 114 114 
151 793 135 98 94 94 
151 794 134 125 120 121 
151 794 135 101 97 97 
151 792 136 96 91 90 
151 792 137 84 79 79 
151 793 136 88 83 83 
151 793 137 80 76 75 
151 792 138 76 71 71 
151 793 138 75 71 71 
152 786 139 93 85 81 
152 784 140 95 87 83 
152 784 141 94 86 82 
152 785 140 101 93 90 
152 785 141 94 86 82 
153 785 141 97 88 84 
153 784 142 96 88 84 
153 784 143 84 76 71 
153 785 142 97 89 85 
152 786 140 100 93 89 
152 786 141 99 91 86 
152 787 140 97 89 84 
152 787 141 103 94 89 
153 786 141 95 87 83 
152 787 142 99 91 86 
153 786 142 96 89 85 
153 786 143 96 89 86 
153 787 142 103 95 92 
153 787 143 100 92 89 
154 784 143 75 68 62 
154 785 143 85 77 71 
154 786 143 91 84 80 
154 787 143 95 88 85 
152 791 139 74 67 63 
152 788 140 95 88 84 
152 788 141 106 97 93 
152 789 140 98 90 86 
152 789 141 109 101 98 
152 788 142 107 99 95 
152 789 142 109 101 97 
152 789 143 111 102 97 
153 788 142 111 103 100 
153 788 143 107 98 92 
153 789 143 110 100 96 
152 790 140 93 85 81 
152 790 141 106 97 93 
152 791 140 84 75 70 
152 791 141 97 87 81 
152 790 142 106 97 93 
152 790 143 107 98 94 
152 791 142 103 93 88 
152 791 143 106 98 94 
153 790 143 105 97 92 
153 791 143 109 101 97 
152 792 128 139 133 133 
152 793 128 143 136 137 
152 793 129 160 151 151 
153 793 128 140 132 131 
152 793 130 167 157 156 
152 793 131 165 156 153 
153 794 128 142 133 131 
153 794 129 152 142 139 
152 794 130 171 161 158 
152 794 131 162 152 149 
153 794 130 151 139 134 
153 794 131 150 138 133 
153 795 131 136 123 114 
154 794 128 121 110 105 
154 794 129 124 113 106 
154 795 129 118 106 98 
155 794 128 120 108 100 
155 795 128 123 110 102 
155 795 129 122 109 101 
154 795 130 122 109 101 
154 795 131 126 112 101 
155 795 130 120 107 98 
155 795 131 123 109 100 
152 794 132 154 144 141 
152 794 133 152 143 141 
152 795 133 156 146 142 
153 795 132 137 124 117 
153 795 133 141 127 119 
152 794 134 145 138 137 
152 794 135 115 109 109 
152 795 134 155 145 141 
152 795 135 133 123 119 
153 795 134 145 132 125 
153 795 135 134 122 115 
154 795 132 129 115 105 
155 796 131 125 111 103 
153 796 133 134 120 110 
153 796 134 135 121 111 
153 796 135 132 119 110 
154 796 132 130 116 106 
154 796 133 130 115 105 
155 796 132 130 116 107 
155 796 133 130 116 105 
155 797 133 137 123 113 
154 796 134 132 117 106 
154 796 135 134 119 109 
154 797 135 146 132 124 
155 796 134 133 117 107 
155 797 134 138 123 113 
155 797 135 146 132 123 
156 794 128 123 111 103 
156 795 128 126 113 106 
156 795 129 128 116 107 
157 794 128 127 115 108 
157 795 128 131 119 113 
157 795 129 137 125 119 
156 795 130 124 111 102 
157 795 130 139 126 121 
158 794 128 133 122 117 
158 795 128 137 126 120 
158 795 129 143 132 126 
159 794 128 129 118 112 
159 795 128 131 120 114 
159 795 129 135 124 118 
158 795 130 147 135 130 
159 795 130 145 135 130 
156 796 130 118 105 96 
156 796 131 118 105 96 
157 796 130 132 119 112 
157 796 131 116 102 94 
158 796 130 140 128 121 
158 796 131 131 118 111 
158 797 131 140 128 122 
159 796 130 149 138 133 
159 796 131 152 140 135 
159 797 131 156 144 139 
156 796 132 123 110 101 
156 797 132 128 115 106 
156 797 133 145 133 125 
157 796 132 119 105 97 
157 797 132 126 112 104 
157 797 133 152 139 133 
156 797 134 155 141 134 
156 797 135 139 124 114 
157 797 134 161 148 141 
157 797 135 143 127 118 
157 798 135 139 123 111 
158 797 132 143 130 124 
158 797 133 150 138 132 
159 797 132 160 147 142 
158 798 133 146 134 127 
159 798 133 153 141 135 
158 798 134 145 131 123 
158 798 135 147 132 122 
159 798 134 131 117 107 
159 798 135 133 118 106 
152 792 138 72 67 67 
152 792 139 68 62 59 
152 793 138 71 67 66 
152 793 139 67 61 59 
152 794 136 83 77 76 
152 794 137 76 71 71 
152 795 136 99 91 88 
152 795 137 93 86 85 
153 795 136 122 111 107 
153 795 137 121 112 107 
152 794 138 68 65 65 
152 794 139 62 58 58 
152 795 138 103 96 94 
152 795 139 81 77 76 
153 795 139 111 103 100 
152 792 140 76 67 63 
152 792 141 93 83 78 
152 793 140 72 64 61 
152 793 141 85 75 72 
152 792 142 106 96 91 
152 792 143 109 101 97 
152 793 142 103 94 90 
153 792 143 112 103 99 
153 793 142 96 86 82 
153 793 143 98 87 81 
152 794 140 61 56 58 
152 794 141 65 57 61 
153 794 141 64 55 60 
153 795 140 97 90 87 
153 795 141 89 82 80 
153 794 142 72 58 61 
154 795 141 124 115 112 
154 794 142 83 73 69 
154 794 143 96 85 79 
154 795 142 104 95 92 
154 795 143 103 94 88 
155 794 143 106 94 86 
155 795 142 134 123 117 
155 795 143 117 105 98 
153 796 136 130 118 111 
153 796 137 135 123 118 
153 796 138 151 140 135 
153 796 139 142 131 125 
154 796 136 131 116 107 
154 796 137 136 122 112 
154 797 136 139 125 115 
154 797 137 133 117 106 
155 797 136 142 127 119 
155 797 137 132 114 103 
154 796 138 153 139 132 
154 796 139 154 140 132 
154 797 138 143 127 117 
154 797 139 148 133 123 
155 797 138 134 117 105 
155 797 139 143 125 115 
153 796 140 126 116 111 
154 796 140 149 136 129 
154 796 141 146 135 130 
155 796 140 153 138 130 
155 796 141 158 145 138 
155 797 140 149 134 124 
154 796 142 137 128 125 
155 796 142 149 139 134 
156 795 143 116 102 93 
157 795 143 104 90 80 
158 795 143 91 79 68 
156 797 136 130 113 102 
156 797 137 129 111 100 
157 797 137 129 112 98 
156 797 138 129 111 98 
156 797 139 134 115 102 
157 797 138 129 111 96 
157 797 139 131 111 96 
157 798 136 131 114 101 
157 798 137 130 113 100 
157 798 138 131 114 101 
158 797 139 134 115 101 
158 798 136 155 140 131 
158 798 137 152 137 128 
159 798 136 143 128 117 
159 798 137 148 132 122 
158 798 138 151 134 123 
158 798 139 146 129 117 
159 798 138 151 136 126 
159 798 139 148 132 124 
156 796 141 153 138 130 
156 797 140 144 126 115 
156 797 141 144 128 118 
157 797 140 132 113 99 
157 797 141 138 120 110 
156 796 142 144 131 124 
156 796 143 130 116 107 
157 796 142 132 117 108 
157 796 143 119 105 95 
158 797 140 135 115 101 
158 797 141 131 112 100 
159 797 141 127 109 99 
158 796 142 117 101 90 
158 796 143 105 91 80 
158 797 142 124 107 97 
159 796 143 93 79 69 
159 797 142 114 96 86 
159 797 143 103 86 76 
158 798 140 144 125 114 
159 798 140 136 119 109 
159 798 141 126 109 99 
150 784 151 103 98 99 
150 785 151 108 104 105 
151 784 150 100 95 95 
151 784 151 102 97 97 
151 785 151 107 103 103 
151 786 151 109 104 105 
151 787 151 112 106 106 
144 784 154 105 98 95 
144 784 155 106 98 95 
144 785 155 105 97 94 
145 784 154 103 96 93 
145 785 154 104 98 95 
145 785 155 103 96 93 
145 786 155 104 97 95 
145 787 155 105 99 97 
146 784 153 102 97 95 
147 784 153 102 96 95 
147 785 153 104 98 97 
146 784 154 104 98 97 
146 785 154 106 100 99 
147 786 153 105 100 99 
146 786 154 106 100 98 
146 786 155 105 99 97 
146 787 154 108 102 101 
146 787 155 109 102 101 
147 786 154 107 101 100 
147 787 154 110 104 103 
147 787 155 112 106 105 
144 785 156 109 101 99 
144 786 156 108 101 99 
144 786 157 113 106 104 
144 787 156 106 100 98 
144 787 157 111 104 102 
145 786 156 105 98 96 
145 787 156 106 100 98 
145 787 157 109 102 100 
144 787 158 117 110 108 
144 787 159 121 114 112 
147 788 154 114 108 107 
147 788 155 115 109 108 
145 788 156 109 102 100 
145 788 157 111 104 102 
144 788 158 114 107 106 
144 788 159 118 111 109 
145 788 158 113 106 104 
145 788 159 114 107 104 
145 789 158 116 109 107 
145 789 159 112 105 102 
146 788 156 112 106 104 
146 788 157 115 108 107 
146 789 157 120 113 112 
147 788 156 116 110 108 
147 789 156 120 113 112 
147 789 157 121 114 113 
146 789 158 118 112 111 
146 789 159 113 106 104 
147 789 158 118 112 111 
147 790 157 114 107 106 
146 790 159 112 104 102 
147 790 158 112 105 103 
147 790 159 113 106 104 
147 791 159 119 111 110 
148 784 152 102 97 96 
148 784 153 102 97 96 
148 785 153 103 98 97 
149 784 152 103 98 98 
149 785 152 105 100 100 
148 786 153 106 100 99 
148 787 153 110 104 103 
149 786 152 105 100 100 
149 786 153 106 100 100 
149 787 153 111 105 104 
148 787 154 111 105 105 
150 784 152 106 101 101 
150 785 152 108 103 104 
150 786 152 108 103 103 
150 787 152 110 105 105 
150 787 153 111 106 105 
151 786 152 111 106 106 
151 787 152 112 107 107 
149 788 153 114 108 107 
148 788 154 115 109 108 
148 788 155 117 110 109 
148 789 155 119 113 112 
149 788 154 117 111 110 
149 789 154 121 115 114 
149 789 155 122 116 115 
150 788 153 116 110 110 
151 788 152 119 112 111 
151 788 153 118 112 111 
151 789 152 126 119 118 
151 789 153 129 122 122 
150 789 154 124 118 117 
150 789 155 125 119 118 
151 789 154 131 124 125 
150 790 155 124 117 117 
151 790 154 135 129 129 
151 790 155 124 118 118 
148 789 156 120 113 112 
149 789 156 121 114 113 
148 790 156 117 110 108 
148 790 157 110 104 102 
149 790 156 116 110 109 
149 790 157 106 100 99 
148 790 158 109 102 100 
148 790 159 112 105 103 
148 791 159 120 114 112 
149 790 158 107 101 100 
149 791 158 111 105 104 
149 791 159 123 116 116 
150 790 156 113 107 105 
150 790 157 105 100 99 
150 791 157 109 103 102 
151 790 156 109 103 102 
151 791 156 109 103 102 
151 791 157 116 110 110 
150 791 158 116 110 110 
150 791 159 122 116 115 
151 791 158 126 119 119 
151 791 159 122 116 115 
151 792 159 110 104 103 
154 784 144 77 69 64 
154 784 145 83 76 73 
154 785 144 82 74 70 
154 785 145 88 81 77 
154 784 146 80 73 70 
154 784 147 84 79 77 
154 785 147 99 94 95 
155 784 146 82 75 72 
155 785 146 92 86 83 
155 785 147 98 93 93 
154 786 144 81 73 68 
154 786 145 83 75 70 
154 787 144 85 76 71 
154 787 145 87 80 75 
154 787 146 93 85 81 
154 787 147 91 84 83 
155 786 146 90 83 79 
155 786 147 93 88 86 
155 787 146 90 83 79 
155 787 147 91 84 82 
153 784 149 92 87 87 
153 785 149 97 92 92 
152 784 150 97 92 91 
152 785 150 98 93 93 
153 786 149 101 96 95 
153 787 149 104 99 99 
152 786 150 99 94 94 
152 786 151 102 98 98 
152 787 151 107 102 102 
153 786 150 100 95 94 
153 787 150 107 102 102 
154 784 148 90 85 84 
154 784 149 91 86 85 
154 785 148 100 96 96 
154 785 149 98 94 94 
154 786 148 99 94 95 
154 786 149 100 96 96 
154 787 148 97 92 92 
154 787 149 106 101 101 
153 788 144 98 90 85 
153 789 144 99 91 87 
153 790 144 99 90 85 
153 791 144 108 100 96 
154 788 144 90 81 76 
154 788 145 90 81 77 
154 789 144 95 87 83 
154 789 145 85 75 69 
154 788 146 100 91 87 
154 789 146 94 82 76 
155 788 146 99 89 84 
155 788 147 97 90 88 
155 789 146 104 94 88 
155 789 147 109 102 99 
154 790 145 87 77 73 
154 791 144 104 96 93 
154 791 145 93 84 80 
155 791 145 84 75 69 
154 790 146 82 68 61 
155 790 146 90 77 70 
155 790 147 112 103 99 
155 791 146 82 68 61 
155 791 147 104 92 85 
152 788 151 119 113 112 
153 788 150 122 116 116 
153 788 151 127 121 121 
153 789 150 132 126 127 
153 789 151 139 132 132 
154 788 148 99 93 93 
154 788 149 114 110 111 
154 789 149 122 116 116 
155 788 148 96 89 87 
155 789 148 106 99 97 
155 789 149 118 111 110 
154 789 150 135 128 128 
154 789 151 143 135 135 
155 790 148 117 109 106 
155 790 149 123 115 113 
155 791 148 120 112 109 
155 791 149 128 119 116 
154 790 150 140 133 133 
154 790 151 144 137 136 
155 790 150 139 131 130 
155 790 151 142 134 134 
155 791 150 137 129 128 
155 791 151 135 127 126 
156 791 146 98 86 80 
156 791 147 116 106 101 
156 791 148 124 115 112 
156 791 149 130 121 119 
156 791 150 130 121 119 
156 791 151 123 115 113 
152 788 152 124 117 116 
152 789 152 135 127 127 
152 789 153 137 129 129 
153 789 152 143 136 136 
152 790 153 139 132 132 
153 790 152 142 135 134 
153 790 153 134 128 127 
152 790 154 133 127 127 
152 790 155 119 113 112 
152 791 155 116 109 108 
153 790 154 129 122 122 
153 791 154 118 111 110 
153 791 155 114 107 106 
154 790 152 139 131 131 
154 791 152 130 123 122 
154 791 153 121 114 113 
155 791 152 123 116 114 
155 791 153 117 110 109 
154 791 154 115 108 106 
154 791 155 119 112 110 
155 791 154 118 111 110 
155 791 155 123 116 115 
152 791 156 114 108 108 
152 791 157 125 118 118 
153 791 156 121 115 114 
153 791 157 128 121 120 
152 791 158 129 123 122 
152 791 159 128 121 120 
153 791 158 129 122 121 
154 791 156 126 119 118 
153 792 144 108 99 94 
154 792 144 106 96 91 
154 792 145 102 93 89 
154 793 144 104 94 89 
154 793 145 109 99 94 
155 792 145 94 85 79 
155 793 144 109 98 95 
155 793 145 111 102 97 
155 792 146 83 71 67 
155 794 144 106 95 90 
156 793 144 103 93 89 
156 793 145 103 94 90 
157 793 145 95 86 82 
156 792 146 94 84 79 
156 792 147 108 96 91 
157 792 146 97 86 81 
157 792 147 107 95 89 
157 793 146 93 83 77 
156 794 144 97 85 78 
157 794 144 85 73 66 
157 794 145 87 76 71 
157 795 144 94 80 70 
158 793 146 87 75 69 
158 793 147 98 85 80 
159 793 146 86 74 68 
159 793 147 90 78 70 
158 794 144 76 63 55 
158 794 145 79 66 59 
158 795 144 79 66 56 
159 794 145 75 60 53 
159 795 144 76 64 54 
159 795 145 75 62 55 
158 794 146 80 67 60 
159 794 146 79 67 60 
157 792 148 118 108 104 
157 792 149 123 113 110 
156 792 150 122 114 111 
156 792 151 118 110 107 
157 792 150 116 107 104 
157 792 151 118 110 107 
158 792 148 111 100 96 
158 792 149 110 100 95 
158 793 148 103 91 85 
158 793 149 103 93 88 
159 793 148 97 85 79 
159 793 149 109 99 97 
158 792 150 111 102 98 
158 792 151 121 113 111 
158 793 150 114 104 102 
158 793 151 123 115 113 
159 793 150 117 109 109 
159 793 151 119 111 110 
159 794 151 104 95 93 
159 796 144 80 67 58 
155 792 153 121 114 112 
155 792 154 124 117 116 
155 792 155 125 117 117 
152 792 159 118 112 111 
153 792 158 127 120 119 
153 792 159 121 114 114 
154 792 156 128 121 120 
154 792 157 127 120 119 
155 792 156 124 117 115 
155 792 157 121 113 111 
154 792 158 121 114 112 
154 792 159 119 112 110 
154 793 159 111 103 101 
155 792 158 119 110 107 
155 793 158 119 111 108 
155 793 159 116 107 105 
155 794 159 109 101 98 
156 792 152 120 113 111 
156 792 153 125 117 117 
157 792 152 126 119 118 
157 792 153 127 119 118 
157 793 153 123 116 115 
156 792 154 123 116 115 
156 792 155 118 110 109 
157 792 154 119 111 109 
157 793 154 114 106 104 
157 793 155 106 97 95 
158 793 152 120 112 111 
158 793 153 119 111 109 
159 793 152 109 101 97 
159 793 153 114 107 104 
158 793 154 108 100 97 
158 793 155 100 92 88 
159 794 152 104 95 92 
159 794 153 106 98 95 
158 794 155 98 89 86 
159 794 154 98 91 87 
159 794 155 91 83 78 
159 795 154 81 73 67 
159 795 155 84 76 70 
156 792 156 118 109 108 
156 793 156 117 108 106 
156 793 157 117 109 106 
157 793 156 110 102 99 
157 793 157 117 109 107 
156 793 158 118 110 107 
156 793 159 113 105 101 
157 794 157 116 108 105 
156 794 158 112 104 101 
156 794 159 109 101 98 
156 795 159 109 101 98 
157 794 158 112 103 100 
157 795 158 108 99 96 
157 795 159 108 100 96 
158 793 156 106 97 94 
158 794 156 107 99 96 
158 794 157 113 105 103 
158 795 156 104 95 92 
158 795 157 107 99 95 
159 794 156 96 88 84 
159 795 156 97 89 85 
158 795 158 106 98 95 
159 796 155 86 77 72 
156 796 159 107 100 98 
156 797 159 106 99 96 
157 796 158 107 99 96 
157 796 159 106 99 96 
157 797 159 104 97 94 
157 798 159 102 95 93 
158 796 157 102 94 90 
158 797 157 103 95 91 
159 796 156 95 87 83 
159 796 157 99 91 87 
159 797 156 100 92 88 
159 797 157 105 97 93 
158 796 158 106 98 95 
158 797 158 106 98 94 
158 797 159 105 97 94 
159 798 157 106 98 94 
158 798 158 106 97 93 
158 798 159 103 95 92 
158 799 159 102 94 91 
159 798 158 106 98 93 
159 799 158 105 96 92 
159 799 159 102 94 91 
134 768 167 100 94 92 
134 769 167 100 95 93 
135 768 167 99 93 91 
135 769 167 99 93 91 
134 770 167 101 95 93 
135 770 167 99 93 92 
135 771 167 100 94 93 
130 768 171 115 108 107 
131 768 170 109 103 101 
131 768 171 113 107 105 
131 769 171 117 110 108 
131 770 171 119 112 110 
131 771 171 121 113 111 
129 768 173 122 115 113 
129 769 173 125 118 117 
128 768 174 125 118 116 
128 768 175 125 118 116 
128 769 174 129 122 120 
128 769 175 130 123 122 
129 768 174 123 116 114 
129 769 174 126 119 118 
129 770 173 129 121 120 
128 770 175 132 124 123 
128 771 175 135 127 125 
129 770 174 131 123 122 
129 770 175 133 125 123 
129 771 174 133 125 123 
129 771 175 134 126 124 
130 768 172 119 112 110 
130 768 173 121 114 112 
130 769 172 122 115 113 
130 769 173 123 116 115 
131 769 172 121 114 112 
130 770 172 123 115 114 
130 770 173 127 120 118 
130 771 173 130 123 121 
131 770 172 122 115 113 
131 771 172 125 117 115 
131 771 173 128 121 118 
130 771 174 134 125 123 
129 772 175 134 126 124 
129 773 175 136 128 126 
130 772 173 130 122 120 
131 772 172 126 118 116 
131 772 173 128 120 118 
131 773 172 126 118 116 
131 773 173 129 121 119 
130 772 174 132 124 121 
130 772 175 133 125 122 
130 773 174 133 125 123 
130 773 175 136 127 125 
131 773 174 134 126 123 
131 774 173 133 124 122 
131 775 173 132 124 122 
130 774 174 139 130 128 
130 774 175 139 131 128 
130 775 175 138 129 127 
131 774 174 137 129 126 
131 775 174 137 128 125 
132 768 169 107 101 99 
132 769 169 108 102 100 
133 768 168 104 98 96 
133 768 169 105 99 97 
133 769 168 105 98 97 
133 769 169 106 100 99 
132 768 170 109 103 101 
132 769 170 111 105 103 
133 770 168 105 99 98 
133 770 169 109 103 101 
133 771 169 110 104 102 
132 770 170 113 106 104 
132 770 171 116 109 107 
132 771 170 115 108 106 
132 771 171 118 111 109 
133 771 170 114 107 105 
134 768 168 102 96 94 
134 769 168 102 96 95 
134 770 168 102 96 94 
134 771 168 104 99 97 
135 771 168 102 96 95 
133 772 169 111 104 102 
132 772 171 120 113 111 
132 773 171 121 114 111 
133 772 170 115 108 105 
133 773 170 114 107 104 
133 773 171 117 110 108 
132 774 171 121 113 111 
133 774 170 114 106 103 
133 774 171 117 109 107 
133 775 170 111 104 101 
133 775 171 116 108 106 
134 772 168 105 99 97 
134 772 169 109 102 100 
134 773 169 108 101 99 
135 772 168 102 96 94 
135 773 168 104 97 95 
134 774 169 107 100 98 
134 775 169 106 99 96 
135 774 168 102 95 93 
135 774 169 104 98 96 
135 775 169 102 95 93 
134 774 170 110 103 100 
134 775 170 108 101 98 
132 772 172 124 117 115 
132 773 172 124 116 114 
132 774 172 125 117 115 
132 774 173 130 122 119 
132 775 172 125 117 114 
132 775 173 130 121 119 
133 779 160 101 95 92 
133 779 161 97 87 82 
133 779 162 100 90 83 
135 777 160 90 84 81 
135 777 161 93 87 84 
135 777 162 93 87 84 
135 777 163 92 86 83 
134 778 160 89 82 78 
134 778 161 92 84 80 
134 779 160 92 86 83 
134 779 161 92 83 77 
135 778 160 88 82 79 
135 778 161 93 86 82 
134 778 162 95 87 81 
134 778 163 92 85 81 
134 779 162 94 85 79 
134 779 163 95 85 78 
135 778 162 94 87 83 
135 778 163 93 84 79 
135 779 163 92 82 74 
134 779 164 91 80 71 
135 778 164 86 77 71 
135 779 164 88 78 71 
135 779 165 87 76 68 
132 780 160 126 117 114 
132 780 161 122 112 107 
132 781 160 132 122 118 
132 781 161 129 118 112 
133 780 160 112 105 102 
133 780 161 111 101 95 
133 781 160 125 117 113 
132 780 162 118 107 99 
132 781 162 120 108 100 
132 781 163 117 104 96 
133 780 162 114 102 95 
133 780 163 112 100 92 
133 781 163 115 102 94 
132 782 160 135 124 118 
132 782 161 131 119 111 
132 783 160 147 136 131 
132 783 161 138 126 119 
133 783 160 148 136 132 
132 782 162 121 108 99 
132 782 163 117 103 94 
132 783 162 129 116 108 
132 783 163 123 110 101 
133 782 163 113 100 90 
134 780 163 104 92 83 
133 781 164 110 96 86 
132 782 164 115 102 93 
132 783 164 119 105 96 
133 782 164 113 100 90 
133 782 165 108 95 84 
133 783 164 116 103 93 
133 783 165 113 99 89 
134 780 164 100 88 78 
134 780 165 93 81 70 
134 781 164 104 91 81 
134 781 165 100 87 77 
135 780 165 90 79 70 
134 781 166 101 90 82 
135 780 166 91 81 74 
135 781 166 96 85 78 
135 781 167 95 84 78 
134 782 165 104 91 80 
134 782 166 101 89 79 
134 783 166 107 95 86 
134 783 167 104 92 84 
135 782 166 101 90 82 
135 782 167 101 91 84 
135 783 167 105 94 87 
131 776 173 125 117 115 
130 776 175 133 124 122 
130 777 175 129 121 118 
131 776 174 129 121 119 
131 776 175 130 121 119 
131 777 174 129 120 118 
131 777 175 130 122 119 
131 778 174 132 124 121 
131 778 175 136 127 124 
131 779 175 141 131 128 
133 776 171 117 109 107 
133 777 171 119 110 108 
135 776 169 105 98 96 
134 776 170 110 103 100 
134 776 171 114 106 104 
134 777 171 117 108 105 
135 776 170 109 102 99 
135 777 170 113 105 103 
134 778 171 117 108 105 
135 778 170 114 106 102 
135 778 171 115 106 102 
135 779 171 115 105 101 
132 776 172 120 112 109 
132 776 173 123 115 112 
132 777 172 123 114 112 
132 777 173 126 117 115 
133 776 172 120 112 109 
133 777 172 121 112 110 
132 777 174 128 119 117 
132 778 173 127 119 116 
133 778 172 120 112 109 
133 778 173 124 116 113 
133 779 173 127 119 116 
132 778 174 132 123 121 
132 779 174 135 126 123 
132 779 175 139 129 126 
133 779 174 133 124 121 
134 778 172 119 111 107 
134 779 172 121 112 108 
134 779 173 127 118 114 
135 779 172 121 112 108 
135 780 171 117 108 104 
135 783 168 101 92 86 
132 780 175 133 123 119 
133 780 174 131 122 118 
133 780 175 133 123 119 
133 781 175 132 123 119 
134 780 173 128 119 116 
135 780 172 122 113 109 
135 780 173 125 116 112 
135 781 173 124 114 111 
134 780 174 129 119 116 
134 781 174 129 119 115 
134 781 175 130 121 117 
135 781 174 126 116 113 
134 782 175 130 121 117 
135 782 174 125 116 112 
135 782 175 128 119 115 
135 783 175 128 118 115 
137 768 165 96 91 89 
136 768 166 98 92 90 
136 769 166 97 91 89 
136 769 167 98 92 90 
137 768 166 97 91 89 
137 769 166 95 89 88 
136 770 166 97 91 89 
136 770 167 97 92 90 
136 771 167 98 92 91 
137 770 166 95 89 88 
137 771 166 95 90 88 
137 771 167 97 91 89 
138 768 165 93 88 87 
138 769 165 92 86 85 
139 768 164 90 85 83 
139 768 165 90 85 84 
139 769 165 88 84 82 
138 770 165 91 86 84 
139 770 165 88 83 81 
139 771 165 87 82 81 
138 770 166 92 87 85 
138 771 166 91 86 85 
138 775 160 84 80 79 
138 775 161 76 71 70 
139 774 160 72 69 69 
139 774 161 63 60 59 
139 775 160 78 75 74 
139 775 161 63 59 57 
138 775 162 69 64 62 
138 775 163 67 62 59 
139 775 162 60 56 54 
139 775 163 67 63 61 
136 772 167 99 93 91 
136 773 167 99 93 90 
137 772 166 93 87 86 
137 772 167 95 90 88 
137 773 167 95 89 87 
137 774 167 94 87 85 
137 775 167 89 83 81 
139 772 165 85 80 78 
138 772 166 91 85 84 
138 773 166 88 83 81 
138 773 167 90 85 83 
139 772 166 86 81 79 
139 773 166 84 79 77 
139 775 164 73 68 67 
139 775 165 76 71 71 
138 774 166 84 79 77 
138 774 167 88 82 80 
138 775 166 80 76 74 
138 775 167 85 80 77 
139 774 166 80 75 74 
139 775 166 78 74 73 
141 768 163 79 74 73 
143 768 160 55 51 50 
143 768 161 72 67 65 
143 769 160 48 45 44 
142 768 163 77 73 71 
142 769 163 77 72 72 
143 768 162 76 71 69 
143 768 163 75 71 70 
143 769 162 75 71 70 
143 769 163 75 71 71 
142 771 160 45 41 40 
143 770 160 49 45 43 
143 771 160 51 47 45 
143 771 161 56 52 50 
142 770 163 74 70 69 
142 771 163 71 67 66 
143 770 163 72 69 68 
143 771 162 65 60 57 
143 771 163 69 65 64 
140 768 164 85 80 78 
140 769 164 84 79 78 
140 769 165 86 81 80 
141 768 164 81 76 75 
141 769 164 79 75 74 
140 770 165 84 79 78 
140 771 165 82 78 77 
141 770 164 78 74 73 
141 771 164 75 72 71 
141 771 165 78 74 74 
142 769 164 76 72 71 
142 770 164 73 70 69 
142 771 164 72 69 68 
140 773 160 52 49 49 
141 772 160 45 41 41 
141 773 160 45 43 43 
141 773 161 46 43 45 
141 773 162 52 49 50 
141 773 163 68 65 65 
140 774 160 57 54 54 
140 774 161 50 47 48 
141 774 161 53 50 51 
140 774 162 57 54 53 
140 774 163 66 62 62 
140 775 163 66 62 61 
141 774 162 54 51 51 
141 774 163 65 62 61 
142 772 160 44 41 41 
142 772 161 46 43 44 
142 773 161 46 42 43 
143 772 160 48 44 44 
143 772 161 50 47 46 
142 772 162 58 53 52 
142 772 163 68 65 64 
142 773 162 58 54 54 
142 773 163 67 64 64 
143 772 162 59 55 53 
143 772 163 67 63 62 
140 772 165 79 75 74 
140 773 165 77 73 72 
141 772 164 74 70 69 
141 772 165 76 72 71 
141 773 164 72 68 68 
140 774 164 71 67 66 
140 774 165 74 70 70 
140 775 164 73 69 67 
140 775 165 73 70 69 
141 774 164 70 67 66 
142 772 164 72 68 67 
142 773 164 70 67 66 
136 773 168 100 93 91 
136 774 168 99 92 90 
136 775 168 98 91 89 
137 775 168 93 87 85 
136 777 160 90 85 83 
136 777 161 92 86 84 
137 776 160 88 83 81 
137 776 161 87 82 81 
137 777 160 90 85 83 
136 777 162 91 85 83 
136 777 163 85 78 74 
137 776 162 80 74 72 
137 776 163 73 67 63 
137 777 163 74 67 63 
136 778 163 84 75 70 
138 776 160 85 80 79 
138 776 162 68 62 59 
138 776 163 70 65 63 
136 777 164 72 64 59 
137 776 164 70 64 61 
137 777 164 69 62 58 
137 777 165 70 63 60 
137 776 167 89 83 80 
137 777 166 76 71 68 
137 777 167 87 80 77 
136 778 164 79 71 65 
136 778 165 80 73 68 
136 779 165 85 77 71 
137 778 165 75 68 64 
136 778 166 82 76 72 
136 779 166 85 78 73 
136 779 167 86 78 74 
137 778 166 81 74 71 
137 778 167 88 81 77 
137 779 167 85 78 74 
138 776 164 72 67 64 
138 776 165 72 68 66 
138 777 164 69 64 61 
138 777 165 71 66 64 
139 776 164 72 67 65 
139 776 165 73 69 67 
138 776 166 78 74 72 
138 776 167 83 78 76 
138 777 166 76 71 68 
138 777 167 81 76 74 
136 780 166 87 79 74 
136 780 167 85 76 71 
136 781 167 86 78 72 
136 782 167 93 85 80 
136 776 168 99 92 90 
136 776 169 101 94 92 
136 777 168 102 95 92 
136 777 169 108 100 97 
137 776 168 94 88 85 
137 777 168 96 89 86 
136 778 168 98 90 86 
136 778 169 107 99 96 
136 779 168 95 87 83 
136 779 169 101 93 88 
137 778 168 98 90 86 
136 778 170 112 104 100 
136 779 170 109 100 96 
136 779 171 115 106 102 
136 780 168 88 80 77 
136 780 169 98 88 85 
136 781 168 85 77 74 
136 781 169 96 88 84 
136 780 170 110 101 97 
136 780 171 119 109 105 
136 781 170 108 99 94 
136 781 171 117 108 104 
136 782 168 87 78 74 
136 782 169 91 82 78 
136 783 168 89 80 74 
136 783 169 83 74 68 
136 782 170 103 94 89 
136 782 171 112 102 98 
136 783 170 99 89 85 
136 783 171 109 100 96 
137 783 170 102 93 87 
137 783 171 106 97 93 
136 780 172 121 112 108 
136 781 172 121 111 107 
136 781 173 122 112 108 
136 782 172 117 108 104 
136 782 173 120 111 107 
136 783 172 117 108 104 
136 783 173 120 112 108 
137 783 172 114 106 102 
137 783 173 119 110 107 
136 782 174 123 114 110 
136 783 174 123 114 111 
136 783 175 126 117 113 
128 770 176 134 126 125 
128 771 176 135 128 126 
128 772 176 137 129 127 
128 772 177 137 129 127 
128 773 176 138 130 128 
128 773 177 138 130 128 
129 772 176 137 128 126 
129 773 176 137 129 127 
128 774 176 138 129 127 
128 774 177 138 129 127 
128 775 176 135 127 125 
128 775 177 134 126 123 
129 774 176 138 129 127 
129 775 176 136 128 125 
128 775 178 135 126 124 
128 776 177 136 127 125 
128 777 177 145 136 133 
129 776 176 135 126 124 
129 776 177 139 131 128 
129 777 176 136 127 125 
129 777 177 141 131 129 
128 776 178 144 136 134 
128 777 178 152 142 140 
128 777 179 156 147 145 
129 778 177 142 133 130 
129 779 177 139 130 127 
128 778 178 147 138 136 
128 778 179 146 137 135 
128 779 179 140 131 129 
129 778 178 143 133 131 
129 779 178 139 130 127 
129 779 179 138 129 126 
130 776 176 132 123 120 
130 777 176 132 123 121 
130 778 176 139 130 127 
130 778 177 142 133 130 
130 779 177 139 129 126 
131 778 176 142 132 129 
131 779 176 142 133 129 
131 779 177 139 129 125 
130 779 178 137 128 125 
128 778 180 141 132 130 
128 779 180 141 132 129 
128 779 181 144 135 133 
129 780 179 142 133 130 
129 781 179 143 134 132 
130 780 177 137 128 125 
131 780 177 138 128 125 
131 781 177 140 130 127 
130 780 178 139 130 127 
130 781 178 142 133 130 
130 781 179 143 134 131 
131 781 178 141 131 128 
130 782 179 138 128 125 
130 783 179 138 128 124 
131 782 178 137 128 125 
131 782 179 136 126 123 
131 783 178 134 124 121 
131 783 179 137 127 124 
128 780 180 145 135 133 
128 780 181 145 136 134 
128 781 181 142 133 130 
129 780 180 144 135 133 
129 781 180 143 134 131 
128 782 181 141 132 129 
129 782 180 140 130 127 
129 782 181 140 131 128 
129 783 180 143 133 130 
129 783 181 142 132 130 
128 782 182 142 133 130 
128 783 182 138 129 127 
130 783 180 141 131 128 
132 780 176 136 126 122 
132 780 177 137 127 123 
132 781 176 135 125 121 
132 781 177 138 128 124 
133 781 176 133 123 119 
132 782 177 136 126 122 
132 783 177 132 122 118 
133 782 176 133 124 120 
