ply
format ascii 1.0
comment Created by CloudCompare v2.10.1 (Zephyrus)
comment Created 1/30/20 6:08 PM
obj_info Generated by CloudCompare!
element vertex 1918
property float x
property float y
property float z
property uchar red
property uchar green
property uchar blue
end_header
407 676 343 135 117 103 
407 677 343 138 120 106 
401 673 345 125 110 100 
401 674 346 124 110 99 
401 675 347 125 111 100 
402 672 344 124 110 99 
402 672 345 125 110 99 
402 673 345 124 110 98 
403 672 344 123 108 96 
403 673 344 127 111 99 
403 673 345 126 111 99 
402 674 345 125 110 98 
403 674 345 126 111 100 
402 674 346 123 108 97 
402 675 346 124 109 97 
402 675 347 125 109 98 
403 675 346 127 112 100 
401 675 348 127 113 102 
402 676 347 126 111 99 
403 676 346 128 113 101 
403 676 347 128 112 100 
403 677 347 130 114 102 
400 677 349 130 115 104 
401 676 348 127 112 101 
401 677 348 127 112 100 
401 677 349 128 113 101 
401 678 349 131 115 102 
400 678 350 133 118 106 
400 679 350 135 120 108 
400 679 351 134 119 107 
401 678 350 134 118 106 
401 679 350 136 120 108 
401 679 351 137 121 109 
402 676 348 127 112 100 
402 677 348 129 113 102 
403 677 348 131 115 102 
402 678 348 131 115 103 
402 678 349 131 115 103 
402 679 349 134 118 105 
403 678 348 134 118 105 
403 679 348 137 120 108 
403 679 349 137 120 108 
402 679 350 136 120 108 
404 672 344 121 106 93 
404 673 344 125 109 97 
404 673 345 127 111 99 
405 672 344 124 108 95 
405 673 344 125 109 96 
404 674 345 128 113 100 
404 675 345 129 113 101 
405 674 344 126 110 98 
405 674 345 127 111 99 
405 675 345 130 113 101 
404 675 346 128 113 101 
406 673 344 127 110 97 
406 674 344 128 111 97 
406 675 344 130 113 99 
406 675 345 130 113 100 
407 675 344 133 115 101 
405 676 345 131 115 101 
404 676 346 130 114 101 
404 676 347 130 114 102 
404 677 346 132 116 103 
404 677 347 133 116 104 
405 676 346 130 114 101 
405 677 346 133 116 103 
404 678 347 135 118 105 
404 679 347 137 120 106 
405 678 346 135 118 104 
405 678 347 137 120 106 
405 679 346 139 121 107 
405 679 347 139 121 107 
406 676 344 132 115 101 
406 676 345 132 115 101 
406 677 344 133 116 102 
406 677 345 133 116 102 
407 676 344 134 117 103 
407 677 344 136 119 105 
406 678 345 135 118 103 
406 679 345 138 120 105 
407 678 344 139 121 108 
407 679 344 140 122 107 
407 679 345 138 120 105 
406 678 346 135 118 103 
406 679 346 138 120 106 
404 678 348 136 119 106 
404 679 348 138 121 108 
404 679 349 138 121 108 
400 680 351 135 119 107 
401 680 351 137 121 109 
401 681 351 138 121 108 
403 680 349 138 121 109 
402 680 350 138 122 110 
402 680 351 138 122 110 
402 681 351 139 122 109 
403 680 350 138 121 109 
403 681 350 139 122 109 
403 681 351 139 123 110 
402 682 351 139 122 108 
403 682 350 139 122 109 
403 682 351 140 122 109 
403 683 351 141 123 110 
403 684 351 142 124 111 
405 680 347 141 123 109 
405 681 347 143 124 110 
407 680 344 141 122 106 
407 680 345 141 122 106 
407 681 345 143 123 107 
406 680 346 141 122 106 
406 680 347 142 124 109 
406 681 346 143 123 107 
406 681 347 144 125 109 
407 681 346 142 122 105 
407 682 345 144 124 107 
407 683 345 142 122 106 
406 682 346 144 124 108 
406 682 347 145 125 110 
406 683 347 146 126 109 
407 682 346 143 123 106 
407 683 346 144 125 109 
407 683 347 145 126 110 
404 680 348 140 122 108 
404 680 349 139 122 108 
404 681 349 140 122 109 
405 680 348 141 123 108 
405 681 348 142 124 109 
405 681 349 142 124 110 
404 682 349 141 123 109 
405 682 348 143 124 109 
405 682 349 142 124 110 
405 683 349 143 125 109 
404 682 350 141 123 110 
404 683 350 143 126 112 
404 683 351 142 125 112 
405 683 350 144 126 111 
406 682 348 143 124 109 
406 683 348 144 124 108 
406 684 347 146 125 109 
407 684 346 143 123 106 
407 684 347 146 126 109 
407 685 346 141 121 104 
407 685 347 142 122 106 
407 686 347 141 121 104 
407 687 347 140 120 103 
405 684 349 145 126 110 
404 684 350 145 127 113 
404 684 351 144 126 112 
404 685 351 145 126 111 
405 684 350 145 126 112 
405 685 350 146 127 112 
404 686 351 145 126 111 
404 687 351 145 125 109 
405 686 350 147 127 111 
405 686 351 146 127 111 
405 687 350 146 126 109 
405 687 351 145 125 108 
406 684 348 144 124 107 
406 684 349 144 125 109 
406 685 348 145 125 108 
406 685 349 147 127 112 
407 685 348 144 124 107 
406 686 348 145 125 109 
406 686 349 147 128 112 
406 687 349 145 125 109 
407 686 348 143 123 107 
407 687 348 141 121 104 
407 687 349 143 123 106 
406 686 350 148 128 112 
406 687 350 147 127 111 
408 672 342 112 95 83 
408 673 342 117 100 86 
408 673 343 119 101 87 
409 672 342 101 86 74 
409 673 342 106 89 76 
408 674 342 120 102 88 
408 674 343 125 108 94 
408 675 343 130 112 98 
409 674 342 111 93 79 
409 675 342 119 100 87 
410 672 342 90 77 67 
410 673 342 93 78 67 
411 672 342 106 95 88 
411 673 342 95 82 73 
410 674 342 97 80 69 
410 675 342 101 83 74 
411 674 342 92 77 67 
411 675 342 93 76 66 
408 676 343 134 116 102 
408 677 343 137 120 105 
409 676 342 126 108 95 
409 677 342 129 111 97 
409 677 343 133 115 100 
408 678 343 140 123 109 
408 679 343 141 122 108 
409 678 342 133 115 101 
409 678 343 137 118 104 
409 679 342 134 116 101 
409 679 343 138 119 105 
410 676 342 108 90 78 
410 677 342 114 97 83 
411 676 342 97 80 70 
411 677 342 102 85 73 
410 678 342 124 106 92 
410 679 342 129 110 96 
411 678 342 109 92 79 
411 679 342 116 98 84 
412 672 342 133 123 118 
412 673 342 118 107 101 
413 672 342 151 143 141 
413 673 342 144 135 132 
412 674 342 107 94 88 
412 675 342 99 84 75 
413 674 342 133 123 120 
413 675 342 122 110 106 
415 672 341 159 153 155 
414 672 342 158 152 153 
414 673 342 157 151 151 
415 672 342 158 153 154 
415 673 342 159 154 156 
414 674 342 153 146 146 
414 675 342 147 139 138 
415 674 342 159 153 155 
415 675 342 158 152 153 
412 676 342 94 79 68 
412 677 342 96 79 67 
413 676 342 112 99 93 
413 677 342 104 91 83 
412 679 341 103 87 75 
413 678 341 95 80 73 
413 679 341 99 83 75 
412 678 342 100 83 71 
412 679 342 105 88 76 
413 678 342 97 83 75 
413 679 342 95 78 69 
414 676 342 138 129 127 
414 677 342 129 120 116 
415 676 342 154 148 148 
415 677 342 150 143 142 
414 678 341 113 102 98 
414 679 341 108 95 91 
415 678 341 145 138 136 
415 679 341 130 121 119 
414 678 342 120 110 105 
415 678 342 142 134 132 
408 678 344 142 125 111 
408 679 344 141 123 108 
409 680 343 138 119 104 
409 681 343 138 119 103 
409 682 343 136 116 100 
409 683 343 134 115 98 
410 680 342 131 112 98 
410 681 342 132 114 99 
410 681 343 136 117 101 
411 680 342 120 103 89 
411 681 342 125 108 94 
410 682 342 132 113 98 
410 682 343 134 115 98 
410 683 342 131 112 96 
410 683 343 133 114 97 
411 682 342 129 112 98 
411 683 342 131 113 98 
409 684 343 134 114 98 
410 684 342 131 113 97 
410 684 343 132 114 97 
410 685 343 134 116 101 
411 684 342 132 114 98 
411 685 342 134 115 100 
410 686 343 138 120 104 
410 687 343 141 121 105 
411 686 342 138 120 105 
411 686 343 140 121 106 
411 687 342 143 123 107 
411 687 343 142 123 107 
412 680 341 110 94 82 
412 681 341 115 98 85 
413 680 341 102 86 78 
413 681 341 104 87 78 
412 680 342 110 93 80 
412 681 342 120 103 90 
412 682 341 125 108 94 
412 683 341 131 113 98 
413 682 341 112 95 83 
413 683 341 124 106 92 
412 682 342 126 109 95 
414 680 341 99 86 80 
414 681 341 93 79 73 
415 680 341 123 114 110 
415 681 341 116 104 100 
414 682 341 100 83 74 
414 683 341 108 89 77 
415 682 341 107 95 88 
415 683 340 102 86 78 
415 683 341 104 89 81 
415 687 339 116 96 82 
412 684 341 133 114 98 
412 685 341 134 115 99 
413 684 341 130 111 96 
413 685 341 133 114 99 
412 684 342 133 114 99 
412 685 342 134 115 99 
412 686 341 138 119 103 
412 687 341 143 123 106 
413 686 341 137 117 101 
413 687 340 140 119 102 
413 687 341 141 120 104 
412 686 342 138 119 103 
412 687 342 143 123 106 
414 684 340 109 89 77 
414 684 341 117 97 85 
414 685 340 119 99 86 
414 685 341 127 107 93 
415 684 340 104 87 77 
415 685 340 107 88 77 
414 686 340 127 108 93 
414 686 341 132 113 98 
414 687 340 132 112 97 
415 686 340 113 94 81 
415 687 340 119 99 85 
408 680 344 141 122 106 
408 681 344 141 122 106 
408 682 344 141 121 104 
408 682 345 143 123 106 
408 683 344 138 118 102 
408 683 345 141 121 104 
409 682 344 138 119 102 
409 683 344 135 116 99 
408 684 344 136 117 100 
408 684 345 139 119 102 
408 685 345 137 117 100 
409 684 344 135 116 100 
409 685 344 136 118 102 
409 685 345 137 118 102 
408 684 346 140 120 104 
408 685 346 139 119 102 
408 685 347 140 120 104 
409 686 344 138 119 103 
409 686 345 139 120 103 
409 687 345 140 120 104 
408 686 346 139 119 102 
408 686 347 140 120 103 
408 687 346 140 120 102 
408 687 347 139 119 101 
409 686 346 139 119 103 
409 687 346 140 120 103 
410 685 344 138 119 103 
410 686 344 139 119 103 
410 687 344 140 120 103 
410 687 345 140 120 103 
405 688 350 145 125 109 
405 688 351 146 126 110 
405 689 351 147 127 112 
405 690 351 147 127 111 
405 691 351 145 125 108 
406 688 349 144 124 107 
407 688 348 138 117 99 
407 688 349 141 121 103 
407 689 348 137 117 99 
407 689 349 140 120 103 
406 688 350 146 126 110 
406 689 350 146 126 110 
407 689 350 144 124 108 
407 690 349 139 120 103 
407 691 349 140 120 103 
406 690 350 145 126 110 
406 690 351 147 128 112 
406 691 350 143 123 106 
406 691 351 144 123 106 
407 690 350 143 123 106 
407 691 350 141 121 104 
407 692 349 141 121 103 
406 692 351 143 122 105 
406 693 351 143 123 106 
407 692 350 143 122 105 
407 692 351 143 122 105 
407 693 350 144 124 106 
407 693 351 143 122 105 
406 694 351 144 123 106 
406 695 351 144 124 107 
407 694 350 143 122 104 
407 694 351 144 123 106 
407 695 350 144 123 106 
407 695 351 144 124 107 
406 696 351 144 123 106 
406 697 351 141 120 101 
407 696 350 144 123 105 
407 696 351 144 123 105 
407 697 351 143 122 104 
406 699 351 143 121 102 
407 698 351 142 121 101 
407 699 351 143 120 101 
406 700 351 143 121 102 
406 701 351 142 120 100 
407 700 351 143 120 101 
407 701 351 142 119 99 
407 702 351 142 119 99 
407 703 351 142 120 101 
410 688 343 142 121 104 
411 688 342 145 124 107 
411 688 343 144 123 106 
411 689 343 145 124 105 
411 690 343 145 123 103 
411 691 343 146 124 104 
411 692 343 148 125 106 
411 693 343 147 124 105 
411 694 343 147 124 103 
411 695 343 150 127 107 
415 688 339 122 101 87 
415 689 339 128 105 90 
414 690 339 137 114 97 
414 691 339 141 117 100 
415 690 339 130 107 92 
415 691 339 134 112 96 
412 688 341 145 124 106 
412 689 341 146 124 105 
413 688 340 141 120 103 
413 688 341 145 123 106 
413 689 340 144 121 104 
413 689 341 146 124 105 
412 688 342 144 123 106 
412 689 342 146 124 105 
412 690 341 144 122 102 
413 690 340 143 120 101 
413 690 341 144 121 101 
413 691 340 144 121 102 
413 691 341 145 122 103 
412 690 342 144 122 102 
412 691 342 145 122 103 
412 691 343 146 123 103 
414 688 340 135 114 97 
414 689 340 138 115 98 
415 688 340 125 104 89 
414 690 340 141 117 99 
414 691 340 142 119 101 
414 692 339 142 119 102 
414 693 339 142 119 101 
415 692 339 138 116 100 
415 693 338 136 115 99 
415 693 339 139 116 99 
414 694 339 143 120 101 
414 695 339 144 121 101 
415 694 338 137 115 99 
415 694 339 139 116 99 
415 695 338 138 114 99 
415 695 339 141 117 100 
413 692 340 144 121 102 
413 692 341 145 122 102 
413 693 340 145 122 102 
413 693 341 146 122 101 
412 692 342 146 123 103 
412 692 343 147 124 105 
412 693 342 147 124 104 
412 693 343 148 125 106 
413 694 340 145 120 100 
413 694 341 144 120 98 
413 695 341 145 119 99 
412 694 342 147 123 103 
412 694 343 148 125 105 
412 695 342 147 122 101 
412 695 343 149 126 106 
413 695 342 145 120 99 
414 692 340 143 120 102 
414 693 340 144 121 102 
414 694 340 145 121 101 
414 695 340 144 119 99 
409 688 345 141 120 103 
408 688 347 138 118 100 
408 689 347 138 117 99 
409 688 346 139 119 101 
409 688 347 137 116 98 
409 689 346 137 116 96 
409 689 347 137 116 96 
408 690 347 139 119 101 
409 690 346 139 117 97 
409 690 347 138 117 98 
409 691 346 142 119 100 
409 691 347 141 120 102 
410 688 344 141 119 102 
410 688 345 141 120 102 
410 689 344 143 121 102 
410 689 345 142 120 100 
411 689 344 143 121 101 
410 689 346 139 116 96 
410 690 344 145 121 101 
410 690 345 144 121 101 
410 691 344 145 121 101 
410 691 345 145 121 101 
411 690 344 144 121 101 
411 691 344 146 123 103 
410 690 346 142 119 100 
410 691 346 145 122 103 
408 688 348 137 117 99 
408 689 348 138 118 100 
408 690 348 139 118 101 
408 690 349 138 118 101 
408 691 348 139 118 101 
408 691 349 139 119 102 
409 692 347 143 122 104 
409 693 347 143 121 103 
409 694 347 146 125 107 
409 695 347 148 127 108 
410 692 345 145 122 102 
410 693 345 145 122 103 
411 692 344 146 123 102 
411 693 344 146 123 103 
410 692 346 145 122 104 
410 693 346 143 121 102 
410 694 345 146 123 103 
410 695 345 147 124 105 
411 694 344 146 123 103 
411 694 345 146 124 104 
411 695 344 150 128 108 
411 695 345 149 127 107 
410 694 346 144 121 101 
410 694 347 145 123 105 
410 695 346 147 124 105 
410 695 347 148 126 108 
408 692 348 142 122 105 
408 692 349 143 123 106 
408 693 348 147 127 111 
408 693 349 146 126 109 
409 692 348 143 122 105 
409 693 348 146 125 108 
408 694 348 148 128 111 
408 694 349 146 126 109 
408 695 348 148 126 108 
408 695 349 146 125 107 
409 694 348 149 128 112 
409 695 348 148 127 109 
408 694 350 144 123 106 
408 695 350 145 123 105 
411 696 343 152 129 109 
414 696 339 144 121 100 
415 696 338 140 117 100 
415 696 339 143 119 100 
415 697 338 144 121 103 
415 697 339 145 122 102 
415 698 338 146 122 103 
415 698 339 146 122 102 
415 699 338 147 122 102 
415 699 339 146 121 100 
413 696 341 145 120 99 
413 697 341 145 120 100 
412 696 342 148 124 103 
412 696 343 150 127 106 
412 697 342 149 125 103 
412 697 343 150 126 105 
413 696 342 147 121 100 
413 697 342 148 123 102 
413 698 341 148 123 103 
413 699 341 149 126 105 
412 698 342 149 125 104 
412 698 343 148 124 102 
412 699 343 148 125 105 
413 698 342 149 125 104 
413 699 342 149 125 104 
414 696 340 145 120 100 
414 697 340 145 121 100 
414 698 340 145 120 100 
414 698 341 146 121 101 
414 699 340 146 122 102 
414 699 341 147 124 103 
414 701 339 147 123 102 
415 700 338 146 121 101 
415 700 339 146 121 100 
415 701 338 147 123 102 
415 701 339 147 123 102 
414 702 339 147 122 100 
414 703 339 149 123 102 
415 702 338 148 123 103 
415 702 339 148 123 104 
415 703 338 150 125 104 
415 703 339 149 124 104 
413 700 341 148 124 103 
413 701 341 147 123 102 
412 700 342 147 124 103 
412 700 343 146 123 103 
412 701 342 145 121 100 
412 701 343 144 121 100 
413 700 342 148 125 103 
413 701 342 145 121 99 
413 702 341 147 123 102 
413 703 341 146 122 101 
412 702 343 144 120 99 
412 703 343 144 120 99 
413 702 342 144 120 99 
413 703 342 145 122 100 
414 700 340 148 124 103 
414 700 341 147 124 103 
414 701 340 147 123 101 
414 701 341 147 123 102 
414 702 340 147 122 99 
414 702 341 147 123 102 
414 703 340 146 122 100 
414 703 341 146 121 100 
409 696 347 148 126 107 
409 697 347 150 128 108 
409 698 347 150 127 107 
409 699 347 150 127 107 
410 696 345 150 127 107 
410 697 345 150 127 106 
411 696 344 153 130 110 
411 696 345 150 128 108 
411 697 344 150 126 106 
411 697 345 150 126 106 
410 696 346 150 127 108 
410 696 347 148 126 106 
410 697 346 151 128 107 
410 697 347 150 127 107 
410 698 345 148 124 103 
411 698 344 147 123 103 
411 698 345 147 124 102 
411 699 344 146 123 103 
411 699 345 147 123 102 
410 698 346 150 127 107 
410 698 347 150 127 106 
410 699 346 148 125 104 
410 699 347 149 125 105 
408 696 348 147 125 106 
408 696 349 146 124 106 
408 697 349 147 125 106 
409 696 348 148 126 107 
409 697 348 150 128 109 
408 696 350 145 123 105 
408 697 350 145 123 103 
408 698 349 148 125 106 
408 699 349 146 123 103 
409 698 348 150 128 109 
409 699 348 149 127 108 
409 699 349 147 125 105 
408 698 350 145 122 102 
408 699 350 145 122 103 
409 700 347 149 127 107 
411 700 344 143 120 99 
411 700 345 144 120 99 
411 701 344 141 117 96 
411 701 345 142 118 97 
410 700 346 146 123 101 
410 700 347 147 124 103 
410 701 347 145 122 100 
411 700 346 146 122 100 
411 701 346 144 121 99 
411 702 345 142 118 97 
411 703 345 142 118 97 
410 702 346 143 120 98 
410 702 347 143 119 98 
410 703 347 141 118 96 
411 702 346 144 120 99 
411 703 346 142 119 96 
408 700 349 147 124 105 
409 700 348 150 128 110 
409 700 349 148 126 107 
409 701 348 148 126 107 
409 701 349 146 123 103 
408 700 350 144 122 102 
408 701 350 143 120 100 
409 702 348 143 120 98 
409 702 349 143 120 98 
409 703 348 142 119 97 
409 703 349 143 120 99 
408 702 350 142 120 99 
408 702 351 142 120 99 
408 703 350 143 121 101 
408 703 351 143 121 101 
409 703 350 145 122 103 
410 701 348 147 124 104 
410 702 348 143 119 98 
410 703 348 143 119 98 
412 700 344 145 122 103 
412 701 344 141 117 97 
412 702 344 142 119 99 
412 703 344 143 121 101 
412 703 345 142 118 97 
399 681 353 135 119 107 
399 682 353 135 119 107 
399 682 354 134 118 106 
399 683 354 133 117 105 
399 683 355 133 117 104 
398 684 355 133 118 106 
399 684 355 134 118 105 
399 685 355 134 117 105 
399 686 355 135 118 106 
398 685 356 134 119 107 
399 685 356 134 118 106 
398 686 356 134 119 107 
398 686 357 133 118 106 
398 687 357 133 117 106 
399 686 356 135 118 106 
399 687 356 135 119 107 
399 687 357 134 119 107 
397 688 358 141 126 115 
397 689 358 142 126 115 
397 689 359 144 127 116 
397 690 359 144 128 116 
397 691 359 146 130 118 
398 688 357 133 117 106 
398 689 357 134 118 107 
399 688 356 136 120 108 
399 688 357 135 120 108 
399 689 357 137 121 109 
398 688 358 135 120 109 
398 689 358 137 122 111 
399 690 357 136 120 107 
398 690 358 138 122 111 
398 690 359 142 126 115 
398 691 359 144 128 117 
399 690 358 136 120 108 
399 691 358 139 122 110 
398 692 359 147 131 120 
398 693 359 148 131 120 
399 692 358 139 122 110 
399 692 359 142 126 114 
399 693 359 147 131 119 
399 694 359 149 132 121 
399 695 359 150 133 121 
395 693 361 140 123 110 
395 693 362 137 120 107 
395 694 362 137 120 107 
395 694 363 137 121 108 
395 695 362 139 122 109 
395 695 363 139 122 109 
396 691 360 145 128 116 
396 691 361 145 128 115 
397 690 360 145 128 116 
397 691 360 147 130 118 
396 692 360 145 128 116 
396 692 361 145 128 115 
396 693 361 141 124 111 
397 692 360 147 130 118 
397 693 360 145 128 116 
397 693 361 143 126 113 
396 693 362 139 122 108 
396 694 361 141 124 111 
397 694 361 142 125 112 
397 695 361 144 127 114 
396 694 362 139 121 108 
396 695 362 139 122 109 
397 695 362 143 126 113 
398 692 360 149 133 121 
398 693 360 147 130 117 
398 694 360 146 129 116 
398 694 361 143 126 112 
398 695 360 146 128 114 
398 695 361 146 129 116 
399 695 360 148 130 117 
399 696 359 148 130 117 
399 697 359 147 128 114 
394 696 363 142 125 112 
395 696 363 142 125 113 
395 697 363 144 127 114 
395 698 363 145 128 115 
393 699 365 142 125 112 
394 696 364 142 125 113 
394 697 364 140 123 110 
395 697 364 143 126 114 
394 698 364 139 122 109 
394 698 365 141 124 111 
394 699 364 140 122 109 
394 699 365 142 124 112 
395 698 364 141 124 111 
395 699 364 141 123 110 
393 700 365 142 125 112 
393 701 365 143 125 112 
392 701 366 142 124 111 
393 700 366 142 125 112 
393 701 366 143 125 112 
392 702 366 142 124 111 
392 702 367 141 123 110 
392 703 367 142 125 112 
393 702 366 144 126 112 
393 703 366 144 126 112 
393 703 367 144 126 112 
394 700 365 142 125 112 
394 701 365 142 125 112 
395 700 364 140 122 109 
395 701 364 141 124 111 
395 701 365 143 126 113 
394 702 365 142 125 111 
394 703 365 140 123 109 
395 702 364 142 125 113 
395 702 365 141 125 113 
395 703 365 141 123 111 
394 702 366 144 125 111 
394 703 366 143 125 111 
397 696 361 145 127 115 
396 696 362 140 122 108 
396 696 363 141 123 110 
396 697 362 140 122 108 
396 697 363 143 125 111 
397 696 362 144 126 113 
397 697 362 142 124 110 
396 698 363 143 125 111 
396 699 363 144 127 113 
397 698 362 141 122 108 
397 699 362 142 124 109 
397 699 363 142 124 110 
398 696 360 148 130 116 
398 696 361 148 130 117 
398 697 361 147 129 115 
399 696 360 148 130 116 
399 697 360 149 130 116 
398 698 361 147 128 114 
398 699 361 147 129 115 
399 698 360 147 128 113 
399 699 360 145 125 109 
399 699 361 147 128 114 
398 698 362 144 126 112 
398 699 362 144 126 112 
396 700 363 142 125 112 
396 701 363 140 123 110 
397 700 362 141 123 109 
397 700 363 141 124 110 
397 701 363 139 122 109 
397 702 363 139 122 109 
397 703 363 137 120 107 
398 700 361 143 125 111 
399 700 360 145 125 110 
399 700 361 144 125 110 
399 701 360 142 123 107 
399 701 361 140 120 105 
398 700 362 140 122 108 
398 701 362 137 119 105 
399 701 362 136 117 102 
399 702 361 136 117 101 
399 703 361 136 118 103 
398 702 362 136 118 104 
398 702 363 137 120 106 
398 703 362 139 122 109 
398 703 363 136 119 106 
399 702 362 136 118 103 
399 703 362 137 119 105 
396 700 364 140 122 109 
396 701 364 139 122 109 
396 702 364 140 123 110 
396 703 364 142 125 113 
397 702 364 139 122 110 
397 703 364 140 123 111 
400 680 352 135 119 107 
400 681 352 136 120 107 
400 681 353 136 120 108 
401 681 352 136 120 107 
400 682 353 137 121 108 
401 682 352 139 122 109 
401 682 353 139 122 109 
401 683 353 140 123 110 
400 682 354 137 120 108 
400 683 354 138 121 108 
402 682 352 139 122 108 
402 683 352 141 123 109 
403 683 352 141 123 110 
401 684 353 141 124 110 
400 684 354 137 120 107 
400 685 354 137 120 107 
400 685 355 135 118 105 
401 684 354 140 123 109 
401 685 354 139 122 109 
400 686 355 135 118 105 
400 687 355 137 120 107 
401 686 354 138 121 107 
401 686 355 136 119 105 
401 687 354 138 120 106 
401 687 355 137 120 106 
402 684 352 143 126 112 
402 684 353 142 125 111 
402 685 353 143 126 112 
403 684 352 143 125 111 
403 685 352 144 126 112 
403 685 353 144 126 112 
402 686 353 144 126 112 
402 687 353 143 125 111 
403 686 352 145 127 113 
403 686 353 145 127 113 
403 687 353 145 126 112 
402 686 354 141 123 109 
402 687 354 140 122 108 
400 687 356 137 120 108 
404 685 352 145 126 111 
404 686 352 145 126 112 
404 687 352 145 126 111 
401 688 355 140 122 109 
401 689 355 142 125 112 
401 690 355 144 125 110 
403 688 353 145 127 112 
403 689 353 147 127 112 
402 688 354 141 123 108 
402 689 354 143 124 109 
402 689 355 143 125 111 
403 689 354 146 126 110 
403 690 353 147 127 111 
403 691 353 149 128 110 
402 690 354 144 124 107 
402 690 355 143 124 108 
402 691 354 145 124 107 
402 691 355 144 124 107 
403 690 354 146 126 109 
403 691 354 147 126 108 
400 688 356 139 122 110 
400 689 356 141 124 112 
400 689 357 140 124 112 
401 689 356 143 126 113 
400 690 356 143 126 113 
400 690 357 141 123 111 
400 691 357 138 120 107 
401 690 356 143 126 112 
401 691 356 143 124 109 
401 691 357 142 124 110 
400 691 358 137 120 107 
403 692 353 149 128 112 
402 692 354 147 126 110 
402 692 355 146 125 109 
402 693 355 145 124 107 
403 692 354 148 127 111 
403 693 354 147 127 109 
403 693 355 146 125 108 
402 694 355 142 118 102 
402 695 355 140 116 101 
403 694 354 144 122 104 
403 694 355 143 120 103 
403 695 354 143 121 105 
403 695 355 142 119 103 
400 692 357 137 119 104 
401 692 356 143 123 106 
401 692 357 139 120 103 
401 693 356 141 120 102 
401 693 357 139 119 102 
400 692 358 137 119 105 
400 693 358 139 121 107 
401 694 357 141 121 105 
401 695 357 143 123 108 
400 694 358 144 125 112 
400 695 358 146 128 115 
400 695 359 150 133 121 
401 694 358 141 122 107 
401 695 358 145 126 112 
402 692 356 145 124 107 
402 693 356 142 120 103 
402 694 356 142 119 103 
402 695 356 141 118 103 
404 688 352 146 127 112 
404 689 352 148 128 113 
405 689 352 148 128 113 
404 690 352 148 128 112 
404 690 353 148 128 111 
404 691 352 149 129 112 
404 691 353 149 128 110 
405 690 352 148 128 112 
405 691 352 148 128 111 
404 692 352 150 129 113 
404 692 353 150 129 112 
404 693 353 150 130 113 
405 692 352 147 127 110 
405 693 352 147 126 110 
404 694 353 148 126 108 
404 695 353 144 122 103 
405 694 352 146 125 108 
405 694 353 146 124 106 
405 695 352 143 122 104 
405 695 353 143 122 103 
404 694 354 146 124 106 
404 695 354 143 122 104 
406 693 352 145 124 107 
406 694 352 144 124 107 
406 695 352 144 123 106 
403 696 354 137 116 100 
403 696 355 138 116 101 
403 697 355 138 117 102 
403 698 355 137 115 98 
403 699 355 137 115 96 
401 696 357 147 128 115 
401 697 357 146 127 113 
400 696 358 148 130 117 
400 696 359 148 130 117 
400 697 358 146 127 113 
400 697 359 146 127 112 
401 696 358 150 132 119 
401 697 358 147 129 115 
401 698 357 146 126 111 
400 698 358 145 125 109 
400 698 359 146 126 110 
400 699 358 148 128 112 
400 699 359 145 125 109 
401 698 358 145 125 110 
401 699 358 150 130 116 
402 696 356 140 119 105 
402 696 357 144 124 110 
402 697 356 140 119 105 
402 697 357 143 123 109 
403 697 356 139 118 102 
402 698 356 139 118 101 
402 698 357 143 122 106 
402 699 356 138 116 98 
402 699 357 145 124 107 
403 698 356 137 115 98 
403 699 356 138 116 97 
403 700 355 142 120 101 
403 701 355 141 120 102 
400 700 359 145 125 109 
400 701 359 140 120 102 
401 700 358 147 127 111 
401 700 359 146 125 109 
401 701 358 142 121 104 
401 701 359 142 121 103 
401 702 358 137 117 100 
401 702 359 137 117 101 
401 703 359 137 119 103 
402 700 357 144 124 106 
402 701 357 142 122 104 
403 700 356 140 118 99 
403 701 356 140 119 101 
402 700 358 143 123 105 
402 701 358 141 120 103 
402 702 357 139 120 103 
403 702 356 140 120 104 
403 702 357 141 121 105 
403 703 356 141 122 107 
403 703 357 138 119 103 
402 702 358 138 118 101 
402 703 358 137 117 101 
402 703 359 139 119 104 
404 696 353 138 117 99 
405 696 353 140 119 101 
405 697 353 138 118 99 
404 696 354 139 118 101 
404 697 354 139 119 102 
405 698 353 140 120 102 
405 699 353 144 124 106 
404 698 354 141 121 104 
404 699 354 142 122 104 
404 699 355 139 117 98 
406 696 352 142 122 104 
406 697 352 140 119 101 
406 698 352 140 119 101 
406 699 352 143 122 104 
405 700 353 145 124 105 
405 701 353 145 123 105 
404 700 354 144 123 104 
404 700 355 143 122 103 
404 701 354 147 126 108 
404 701 355 145 124 106 
405 701 354 147 126 108 
405 702 353 145 123 105 
405 703 353 144 123 104 
404 702 354 146 126 108 
404 702 355 143 122 105 
404 703 354 145 125 108 
404 703 355 141 121 104 
405 702 354 147 126 109 
405 703 354 144 123 106 
406 700 352 144 122 104 
406 701 352 143 121 101 
406 702 352 143 121 102 
406 703 352 144 122 103 
406 703 353 144 122 104 
407 703 352 144 122 104 
404 703 356 141 122 106 
400 700 360 144 125 108 
400 701 360 140 120 104 
400 702 360 134 115 98 
400 702 361 135 116 101 
400 703 360 135 116 101 
400 703 361 136 118 103 
401 703 360 135 116 100 
416 645 320 120 117 119 
416 645 321 136 133 136 
417 645 320 123 119 121 
416 646 321 139 136 138 
417 646 320 131 127 129 
417 646 321 141 138 140 
417 647 321 143 140 142 
416 646 322 140 137 140 
416 646 323 141 138 142 
416 647 322 140 137 140 
416 647 323 141 139 142 
417 647 322 142 139 142 
417 647 323 141 139 142 
418 646 320 129 126 128 
418 646 321 142 138 141 
418 647 320 137 133 136 
418 647 321 144 141 143 
419 647 320 135 131 133 
419 647 321 145 141 143 
418 647 322 143 140 142 
416 647 324 144 142 145 
420 647 320 130 127 129 
417 648 323 143 140 143 
419 648 321 146 143 145 
418 648 322 143 139 142 
418 648 323 141 138 141 
418 649 323 141 138 141 
419 648 322 145 142 144 
419 649 322 145 141 144 
419 649 323 140 136 139 
419 650 322 143 140 142 
419 650 323 140 137 140 
416 648 324 145 143 146 
416 648 325 146 144 147 
416 649 325 146 143 147 
417 648 324 145 142 145 
417 649 324 145 143 146 
417 649 325 147 144 147 
416 649 326 146 143 146 
416 649 327 145 142 146 
417 649 326 145 142 146 
417 650 325 146 144 146 
416 650 327 143 141 144 
417 650 326 145 142 145 
417 650 327 142 140 143 
417 651 327 143 140 143 
418 649 324 145 142 145 
418 650 324 146 143 146 
418 650 325 147 144 147 
418 651 325 147 144 147 
419 650 324 144 141 144 
419 650 325 148 144 147 
419 651 324 146 143 146 
419 651 325 147 144 147 
418 650 326 148 144 147 
418 651 326 147 143 146 
418 651 327 143 140 142 
419 651 326 147 144 146 
418 652 327 143 140 142 
419 652 326 146 143 146 
419 652 327 145 142 144 
419 653 327 145 142 145 
420 648 320 137 134 136 
420 648 321 146 142 145 
420 649 320 141 138 141 
420 649 321 145 141 144 
421 649 320 135 132 135 
420 649 322 146 143 145 
421 650 320 138 135 137 
421 650 321 142 139 142 
420 650 322 145 141 143 
420 650 323 140 137 139 
420 651 323 140 137 139 
421 650 322 145 141 144 
421 651 322 141 137 139 
421 651 323 139 135 137 
422 650 320 134 131 134 
422 650 321 139 136 138 
422 651 320 133 129 131 
422 651 321 135 132 134 
423 650 320 130 127 129 
423 651 320 131 127 129 
422 651 322 138 134 136 
420 651 324 142 139 142 
420 651 325 146 143 146 
421 652 323 137 132 134 
422 652 321 134 130 132 
423 652 320 132 127 129 
423 652 321 133 129 131 
423 653 321 135 131 132 
422 652 322 136 132 134 
422 652 323 135 131 132 
422 653 322 134 130 132 
422 653 323 133 128 130 
423 653 322 134 130 131 
423 653 323 131 127 128 
423 654 322 130 126 127 
423 654 323 129 125 126 
420 652 325 146 143 146 
421 652 324 138 135 136 
421 652 325 145 142 144 
421 653 324 139 135 137 
421 653 325 143 139 142 
420 652 326 146 143 146 
420 653 326 146 143 145 
420 653 327 145 142 145 
421 653 326 145 142 144 
420 654 327 147 143 146 
421 654 326 145 141 143 
421 654 327 146 143 145 
421 655 327 148 144 146 
422 653 324 135 131 132 
422 653 325 140 136 138 
422 654 324 135 131 133 
422 654 325 140 136 137 
423 654 324 133 129 131 
423 654 325 139 134 136 
423 655 324 133 129 130 
423 655 325 139 134 136 
422 654 326 144 140 141 
422 655 326 145 140 142 
422 655 327 149 145 147 
423 655 326 141 137 138 
416 650 328 143 141 145 
416 650 329 145 143 146 
416 651 328 142 139 143 
416 651 329 146 143 146 
417 651 328 142 139 142 
417 651 329 143 141 144 
416 652 329 146 143 147 
417 652 328 142 139 142 
417 652 329 145 142 145 
417 653 329 144 141 144 
416 652 330 145 143 146 
416 653 331 146 143 146 
417 652 330 146 143 147 
417 653 330 145 142 145 
417 653 331 146 143 146 
417 654 331 146 144 147 
417 655 331 147 144 147 
418 652 328 142 139 142 
418 652 329 144 141 144 
418 653 328 143 140 143 
418 653 329 145 142 145 
419 653 328 145 142 145 
419 653 329 146 143 146 
418 653 330 146 144 147 
419 654 329 147 144 147 
419 655 329 148 145 149 
418 654 330 146 144 147 
418 654 331 147 144 147 
418 655 330 147 145 148 
418 655 331 147 144 147 
419 655 330 148 146 149 
416 653 332 144 141 144 
416 654 332 146 143 146 
416 655 333 146 143 147 
417 654 332 147 144 147 
417 655 332 147 144 147 
417 655 333 147 144 147 
416 655 334 147 144 147 
420 653 328 146 143 146 
420 654 328 147 144 147 
420 654 329 147 144 147 
420 655 329 150 146 149 
421 655 328 150 146 149 
421 655 329 151 147 150 
424 652 320 134 129 130 
424 653 320 136 131 132 
424 653 321 137 133 134 
425 653 320 139 133 134 
424 654 321 138 133 135 
425 654 320 141 135 135 
425 654 321 139 135 136 
425 655 321 136 132 133 
424 654 322 132 128 129 
424 655 322 126 121 123 
424 655 323 123 119 121 
425 655 322 126 122 123 
426 654 320 141 136 136 
426 655 320 141 135 135 
426 655 321 138 133 134 
427 655 320 139 134 134 
424 655 324 129 125 126 
423 656 325 136 131 133 
422 656 327 149 145 147 
423 656 326 144 140 142 
423 656 327 149 145 147 
423 657 327 150 145 147 
423 658 327 152 147 149 
418 656 331 148 145 149 
419 656 330 151 148 151 
419 656 331 150 147 150 
419 657 331 152 149 151 
416 656 333 147 144 147 
417 656 332 147 144 147 
417 656 333 147 144 147 
417 657 333 151 147 150 
416 656 334 149 146 149 
416 656 335 149 146 149 
416 657 334 151 147 150 
416 657 335 148 145 147 
417 657 334 152 148 151 
416 658 335 148 144 146 
417 658 334 153 149 151 
417 658 335 151 147 149 
417 659 335 153 148 151 
418 656 332 149 145 148 
418 657 332 150 147 149 
418 657 333 152 148 151 
419 657 332 154 150 152 
419 657 333 155 151 154 
418 658 333 156 151 154 
419 658 332 157 153 156 
419 658 333 157 153 155 
419 659 333 157 153 155 
418 658 334 156 151 153 
418 659 334 157 152 155 
418 659 335 156 151 154 
419 659 334 157 153 155 
417 660 335 154 149 152 
418 660 335 153 149 151 
418 661 335 151 146 148 
419 660 334 156 151 153 
419 660 335 154 149 152 
419 661 335 149 144 146 
419 662 335 145 140 142 
420 656 329 152 148 151 
421 656 328 152 148 150 
421 656 329 153 149 152 
421 657 329 156 151 154 
420 656 330 154 150 152 
420 657 330 156 152 154 
420 657 331 156 151 154 
421 657 330 157 152 154 
420 658 331 157 152 155 
421 658 330 156 151 153 
421 658 331 156 151 154 
421 659 331 155 150 152 
422 656 328 151 147 150 
422 657 328 151 147 149 
422 657 329 154 150 152 
423 657 328 151 147 149 
422 658 329 156 151 152 
422 659 329 156 151 152 
423 658 328 154 148 150 
423 658 329 156 151 153 
423 659 328 156 151 152 
423 659 329 157 151 153 
422 658 330 156 151 153 
422 659 330 155 150 151 
422 659 331 154 149 150 
420 657 332 156 152 154 
420 658 332 158 153 155 
420 659 332 157 152 154 
420 659 333 157 152 154 
421 659 332 157 151 153 
423 660 329 158 152 154 
423 661 329 157 151 152 
422 660 330 155 150 152 
422 660 331 155 150 152 
422 661 331 155 150 151 
423 660 330 157 151 153 
423 661 330 155 150 152 
423 661 331 155 150 152 
423 662 330 155 151 153 
423 662 331 156 151 153 
423 663 330 157 153 155 
423 663 331 157 152 154 
420 660 332 157 152 153 
420 660 333 157 152 154 
420 661 333 156 151 152 
421 660 332 157 152 153 
421 660 333 158 152 154 
421 661 332 159 153 155 
421 661 333 158 152 153 
420 660 334 156 151 153 
420 661 334 154 148 150 
421 662 333 157 151 152 
421 663 333 155 149 150 
420 662 334 150 145 146 
420 662 335 146 141 142 
420 663 334 146 141 143 
420 663 335 141 137 140 
421 662 334 152 147 148 
421 663 334 149 144 146 
422 660 332 157 151 153 
422 661 332 158 152 153 
422 662 332 158 152 153 
422 663 332 159 153 154 
422 663 333 157 151 153 
423 663 332 159 153 154 
423 664 331 158 153 154 
423 665 331 158 152 154 
421 664 333 155 149 150 
420 664 335 139 135 138 
420 665 335 139 135 137 
421 664 334 146 141 143 
421 664 335 140 135 137 
421 665 334 146 140 141 
421 665 335 140 135 137 
421 666 334 143 137 138 
421 666 335 139 134 135 
421 667 334 145 139 140 
421 667 335 142 136 137 
422 664 332 158 153 154 
422 664 333 156 150 152 
422 665 332 158 152 154 
422 665 333 155 149 150 
423 664 332 159 153 154 
423 665 332 160 154 156 
422 666 333 155 149 150 
422 667 333 158 153 154 
423 666 332 160 154 156 
423 667 332 161 155 156 
423 667 333 161 155 157 
422 666 334 146 141 141 
422 667 334 153 147 148 
421 668 335 144 138 138 
421 669 335 145 139 140 
422 668 333 161 156 157 
423 668 332 162 156 157 
423 668 333 162 156 158 
423 669 332 162 155 156 
423 669 333 159 153 154 
422 668 334 156 150 152 
422 668 335 147 141 142 
422 669 334 154 148 150 
422 669 335 148 142 143 
423 670 333 150 144 145 
423 671 333 146 141 142 
422 670 334 146 140 141 
422 670 335 143 138 138 
422 671 334 143 137 138 
422 671 335 143 137 138 
423 670 334 147 141 142 
423 671 334 144 139 140 
424 656 323 119 115 117 
425 656 322 117 113 115 
425 656 323 119 116 118 
425 657 323 124 120 122 
426 656 320 140 134 134 
426 656 321 135 129 130 
426 657 321 136 131 132 
427 656 320 139 133 132 
427 657 320 141 135 135 
427 657 321 141 136 137 
426 656 322 121 117 117 
426 657 322 119 115 117 
426 657 323 120 117 119 
427 658 320 145 140 141 
427 658 321 140 135 136 
427 659 321 133 127 128 
426 658 322 112 110 112 
426 658 323 122 119 121 
426 659 323 128 124 126 
427 658 322 117 113 115 
427 659 322 114 111 112 
427 659 323 123 120 122 
424 656 324 129 125 126 
424 656 325 134 130 131 
424 657 325 138 134 135 
425 656 324 127 123 124 
425 657 324 134 130 132 
425 657 325 142 138 140 
424 656 326 141 137 139 
424 657 326 149 145 147 
424 657 327 151 147 149 
425 658 324 142 138 140 
425 658 325 149 145 147 
425 659 325 152 147 150 
424 658 326 154 149 152 
424 658 327 153 149 151 
424 659 327 154 149 151 
425 658 326 153 148 151 
425 659 326 154 150 152 
425 659 327 154 149 151 
426 658 324 139 135 137 
426 659 324 142 137 139 
426 659 325 149 144 146 
427 660 322 113 110 112 
427 660 323 133 129 131 
427 661 323 142 138 139 
424 660 327 155 149 150 
425 660 326 154 149 151 
425 660 327 154 149 149 
425 661 327 154 148 149 
425 662 327 151 145 145 
425 663 327 155 148 148 
426 660 324 147 142 144 
426 660 325 153 148 150 
426 661 325 155 149 151 
427 660 324 146 142 143 
427 660 325 153 147 149 
427 661 324 149 144 145 
427 661 325 153 148 149 
426 660 326 155 150 152 
426 661 326 155 150 151 
426 662 325 155 150 151 
427 662 324 153 147 148 
427 662 325 155 149 151 
427 663 325 157 151 152 
426 662 326 155 150 151 
426 662 327 153 147 148 
426 663 326 156 150 151 
426 663 327 157 151 152 
427 663 326 156 150 151 
428 657 320 139 134 134 
428 658 320 142 137 138 
428 659 320 138 133 134 
428 659 321 134 129 129 
428 660 320 135 129 130 
428 660 321 127 122 122 
428 661 321 120 115 115 
429 660 320 134 129 129 
429 661 320 132 126 126 
429 661 321 124 119 119 
428 660 322 114 110 111 
428 661 322 115 111 112 
428 661 323 136 132 134 
429 662 320 131 124 124 
429 662 321 121 116 116 
429 663 320 128 123 123 
429 663 321 124 119 119 
428 662 322 122 118 119 
428 662 323 141 136 137 
428 663 323 145 139 140 
429 662 322 111 107 107 
429 663 322 123 118 118 
430 663 320 130 124 123 
428 662 324 150 144 145 
428 663 324 155 149 149 
424 659 328 155 150 151 
424 660 328 155 150 150 
424 660 329 157 151 152 
424 661 328 154 148 149 
424 661 329 155 149 150 
425 660 328 154 148 148 
425 661 328 152 146 146 
424 662 328 152 146 147 
424 662 329 153 148 149 
424 663 329 155 149 151 
425 662 328 151 145 145 
425 663 328 160 154 155 
424 662 330 155 150 152 
424 663 330 157 152 155 
427 664 325 157 151 152 
427 665 325 156 149 150 
426 664 326 156 150 151 
426 664 327 160 154 155 
426 665 327 161 154 155 
427 664 326 156 150 151 
427 665 326 157 151 151 
427 665 327 161 155 155 
426 666 327 162 156 157 
427 666 326 159 153 153 
427 666 327 160 154 154 
427 667 326 160 153 153 
427 667 327 153 146 146 
427 668 327 155 148 147 
427 669 327 157 149 149 
429 664 321 115 110 110 
428 664 323 150 144 145 
429 664 322 124 119 119 
429 664 323 147 141 141 
429 665 322 137 131 131 
429 665 323 151 145 145 
429 666 323 150 143 144 
429 667 323 151 144 144 
430 664 320 131 126 125 
430 664 321 120 115 115 
430 665 320 132 127 127 
430 665 321 116 111 111 
430 665 322 122 116 116 
430 666 320 134 130 131 
430 666 321 119 114 115 
430 667 321 121 116 116 
431 666 320 137 132 134 
431 667 320 140 134 135 
431 667 321 131 126 127 
430 666 322 132 126 127 
430 667 322 135 128 127 
430 667 323 148 141 140 
428 664 324 156 150 150 
428 664 325 158 151 152 
428 665 324 158 151 152 
428 665 325 158 151 152 
429 665 324 157 150 151 
428 666 324 157 151 151 
428 666 325 155 149 150 
428 667 325 155 148 149 
429 666 324 155 149 150 
429 667 324 153 146 147 
429 667 325 153 147 147 
428 667 326 160 153 153 
429 668 323 152 145 144 
430 668 321 131 124 123 
431 668 320 137 130 129 
431 668 321 138 131 131 
431 669 321 151 144 144 
430 668 322 146 138 136 
430 668 323 152 144 143 
430 669 322 149 140 139 
430 669 323 151 144 143 
431 669 322 149 141 140 
431 670 321 142 135 135 
431 671 321 132 125 123 
430 670 322 147 139 137 
430 670 323 155 148 147 
430 671 323 159 151 151 
431 670 322 145 137 136 
431 671 322 144 137 135 
428 668 325 152 145 143 
428 669 325 157 149 147 
429 668 324 152 144 144 
429 668 325 149 142 140 
429 669 324 149 141 140 
429 669 325 153 144 142 
428 668 326 158 150 150 
428 668 327 157 150 149 
428 669 326 157 149 148 
428 669 327 157 149 149 
429 670 324 156 148 147 
429 670 325 157 148 147 
429 671 324 161 153 152 
429 671 325 156 149 148 
428 670 326 155 147 146 
428 670 327 156 149 148 
428 671 326 151 143 142 
428 671 327 153 145 145 
430 670 324 155 147 147 
430 671 324 160 152 152 
424 664 329 153 147 149 
425 664 328 161 156 157 
425 664 329 152 147 148 
425 665 328 151 146 146 
425 665 329 150 145 146 
424 664 330 153 149 151 
424 664 331 156 150 152 
424 665 330 151 146 147 
424 665 331 156 150 151 
425 665 330 151 145 147 
425 666 329 151 145 146 
425 667 329 149 144 145 
424 666 330 155 149 150 
424 666 331 158 153 154 
424 667 331 160 153 154 
425 666 330 153 147 148 
425 667 330 153 147 148 
426 664 328 166 160 161 
426 665 328 157 150 151 
426 666 328 155 149 151 
426 666 329 151 146 147 
426 667 328 149 143 144 
426 667 329 150 144 145 
427 667 328 151 144 145 
424 667 332 162 155 156 
424 668 331 162 155 156 
425 668 330 159 152 153 
425 668 331 161 154 155 
425 669 330 160 154 155 
425 669 331 162 155 156 
425 670 330 162 156 157 
425 670 331 162 156 157 
425 671 331 161 154 155 
426 668 329 155 149 151 
426 669 329 157 151 152 
427 668 328 153 146 147 
427 668 329 154 148 149 
427 669 328 155 149 150 
427 669 329 155 149 150 
426 668 330 159 153 155 
426 669 330 159 153 154 
426 670 329 159 153 154 
426 671 329 161 155 156 
427 670 328 157 150 151 
427 670 329 158 151 153 
427 671 328 157 150 150 
427 671 329 161 154 155 
426 670 330 162 155 156 
426 671 330 162 155 156 
424 668 332 162 155 156 
424 669 332 163 157 157 
424 670 332 160 153 153 
424 671 332 155 149 149 
424 671 333 148 142 143 
425 671 332 161 154 155 
428 671 328 156 149 149 
416 658 336 146 143 145 
416 659 336 149 145 148 
416 659 337 150 146 148 
416 660 336 151 147 149 
416 660 337 148 144 146 
416 661 337 142 138 139 
417 660 336 150 146 148 
417 661 336 145 141 143 
417 661 337 142 138 139 
416 660 338 146 142 144 
416 661 338 143 139 141 
417 662 337 140 136 137 
417 663 337 139 135 137 
416 662 338 143 139 141 
416 662 339 146 142 144 
416 663 338 145 141 144 
416 663 339 146 142 145 
417 663 338 141 136 139 
418 660 336 151 147 149 
418 661 336 146 141 143 
418 662 336 140 136 137 
418 662 337 139 135 136 
418 663 336 138 134 135 
418 663 337 138 134 136 
419 662 336 141 136 138 
419 663 336 138 134 136 
416 664 338 144 140 142 
416 664 339 143 139 141 
416 665 339 145 141 143 
417 664 338 139 135 137 
417 664 339 142 138 140 
417 665 338 142 139 141 
417 665 339 145 141 143 
417 666 339 148 144 147 
417 667 339 150 146 149 
418 664 337 138 134 136 
418 665 337 141 138 140 
419 664 336 139 135 137 
419 664 337 140 136 138 
419 665 336 141 137 139 
419 665 337 141 138 140 
418 664 338 138 134 136 
418 665 338 141 137 140 
419 666 336 142 138 140 
419 666 337 143 139 141 
419 667 337 142 138 140 
418 666 338 146 142 145 
418 667 338 149 146 148 
418 667 339 151 147 150 
419 667 338 147 143 145 
416 664 340 142 138 140 
416 665 340 143 139 141 
416 666 340 145 140 143 
416 667 340 147 143 146 
417 667 340 149 145 148 
417 668 339 152 148 151 
417 669 339 153 149 151 
419 668 337 148 143 145 
418 668 338 151 147 150 
418 668 339 152 148 150 
418 669 339 150 146 149 
419 668 338 151 147 148 
419 669 338 148 144 146 
418 670 339 148 144 146 
418 671 339 149 144 147 
419 670 338 143 139 140 
419 670 339 142 137 139 
419 671 338 145 141 143 
419 671 339 145 140 142 
416 668 340 149 145 148 
416 668 341 149 145 148 
416 669 340 150 146 149 
416 669 341 149 145 148 
417 668 340 151 147 150 
417 669 340 152 148 151 
416 670 341 151 147 149 
416 671 341 155 150 152 
417 670 340 153 148 151 
417 671 340 153 148 151 
417 671 341 153 149 151 
418 671 340 152 147 150 
420 664 336 139 135 137 
420 665 336 140 135 137 
420 666 336 140 136 137 
420 667 336 138 133 134 
420 667 337 144 139 141 
421 667 336 139 133 134 
420 668 336 139 135 136 
420 668 337 145 140 142 
420 669 336 142 138 140 
420 669 337 145 140 142 
421 668 336 139 134 135 
421 669 336 143 137 138 
420 670 337 142 137 139 
420 671 337 146 141 142 
421 670 336 142 137 139 
421 671 336 143 138 140 
421 671 337 146 141 143 
420 671 338 147 142 144 
422 671 336 142 138 139 
432 668 320 137 130 128 
432 669 320 147 140 139 
432 670 320 150 142 142 
432 670 321 146 139 139 
432 671 320 152 144 143 
432 671 321 143 136 135 
423 672 333 144 139 140 
422 672 335 145 139 141 
422 673 335 142 137 138 
423 672 334 144 138 139 
423 672 335 142 137 139 
423 673 334 139 134 136 
423 673 335 139 135 137 
422 674 335 139 134 136 
423 674 334 138 134 136 
423 674 335 139 134 136 
423 675 334 140 134 136 
423 675 335 141 136 137 
423 676 335 149 143 144 
423 677 335 151 145 145 
423 678 335 149 142 143 
423 679 335 147 141 142 
423 680 335 148 142 142 
423 681 335 151 145 146 
423 682 335 157 150 150 
431 672 321 132 125 125 
431 673 321 134 127 127 
430 672 323 163 155 154 
430 673 323 165 157 157 
431 672 322 152 145 144 
431 673 322 154 146 146 
431 674 321 132 124 123 
431 675 320 144 136 135 
431 675 321 146 138 136 
430 674 323 161 153 152 
430 675 323 152 143 140 
431 674 322 154 146 145 
431 675 322 154 146 144 
429 672 324 159 152 152 
429 672 325 157 149 149 
429 673 324 161 154 153 
429 673 325 156 149 148 
428 672 326 152 144 144 
428 672 327 155 147 146 
428 673 326 155 147 146 
428 673 327 159 151 151 
429 674 324 161 153 152 
429 674 325 158 150 150 
429 675 324 155 146 143 
429 675 325 158 150 149 
428 674 326 157 149 149 
428 674 327 162 154 153 
428 675 326 160 152 151 
428 675 327 160 152 152 
430 672 324 162 154 153 
430 673 324 163 155 155 
430 674 324 161 153 152 
430 675 324 152 142 139 
431 676 320 142 134 132 
431 676 321 158 148 146 
431 677 320 154 145 143 
431 677 321 162 151 148 
430 676 322 157 147 143 
430 676 323 151 141 137 
430 677 322 162 152 149 
430 677 323 155 144 141 
431 676 322 160 150 147 
431 677 322 168 157 154 
430 678 321 159 149 147 
430 679 321 164 155 153 
431 678 320 166 157 154 
431 678 321 163 153 150 
431 679 320 168 159 157 
431 679 321 167 158 156 
430 678 322 152 141 139 
430 678 323 155 145 142 
430 679 322 154 145 144 
430 679 323 145 136 133 
429 676 324 148 138 134 
429 676 325 151 142 139 
429 677 324 151 140 136 
429 677 325 149 139 136 
428 676 326 159 150 149 
428 676 327 160 152 151 
428 677 326 155 145 143 
428 677 327 157 149 148 
429 676 326 157 148 146 
429 677 326 152 142 139 
429 678 324 154 143 138 
429 678 325 148 138 134 
429 679 324 155 143 139 
429 679 325 152 142 138 
428 678 326 146 137 134 
428 678 327 150 142 140 
428 679 326 145 136 132 
428 679 327 146 136 134 
429 678 326 144 134 130 
429 679 326 146 136 133 
430 676 324 148 137 132 
430 677 324 152 141 137 
430 678 324 155 145 141 
430 679 324 149 138 134 
425 672 331 153 147 147 
425 673 331 146 140 141 
425 674 331 144 138 139 
425 675 331 140 135 136 
426 672 329 163 156 156 
427 672 328 160 152 152 
427 672 329 162 155 155 
427 673 328 162 154 153 
427 673 329 160 152 152 
426 672 330 158 152 152 
426 672 331 154 148 148 
426 673 330 151 144 143 
426 673 331 146 139 140 
427 674 328 162 153 152 
427 674 329 156 148 147 
427 675 328 158 151 150 
427 675 329 152 144 143 
426 674 330 143 136 136 
426 674 331 142 136 137 
426 675 330 139 133 133 
426 675 331 137 131 132 
424 672 332 150 143 144 
424 672 333 144 138 139 
424 673 333 142 137 138 
425 672 332 151 145 145 
425 673 332 146 140 141 
424 674 333 142 137 138 
424 675 333 142 136 137 
425 674 332 145 140 141 
425 674 333 143 138 140 
425 675 332 143 137 139 
425 675 333 143 138 139 
424 674 334 138 133 135 
424 675 334 139 134 135 
427 676 328 158 151 151 
427 676 329 153 146 145 
427 677 328 157 149 149 
427 677 329 152 144 143 
426 676 330 142 135 135 
426 676 331 136 131 132 
426 677 330 147 140 141 
426 677 331 139 134 135 
427 678 328 155 147 146 
427 678 329 150 141 139 
427 679 328 152 143 141 
427 679 329 151 142 140 
426 678 330 143 135 135 
426 678 331 142 136 136 
426 679 330 143 136 135 
426 679 331 147 140 140 
427 679 330 143 134 133 
424 676 333 148 141 142 
424 677 333 155 148 149 
425 676 332 142 136 137 
425 676 333 147 141 141 
425 677 332 143 138 139 
425 677 333 151 145 145 
424 676 334 150 144 144 
424 677 334 156 149 150 
424 678 333 156 150 150 
424 679 333 148 141 142 
425 678 332 145 139 139 
425 678 333 152 145 145 
425 679 332 146 140 140 
425 679 333 147 140 141 
424 678 334 154 147 148 
424 679 334 148 141 142 
