ply
format ascii 1.0
comment Created by CloudCompare v2.10.1 (Zephyrus)
comment Created 2/3/20 1:30 PM
obj_info Generated by CloudCompare!
element vertex 1973
property float x
property float y
property float z
property uchar red
property uchar green
property uchar blue
end_header
302 577 134 104 111 122 
302 577 135 104 111 123 
303 576 135 105 112 124 
303 577 135 105 112 123 
302 578 134 103 110 122 
302 578 135 103 110 122 
302 579 135 102 109 121 
300 580 132 110 117 130 
300 580 133 107 115 127 
300 581 132 106 113 125 
300 581 133 104 112 124 
301 580 134 104 111 123 
301 580 135 102 109 121 
301 581 134 102 109 121 
301 581 135 103 110 121 
300 582 132 102 109 121 
300 582 133 100 108 120 
300 583 133 98 104 115 
300 582 134 100 107 119 
300 583 134 98 105 116 
301 582 134 100 107 118 
301 582 135 99 106 117 
301 583 134 99 106 116 
301 583 135 102 108 119 
302 580 135 104 111 122 
302 581 135 104 111 123 
302 582 135 101 108 119 
303 576 136 107 113 125 
303 577 136 106 113 124 
302 579 136 106 113 124 
303 578 136 108 115 127 
303 579 136 109 116 127 
303 579 137 111 118 130 
302 580 136 107 113 124 
302 581 136 107 114 125 
303 580 136 110 116 128 
303 580 137 108 116 127 
303 581 137 106 113 125 
303 580 138 110 118 130 
303 581 138 109 117 130 
302 582 136 105 112 123 
302 582 137 106 113 125 
302 583 136 105 112 124 
302 583 137 110 117 129 
303 582 137 107 115 127 
302 583 138 108 116 129 
303 582 138 113 121 134 
303 582 139 117 125 138 
303 583 138 109 118 131 
303 583 139 110 119 132 
303 583 140 106 114 127 
296 584 128 93 100 110 
296 585 128 92 98 109 
297 584 128 95 102 112 
297 584 129 99 105 116 
297 585 128 95 101 111 
297 585 129 100 106 117 
296 586 128 93 100 110 
296 587 128 96 102 113 
297 586 128 98 104 114 
297 586 129 103 110 120 
297 587 128 100 106 116 
297 587 129 105 111 122 
297 587 130 108 114 125 
298 584 130 102 108 118 
298 585 130 104 110 120 
298 585 131 105 111 121 
299 584 131 101 107 117 
299 585 131 103 109 120 
298 586 130 108 114 124 
298 586 131 104 110 120 
298 587 130 110 116 126 
298 587 131 103 109 119 
299 586 131 101 108 118 
299 587 131 99 106 116 
299 584 132 100 106 117 
299 585 132 100 106 116 
299 586 132 99 105 115 
299 586 133 98 105 115 
299 587 132 100 106 116 
299 587 133 99 105 115 
296 588 128 97 104 114 
296 589 128 96 102 113 
296 589 129 97 103 114 
297 588 129 104 110 121 
297 589 129 100 107 118 
297 588 130 105 112 122 
297 589 130 100 107 117 
296 590 128 90 96 106 
296 590 129 91 98 108 
296 591 128 90 96 106 
296 591 129 91 97 107 
297 590 129 93 100 110 
297 591 129 91 97 107 
297 590 130 93 99 109 
297 591 130 92 98 108 
298 588 130 106 113 123 
298 588 131 105 111 121 
298 589 130 104 110 121 
298 589 131 104 110 120 
299 588 131 102 108 118 
298 590 131 94 100 110 
298 591 131 93 99 108 
298 589 132 104 110 120 
299 588 132 101 107 117 
299 588 133 101 107 117 
299 589 132 101 108 118 
299 589 133 102 108 117 
298 590 132 96 102 112 
298 591 132 95 101 111 
299 590 132 99 106 116 
299 590 133 102 108 118 
299 591 132 97 103 113 
299 591 133 99 106 116 
299 591 134 104 110 120 
300 584 133 98 104 115 
300 585 133 98 104 114 
300 584 134 98 104 114 
300 585 134 98 104 114 
301 584 134 99 105 115 
301 584 135 100 107 117 
301 585 134 98 104 114 
301 585 135 98 105 115 
300 586 133 97 104 114 
300 587 133 99 105 115 
300 586 134 97 103 113 
300 587 134 97 103 113 
301 586 135 96 102 113 
301 587 135 96 103 114 
300 588 133 101 106 116 
300 589 133 101 107 117 
300 588 134 99 105 116 
300 588 135 97 104 114 
300 589 134 101 107 117 
300 589 135 99 105 115 
301 588 135 97 104 114 
300 590 134 101 107 118 
300 590 135 101 107 117 
300 591 134 104 109 120 
300 591 135 100 106 116 
301 584 136 105 112 123 
301 585 136 97 103 115 
301 585 137 94 102 114 
301 586 136 94 101 112 
301 586 137 92 100 112 
301 587 136 93 100 111 
301 587 137 90 97 108 
302 584 136 106 114 126 
302 584 137 107 114 126 
302 585 137 101 109 121 
302 584 138 105 113 126 
302 585 138 106 113 126 
302 585 139 104 112 124 
303 584 138 106 114 127 
303 584 139 103 112 125 
303 585 139 102 110 122 
302 586 137 95 103 115 
302 587 137 90 98 109 
302 586 138 105 112 124 
302 586 139 107 114 126 
302 587 138 95 102 113 
302 587 139 103 109 120 
303 586 139 103 110 122 
303 584 140 101 110 122 
303 584 141 103 111 123 
303 585 140 100 108 119 
303 585 141 99 106 118 
302 587 140 96 103 114 
303 586 140 97 104 115 
303 586 141 94 100 111 
303 587 140 94 101 112 
303 587 141 92 99 109 
303 587 142 92 99 109 
301 588 136 93 99 109 
301 588 137 92 99 109 
301 589 136 94 100 110 
301 589 137 93 99 109 
301 588 138 92 99 109 
301 589 138 92 98 108 
301 589 139 91 97 106 
300 590 136 99 105 115 
300 590 137 95 101 110 
300 591 136 98 104 114 
300 591 137 93 99 109 
301 590 136 92 98 108 
301 590 137 92 98 108 
301 591 137 92 99 109 
301 590 138 94 100 109 
301 590 139 97 103 112 
301 591 138 96 102 112 
301 591 139 102 108 118 
302 588 138 89 96 106 
302 588 139 95 102 112 
302 589 139 94 100 110 
302 590 139 100 106 115 
302 591 139 105 111 120 
302 588 140 93 99 109 
302 589 140 93 100 111 
303 588 140 91 97 108 
303 588 141 93 99 109 
303 589 140 92 99 109 
303 589 141 93 100 110 
303 588 142 94 100 110 
303 589 142 96 102 112 
302 590 140 100 106 116 
302 590 141 95 102 112 
302 591 140 105 111 121 
302 591 141 98 104 114 
303 590 141 93 100 110 
303 591 141 94 101 111 
303 590 142 95 101 111 
303 590 143 97 103 113 
303 591 142 93 100 110 
295 592 128 92 99 110 
295 593 128 97 104 115 
295 594 128 106 112 123 
295 595 128 107 114 125 
295 595 129 105 111 122 
293 598 128 93 99 109 
293 599 128 91 98 108 
294 596 128 107 113 124 
294 597 128 96 102 113 
295 596 128 105 112 123 
295 596 129 100 107 118 
295 597 128 98 104 115 
295 597 129 95 102 113 
294 598 128 95 101 111 
294 599 128 92 99 109 
295 598 128 96 103 113 
295 598 129 97 103 114 
295 599 129 96 102 113 
295 599 130 105 111 122 
291 602 128 106 113 124 
291 603 128 107 114 126 
289 607 128 101 109 121 
290 604 128 101 109 121 
290 605 128 105 114 126 
291 604 128 103 111 124 
291 605 128 103 111 124 
291 605 129 103 112 124 
290 606 128 101 110 122 
290 607 128 100 108 121 
291 606 128 99 108 120 
291 606 129 98 107 120 
291 607 128 95 104 117 
291 607 129 97 106 118 
292 601 128 94 100 111 
293 600 128 92 98 108 
293 601 128 91 98 108 
293 601 129 91 98 109 
292 602 128 99 107 118 
292 603 128 104 111 123 
293 602 128 94 102 113 
293 602 129 92 99 110 
293 603 129 94 102 114 
294 600 128 91 98 108 
294 600 129 93 99 110 
294 601 129 91 98 108 
295 600 129 96 103 113 
295 601 129 97 103 113 
295 600 130 103 109 120 
295 601 130 95 102 112 
294 602 129 91 98 108 
294 603 129 90 97 108 
294 602 130 91 97 108 
294 603 130 91 98 108 
295 602 130 91 97 107 
295 603 130 92 98 108 
295 603 131 91 98 108 
292 604 128 104 112 124 
292 604 129 102 110 122 
292 605 129 103 111 123 
293 604 129 97 105 116 
293 605 129 101 108 120 
293 604 130 96 103 114 
293 605 130 97 105 116 
292 606 129 104 112 124 
292 607 129 102 110 122 
292 607 130 104 112 123 
293 606 130 103 111 122 
293 607 130 103 110 121 
294 604 130 93 100 111 
294 605 130 93 100 111 
294 605 131 92 99 110 
295 604 131 92 99 109 
295 605 131 92 99 110 
294 606 130 98 106 117 
294 606 131 92 99 111 
294 607 131 93 100 111 
295 606 131 92 99 110 
295 605 132 91 98 109 
294 607 132 92 99 110 
295 606 132 92 99 110 
295 607 132 93 100 110 
296 592 128 92 99 109 
296 592 129 93 99 108 
296 593 128 98 104 115 
296 593 129 95 100 110 
297 592 129 92 97 107 
297 592 130 93 99 108 
297 592 131 93 99 108 
297 593 130 92 98 108 
297 593 131 91 97 106 
296 594 128 101 108 118 
296 594 129 98 105 115 
296 595 129 99 105 116 
296 594 130 95 101 112 
296 595 130 94 101 112 
297 594 130 93 99 109 
297 594 131 92 98 107 
297 595 130 93 99 110 
297 595 131 93 99 109 
298 592 131 93 99 108 
298 593 131 90 96 106 
298 594 131 90 96 106 
297 595 132 93 99 109 
298 592 132 94 100 110 
298 593 132 92 98 107 
299 592 132 97 102 112 
299 592 133 100 106 116 
299 593 132 96 101 111 
299 593 133 101 106 116 
299 592 134 103 109 119 
299 592 135 107 113 123 
299 593 134 106 111 121 
298 594 132 90 96 106 
298 595 132 92 98 108 
298 595 133 91 97 107 
299 594 132 91 97 107 
299 594 133 93 99 108 
299 595 133 92 98 107 
299 594 134 95 100 110 
299 594 135 90 96 105 
299 595 134 91 97 106 
299 595 135 91 97 107 
296 596 129 98 105 116 
296 597 129 95 102 113 
296 596 130 96 103 113 
296 597 130 97 104 115 
296 597 131 96 103 114 
297 596 131 95 102 112 
297 597 131 99 105 116 
296 598 130 108 114 125 
296 599 130 111 118 128 
296 599 131 112 117 128 
297 598 131 105 112 122 
297 599 131 103 110 120 
297 596 132 96 102 112 
297 597 132 97 103 113 
297 598 132 97 104 114 
297 599 132 96 103 113 
297 599 133 95 101 111 
298 596 132 95 101 110 
298 596 133 94 100 109 
298 597 132 95 101 112 
298 597 133 96 102 112 
298 596 134 94 100 110 
298 597 134 98 104 114 
298 597 135 103 109 120 
299 596 134 93 99 109 
299 596 135 93 100 110 
299 597 134 94 101 111 
299 597 135 97 103 114 
298 598 133 97 103 114 
298 599 133 94 101 112 
298 598 134 100 106 116 
298 598 135 103 110 120 
298 599 134 95 102 113 
298 599 135 96 103 114 
300 592 135 103 109 119 
300 593 135 101 107 117 
300 594 135 92 99 108 
300 595 135 90 97 106 
300 596 135 93 100 110 
299 596 136 96 103 113 
299 597 136 101 108 118 
299 597 137 98 104 114 
299 597 138 92 98 108 
299 597 139 92 98 108 
298 598 136 102 109 120 
298 598 137 98 104 114 
298 599 136 96 103 114 
298 599 137 94 100 110 
299 598 137 101 107 117 
298 598 138 93 100 109 
298 599 138 90 96 106 
298 599 139 91 96 106 
299 598 138 92 98 108 
299 598 139 93 99 108 
299 599 139 90 97 106 
299 598 140 92 98 108 
299 598 141 90 96 106 
299 599 140 90 97 107 
299 599 141 89 96 106 
299 599 142 90 97 108 
299 599 143 95 102 112 
300 592 136 97 104 114 
300 592 137 96 102 112 
300 593 136 95 101 111 
300 593 137 97 103 112 
301 592 137 94 100 110 
301 593 137 93 99 109 
301 592 138 95 102 112 
301 592 139 100 105 115 
301 593 138 93 99 109 
301 593 139 95 101 111 
300 594 136 91 97 106 
300 594 137 92 98 107 
300 595 136 92 98 108 
300 595 137 93 99 108 
301 594 137 93 99 108 
301 595 137 94 100 109 
301 594 138 93 99 108 
301 594 139 92 98 108 
301 595 138 94 100 109 
301 595 139 93 99 109 
302 592 139 105 110 120 
301 594 140 89 95 105 
301 595 140 92 98 108 
302 592 140 100 106 116 
302 592 141 96 102 112 
302 593 140 94 100 109 
302 593 141 94 100 110 
303 592 141 93 99 109 
303 593 141 95 101 111 
303 592 142 92 99 109 
303 593 142 93 100 109 
303 593 143 92 98 108 
302 594 140 94 100 109 
302 594 141 94 100 110 
302 595 140 92 98 108 
302 595 141 92 98 108 
302 595 142 92 98 107 
303 594 142 93 99 109 
303 594 143 91 97 107 
303 595 142 93 99 109 
303 595 143 94 100 109 
300 596 136 94 100 110 
300 596 137 93 99 108 
300 597 137 93 100 110 
300 596 138 93 99 109 
300 596 139 93 99 108 
300 597 138 93 99 109 
300 597 139 92 98 108 
301 596 138 93 99 109 
301 596 139 92 98 107 
300 597 140 91 97 107 
300 597 141 92 98 108 
301 596 140 92 97 107 
301 596 141 92 98 107 
301 597 141 92 98 108 
301 597 142 93 98 108 
300 598 140 92 98 108 
300 598 141 90 97 106 
300 598 142 92 98 107 
300 598 143 94 99 109 
300 599 142 90 97 107 
300 599 143 94 100 111 
301 598 142 92 98 107 
301 598 143 94 100 110 
302 596 141 93 98 108 
302 596 142 94 99 109 
302 596 143 94 100 110 
302 597 142 94 100 109 
302 597 143 95 100 110 
303 596 143 95 101 110 
302 598 143 93 99 109 
296 600 130 107 113 123 
296 600 131 101 107 118 
296 601 130 100 106 116 
296 601 131 96 102 112 
297 600 131 102 108 118 
296 602 131 93 99 109 
296 603 131 92 98 108 
296 601 132 93 99 109 
297 600 132 95 101 111 
297 600 133 93 100 110 
297 601 132 93 99 109 
297 601 133 93 99 109 
296 602 132 92 99 109 
296 603 132 92 98 108 
297 602 132 92 98 108 
297 602 133 93 99 109 
297 603 133 94 100 110 
298 600 133 93 99 110 
298 600 134 92 99 110 
298 600 135 90 97 108 
298 601 134 94 101 111 
298 601 135 92 99 110 
298 602 134 94 100 111 
298 602 135 94 101 111 
298 603 134 97 103 113 
298 603 135 97 103 114 
296 604 131 91 98 108 
296 604 132 91 97 108 
296 605 132 91 98 109 
296 605 133 92 99 110 
297 604 133 96 103 113 
297 605 133 101 108 119 
297 604 134 106 112 123 
297 605 134 112 118 130 
296 606 132 92 99 110 
296 606 133 95 102 113 
296 607 133 97 104 115 
297 606 134 112 119 131 
297 607 134 114 121 132 
298 604 134 105 111 122 
298 604 135 103 110 121 
298 605 134 113 120 132 
298 605 135 113 120 132 
299 604 135 106 113 124 
299 605 135 110 117 129 
298 606 134 117 125 137 
298 606 135 111 119 131 
298 607 134 118 126 138 
298 607 135 113 121 133 
299 606 135 110 118 130 
298 600 136 89 96 107 
298 600 137 89 96 105 
298 601 136 90 96 107 
298 601 137 90 96 105 
299 601 137 89 95 104 
298 600 138 88 94 103 
299 600 138 88 93 103 
299 600 139 89 95 104 
299 601 138 86 92 102 
299 601 139 89 94 104 
298 602 136 92 98 108 
299 602 136 93 99 109 
299 602 137 91 97 106 
299 603 136 96 102 112 
299 603 137 92 98 108 
299 602 138 88 93 103 
299 602 139 89 94 104 
299 603 138 89 95 104 
298 601 141 93 99 108 
299 600 140 90 96 106 
299 600 141 92 98 108 
299 601 140 91 97 106 
299 601 141 92 98 108 
298 600 142 94 100 110 
298 600 143 97 103 113 
298 601 142 92 98 108 
298 601 143 94 100 110 
299 600 142 92 99 109 
299 600 143 98 104 114 
299 602 140 90 96 105 
299 602 141 94 100 109 
299 603 141 95 102 112 
298 602 143 90 96 106 
299 602 142 93 99 110 
299 603 142 93 99 110 
299 603 143 90 97 107 
299 604 136 100 106 117 
299 604 137 93 100 110 
299 605 136 102 109 121 
299 605 137 95 102 113 
299 606 136 105 113 124 
299 606 137 97 104 115 
299 607 136 111 117 129 
299 607 137 103 110 121 
300 603 138 89 94 104 
300 603 139 89 94 103 
300 603 140 89 94 104 
300 603 141 91 98 107 
300 603 142 93 99 110 
300 603 143 90 97 107 
300 604 137 92 98 108 
300 605 137 92 99 109 
300 604 138 90 96 105 
300 604 139 89 95 104 
300 605 138 91 97 106 
300 605 139 90 96 106 
301 605 139 90 96 106 
300 606 137 94 100 110 
300 607 137 97 103 114 
300 606 138 92 98 107 
300 607 138 94 100 110 
301 606 139 91 97 107 
301 607 139 92 99 109 
300 604 140 89 95 104 
300 604 141 89 95 106 
301 604 141 89 96 106 
301 605 140 90 96 105 
301 605 141 90 97 107 
300 604 142 91 98 108 
300 604 143 88 95 105 
301 604 142 92 99 109 
301 604 143 89 96 106 
301 605 142 92 98 108 
301 605 143 90 97 107 
301 606 140 91 97 107 
301 606 141 91 97 107 
301 607 140 92 98 108 
302 605 142 92 98 108 
302 605 143 91 97 107 
302 606 141 92 98 108 
302 607 141 94 100 110 
302 606 142 93 99 109 
302 606 143 93 99 108 
302 607 142 95 101 111 
303 606 143 94 100 110 
303 607 142 96 102 112 
303 607 143 96 102 112 
299 599 144 100 106 117 
299 599 145 101 108 118 
303 595 144 94 100 110 
300 599 144 98 105 115 
300 599 145 100 106 116 
301 598 144 97 103 112 
301 599 144 99 105 115 
301 599 145 98 104 114 
300 599 146 99 105 115 
301 599 146 97 104 114 
301 599 147 97 103 113 
302 597 144 94 99 109 
303 596 144 94 100 110 
303 596 145 94 100 109 
303 597 144 94 99 108 
303 597 145 94 99 108 
303 596 147 95 101 110 
303 597 146 94 100 109 
303 597 147 91 97 107 
302 598 144 95 101 110 
302 598 145 96 102 111 
302 599 145 96 101 111 
302 598 146 93 99 109 
302 598 147 92 98 107 
302 599 146 93 100 110 
302 599 147 94 100 110 
303 598 146 92 98 107 
303 598 147 91 96 106 
301 599 148 95 101 110 
303 597 148 92 97 107 
303 597 149 91 96 106 
302 598 148 92 98 107 
302 599 148 94 100 109 
302 599 149 91 97 106 
303 598 148 90 96 105 
303 598 149 90 95 105 
302 599 150 90 95 104 
302 599 151 90 96 105 
303 598 150 91 96 106 
303 598 151 92 97 106 
303 599 150 90 95 104 
302 599 152 93 99 108 
302 599 153 94 100 110 
303 598 152 92 98 107 
303 598 153 92 98 108 
303 599 152 92 97 107 
303 599 153 92 98 108 
303 598 154 92 98 108 
303 599 154 93 99 109 
303 599 155 91 97 108 
303 599 156 92 98 108 
298 600 144 99 105 115 
298 600 145 101 107 117 
298 601 144 96 102 112 
298 601 145 97 103 113 
299 600 144 100 107 117 
299 600 145 102 109 119 
298 601 146 96 103 114 
298 601 147 94 101 110 
299 600 146 100 107 117 
299 600 147 95 102 112 
299 601 147 93 100 110 
298 602 144 90 96 106 
298 602 145 90 96 106 
298 603 144 89 95 105 
298 603 145 88 94 103 
299 603 144 89 96 106 
299 603 145 91 97 108 
298 602 146 90 97 107 
298 602 147 90 96 106 
298 603 146 91 97 106 
298 603 147 90 96 105 
299 603 146 95 102 113 
299 603 147 91 97 106 
299 600 148 89 95 105 
299 601 148 89 95 104 
299 601 149 89 95 104 
299 601 150 91 97 106 
299 601 151 97 102 112 
298 602 148 88 94 103 
298 602 149 87 93 103 
298 603 148 89 94 104 
298 603 149 88 94 103 
299 603 148 90 96 105 
298 602 150 89 94 103 
298 602 151 93 98 107 
298 603 150 88 92 100 
298 603 151 87 92 101 
299 604 145 90 98 108 
299 604 146 90 96 105 
299 604 147 92 97 107 
298 604 149 87 93 101 
299 604 148 94 100 110 
299 604 149 89 95 104 
299 605 149 91 97 107 
298 604 150 86 91 99 
298 604 151 85 90 98 
298 605 151 87 92 101 
299 604 150 87 93 102 
299 605 150 90 96 105 
299 606 150 94 101 112 
299 606 151 94 100 110 
300 600 145 101 108 118 
300 600 146 100 107 118 
300 600 147 96 102 112 
301 600 147 94 100 110 
300 603 144 87 94 104 
300 600 148 89 95 105 
300 600 149 89 95 104 
300 601 149 89 95 104 
301 600 148 91 97 107 
301 600 149 90 96 105 
300 600 151 95 100 109 
300 601 150 90 95 104 
300 601 151 96 101 109 
301 600 150 90 95 105 
301 600 151 91 97 106 
301 601 150 90 96 105 
302 600 151 91 97 106 
300 604 144 88 94 105 
300 604 145 87 94 104 
301 604 144 88 94 104 
301 604 145 88 95 105 
301 605 144 88 95 104 
301 605 145 87 93 103 
300 604 146 92 99 109 
300 604 147 91 98 107 
300 605 146 93 101 112 
300 605 147 99 106 117 
301 605 146 92 98 109 
301 605 147 102 109 120 
302 605 144 89 95 105 
302 605 145 87 93 101 
302 605 146 88 94 104 
302 605 147 94 101 111 
302 606 145 86 91 99 
303 606 144 89 95 105 
303 606 145 86 92 101 
303 607 144 93 100 110 
302 606 146 87 93 102 
302 606 147 90 96 106 
303 606 146 88 93 102 
303 606 147 86 92 101 
300 605 148 98 105 116 
300 605 149 95 102 113 
301 605 148 103 111 122 
300 606 149 94 102 114 
301 606 148 106 114 126 
301 606 149 99 107 119 
300 606 150 99 107 119 
300 606 151 100 108 120 
301 606 150 92 101 113 
301 606 151 93 102 114 
301 607 150 92 100 112 
301 607 151 90 100 112 
302 606 148 93 100 111 
302 606 149 97 105 116 
302 607 149 90 98 109 
303 606 148 85 92 102 
303 607 148 84 91 101 
303 607 149 87 94 105 
302 607 150 90 98 110 
302 607 151 88 96 108 
303 607 150 87 94 105 
303 607 151 86 94 104 
297 603 154 91 96 106 
297 603 155 91 96 105 
299 601 152 103 108 118 
299 601 153 104 110 119 
299 601 154 102 108 118 
298 602 152 95 101 110 
298 602 153 97 103 112 
298 603 152 89 95 103 
298 603 153 92 97 106 
299 602 152 100 106 115 
299 602 153 101 106 116 
298 602 154 96 103 112 
298 602 155 95 101 111 
298 603 154 92 97 107 
298 603 155 94 99 108 
299 602 154 98 105 115 
299 602 155 97 103 113 
297 603 156 89 95 104 
297 603 157 86 93 102 
298 602 156 93 99 108 
298 603 156 90 96 105 
298 603 157 87 94 104 
299 602 156 92 98 108 
299 602 157 86 93 103 
299 603 157 86 93 103 
298 603 158 87 94 104 
298 603 159 88 94 104 
299 603 158 87 93 102 
299 603 159 87 93 102 
297 604 153 87 93 101 
297 604 154 89 94 103 
297 604 155 90 95 103 
297 605 154 88 93 102 
297 605 155 89 93 101 
298 604 152 86 90 98 
298 604 153 86 92 100 
298 605 152 86 90 98 
298 605 153 84 90 99 
298 605 154 88 93 102 
298 605 155 89 93 101 
298 606 153 86 92 101 
299 606 152 91 97 106 
299 606 153 89 94 104 
298 606 154 88 94 103 
298 606 155 88 93 102 
299 606 154 90 96 106 
299 606 155 90 95 104 
299 607 154 93 98 108 
299 607 155 90 96 105 
297 604 156 87 92 101 
297 604 157 88 94 103 
297 605 156 87 92 100 
297 605 157 88 94 103 
297 604 158 94 100 109 
297 604 159 94 99 108 
297 605 158 95 100 109 
297 605 159 90 95 103 
297 606 156 87 92 101 
297 606 157 89 94 103 
297 606 158 87 92 101 
297 606 159 83 89 97 
297 607 159 86 91 100 
298 604 159 91 97 106 
298 606 156 87 92 100 
298 606 157 90 95 104 
298 607 157 91 96 105 
299 607 156 91 97 106 
299 607 157 93 99 109 
298 607 158 91 96 105 
298 607 159 90 96 105 
299 607 158 94 99 108 
299 607 159 95 101 110 
300 600 152 98 103 112 
300 601 152 104 109 118 
300 601 153 105 110 119 
301 600 152 97 103 112 
301 600 153 101 107 116 
301 601 153 105 110 119 
300 601 154 104 110 120 
300 601 155 101 107 117 
301 600 154 100 106 116 
301 600 155 95 101 111 
301 601 154 104 109 119 
301 601 155 96 102 112 
300 602 155 99 105 115 
302 600 152 93 99 108 
302 600 153 96 102 112 
302 600 154 96 102 112 
302 600 155 93 100 110 
303 600 155 92 99 109 
300 601 156 97 103 113 
301 601 156 94 100 110 
301 601 157 94 100 109 
300 602 156 92 98 108 
300 602 157 88 94 104 
301 602 157 91 97 106 
300 602 158 87 93 102 
300 602 159 87 93 102 
300 603 158 87 92 101 
300 603 159 86 92 102 
301 602 158 90 96 106 
301 602 159 90 96 105 
301 603 159 88 94 104 
302 600 156 94 100 110 
302 601 156 93 99 109 
302 601 157 96 101 111 
303 600 156 94 100 110 
303 600 157 94 100 109 
303 601 157 96 102 111 
302 601 158 94 100 109 
303 600 158 92 97 106 
303 601 158 94 99 109 
303 601 159 94 98 107 
302 602 158 94 99 109 
302 602 159 93 99 108 
300 606 152 99 106 117 
300 607 152 95 102 112 
300 607 153 95 102 113 
301 607 152 95 103 114 
301 607 153 99 107 119 
300 607 154 96 104 116 
300 607 155 96 104 115 
301 607 154 102 110 122 
302 607 152 90 98 109 
302 607 153 92 101 113 
303 607 152 88 96 106 
303 607 153 89 96 108 
300 607 156 95 101 111 
304 576 136 111 117 128 
304 576 137 117 123 134 
304 577 136 113 119 131 
304 577 137 121 126 137 
305 576 137 123 128 140 
304 577 138 119 125 136 
305 576 138 121 127 138 
305 576 139 118 124 136 
305 577 138 119 125 136 
305 577 139 117 124 135 
304 578 137 116 123 134 
304 579 137 113 120 132 
304 578 138 113 120 132 
304 578 139 112 119 130 
304 579 138 111 118 130 
304 579 139 117 124 136 
305 578 139 114 121 133 
305 579 139 118 125 137 
306 576 139 115 122 134 
305 577 140 117 124 136 
305 578 140 118 125 136 
305 579 140 122 129 141 
305 579 141 118 125 138 
306 576 140 114 121 133 
306 577 140 114 121 133 
306 577 141 112 119 131 
307 576 140 112 119 132 
307 576 141 112 120 132 
307 577 141 115 122 135 
307 576 142 119 127 140 
307 577 142 126 133 146 
306 578 140 116 123 135 
306 578 141 117 123 135 
306 579 141 117 124 136 
307 578 141 116 123 135 
306 579 142 115 122 134 
307 578 142 126 133 145 
307 578 143 133 140 153 
307 579 142 119 126 138 
307 579 143 121 128 140 
304 580 138 116 123 136 
304 580 139 126 133 145 
304 581 138 117 124 137 
304 581 139 127 135 148 
305 580 139 129 136 149 
304 582 139 120 129 142 
304 581 140 129 136 149 
305 580 140 127 134 147 
305 580 141 118 126 138 
305 581 140 128 135 148 
305 581 141 119 127 140 
305 580 142 113 120 133 
305 581 142 108 116 128 
304 582 140 119 127 140 
304 582 141 115 123 136 
304 583 140 110 118 131 
304 583 141 108 116 129 
305 582 141 113 121 134 
304 583 142 110 117 130 
305 582 142 108 116 128 
305 582 143 103 110 121 
305 583 142 107 114 126 
305 583 143 104 111 122 
306 580 142 109 116 128 
306 580 143 107 114 126 
306 581 143 105 112 124 
307 580 143 108 115 127 
306 582 143 103 110 121 
308 576 142 119 127 140 
308 576 143 125 132 145 
308 577 142 131 138 151 
308 577 143 138 144 157 
309 576 143 125 132 145 
308 578 143 137 144 156 
304 584 141 106 114 125 
304 585 141 100 107 118 
304 584 142 111 118 129 
304 585 142 105 112 123 
304 585 143 107 113 124 
305 584 143 108 114 125 
305 585 143 104 111 122 
304 586 142 95 102 113 
304 586 143 99 106 116 
304 587 142 94 100 111 
304 587 143 98 105 115 
305 586 143 100 107 118 
304 588 142 97 102 113 
304 588 143 100 106 116 
304 589 142 98 104 114 
304 589 143 98 104 114 
304 590 142 94 100 110 
304 590 143 97 103 113 
304 591 142 94 100 110 
304 591 143 95 101 111 
307 579 144 121 128 140 
305 582 144 102 109 120 
305 583 144 103 110 121 
306 581 144 105 112 124 
307 580 144 107 114 126 
307 580 145 109 116 128 
307 581 144 105 112 124 
307 581 145 103 111 122 
306 582 144 104 110 122 
306 582 145 102 109 121 
306 583 144 103 109 121 
306 583 145 104 110 121 
307 582 145 104 111 122 
307 583 145 106 112 124 
307 582 146 106 113 124 
307 583 146 108 115 127 
307 583 147 117 124 136 
308 577 144 137 144 156 
309 576 144 126 133 146 
309 576 145 124 131 144 
309 577 144 133 140 153 
309 577 145 126 134 147 
309 577 146 117 125 138 
308 578 144 134 140 154 
308 578 145 125 133 146 
308 579 144 123 131 143 
308 579 145 113 121 133 
309 578 145 116 124 138 
308 579 146 109 115 127 
309 578 146 113 120 133 
309 578 147 111 118 131 
309 579 146 110 117 129 
309 579 147 110 116 128 
310 576 145 125 131 143 
310 576 146 124 131 143 
310 576 147 130 137 150 
310 577 146 118 126 139 
310 577 147 121 129 143 
311 576 147 132 139 152 
310 578 147 114 122 135 
309 579 148 109 116 128 
310 577 148 130 138 152 
310 577 149 136 144 158 
311 576 148 134 142 155 
311 576 149 139 146 160 
311 577 148 138 145 159 
311 577 149 139 146 160 
311 577 150 133 141 154 
310 578 148 121 129 142 
310 578 149 120 128 141 
310 579 148 109 117 129 
310 579 149 109 116 129 
311 578 149 128 136 149 
310 579 150 107 115 128 
311 578 150 127 134 147 
311 578 151 123 130 143 
311 579 150 112 120 133 
311 579 151 114 122 134 
308 580 145 107 114 125 
308 581 145 106 112 124 
308 580 146 107 114 125 
308 580 147 106 113 124 
308 581 146 106 112 124 
308 581 147 106 113 124 
309 580 147 108 115 126 
309 581 147 105 112 123 
308 582 146 108 114 126 
308 582 147 110 116 128 
308 583 147 118 125 137 
309 580 148 107 113 125 
309 581 148 105 112 123 
309 581 149 106 113 125 
308 582 148 110 117 129 
308 583 148 118 126 138 
309 582 148 107 114 127 
309 582 149 107 114 126 
309 583 148 113 121 133 
309 583 149 112 120 132 
309 582 150 106 114 125 
309 583 150 106 113 126 
310 580 149 106 113 125 
310 581 149 107 114 126 
310 580 150 108 115 126 
310 580 151 113 120 132 
310 581 150 108 115 126 
310 581 151 112 118 130 
311 580 151 113 119 131 
311 581 151 113 119 131 
310 582 150 107 114 126 
310 582 151 109 116 128 
310 583 151 108 114 126 
311 579 152 112 119 132 
311 580 152 111 118 130 
311 581 152 112 119 131 
311 581 153 112 119 131 
310 582 152 111 117 128 
310 583 152 108 115 126 
311 582 152 112 118 130 
311 582 153 110 117 129 
311 583 152 109 115 127 
311 583 153 106 113 124 
311 583 154 105 112 123 
305 584 144 103 110 121 
305 585 144 102 108 119 
305 585 145 102 109 120 
305 586 144 98 105 116 
305 586 145 98 105 116 
305 587 144 99 106 117 
305 587 145 98 104 115 
306 584 145 105 111 122 
306 585 145 104 111 122 
306 585 146 105 112 123 
307 584 146 110 117 129 
307 584 147 121 128 140 
307 585 146 112 120 131 
307 585 147 123 130 142 
306 586 145 100 106 117 
306 587 145 98 105 116 
306 586 146 101 108 119 
306 587 146 97 104 115 
306 587 147 94 102 113 
307 586 147 108 115 127 
307 587 147 96 103 115 
307 585 148 124 132 144 
307 586 148 116 124 135 
307 587 148 103 110 122 
304 589 144 102 108 118 
305 588 144 100 107 117 
305 588 145 98 104 115 
305 589 144 101 107 117 
305 589 145 101 108 118 
305 588 146 98 105 115 
305 589 146 103 110 120 
304 590 144 101 107 117 
304 590 145 107 113 124 
304 591 144 100 106 116 
304 591 145 108 113 124 
305 590 145 107 113 124 
304 591 146 108 114 124 
305 590 146 106 112 123 
305 590 147 101 108 119 
305 591 146 107 113 124 
305 591 147 104 110 121 
306 588 146 99 105 116 
306 588 147 97 104 115 
306 589 146 101 108 119 
306 589 147 99 105 116 
307 588 147 98 104 115 
306 590 147 98 105 116 
306 589 148 98 104 115 
307 588 148 100 106 117 
307 588 149 99 106 116 
307 589 148 98 104 115 
307 589 149 95 102 112 
307 589 150 98 105 116 
306 590 148 97 103 114 
306 590 149 97 103 114 
306 591 148 98 104 115 
306 591 149 97 103 114 
307 590 149 97 103 113 
306 591 150 96 102 113 
307 590 150 99 105 116 
307 590 151 101 107 118 
307 591 150 97 104 115 
307 591 151 100 107 117 
308 584 148 122 129 142 
308 584 149 119 127 140 
308 585 148 123 130 143 
308 585 149 122 130 142 
309 584 149 118 125 138 
309 584 150 110 118 130 
309 584 151 106 113 125 
309 585 150 120 127 139 
309 585 151 109 116 128 
308 586 148 119 127 139 
308 586 149 116 124 136 
308 587 148 108 115 127 
308 587 149 104 112 123 
308 586 150 114 121 132 
308 587 150 103 110 122 
309 586 150 117 123 135 
309 586 151 108 116 128 
309 587 150 106 113 125 
309 587 151 104 112 123 
310 584 151 105 112 124 
308 588 149 100 107 118 
308 588 150 101 107 119 
308 588 151 103 110 122 
308 589 150 100 106 117 
308 589 151 104 110 122 
309 588 151 105 112 124 
308 590 151 102 108 119 
307 591 152 101 108 119 
309 586 152 105 113 124 
309 587 152 107 114 126 
310 584 152 108 115 127 
310 585 152 108 114 126 
310 585 153 109 115 126 
311 584 153 105 112 123 
311 585 153 105 112 123 
311 584 154 104 111 122 
311 584 155 104 110 121 
311 585 154 105 111 122 
311 585 155 102 108 119 
310 586 152 107 114 125 
310 586 153 108 114 125 
310 587 152 109 116 128 
310 587 153 110 117 128 
310 587 154 105 112 123 
311 586 154 103 109 120 
311 586 155 103 109 120 
311 587 154 104 110 121 
311 587 155 105 111 122 
311 586 156 103 110 121 
311 587 156 105 112 123 
311 587 157 109 116 127 
308 589 152 112 119 130 
309 588 152 114 121 133 
309 588 153 121 128 140 
309 589 152 120 127 139 
309 589 153 126 133 145 
309 589 154 120 127 139 
308 590 152 109 116 127 
308 591 152 103 109 120 
308 591 153 103 110 121 
309 590 152 122 128 140 
309 590 153 114 120 132 
308 591 154 100 107 117 
309 590 154 111 118 129 
309 590 155 102 109 121 
309 591 154 102 109 120 
309 591 155 100 106 118 
310 588 153 119 125 137 
310 589 153 127 133 145 
310 588 154 113 120 132 
310 588 155 104 110 121 
310 589 154 116 123 135 
310 589 155 105 112 123 
311 588 155 103 109 119 
310 590 155 100 107 118 
310 591 155 99 105 116 
309 591 156 100 107 117 
310 589 156 100 106 116 
311 588 156 104 110 121 
311 588 157 106 112 123 
311 589 156 102 108 118 
311 589 157 103 110 120 
311 588 158 107 113 124 
311 589 158 103 109 120 
311 589 159 102 108 118 
310 590 156 101 107 117 
310 590 157 104 109 120 
310 591 156 98 104 115 
310 591 157 99 105 115 
311 590 157 101 106 116 
310 590 158 103 109 119 
310 591 158 103 108 118 
311 590 158 103 109 119 
311 590 159 103 108 118 
311 591 158 104 109 119 
311 591 159 102 108 119 
312 576 149 131 139 153 
312 576 150 129 137 150 
312 576 151 127 134 146 
312 577 150 131 138 151 
312 577 151 128 135 147 
313 576 151 121 129 142 
312 578 151 122 129 142 
312 577 152 119 126 138 
313 576 152 117 124 137 
313 576 153 115 122 134 
313 577 152 116 124 136 
313 577 153 112 120 132 
313 577 154 112 119 132 
312 578 152 115 123 135 
312 578 153 110 118 131 
312 579 152 111 118 130 
312 579 153 113 120 133 
313 578 153 111 118 131 
313 579 153 113 120 133 
312 579 154 121 128 140 
313 578 154 115 122 135 
313 579 154 120 127 140 
313 579 155 125 133 146 
314 576 153 115 122 134 
314 576 154 113 120 133 
314 576 155 112 120 132 
314 577 154 111 118 131 
314 577 155 112 120 132 
315 576 155 116 123 136 
315 577 155 114 121 133 
314 578 154 115 123 135 
314 578 155 117 124 137 
314 579 155 124 132 145 
313 579 156 127 135 148 
315 576 156 118 125 137 
315 577 156 121 128 140 
314 578 156 119 127 140 
314 579 156 125 134 148 
314 579 157 127 137 152 
315 578 156 124 132 145 
315 578 157 127 135 149 
315 579 157 123 133 148 
315 579 158 121 130 145 
315 579 159 121 130 144 
312 580 152 111 118 130 
312 580 153 115 122 135 
312 581 153 113 120 132 
312 580 154 124 130 143 
312 581 154 120 127 139 
312 581 155 121 128 141 
313 580 154 122 130 143 
313 580 155 127 134 147 
313 581 155 122 130 143 
312 582 154 109 116 128 
312 582 155 113 120 132 
312 583 154 105 112 124 
312 583 155 106 113 125 
313 580 156 124 133 147 
313 581 156 123 131 145 
313 581 157 115 124 138 
312 582 156 123 130 142 
312 583 156 113 120 133 
313 582 156 125 132 145 
313 582 157 119 127 139 
313 583 156 122 130 142 
313 583 157 122 129 142 
313 583 158 113 121 133 
314 580 156 122 132 147 
314 580 157 120 130 145 
314 581 157 111 121 135 
314 580 158 114 124 139 
314 581 158 109 118 132 
314 581 159 107 116 129 
315 580 158 117 127 141 
315 580 159 121 129 143 
315 581 159 115 123 136 
314 582 158 108 116 129 
314 582 159 104 112 124 
314 583 158 107 115 127 
314 583 159 103 110 122 
315 582 159 107 114 127 
315 583 159 102 110 121 
316 576 156 116 123 135 
316 576 157 116 123 135 
316 577 157 126 134 147 
316 576 158 111 119 132 
316 577 158 115 123 136 
316 577 159 106 115 128 
317 576 158 106 114 127 
317 576 159 105 113 125 
317 577 159 105 113 125 
316 578 157 127 136 149 
316 578 158 122 131 145 
316 578 159 113 121 134 
316 579 158 121 130 144 
316 579 159 122 131 144 
318 576 159 106 113 126 
312 584 155 103 110 121 
312 585 155 102 108 119 
312 586 155 103 109 120 
312 584 156 103 110 122 
312 585 156 100 108 120 
312 585 157 99 107 119 
313 584 157 111 119 131 
313 585 157 101 109 121 
313 584 158 108 115 128 
313 584 159 104 111 123 
313 585 158 101 109 121 
313 585 159 101 109 121 
312 586 156 103 110 121 
312 586 157 103 111 122 
312 587 156 107 113 125 
312 587 157 115 122 133 
312 586 158 108 115 127 
312 587 158 117 123 135 
312 587 159 111 118 129 
313 586 158 108 115 127 
313 586 159 101 108 120 
313 587 159 103 110 122 
314 584 159 105 112 124 
314 585 159 104 111 123 
312 588 158 111 118 129 
312 588 159 106 112 123 
312 589 159 103 110 120 
312 590 159 104 110 120 
304 592 143 93 99 109 
304 593 143 93 99 109 
304 594 143 92 98 108 
304 592 144 96 102 112 
304 592 145 102 108 118 
304 593 144 93 99 109 
304 593 145 96 102 112 
304 592 146 107 112 123 
304 592 147 105 112 122 
304 593 146 101 107 117 
304 593 147 102 108 119 
305 592 147 105 111 122 
304 594 144 95 101 111 
304 594 145 96 102 112 
304 595 144 95 101 110 
304 595 145 94 100 110 
304 594 146 100 106 116 
304 594 147 102 108 119 
304 595 146 98 104 114 
304 595 147 101 108 118 
304 593 148 105 112 123 
305 592 148 101 108 119 
305 592 149 103 109 119 
305 593 148 105 112 123 
305 593 149 106 113 124 
305 592 150 104 110 121 
305 593 150 106 112 123 
305 593 151 104 110 121 
304 594 148 105 112 123 
304 594 149 109 116 127 
304 595 148 102 109 120 
304 595 149 103 110 121 
305 594 149 109 116 127 
304 595 150 100 106 117 
305 594 150 109 115 126 
305 594 151 105 112 123 
305 595 150 102 109 120 
305 595 151 101 107 118 
306 592 149 100 106 116 
306 592 150 100 107 118 
306 592 151 100 107 118 
306 593 150 105 111 122 
306 593 151 101 108 120 
307 592 151 101 108 118 
304 596 144 94 100 110 
304 596 145 94 100 110 
304 596 146 97 103 112 
304 596 147 98 104 114 
304 596 148 98 104 114 
304 596 149 97 103 113 
304 597 148 93 99 109 
304 597 149 93 99 109 
304 596 150 96 102 112 
304 596 151 98 104 114 
304 597 150 94 100 109 
304 597 151 95 101 111 
305 596 151 99 105 115 
304 598 150 91 97 107 
304 598 151 93 99 109 
305 594 152 102 108 119 
305 595 152 100 106 116 
305 595 153 101 107 118 
305 595 154 99 105 116 
306 593 152 103 110 121 
307 592 152 100 106 117 
307 592 153 101 108 119 
307 593 152 101 108 119 
307 593 153 106 112 124 
307 593 154 114 121 133 
306 594 152 105 112 123 
306 594 153 108 115 126 
306 595 153 107 114 126 
307 594 153 111 118 129 
306 595 154 104 111 122 
307 594 154 116 123 135 
307 594 155 110 118 130 
307 595 154 112 119 131 
307 595 155 109 117 128 
307 594 156 110 117 129 
307 594 157 106 114 125 
307 595 156 107 114 126 
307 595 157 103 110 122 
307 594 158 102 108 119 
307 594 159 99 105 114 
307 595 158 100 107 117 
307 595 159 96 102 112 
304 596 152 98 104 114 
304 597 152 96 102 112 
304 597 153 96 102 112 
305 596 152 98 104 114 
305 596 153 96 102 113 
305 597 153 95 101 111 
304 597 154 95 102 112 
305 596 154 98 105 116 
305 597 154 96 103 113 
305 597 155 96 101 112 
304 598 152 95 101 110 
304 598 153 94 100 109 
304 598 154 93 99 109 
304 598 155 92 98 108 
304 599 155 92 98 107 
305 598 155 93 98 108 
306 596 154 100 107 119 
306 596 155 97 105 116 
306 597 155 94 101 111 
307 596 154 104 111 123 
307 596 155 102 110 121 
305 597 156 91 97 107 
305 597 157 89 95 105 
305 597 159 93 98 108 
304 598 156 91 97 106 
304 599 156 91 96 106 
304 599 157 88 94 103 
305 598 156 89 95 104 
305 598 157 87 93 102 
304 599 158 88 94 103 
304 599 159 87 93 102 
305 598 158 89 94 104 
305 598 159 92 97 106 
305 599 158 88 94 103 
305 599 159 88 94 103 
306 596 156 98 105 117 
306 596 157 97 104 114 
306 597 156 93 100 110 
306 597 157 91 98 107 
307 596 156 100 108 119 
307 596 157 98 105 116 
306 596 158 95 101 111 
306 596 159 93 99 109 
306 597 158 91 96 106 
306 597 159 94 99 109 
307 596 158 96 102 113 
307 596 159 92 99 109 
308 592 152 99 106 116 
308 592 153 102 108 119 
308 593 153 105 112 124 
308 592 154 102 109 121 
308 593 154 110 117 128 
308 593 155 111 118 129 
309 592 154 100 107 118 
309 592 155 100 107 118 
309 593 155 107 114 125 
308 594 154 114 121 133 
308 594 155 111 119 131 
308 593 156 110 117 129 
309 592 156 101 108 119 
309 592 157 101 107 118 
309 593 156 105 112 123 
309 593 157 104 111 122 
308 593 158 103 109 120 
309 593 158 101 108 118 
309 593 159 99 105 116 
308 594 156 109 117 128 
308 594 157 105 112 123 
308 594 158 104 110 120 
308 594 159 102 108 118 
309 594 159 101 107 118 
310 592 157 100 106 117 
310 592 158 97 104 114 
310 592 159 98 104 115 
310 593 158 98 105 116 
310 593 159 99 106 117 
311 592 159 101 107 117 
304 606 144 88 95 105 
304 606 145 88 94 103 
304 607 144 93 100 110 
304 607 145 92 97 107 
305 607 145 94 100 109 
304 606 146 89 94 104 
304 606 147 86 92 102 
304 607 146 90 95 105 
304 607 147 88 94 103 
305 607 146 91 96 106 
305 607 147 89 95 104 
304 606 148 86 91 100 
304 607 148 85 92 102 
304 607 149 88 94 103 
305 607 148 89 95 105 
305 607 149 93 99 108 
304 607 150 85 91 101 
304 607 151 86 92 102 
305 607 150 91 97 107 
305 607 151 90 96 105 
304 600 158 90 96 105 
304 600 159 89 94 104 
304 607 152 87 93 103 
304 607 153 92 98 108 
299 603 160 87 93 102 
297 605 160 85 90 98 
297 605 161 85 89 97 
297 605 162 83 87 94 
297 606 160 81 86 94 
297 606 161 83 87 94 
297 607 160 83 88 96 
297 607 161 85 90 97 
297 606 162 83 86 93 
297 606 163 81 85 92 
297 607 162 84 88 96 
297 607 163 80 85 92 
298 604 160 91 95 104 
298 604 161 89 94 103 
298 605 161 88 93 102 
299 604 160 88 94 102 
299 604 161 89 94 102 
298 604 162 88 93 102 
298 605 162 84 89 97 
298 605 163 81 85 93 
299 604 162 87 93 101 
299 605 162 85 90 99 
299 605 163 83 89 97 
298 607 160 86 91 99 
298 607 161 87 92 100 
297 606 164 80 84 92 
297 606 165 80 84 91 
297 607 164 81 86 93 
297 607 165 82 85 93 
297 607 166 81 85 92 
297 607 167 83 87 94 
298 605 164 82 87 95 
299 605 164 82 87 96 
299 605 165 82 88 96 
298 606 164 79 83 91 
298 606 165 79 84 91 
299 606 165 81 87 94 
298 606 166 80 84 92 
298 606 167 81 86 94 
298 607 167 82 86 93 
299 606 166 82 86 94 
299 606 167 82 87 95 
300 603 160 86 92 101 
300 603 161 86 92 101 
301 602 160 87 93 103 
301 603 160 86 93 102 
301 603 161 85 91 100 
301 603 162 85 91 100 
303 601 160 90 95 104 
303 601 161 87 92 101 
303 601 162 86 91 99 
302 602 160 91 96 106 
302 602 161 87 93 102 
302 603 161 86 92 101 
303 602 160 92 97 105 
303 602 161 89 94 103 
302 602 162 86 91 100 
302 603 162 86 91 101 
302 603 163 95 100 109 
303 602 162 85 90 99 
303 602 163 87 93 102 
303 603 163 93 99 108 
302 603 164 97 102 112 
303 602 164 89 95 104 
303 602 165 86 92 102 
303 603 164 95 100 110 
303 603 165 90 96 105 
303 603 166 87 94 103 
303 603 167 88 94 103 
300 604 161 86 92 101 
300 604 162 89 95 104 
300 604 163 90 95 104 
300 605 163 85 91 100 
301 604 162 92 98 107 
301 604 163 94 99 108 
300 605 164 83 89 98 
300 605 165 84 89 98 
301 604 164 92 98 107 
301 604 165 89 95 105 
301 605 165 87 93 102 
300 605 166 83 88 96 
301 605 166 87 92 101 
301 605 167 86 91 100 
300 606 165 82 87 96 
300 606 166 82 87 95 
300 606 167 83 88 97 
302 604 164 97 102 112 
302 604 165 92 97 107 
302 604 166 91 97 106 
302 604 167 89 95 104 
302 605 166 90 96 105 
302 605 167 89 95 104 
303 604 166 90 96 106 
303 604 167 89 95 104 
297 607 168 82 86 93 
298 607 168 81 86 93 
299 606 168 83 88 96 
299 607 168 84 89 97 
303 603 168 86 92 101 
301 605 168 88 93 102 
300 606 168 85 90 99 
301 606 168 87 93 101 
302 604 168 86 92 101 
302 605 168 87 93 102 
303 604 168 86 92 101 
311 591 160 105 111 121 
315 581 160 118 125 137 
315 582 160 109 116 128 
315 582 161 104 111 123 
315 583 160 104 110 121 
315 583 161 102 108 119 
317 577 160 106 113 126 
316 578 160 111 119 132 
316 579 160 115 123 136 
317 578 160 107 115 127 
317 578 161 106 113 126 
317 579 160 105 114 127 
317 579 161 104 112 125 
317 578 162 106 113 124 
317 579 162 105 112 124 
317 579 163 109 116 127 
318 576 160 106 114 127 
318 576 161 107 115 128 
318 577 160 106 114 126 
318 577 161 104 112 125 
318 576 162 106 113 125 
318 576 163 105 111 123 
318 577 162 105 112 123 
318 577 163 107 113 124 
319 576 162 107 114 125 
319 576 163 106 112 123 
318 578 161 107 113 125 
318 578 162 107 113 124 
318 578 163 112 118 128 
318 579 163 114 121 133 
318 577 164 109 115 126 
319 576 164 107 112 123 
319 576 165 108 113 124 
319 577 164 109 115 126 
319 577 165 109 115 126 
319 576 166 103 109 119 
319 576 167 94 100 110 
319 577 166 105 111 122 
319 577 167 96 102 112 
318 578 164 118 124 134 
318 578 165 118 124 135 
318 579 164 123 129 141 
318 579 165 129 135 148 
319 578 165 112 118 130 
318 579 166 124 131 143 
319 578 166 111 117 128 
319 578 167 103 108 118 
319 579 166 120 126 138 
319 579 167 108 115 127 
316 580 160 114 122 135 
316 580 161 103 112 125 
316 581 160 112 119 131 
316 581 161 104 112 124 
317 580 161 102 110 123 
316 581 162 101 108 120 
317 580 162 106 113 125 
317 580 163 111 117 129 
317 581 162 104 111 122 
317 581 163 112 119 132 
316 582 161 102 109 121 
316 583 161 100 107 118 
316 582 162 100 107 119 
316 583 162 101 107 118 
316 583 163 101 107 118 
317 582 163 106 113 125 
317 583 163 100 107 118 
318 580 163 117 124 136 
317 582 164 115 122 134 
317 583 164 105 111 122 
318 580 164 124 130 143 
318 580 165 128 136 149 
318 581 164 125 131 144 
318 581 165 131 137 150 
318 580 166 128 135 148 
318 580 167 124 131 144 
318 581 166 130 138 151 
318 581 167 125 133 146 
319 580 166 123 130 143 
319 580 167 113 121 134 
318 582 164 123 130 142 
318 582 165 126 133 146 
318 583 165 109 116 127 
318 582 166 124 131 144 
318 582 167 115 124 138 
318 583 166 115 121 134 
318 583 167 108 116 128 
319 576 168 95 100 110 
319 577 168 97 102 111 
319 578 168 101 107 117 
319 579 168 105 113 125 
318 581 168 108 118 132 
319 580 168 107 116 130 
318 582 168 104 114 128 
318 583 168 104 112 124 
313 587 160 100 106 117 
314 584 160 107 113 124 
314 585 160 105 111 122 
314 585 161 106 112 123 
315 584 160 106 112 123 
315 584 161 104 109 120 
315 585 161 105 111 122 
315 584 162 102 108 119 
315 585 162 105 111 122 
314 586 160 104 110 122 
314 586 161 104 110 121 
314 587 160 102 109 120 
314 587 161 101 107 118 
315 586 161 107 112 123 
314 587 162 99 105 116 
315 586 162 105 111 122 
315 586 163 111 117 129 
315 587 162 101 107 118 
315 587 163 115 121 133 
312 588 160 101 108 119 
312 589 160 101 107 117 
313 588 160 100 106 117 
313 588 161 97 104 114 
313 589 160 98 104 115 
313 589 161 98 104 115 
313 589 162 96 102 113 
312 590 160 102 107 117 
312 590 161 99 105 115 
312 591 160 102 108 118 
312 591 161 100 105 115 
313 590 161 98 103 114 
313 590 162 95 102 112 
313 591 162 94 100 111 
313 591 163 95 102 112 
314 588 161 98 105 115 
314 588 162 95 102 113 
314 589 162 93 100 112 
314 589 163 92 100 111 
315 588 163 107 113 125 
315 589 163 96 103 115 
314 590 162 94 101 112 
314 590 163 93 100 111 
314 591 163 93 100 111 
315 588 164 116 122 134 
315 589 164 105 112 123 
315 589 165 108 115 127 
314 590 164 92 99 111 
314 591 164 95 101 112 
315 590 164 97 105 116 
315 590 165 105 113 124 
315 591 165 106 112 123 
315 591 166 117 122 132 
316 584 162 101 107 118 
316 584 163 100 106 117 
316 585 162 103 109 120 
316 585 163 101 108 119 
317 584 163 102 108 118 
316 586 163 108 115 126 
316 587 163 119 126 138 
316 585 164 102 108 119 
317 584 164 105 111 121 
317 584 165 107 113 124 
317 585 164 104 110 121 
317 585 165 107 113 124 
317 585 166 109 114 125 
316 586 164 105 112 123 
316 586 165 105 112 123 
316 587 164 113 120 132 
316 587 165 106 113 125 
317 586 164 102 109 120 
317 586 165 104 111 122 
316 587 166 104 111 123 
317 586 166 106 113 124 
317 586 167 108 113 124 
317 587 166 105 112 124 
317 587 167 110 115 126 
318 584 165 107 113 124 
318 584 166 108 114 125 
318 584 167 108 114 124 
318 585 166 108 113 124 
318 585 167 106 111 121 
316 588 164 115 121 133 
316 588 165 107 114 127 
316 589 165 105 113 125 
316 588 166 101 109 121 
316 588 167 100 108 121 
316 589 166 103 111 123 
316 589 167 104 111 123 
317 588 166 102 109 120 
317 588 167 103 110 122 
316 590 165 106 113 125 
316 590 166 110 117 128 
316 590 167 109 116 127 
316 591 166 120 126 136 
316 591 167 119 124 135 
317 586 168 109 113 123 
317 587 168 110 115 126 
318 584 168 108 113 124 
318 585 168 106 110 120 
318 586 168 106 110 120 
316 589 168 108 115 126 
317 588 168 105 111 122 
317 589 168 107 113 125 
316 590 168 108 114 125 
316 591 168 113 119 130 
307 594 160 94 101 112 
307 595 160 95 102 113 
307 595 161 93 101 112 
307 595 162 95 102 113 
307 595 163 99 106 117 
307 595 164 102 108 119 
307 595 165 107 112 122 
305 597 160 98 103 112 
305 598 160 94 99 108 
305 598 161 95 102 112 
305 599 160 88 94 103 
305 599 161 91 97 107 
305 598 162 97 103 114 
305 598 163 94 100 111 
305 599 162 94 100 110 
305 599 163 94 100 110 
306 596 160 95 101 112 
306 596 161 98 105 116 
306 597 160 98 103 113 
306 597 161 96 103 115 
306 596 162 97 105 116 
306 596 163 98 104 115 
306 597 162 94 103 114 
306 597 163 93 101 112 
307 596 162 97 104 115 
307 596 163 98 104 115 
306 598 162 93 101 113 
306 598 163 92 99 110 
305 599 164 86 93 104 
305 599 165 85 92 103 
305 599 166 88 95 105 
306 597 164 97 104 115 
306 597 165 102 109 120 
307 596 164 100 107 117 
307 596 165 105 110 120 
307 597 164 103 110 120 
307 597 165 103 110 120 
307 596 166 102 109 119 
307 597 166 106 112 123 
307 597 167 97 105 118 
306 598 164 87 95 106 
306 598 165 90 98 110 
306 599 165 86 93 103 
306 598 166 95 102 113 
306 598 167 98 105 116 
306 599 166 90 96 106 
306 599 167 92 98 108 
307 598 166 103 110 121 
307 598 167 103 111 123 
308 594 160 98 104 114 
308 594 161 96 102 113 
308 595 161 96 103 113 
309 594 160 99 105 116 
309 594 161 98 104 114 
308 595 162 100 106 117 
308 595 163 104 111 121 
309 595 162 101 107 117 
309 595 163 106 113 123 
310 593 160 100 106 117 
311 592 160 102 108 119 
311 592 161 102 108 119 
311 593 160 101 108 118 
311 593 161 101 108 118 
311 593 162 103 109 120 
310 594 160 100 106 117 
310 594 161 99 105 116 
311 594 161 100 106 117 
310 594 162 101 107 117 
310 595 162 104 111 121 
310 595 163 108 115 126 
311 594 162 103 110 120 
311 594 163 113 119 130 
311 595 163 111 118 129 
308 595 164 103 109 119 
308 595 165 107 113 124 
309 595 164 104 111 122 
309 595 165 106 113 125 
310 595 164 108 115 126 
310 595 165 107 114 126 
311 595 164 114 121 132 
311 595 165 108 115 127 
308 596 165 106 112 122 
309 596 165 103 112 124 
308 596 166 102 109 120 
308 597 167 98 107 120 
309 596 166 112 120 133 
309 596 167 108 116 129 
309 597 167 105 114 126 
310 596 165 107 115 127 
311 596 165 105 112 125 
310 596 166 112 119 132 
310 596 167 108 116 128 
311 596 166 109 116 127 
311 596 167 115 122 133 
311 597 166 107 114 126 
311 597 167 114 121 133 
311 598 166 104 110 121 
311 598 167 110 117 129 
307 597 168 96 104 117 
306 598 168 103 110 122 
306 599 168 96 103 113 
307 598 168 102 110 122 
308 597 168 95 104 117 
309 597 168 109 117 128 
310 596 168 115 122 133 
