ply
format ascii 1.0
comment Created by CloudCompare v2.10.1 (Zephyrus)
comment Created 1/30/20 12:05 PM
obj_info Generated by CloudCompare!
element vertex 2088
property float x
property float y
property float z
property uchar red
property uchar green
property uchar blue
end_header
127 667 289 78 83 90 
126 666 290 67 71 77 
126 666 291 68 73 80 
126 667 291 74 79 87 
127 666 290 72 77 84 
127 667 290 78 83 90 
127 667 291 77 82 89 
125 664 292 62 67 74 
125 664 293 73 78 86 
125 665 292 54 59 67 
125 665 293 64 69 77 
125 664 294 85 91 101 
125 664 295 107 113 124 
125 665 294 84 90 99 
125 665 295 109 115 126 
125 666 292 61 66 74 
125 666 293 54 60 68 
125 667 292 66 71 79 
125 667 293 62 68 76 
125 666 294 60 66 76 
125 666 295 80 88 99 
125 667 294 56 63 72 
125 667 295 57 64 76 
126 667 292 70 75 83 
126 668 291 79 83 91 
127 668 290 79 84 92 
127 668 291 83 88 96 
127 669 291 91 96 106 
127 671 288 72 75 82 
127 671 289 79 83 92 
126 671 291 77 83 95 
127 670 290 108 112 121 
127 670 291 100 105 116 
127 671 290 93 98 108 
127 671 291 97 103 113 
125 668 293 75 79 87 
125 668 294 71 76 84 
125 668 295 68 74 83 
126 668 292 85 89 97 
126 668 293 85 89 96 
126 669 292 97 101 108 
126 669 293 94 98 105 
127 668 292 86 91 99 
127 669 292 92 97 106 
126 668 294 78 83 91 
126 668 295 81 86 94 
126 669 294 88 92 100 
126 669 295 89 94 102 
126 670 292 93 97 105 
126 670 293 93 95 103 
126 671 292 83 88 97 
126 671 293 90 93 100 
127 670 292 91 97 108 
126 670 294 89 92 100 
126 670 295 90 94 103 
126 671 294 89 92 99 
126 671 295 92 95 103 
125 664 296 118 124 135 
125 664 297 119 124 135 
125 665 296 119 126 138 
125 665 297 118 124 136 
125 664 298 125 129 139 
125 664 299 109 114 124 
125 665 298 126 131 141 
125 666 296 95 104 116 
125 667 296 64 72 84 
126 665 298 122 126 137 
126 665 299 121 125 135 
126 666 296 88 97 110 
126 666 297 111 118 130 
126 667 296 73 82 94 
126 667 297 90 98 111 
126 666 298 107 112 124 
126 666 299 110 114 123 
126 667 298 87 95 107 
126 667 299 80 87 97 
125 664 300 97 102 112 
125 664 301 90 95 105 
126 664 300 95 100 110 
126 664 301 87 93 103 
126 665 300 103 107 117 
126 665 301 89 94 104 
126 664 302 81 87 97 
126 664 303 81 87 96 
126 665 302 85 92 102 
126 665 303 82 88 97 
126 666 300 101 105 114 
126 666 301 83 89 99 
126 667 300 84 89 99 
126 667 301 82 88 97 
127 667 301 80 86 96 
126 666 302 84 90 100 
126 666 303 89 94 103 
126 667 302 80 86 95 
126 667 303 86 90 98 
127 667 302 79 85 94 
125 668 296 71 78 89 
125 671 298 87 94 106 
125 671 299 75 84 98 
126 668 296 79 86 96 
126 668 297 82 91 104 
126 669 296 94 100 109 
126 669 297 93 100 113 
126 668 298 84 93 106 
126 668 299 79 86 97 
126 669 298 80 89 102 
126 669 299 79 87 98 
126 670 296 100 106 116 
126 670 297 114 120 131 
126 671 296 94 100 110 
126 671 297 105 111 122 
126 670 298 99 106 118 
126 670 299 77 86 99 
126 671 298 102 108 119 
125 669 303 84 90 99 
125 670 301 110 115 125 
125 671 300 83 91 103 
125 671 301 120 123 133 
125 670 302 109 114 124 
125 670 303 92 98 109 
125 671 302 122 125 135 
125 671 303 99 105 115 
126 668 300 81 87 96 
126 668 301 78 84 94 
126 669 300 78 85 96 
126 669 301 78 85 95 
127 668 301 79 85 94 
126 668 302 78 83 92 
126 668 303 83 88 96 
126 669 302 84 89 98 
126 669 303 86 90 99 
127 668 302 78 84 93 
126 670 300 80 88 99 
126 670 301 94 101 112 
126 656 304 83 88 96 
126 656 305 85 89 97 
126 657 304 86 90 98 
126 657 305 84 88 96 
127 656 305 86 89 97 
127 657 305 86 90 97 
126 656 306 85 88 96 
126 656 307 83 87 95 
127 656 306 86 90 98 
127 656 307 84 87 95 
127 657 306 87 90 98 
127 657 307 86 89 97 
126 658 304 88 92 100 
126 659 304 86 90 98 
127 658 305 87 91 99 
127 659 304 88 91 99 
127 659 305 87 90 98 
127 658 306 88 91 99 
127 658 307 86 90 97 
127 659 306 85 89 97 
127 659 307 85 88 96 
126 656 308 84 88 95 
126 656 309 84 87 95 
126 657 308 85 88 96 
126 657 309 83 86 94 
127 657 308 85 89 96 
126 656 310 85 89 97 
126 656 311 88 91 99 
126 657 310 85 89 97 
126 657 311 89 92 100 
127 656 311 90 93 101 
127 657 311 91 94 103 
126 658 309 83 87 95 
126 659 309 84 88 96 
127 658 308 86 89 97 
127 659 308 86 89 97 
127 659 309 87 90 98 
126 658 310 82 86 94 
126 658 311 83 87 95 
126 659 310 86 89 97 
126 659 311 83 88 96 
127 660 304 90 93 100 
127 660 305 87 91 99 
127 661 304 89 92 100 
127 661 305 89 92 100 
127 660 306 84 88 96 
127 660 307 84 88 96 
127 661 306 88 91 99 
127 661 307 85 89 97 
126 662 304 88 91 99 
126 663 304 89 92 100 
127 662 304 89 93 100 
127 662 305 91 94 102 
127 663 304 91 94 101 
127 663 305 91 95 103 
127 662 306 89 93 101 
127 662 307 87 92 99 
127 663 306 90 94 102 
127 663 307 88 92 100 
127 660 308 84 88 96 
127 660 309 87 91 99 
127 661 308 83 87 95 
127 661 309 86 90 98 
126 660 310 89 93 101 
126 660 311 87 91 99 
126 661 310 89 93 101 
126 661 311 88 92 101 
127 660 310 90 94 102 
127 661 310 88 92 100 
126 663 309 88 91 99 
127 662 308 86 90 98 
127 662 309 86 90 98 
127 663 308 83 88 96 
127 663 309 85 89 96 
126 662 310 87 91 99 
126 662 311 88 92 101 
126 663 310 89 92 100 
126 663 311 88 92 101 
127 662 310 88 91 99 
127 656 312 90 94 102 
127 656 313 91 95 103 
127 657 312 92 96 104 
127 657 313 91 95 104 
127 657 314 92 96 104 
126 658 312 84 89 97 
126 659 312 85 89 98 
126 659 313 90 94 102 
127 658 312 87 92 100 
127 658 313 90 95 104 
127 659 313 90 95 103 
127 658 314 92 96 105 
127 658 315 95 99 108 
127 659 314 93 97 106 
127 659 315 93 98 107 
127 657 318 98 103 112 
127 657 319 99 104 113 
127 658 316 96 101 110 
127 658 317 94 99 108 
127 659 316 94 99 108 
127 659 317 95 100 110 
127 658 318 96 101 111 
127 658 319 99 104 114 
127 659 318 99 104 114 
127 659 319 100 105 115 
126 660 312 85 89 97 
126 660 313 89 93 102 
126 661 312 86 90 99 
126 661 313 87 91 100 
126 660 314 92 96 105 
126 660 315 93 98 107 
126 661 314 92 96 105 
126 661 315 95 99 109 
127 660 314 92 96 105 
127 660 315 92 97 106 
126 662 312 87 92 101 
126 662 313 87 92 101 
126 663 312 91 95 104 
126 663 313 91 95 105 
126 662 314 89 95 104 
126 662 315 92 97 108 
126 663 314 90 96 106 
126 663 315 91 97 107 
125 663 317 98 103 114 
126 660 317 99 104 114 
126 661 316 98 103 113 
126 661 317 99 104 114 
127 660 316 95 100 110 
127 660 317 98 103 113 
126 660 318 102 107 117 
126 660 319 103 108 117 
126 661 318 99 104 114 
126 661 319 100 104 114 
127 660 318 102 107 117 
126 662 316 97 102 112 
126 662 317 98 103 113 
126 663 316 93 99 109 
126 663 317 98 103 114 
126 662 318 99 104 114 
125 667 307 93 97 106 
126 664 304 89 93 101 
126 665 304 83 88 96 
126 665 305 86 90 99 
127 664 305 90 94 103 
127 665 305 87 92 101 
126 664 307 87 91 100 
126 665 306 90 94 103 
126 665 307 90 94 103 
127 664 306 88 93 102 
127 664 307 86 91 99 
127 665 306 89 93 102 
126 666 304 86 90 98 
126 666 305 85 89 98 
126 667 304 90 94 102 
126 667 305 89 93 101 
126 666 306 92 96 104 
126 666 307 96 100 108 
126 667 306 89 93 102 
126 667 307 95 99 107 
125 665 311 94 99 109 
125 666 309 89 94 103 
125 667 308 95 99 108 
125 667 309 95 100 108 
125 666 310 91 96 105 
125 666 311 95 100 110 
125 667 310 94 99 108 
125 667 311 94 99 109 
126 664 308 84 88 97 
126 664 309 86 90 98 
126 665 308 88 92 101 
126 665 309 89 93 101 
127 664 308 83 87 96 
126 664 310 89 92 101 
126 664 311 90 94 103 
126 665 310 93 96 105 
126 665 311 93 98 108 
126 666 308 94 99 107 
126 666 309 91 96 104 
126 667 308 96 100 109 
126 666 310 89 94 103 
125 669 304 80 85 94 
125 669 305 84 88 96 
125 668 306 89 93 101 
125 668 307 88 92 101 
125 669 306 87 91 99 
125 669 307 86 91 99 
125 670 304 86 92 100 
125 670 305 87 90 98 
125 671 304 92 97 105 
125 671 305 86 89 97 
125 670 306 83 87 94 
125 670 307 83 87 95 
125 671 306 82 85 93 
125 671 307 82 86 94 
126 668 304 87 90 99 
126 668 305 88 91 101 
126 669 304 82 87 95 
126 669 305 81 86 94 
126 668 306 86 90 99 
125 668 308 94 98 107 
125 668 309 99 103 112 
125 669 308 88 93 102 
125 669 309 97 100 108 
125 668 310 97 102 111 
125 668 311 93 98 108 
125 669 310 102 105 114 
124 670 309 92 95 103 
124 671 308 87 91 100 
125 670 308 87 91 100 
125 670 309 93 96 104 
125 671 308 87 91 99 
125 664 313 97 101 111 
125 665 312 98 103 112 
125 665 313 97 102 111 
125 664 314 94 100 110 
125 664 315 91 98 108 
125 665 314 96 101 111 
125 665 315 95 101 111 
125 666 312 99 104 113 
125 666 313 99 103 113 
125 667 312 96 101 111 
125 666 314 97 103 113 
126 664 312 94 98 107 
126 664 313 94 99 108 
126 665 312 95 100 109 
126 664 314 93 99 108 
125 664 316 94 100 110 
96 672 256 67 73 80 
96 673 256 67 72 80 
97 672 256 69 74 82 
97 673 256 66 72 79 
98 672 256 73 79 87 
116 672 256 66 71 78 
117 672 256 64 70 77 
118 672 256 65 70 77 
121 672 256 69 73 79 
121 673 256 66 70 77 
122 672 256 67 72 79 
122 672 257 68 74 82 
122 673 256 67 72 80 
123 672 257 70 76 84 
123 673 257 75 81 90 
123 672 258 75 81 89 
123 673 258 79 84 93 
122 674 256 73 79 87 
122 675 256 81 87 96 
123 674 257 89 94 104 
123 675 256 93 99 108 
123 675 257 101 106 116 
123 675 261 90 98 110 
123 674 262 82 90 101 
123 674 263 85 92 104 
123 675 262 91 98 110 
123 675 263 90 97 109 
122 676 256 91 96 106 
123 676 256 98 103 113 
123 677 256 98 103 113 
123 678 256 88 95 106 
123 676 261 95 103 115 
123 677 261 93 101 114 
122 676 263 88 96 108 
122 677 262 93 101 113 
123 676 262 95 103 115 
123 676 263 92 99 111 
123 677 262 91 99 111 
123 677 263 89 97 109 
122 678 263 90 97 109 
123 678 262 88 95 107 
123 678 263 86 93 105 
123 679 262 83 91 103 
123 679 263 81 89 101 
124 672 258 77 83 92 
124 672 259 80 86 95 
124 673 258 89 95 104 
124 673 259 92 98 108 
124 674 257 96 101 111 
124 675 257 96 102 112 
124 674 258 96 101 111 
124 674 259 93 100 110 
124 675 258 94 100 111 
124 675 259 90 97 108 
124 672 260 81 88 97 
124 672 261 83 89 99 
124 673 260 90 97 107 
124 673 261 84 91 101 
124 672 262 80 87 97 
124 672 263 78 85 95 
124 673 262 80 87 97 
124 673 263 78 85 95 
124 674 260 84 92 104 
124 674 261 82 91 103 
124 675 260 85 94 106 
124 675 261 87 96 108 
124 674 263 81 89 100 
124 676 257 87 93 104 
124 677 256 86 93 104 
124 677 257 79 86 98 
124 676 258 83 91 102 
124 676 259 85 93 104 
124 677 258 76 84 95 
124 677 259 76 85 96 
124 678 256 79 87 98 
124 678 257 74 81 92 
124 679 256 73 80 91 
124 679 257 69 76 88 
124 678 258 71 79 91 
124 678 259 71 80 91 
124 679 258 70 77 88 
124 679 259 69 76 86 
125 678 259 70 78 89 
125 679 258 70 78 89 
125 679 259 72 79 90 
124 676 260 87 96 108 
124 677 260 86 95 107 
124 678 260 78 86 98 
124 678 261 84 93 105 
124 679 260 75 83 94 
124 679 261 82 90 102 
125 679 260 76 84 96 
124 679 262 83 90 102 
124 679 263 82 89 100 
123 676 264 86 94 106 
123 677 264 87 95 107 
123 678 264 89 95 106 
123 679 264 95 100 110 
124 672 264 76 82 92 
124 673 264 79 86 96 
124 673 265 79 87 98 
125 672 264 78 85 95 
125 672 265 73 80 90 
125 673 265 75 82 92 
124 674 264 81 89 100 
124 674 265 76 85 96 
124 675 264 83 91 102 
125 674 264 79 87 98 
125 674 265 77 85 96 
125 675 265 82 90 102 
125 674 266 80 88 99 
125 675 266 77 84 95 
126 672 265 70 77 87 
126 673 265 75 83 93 
126 672 266 70 77 86 
126 672 267 73 80 90 
126 673 266 75 83 93 
126 673 267 77 84 95 
127 672 267 72 79 89 
126 674 266 79 87 97 
126 674 267 80 87 98 
126 675 267 81 87 96 
126 673 268 79 86 97 
127 672 268 78 84 94 
127 672 269 81 87 96 
127 673 268 77 84 94 
127 673 269 79 86 96 
127 672 270 84 90 99 
127 673 270 86 91 101 
126 674 268 83 90 100 
126 675 268 86 91 100 
127 674 268 84 90 100 
127 674 269 83 88 98 
127 675 269 84 88 96 
127 674 270 87 92 102 
127 675 270 83 89 98 
127 675 271 85 91 101 
124 676 264 85 93 105 
124 677 264 83 90 102 
124 677 265 82 90 101 
125 676 265 83 91 102 
125 677 265 81 88 99 
125 676 266 82 89 99 
125 677 266 78 85 95 
124 678 264 92 98 108 
124 678 265 84 90 100 
124 679 264 92 97 108 
124 679 265 86 92 102 
124 678 266 77 83 94 
124 679 266 77 83 94 
124 679 267 73 80 91 
125 678 266 75 81 92 
125 678 267 73 79 90 
125 679 267 72 78 89 
126 676 267 81 86 95 
126 677 267 77 82 93 
126 678 267 75 80 91 
125 678 268 75 81 91 
125 679 268 74 79 89 
126 676 268 81 86 95 
126 677 268 78 84 93 
127 676 269 81 86 95 
127 677 269 79 84 93 
127 676 270 80 85 94 
127 677 270 78 83 92 
127 677 271 79 84 93 
126 678 268 76 82 92 
126 678 269 76 81 90 
126 679 268 74 80 90 
126 679 269 75 81 89 
127 678 269 76 82 91 
126 679 270 74 79 87 
127 678 270 76 81 90 
127 678 271 77 81 90 
127 679 270 75 79 87 
127 679 271 75 79 87 
123 680 256 70 77 88 
123 681 256 65 72 83 
122 683 256 61 67 77 
123 682 256 62 69 80 
123 682 257 65 72 83 
123 683 256 62 68 78 
123 683 257 64 71 81 
122 684 256 68 74 83 
122 685 256 67 74 83 
123 684 256 64 70 79 
123 684 257 63 69 79 
123 685 257 64 70 79 
122 686 256 71 78 87 
122 687 256 72 78 87 
123 686 257 61 67 76 
123 687 256 64 70 79 
123 687 257 60 66 74 
124 680 256 68 75 85 
124 680 257 67 74 85 
124 681 256 64 71 82 
124 681 257 64 71 82 
124 680 258 66 73 83 
124 681 258 66 73 83 
125 680 258 67 74 84 
125 680 259 71 78 89 
125 681 259 71 78 88 
124 682 257 64 71 82 
124 682 258 67 74 84 
124 683 258 68 75 85 
124 683 259 72 79 88 
125 682 259 73 79 89 
125 683 259 75 80 90 
124 680 261 84 91 102 
125 680 260 75 83 94 
125 680 261 85 90 102 
125 681 260 76 83 94 
125 681 261 82 88 99 
124 680 262 85 91 102 
124 680 263 78 85 96 
124 681 262 79 85 96 
124 681 263 76 82 92 
125 681 262 79 85 95 
125 681 263 75 80 91 
124 683 260 74 81 90 
125 682 260 76 82 93 
125 682 261 78 84 94 
125 683 260 78 83 93 
125 683 261 77 82 91 
125 682 262 75 81 90 
125 682 263 73 78 87 
125 683 262 71 77 86 
125 683 263 69 74 83 
124 685 257 62 69 78 
124 684 258 66 72 83 
124 684 259 68 75 84 
124 685 258 63 70 80 
124 685 259 63 69 78 
124 686 257 61 68 77 
124 687 257 60 66 75 
124 686 258 61 67 76 
124 686 259 61 66 75 
124 687 258 60 66 74 
125 687 258 59 65 73 
125 687 259 60 66 74 
124 684 260 68 75 84 
124 684 261 69 75 84 
124 685 260 65 71 79 
124 685 261 64 70 78 
125 684 260 75 81 90 
125 684 261 70 76 84 
124 685 262 64 70 78 
125 684 262 67 73 81 
125 684 263 68 73 81 
125 685 262 65 71 79 
125 685 263 65 69 77 
124 686 260 62 67 76 
124 686 261 61 66 74 
124 687 260 59 65 73 
124 687 261 59 64 71 
125 687 260 59 64 72 
125 687 261 58 64 72 
124 686 262 61 66 74 
124 686 263 60 65 72 
124 687 262 58 63 70 
124 687 263 57 62 69 
125 686 263 60 65 73 
124 680 264 89 95 105 
124 680 265 90 95 105 
124 681 264 82 87 97 
124 681 265 86 91 100 
125 681 264 75 80 90 
124 680 266 78 85 95 
124 680 267 75 81 91 
124 681 266 81 86 96 
124 681 267 75 81 91 
125 680 267 72 78 88 
124 682 265 77 81 91 
125 682 264 72 77 87 
125 682 265 71 76 85 
125 683 264 69 74 82 
125 683 265 70 74 82 
124 682 266 78 83 92 
124 682 267 74 79 88 
124 683 266 74 79 87 
124 683 267 72 77 85 
125 683 266 72 76 85 
125 683 267 72 76 84 
125 680 268 74 79 89 
125 680 269 74 79 88 
125 681 268 76 81 89 
125 681 269 75 79 87 
125 682 268 73 78 86 
125 682 269 72 76 83 
125 683 268 71 75 82 
125 683 269 69 73 80 
125 682 270 74 78 85 
125 683 270 76 80 88 
125 683 271 87 90 99 
126 680 269 74 78 86 
126 681 269 73 77 85 
126 680 270 73 77 85 
126 680 271 74 78 85 
126 681 270 74 77 85 
126 681 271 73 78 85 
127 680 271 73 77 84 
127 681 271 72 75 83 
126 682 270 76 80 87 
126 682 271 76 81 89 
126 683 271 83 87 96 
125 684 264 68 72 80 
125 684 265 66 71 79 
125 685 264 64 68 76 
125 685 265 62 67 75 
125 684 266 69 73 82 
125 684 267 71 75 84 
125 685 266 66 71 79 
125 685 267 68 73 81 
124 687 264 57 61 68 
124 687 265 56 61 68 
125 686 264 60 64 72 
125 686 265 59 64 72 
125 687 264 57 62 69 
125 687 265 57 62 69 
125 686 266 63 68 76 
125 686 267 66 71 78 
125 687 266 63 67 74 
125 687 267 63 68 75 
125 684 268 69 74 82 
125 684 269 73 78 85 
125 685 268 67 72 79 
125 685 269 71 75 82 
125 684 270 88 91 99 
125 684 271 96 99 107 
125 685 270 82 85 92 
125 685 271 87 90 98 
125 686 268 64 68 75 
125 686 269 67 70 77 
125 687 268 62 65 72 
125 687 269 64 67 72 
125 686 270 75 77 83 
125 686 271 75 78 84 
125 687 270 68 70 76 
125 687 271 70 72 77 
126 684 271 100 104 113 
126 685 271 85 88 96 
126 686 271 73 76 82 
126 687 271 65 67 73 
127 679 272 77 81 88 
127 672 283 89 95 108 
127 672 284 86 93 105 
127 673 284 77 83 93 
127 673 285 74 80 90 
127 672 287 70 73 81 
127 673 286 74 78 87 
127 673 287 73 76 86 
127 674 285 81 86 94 
127 675 285 87 91 99 
127 674 286 85 89 98 
127 674 287 84 90 99 
127 675 286 91 95 104 
127 675 287 97 102 112 
127 676 287 85 92 101 
127 680 272 72 77 84 
127 681 272 73 78 86 
127 681 273 73 77 86 
127 681 274 75 80 88 
126 682 272 83 87 95 
126 683 272 89 94 103 
126 683 273 87 92 102 
127 682 272 81 85 93 
127 682 273 84 88 96 
127 683 273 87 92 101 
126 683 274 84 90 99 
127 682 274 78 83 93 
127 682 275 71 77 86 
127 683 274 80 85 95 
127 683 275 72 79 88 
127 683 276 66 72 82 
126 684 272 94 99 108 
126 684 273 88 93 103 
126 685 272 79 83 92 
126 685 273 77 82 91 
126 684 274 85 91 101 
126 685 274 74 80 89 
127 684 274 77 83 93 
127 684 275 75 81 91 
127 685 274 72 78 87 
127 685 275 70 76 86 
126 686 272 68 72 79 
126 686 273 65 70 78 
126 687 272 62 65 71 
126 687 273 60 64 70 
127 687 273 59 63 70 
126 686 274 69 74 82 
127 686 274 67 72 80 
127 686 275 70 76 84 
127 687 274 60 65 73 
127 687 275 62 68 77 
127 684 276 69 75 85 
127 685 276 68 75 85 
127 686 276 70 76 85 
127 687 276 64 70 79 
121 689 256 70 75 83 
121 690 256 68 72 80 
121 691 256 65 69 77 
121 691 257 66 70 78 
122 688 256 72 77 85 
122 689 256 69 74 82 
123 688 256 65 71 79 
123 688 257 61 67 75 
123 689 256 66 71 80 
123 689 257 65 70 79 
122 690 256 66 71 79 
122 690 257 67 71 79 
122 691 257 66 71 78 
123 690 256 61 67 75 
123 690 257 64 69 77 
123 691 257 64 69 77 
122 691 258 66 71 78 
123 691 258 66 71 78 
121 692 256 60 65 73 
121 692 257 63 68 76 
122 692 256 62 67 74 
122 692 257 64 69 76 
122 693 256 60 64 72 
123 692 256 64 69 77 
123 692 257 65 70 78 
123 693 256 61 66 73 
122 692 258 66 71 78 
124 688 257 60 66 74 
124 689 256 59 65 73 
124 689 257 61 67 75 
125 688 257 61 67 75 
125 689 256 60 66 75 
125 689 257 61 67 75 
125 688 258 61 67 75 
125 688 259 59 65 73 
124 690 256 61 67 75 
124 691 256 65 70 78 
125 690 256 59 65 74 
126 688 257 63 68 76 
126 689 256 60 67 76 
126 689 257 65 71 80 
127 689 256 69 76 85 
127 689 257 65 72 81 
126 688 258 62 68 77 
126 688 259 60 66 74 
126 689 258 63 70 79 
127 688 259 60 67 75 
127 689 258 63 70 79 
127 689 259 60 67 76 
125 688 260 59 65 72 
125 688 261 58 63 70 
124 688 262 58 62 69 
124 688 263 55 60 67 
124 689 262 53 58 66 
124 689 263 54 59 67 
125 688 262 56 60 68 
125 689 262 53 58 65 
125 689 263 52 57 64 
126 688 260 59 64 72 
126 688 261 58 63 70 
126 689 260 59 64 72 
126 689 261 56 61 68 
127 688 260 58 64 73 
127 689 260 59 66 74 
127 689 261 55 60 68 
126 689 262 53 58 64 
126 689 263 51 56 63 
127 689 262 54 59 65 
127 689 263 50 56 62 
124 692 256 65 71 78 
124 688 264 56 61 68 
124 688 265 56 61 68 
124 689 264 56 61 68 
124 689 265 57 62 69 
125 688 265 59 63 70 
125 689 264 55 61 68 
125 689 265 57 63 70 
125 688 266 61 66 72 
125 688 267 60 64 71 
125 689 266 59 64 70 
125 689 267 59 63 69 
125 690 264 55 60 68 
125 690 265 57 62 69 
125 690 266 57 62 70 
126 689 264 53 59 66 
126 689 267 55 60 66 
126 690 264 54 59 66 
126 690 265 57 62 68 
127 690 264 55 60 66 
127 690 265 56 61 68 
127 691 265 56 60 67 
126 690 266 56 61 68 
126 690 267 54 58 65 
127 690 266 55 60 67 
127 690 267 52 57 64 
127 691 266 54 60 67 
127 691 267 52 58 65 
125 688 268 59 63 69 
125 688 269 61 64 69 
125 689 268 58 62 69 
125 688 270 64 66 71 
126 688 269 57 60 65 
126 689 268 55 59 65 
126 689 269 54 58 63 
126 688 270 58 60 66 
126 688 271 60 63 68 
126 689 270 55 59 65 
126 689 271 56 59 66 
127 689 270 56 60 67 
127 689 271 59 64 70 
126 690 268 53 57 64 
127 690 268 52 57 64 
127 690 269 55 60 67 
127 691 268 51 57 64 
127 690 270 58 63 70 
127 690 271 62 66 74 
126 688 272 60 63 69 
127 688 272 61 64 70 
127 688 273 60 64 70 
127 689 272 62 66 73 
127 689 273 64 68 75 
127 688 274 61 66 74 
127 688 275 64 70 78 
127 689 274 66 71 78 
127 689 275 69 74 82 
127 690 272 66 71 78 
127 690 273 68 73 80 
127 690 274 69 74 81 
127 688 276 61 68 77 
125 673 290 69 74 82 
125 673 291 67 73 82 
125 674 289 93 98 107 
125 675 289 102 109 119 
125 674 290 87 92 101 
125 674 291 79 86 96 
125 675 290 114 119 129 
125 675 291 112 117 126 
126 672 289 66 71 79 
126 673 288 66 72 81 
126 673 289 67 72 81 
127 672 288 69 71 80 
127 672 289 68 73 82 
127 673 288 71 76 85 
126 672 290 70 75 84 
126 672 291 71 75 85 
126 673 290 69 73 81 
126 673 291 68 71 82 
126 674 288 79 86 96 
126 674 289 79 85 94 
126 675 288 91 98 109 
126 675 289 96 103 114 
127 674 288 83 89 100 
127 675 288 97 104 114 
125 673 292 65 70 82 
125 673 295 87 91 99 
125 674 292 69 76 87 
125 674 293 66 72 82 
125 675 292 90 96 105 
125 675 293 71 77 87 
125 674 294 77 82 90 
125 674 295 85 89 97 
125 675 294 72 76 86 
125 675 295 83 87 96 
126 672 292 73 77 86 
126 672 293 78 82 90 
126 673 292 66 69 82 
126 673 293 70 75 85 
126 672 294 86 89 97 
126 672 295 92 95 103 
126 673 294 86 89 97 
126 673 295 91 94 101 
125 676 291 122 125 135 
126 676 288 97 104 116 
126 676 289 99 107 119 
126 677 289 95 101 112 
127 676 288 90 97 107 
127 676 289 92 99 110 
127 677 288 79 87 98 
127 677 289 83 91 103 
126 676 290 109 114 125 
126 676 291 118 122 131 
126 677 290 95 100 110 
126 677 291 100 103 111 
127 677 290 90 95 105 
127 678 289 76 85 98 
126 678 291 91 94 102 
127 678 290 86 93 104 
127 678 291 88 93 102 
127 679 291 87 92 102 
125 676 292 109 113 123 
125 676 293 81 86 96 
125 677 292 100 104 114 
125 677 293 80 86 96 
125 676 294 72 77 88 
125 676 295 72 76 88 
125 677 294 77 82 93 
125 677 295 79 85 96 
125 678 293 77 81 90 
125 678 294 76 80 90 
125 678 295 82 87 97 
125 679 294 72 77 86 
125 679 295 72 77 87 
126 677 292 94 96 105 
126 677 293 82 84 94 
126 678 292 88 90 97 
126 678 293 75 78 86 
126 679 292 78 81 89 
126 679 293 67 72 81 
127 679 292 76 82 91 
126 679 294 68 73 82 
123 678 299 72 74 83 
123 679 299 76 79 88 
123 677 301 96 101 111 
123 676 302 128 135 147 
123 676 303 118 124 136 
123 677 302 116 121 131 
122 678 301 82 86 95 
122 679 300 73 79 89 
123 678 300 77 79 89 
125 672 297 92 97 106 
125 673 296 91 95 104 
125 673 297 91 96 105 
125 672 298 85 91 102 
125 672 299 77 83 95 
125 673 298 86 91 101 
125 673 299 84 87 97 
125 674 296 84 89 98 
125 674 297 88 93 102 
125 675 296 78 83 92 
125 675 297 79 85 94 
124 675 299 89 94 104 
125 674 298 87 92 100 
125 674 299 85 90 98 
125 675 298 86 90 98 
125 675 299 87 92 101 
126 672 296 95 100 109 
126 672 297 93 99 109 
126 673 296 93 97 106 
125 672 300 79 84 93 
125 672 301 109 113 121 
125 673 300 83 87 95 
125 673 301 87 93 103 
124 673 302 90 96 108 
124 673 303 84 90 101 
125 672 302 116 120 129 
125 672 303 96 101 111 
125 673 302 97 102 112 
124 674 301 116 122 134 
124 675 300 107 113 125 
124 675 301 129 135 147 
125 674 300 100 105 115 
125 674 301 103 108 118 
125 675 300 95 101 111 
124 674 302 109 116 128 
124 674 303 89 97 109 
124 675 302 122 130 143 
124 675 303 101 111 124 
124 677 297 90 96 107 
125 676 296 75 80 90 
125 676 297 76 82 92 
125 677 296 89 93 101 
125 677 297 89 94 104 
124 676 298 80 83 91 
124 676 299 87 92 101 
124 677 298 82 86 95 
124 677 299 79 83 91 
125 676 298 80 84 92 
124 678 297 89 95 105 
124 679 296 86 90 98 
124 679 297 85 88 97 
125 678 296 86 91 100 
125 679 296 76 80 88 
124 678 298 77 83 92 
124 678 299 72 76 84 
124 679 298 79 82 91 
124 679 299 77 81 89 
124 676 300 106 112 123 
124 676 301 123 128 140 
124 677 300 95 99 108 
124 677 301 105 111 122 
124 676 302 124 132 144 
124 676 303 122 130 143 
125 680 295 68 73 82 
125 681 295 68 73 82 
126 680 293 67 73 81 
127 680 292 75 82 93 
127 680 293 74 79 88 
127 681 293 84 89 97 
126 680 294 67 72 81 
126 680 295 66 71 80 
126 681 294 76 80 88 
126 681 295 70 76 84 
127 681 294 81 85 92 
127 682 293 86 90 99 
126 682 295 84 87 94 
127 682 294 86 89 97 
127 682 295 89 92 99 
127 683 294 83 86 93 
124 680 297 78 81 88 
124 681 297 76 80 88 
125 680 296 72 76 84 
125 681 296 73 77 87 
125 681 297 74 79 87 
124 680 298 79 82 90 
125 682 296 84 88 97 
124 672 304 84 88 98 
124 672 305 88 93 102 
124 673 304 85 90 101 
124 673 305 91 97 107 
125 672 304 87 91 100 
125 672 305 86 90 99 
124 672 306 86 91 99 
124 672 307 86 90 99 
124 673 306 91 97 107 
125 672 306 85 88 96 
124 674 304 83 92 105 
124 674 305 108 114 125 
124 675 304 87 96 110 
79 641 320 96 101 110 
79 641 321 96 101 110 
78 643 320 98 103 112 
79 642 320 96 101 110 
79 642 321 98 103 112 
79 643 320 97 103 112 
79 643 321 100 105 114 
79 642 322 99 104 113 
79 643 322 102 107 116 
79 643 323 101 105 115 
77 647 320 100 105 115 
78 644 320 101 106 116 
78 644 321 101 106 116 
78 645 320 102 107 117 
78 645 321 101 106 116 
78 644 322 100 105 115 
78 645 322 98 104 113 
78 645 323 98 104 114 
79 644 322 101 106 115 
79 644 323 99 104 113 
79 645 323 98 104 114 
78 646 320 101 106 116 
78 646 321 99 105 114 
78 647 320 99 104 114 
78 647 321 99 104 114 
78 646 322 99 104 114 
78 646 323 100 106 116 
78 647 322 100 105 115 
78 647 323 103 108 118 
79 644 324 98 103 112 
79 644 325 99 104 113 
79 645 324 100 105 115 
79 645 325 102 107 116 
79 645 326 100 105 115 
78 646 324 103 108 118 
78 647 324 104 110 120 
79 646 324 102 107 117 
79 646 325 103 108 118 
79 647 325 105 111 121 
79 646 326 103 108 117 
79 646 327 103 108 117 
79 647 326 105 110 120 
79 647 327 104 109 119 
77 648 320 99 104 114 
78 648 320 100 105 115 
78 648 321 100 106 116 
78 649 320 102 108 118 
78 649 321 102 108 119 
78 648 322 102 108 118 
78 648 323 105 111 121 
78 649 322 103 109 120 
78 649 323 108 113 124 
78 650 320 106 111 122 
78 650 321 104 110 121 
78 651 320 109 114 125 
78 651 321 108 114 125 
78 650 322 105 112 123 
78 650 323 109 114 125 
78 651 322 109 115 126 
78 651 323 110 116 127 
78 648 324 107 113 123 
78 648 325 109 114 124 
78 649 324 111 116 126 
78 649 325 111 116 126 
79 648 325 109 114 125 
79 649 325 110 115 125 
79 648 326 107 112 123 
79 648 327 106 111 121 
79 649 326 108 113 123 
79 649 327 108 113 123 
78 650 324 110 115 125 
78 650 325 109 114 124 
78 651 324 110 115 125 
78 651 325 109 114 124 
79 650 325 108 113 123 
79 651 325 108 113 124 
79 650 326 108 113 123 
79 650 327 108 113 123 
79 651 326 108 113 124 
79 651 327 107 113 123 
78 652 320 111 117 128 
78 652 321 110 116 127 
78 653 320 111 117 127 
78 653 321 112 118 129 
78 652 322 110 116 128 
78 652 323 112 118 128 
78 653 322 113 119 130 
78 653 323 112 118 129 
78 654 320 109 114 125 
78 654 321 113 118 129 
78 655 320 107 112 123 
78 655 321 109 115 125 
78 654 322 115 121 132 
78 654 323 114 119 130 
78 655 322 112 118 128 
78 655 323 115 120 131 
78 652 324 111 116 127 
78 653 324 110 116 127 
79 652 324 109 115 126 
79 652 325 108 114 125 
79 653 324 109 115 126 
79 653 325 109 115 126 
79 652 326 109 114 125 
79 652 327 108 114 125 
79 653 326 109 115 126 
79 653 327 109 114 125 
78 654 324 112 117 129 
78 655 324 114 120 131 
79 654 324 110 116 128 
79 654 325 110 116 127 
79 655 324 116 121 132 
79 655 325 114 120 131 
79 654 326 111 116 127 
79 654 327 109 115 126 
79 655 326 112 118 129 
79 655 327 109 115 127 
79 648 328 105 110 120 
79 649 328 107 112 122 
79 649 329 107 113 123 
79 650 328 109 114 124 
79 650 329 108 114 124 
79 651 328 108 113 124 
79 651 329 109 115 126 
79 652 328 110 115 126 
79 652 329 112 117 128 
79 653 328 109 115 126 
79 653 329 111 116 127 
79 654 328 109 114 125 
79 654 329 108 114 125 
79 655 328 109 115 126 
79 655 329 110 116 127 
78 656 320 107 112 122 
78 656 321 105 111 121 
78 657 320 107 112 123 
78 657 321 104 110 120 
78 656 322 107 112 123 
78 656 323 113 118 129 
78 657 322 104 110 121 
78 657 323 109 114 124 
79 657 323 112 116 127 
78 658 320 108 114 125 
78 658 321 106 112 123 
78 659 320 109 116 127 
78 659 321 111 118 129 
78 658 322 106 111 122 
78 658 323 105 111 121 
78 659 322 111 117 128 
79 658 323 105 110 120 
79 659 322 110 116 127 
79 659 323 103 109 120 
79 656 324 119 124 135 
79 656 325 120 126 137 
79 657 324 116 121 132 
79 657 325 119 124 135 
79 656 326 115 121 133 
79 656 327 111 117 129 
79 657 326 119 125 136 
79 657 327 115 121 133 
79 658 324 107 112 123 
79 658 325 111 116 127 
79 659 324 100 106 117 
79 659 325 104 109 119 
79 658 326 119 124 135 
79 658 327 121 127 139 
79 659 326 111 116 127 
78 660 320 109 115 126 
78 660 321 112 118 130 
78 661 320 108 113 124 
78 661 321 108 113 124 
79 661 321 109 114 125 
79 660 322 114 119 130 
79 660 323 108 114 124 
79 661 322 112 118 129 
79 661 323 114 120 131 
78 662 320 105 111 121 
78 662 321 106 112 122 
78 663 320 103 108 118 
78 663 321 106 111 121 
79 662 321 109 114 125 
79 663 321 110 115 125 
79 662 322 114 119 130 
79 662 323 120 125 136 
79 663 322 114 119 129 
79 663 323 120 125 136 
79 660 324 101 107 118 
79 660 325 102 108 118 
79 661 324 107 113 124 
79 661 325 104 109 120 
79 660 326 105 110 120 
79 662 324 114 120 131 
79 662 325 106 112 123 
79 663 324 120 126 137 
79 656 328 110 116 127 
78 664 320 103 108 117 
78 664 321 107 112 122 
78 665 320 105 109 119 
78 665 321 107 112 122 
79 664 321 109 114 124 
79 665 321 107 112 123 
79 664 322 112 117 127 
79 664 323 117 122 133 
79 665 322 108 113 124 
79 665 323 111 117 128 
78 666 320 105 110 120 
78 667 320 104 109 119 
79 666 321 106 111 121 
79 667 320 105 110 120 
79 667 321 105 110 120 
79 666 322 106 111 121 
78 668 320 104 110 120 
79 668 320 106 111 121 
80 640 320 95 100 109 
80 640 321 94 99 108 
80 641 321 95 101 110 
81 640 321 93 98 106 
80 640 322 94 99 108 
80 641 322 96 102 111 
80 641 323 97 101 110 
81 640 322 93 96 104 
81 640 323 91 93 99 
81 641 323 94 98 105 
80 642 322 99 104 113 
80 642 323 100 104 113 
80 643 323 100 105 114 
82 640 323 88 86 88 
81 640 324 89 88 90 
81 641 324 91 92 97 
81 641 325 88 87 89 
80 642 324 97 102 109 
80 643 324 98 103 112 
80 643 325 94 98 106 
81 642 324 94 97 103 
81 642 325 89 90 94 
81 643 325 90 94 100 
81 642 326 86 84 85 
81 643 326 89 90 95 
81 643 327 88 88 91 
82 640 324 89 82 79 
82 640 325 91 81 74 
82 641 325 88 82 81 
83 640 325 96 83 72 
82 641 326 90 81 75 
83 640 326 98 85 73 
83 640 327 102 87 73 
83 641 326 95 83 74 
83 641 327 99 85 74 
82 642 326 87 81 79 
82 642 327 91 82 75 
82 643 327 88 82 78 
83 642 327 98 85 74 
80 644 325 96 101 110 
80 644 326 96 101 110 
80 644 327 95 99 108 
80 645 326 100 105 114 
80 645 327 97 101 110 
81 644 327 88 89 93 
81 645 327 90 92 98 
80 646 327 101 106 115 
80 647 327 103 108 117 
82 644 327 88 83 82 
84 640 327 105 88 72 
83 641 328 104 88 74 
82 643 328 95 84 76 
83 642 328 102 88 76 
83 642 329 105 89 76 
83 643 328 99 86 77 
83 643 329 104 89 77 
83 643 330 106 90 76 
81 645 328 89 89 93 
81 645 329 87 84 85 
80 646 328 98 102 110 
80 647 328 101 107 116 
80 647 329 97 101 110 
81 646 328 90 92 98 
81 646 329 89 89 93 
81 647 329 91 94 101 
81 646 330 85 82 82 
81 647 330 90 91 95 
81 647 331 89 87 89 
82 644 328 90 82 78 
82 644 329 96 85 77 
82 645 328 88 83 83 
82 645 329 93 83 77 
83 644 329 100 87 77 
82 645 330 96 85 76 
83 644 330 106 90 78 
83 644 331 112 95 79 
83 645 330 101 87 76 
83 645 331 108 92 79 
82 646 329 86 82 81 
82 646 330 93 83 77 
82 646 331 95 85 78 
82 647 331 90 85 82 
83 646 331 103 89 79 
83 647 331 96 85 77 
83 645 332 114 96 81 
83 646 332 110 94 80 
83 647 332 100 87 78 
83 647 333 107 91 80 
84 640 328 105 88 73 
84 640 329 106 89 73 
84 641 328 105 89 74 
84 641 329 107 90 75 
84 640 330 108 90 73 
84 640 331 110 92 74 
84 641 330 109 91 74 
84 641 331 112 93 75 
85 640 330 108 90 73 
85 640 331 110 92 75 
85 641 331 112 93 75 
84 642 329 106 90 76 
84 642 330 109 92 76 
84 642 331 114 94 76 
84 643 330 110 92 76 
84 643 331 114 94 76 
85 640 332 112 93 76 
85 640 333 116 96 77 
85 641 332 115 95 78 
85 641 333 119 98 78 
85 640 334 119 98 79 
85 641 334 123 101 80 
84 642 332 117 96 76 
84 643 332 118 97 77 
84 643 333 120 98 77 
85 642 332 117 96 77 
85 642 333 121 99 78 
85 643 333 122 99 78 
85 642 334 125 101 81 
85 642 335 127 102 82 
85 643 334 125 101 80 
85 643 335 129 104 84 
86 640 334 120 99 80 
86 640 335 122 100 80 
86 641 335 126 102 82 
86 642 335 128 103 82 
84 644 330 110 93 77 
84 644 331 114 95 78 
84 644 332 118 97 78 
84 644 333 121 99 78 
84 645 332 117 98 80 
84 645 333 121 100 80 
85 644 333 123 99 78 
84 644 334 124 100 80 
84 645 334 124 100 81 
85 644 334 125 101 80 
85 644 335 129 103 83 
85 645 334 126 102 83 
85 645 335 128 103 84 
84 646 332 116 97 82 
84 646 333 119 99 82 
84 647 333 112 94 82 
84 646 334 122 100 83 
84 647 334 118 98 83 
85 646 334 124 101 83 
85 646 335 127 102 84 
85 647 335 122 99 83 
80 648 328 102 107 117 
80 648 329 102 107 117 
80 649 329 107 112 123 
80 648 330 99 104 114 
80 649 330 105 111 121 
80 649 331 102 107 117 
81 648 330 94 96 103 
81 648 331 92 93 99 
81 649 331 98 103 112 
80 650 330 110 116 127 
80 650 331 108 113 124 
80 651 330 113 119 130 
80 651 331 116 121 133 
81 650 331 104 109 119 
81 649 332 96 99 106 
80 651 332 118 124 134 
81 650 332 102 107 116 
81 650 333 101 106 115 
81 651 332 112 118 128 
81 651 333 109 114 125 
82 648 332 91 87 87 
82 648 333 89 84 84 
82 649 332 94 95 101 
82 649 333 92 91 94 
83 648 333 95 84 77 
83 649 333 90 84 82 
83 648 334 96 83 76 
83 649 334 91 84 81 
82 650 333 97 100 108 
82 651 333 103 108 117 
82 650 334 95 97 103 
82 651 334 103 107 117 
83 650 334 92 91 95 
83 650 335 91 88 90 
83 651 334 96 99 105 
83 651 335 95 98 104 
80 652 330 117 123 134 
80 652 331 121 126 138 
80 653 330 114 120 131 
80 653 331 121 127 139 
80 654 329 109 115 126 
80 655 329 112 118 129 
80 654 330 111 118 129 
80 654 331 120 126 138 
80 655 330 115 121 133 
80 655 331 121 126 138 
80 652 332 123 128 140 
80 653 332 125 131 142 
81 652 332 121 126 138 
81 652 333 116 121 133 
81 653 333 121 127 138 
81 652 334 110 115 126 
81 653 334 118 124 136 
80 654 332 126 132 144 
80 655 332 127 133 145 
81 654 333 126 133 145 
81 655 333 132 137 150 
81 654 334 124 130 143 
81 655 334 131 137 150 
82 652 334 108 114 124 
82 653 334 113 119 131 
82 653 335 111 117 128 
83 652 335 103 108 117 
83 653 335 108 113 124 
82 654 334 122 129 140 
82 654 335 120 126 138 
82 655 334 128 134 147 
84 648 334 107 90 78 
84 648 335 112 92 80 
84 649 334 95 82 75 
84 649 335 97 83 75 
85 648 335 117 95 81 
84 650 335 91 84 82 
84 651 335 91 91 94 
86 640 336 124 100 80 
86 640 337 126 101 81 
86 641 336 127 103 83 
86 641 337 130 105 84 
86 640 338 128 103 82 
86 641 338 132 106 86 
87 640 338 128 102 82 
87 640 339 130 104 83 
87 641 338 133 107 86 
87 641 339 134 108 87 
86 642 336 129 104 84 
86 642 337 132 106 85 
86 643 336 131 106 86 
86 643 337 135 107 87 
86 642 338 134 108 86 
86 643 338 136 109 88 
87 642 339 136 109 89 
87 643 339 138 109 90 
87 640 340 132 105 85 
87 640 341 134 107 86 
87 641 340 136 109 89 
87 641 341 138 110 90 
87 642 340 138 110 91 
87 642 341 141 112 94 
87 643 340 140 110 92 
87 643 341 144 113 96 
85 644 336 132 106 87 
85 645 336 132 104 87 
85 646 336 131 104 87 
85 646 337 134 106 88 
85 647 336 126 101 84 
85 647 337 131 104 86 
86 644 336 134 107 88 
86 644 337 137 109 91 
86 645 337 137 108 91 
86 644 338 140 111 93 
86 644 339 142 113 95 
86 645 338 141 112 95 
86 645 339 146 117 99 
87 644 339 143 114 96 
87 645 339 146 117 100 
86 646 337 136 108 90 
86 647 337 134 106 89 
86 646 338 140 111 94 
86 646 339 143 114 96 
86 647 338 137 107 90 
86 647 339 139 110 92 
87 646 339 144 115 98 
87 647 339 140 111 93 
87 644 340 144 114 97 
87 644 341 147 116 99 
87 645 340 147 117 100 
87 645 341 148 117 101 
87 646 340 146 116 99 
87 646 341 148 116 100 
87 647 340 142 112 95 
87 647 341 145 114 98 
83 651 336 95 98 106 
83 652 336 98 103 112 
83 653 336 106 111 122 
84 649 336 99 84 75 
85 648 336 118 96 82 
85 648 337 124 100 84 
85 649 336 107 89 76 
85 649 337 114 93 80 
84 650 336 93 84 79 
84 651 336 91 89 92 
84 651 337 92 89 92 
85 650 336 95 82 76 
85 650 337 99 83 75 
85 651 337 92 85 84 
85 650 338 105 86 77 
85 651 338 94 84 82 
86 648 337 130 103 86 
86 648 338 130 101 85 
86 648 339 131 102 84 
86 649 338 121 96 83 
86 649 339 124 97 83 
87 648 339 133 103 86 
87 649 339 126 98 84 
86 650 338 112 91 80 
86 650 339 117 94 83 
86 651 338 100 85 79 
87 648 340 136 105 89 
87 648 341 140 109 93 
87 649 340 129 99 84 
84 652 336 93 98 108 
84 652 337 93 96 104 
85 652 337 94 95 100 
88 640 341 136 109 89 
88 640 342 138 110 91 
88 640 343 141 113 94 
88 641 342 141 112 93 
88 641 343 145 115 97 
88 642 342 145 115 97 
88 642 343 146 116 98 
88 643 342 148 117 101 
88 643 343 150 118 102 
88 644 341 148 117 101 
88 645 341 149 117 102 
88 644 342 149 118 101 
88 644 343 152 118 103 
88 645 342 151 119 103 
88 645 343 153 119 103 
88 646 341 150 117 102 
88 647 341 149 118 102 
88 646 342 152 120 105 
88 646 343 154 121 105 
88 647 342 153 119 104 
89 646 343 155 121 105 
88 640 344 144 114 97 
88 641 344 148 117 100 
89 640 344 143 113 95 
89 640 345 147 116 99 
89 641 345 150 118 102 
89 640 346 150 118 101 
89 640 347 150 119 102 
89 641 346 152 119 103 
89 641 347 153 120 104 
88 642 344 149 117 101 
88 643 344 152 118 103 
89 642 344 151 118 102 
89 642 345 152 119 103 
89 643 344 155 121 105 
89 643 345 154 121 105 
89 642 346 153 120 104 
90 640 347 151 119 102 
90 641 347 154 121 105 
90 642 347 155 122 106 
90 643 346 156 122 105 
90 640 348 153 120 103 
90 640 349 155 122 104 
90 641 348 155 122 105 
91 640 349 156 122 105 
91 641 348 157 123 106 
88 644 344 154 120 104 
89 644 344 155 120 105 
89 644 345 157 122 107 
89 645 344 155 120 104 
90 644 345 159 123 108 
88 648 341 143 110 95 
80 658 327 123 128 140 
80 659 326 119 124 134 
80 659 327 124 129 140 
80 661 325 103 109 119 
80 660 326 109 114 125 
80 660 327 120 125 136 
80 661 326 105 110 121 
80 661 327 114 119 130 
80 662 325 107 113 124 
80 663 324 119 124 135 
80 663 325 114 120 131 
80 662 326 104 110 120 
80 656 328 110 116 128 
80 656 329 111 117 128 
80 657 328 114 120 132 
80 657 329 114 121 133 
80 656 330 113 119 131 
80 656 331 117 124 135 
80 657 330 114 121 133 
80 657 331 116 123 136 
80 658 328 123 128 140 
80 658 329 123 129 141 
80 659 328 129 134 146 
80 659 329 129 135 147 
81 659 329 131 137 150 
80 658 330 123 129 142 
80 658 331 118 125 138 
81 658 330 127 134 147 
81 658 331 123 130 143 
80 656 332 123 129 141 
80 657 332 119 125 138 
81 656 332 124 130 142 
81 656 333 130 136 149 
81 657 332 121 128 140 
80 660 328 126 131 143 
80 660 329 130 136 148 
80 665 323 116 121 132 
80 664 324 121 126 137 
127 640 320 97 87 81 
127 640 321 102 89 79 
127 641 321 97 87 81 
126 640 323 114 96 78 
127 640 322 109 93 78 
127 640 323 112 95 78 
127 641 322 101 88 78 
127 641 323 109 92 77 
127 642 322 96 86 80 
127 642 323 101 87 76 
127 643 323 97 85 75 
126 640 324 117 97 79 
126 640 325 119 98 80 
126 641 324 116 96 78 
126 641 325 117 97 78 
127 641 324 114 95 78 
126 640 326 121 99 81 
126 640 327 124 100 80 
126 641 326 120 98 80 
126 641 327 124 99 81 
126 642 325 115 95 78 
127 642 324 110 91 77 
127 642 325 111 92 76 
127 643 324 101 86 74 
127 643 325 109 90 75 
126 642 326 119 96 79 
126 642 327 124 98 82 
126 643 326 117 95 78 
126 643 327 122 97 81 
127 643 326 113 92 76 
127 644 324 94 81 72 
127 644 325 99 84 73 
127 645 325 92 82 75 
126 644 327 118 95 79 
127 644 326 108 89 74 
127 644 327 115 93 77 
127 645 326 97 84 73 
127 645 327 108 88 74 
127 646 326 93 82 74 
127 646 327 98 83 74 
125 640 329 129 103 83 
125 641 329 129 102 82 
125 640 330 131 103 83 
125 640 331 132 103 83 
125 641 330 131 103 82 
125 641 331 132 103 83 
125 642 328 127 100 81 
125 642 329 129 101 82 
125 643 329 130 101 83 
125 642 330 132 104 84 
125 642 331 132 104 84 
125 643 330 130 103 83 
125 643 331 132 104 83 
126 640 328 127 101 81 
126 640 329 129 103 82 
126 641 328 127 100 81 
126 642 328 126 99 81 
126 643 328 125 97 81 
126 643 329 128 100 83 
126 643 330 129 101 82 
125 640 332 134 104 85 
125 640 333 135 105 85 
125 641 332 133 103 83 
125 641 333 135 104 84 
125 641 334 136 105 86 
125 642 332 134 104 84 
125 642 333 135 104 85 
125 643 332 134 105 84 
125 643 333 135 105 85 
125 642 334 136 105 86 
126 640 333 135 105 86 
126 640 334 136 104 86 
126 640 335 137 105 86 
126 641 334 137 105 87 
126 641 335 138 106 88 
126 643 333 136 105 86 
126 642 334 137 106 87 
126 642 335 139 107 87 
126 643 334 138 106 87 
126 643 335 140 108 88 
125 644 330 130 102 82 
125 644 331 131 102 81 
126 644 328 122 96 81 
126 644 329 127 99 83 
126 645 328 120 95 79 
126 645 329 123 98 81 
127 645 328 115 92 77 
127 645 329 119 94 79 
126 644 330 128 101 82 
126 644 331 130 102 81 
126 645 330 126 100 80 
126 645 331 131 103 82 
127 646 328 108 87 77 
127 646 329 112 89 76 
127 647 328 98 83 75 
127 647 329 100 83 72 
126 646 330 123 98 77 
126 646 331 127 101 80 
126 647 331 121 97 78 
127 646 330 117 93 75 
127 647 330 110 89 73 
125 644 332 134 105 84 
125 644 333 135 105 85 
125 646 335 138 105 87 
125 647 334 134 104 85 
125 647 335 136 106 87 
126 644 333 137 106 87 
126 645 332 134 104 83 
126 645 333 137 107 87 
126 644 334 138 107 88 
126 644 335 139 107 86 
126 645 334 138 106 87 
126 645 335 139 106 86 
126 646 332 131 103 82 
126 646 333 134 104 84 
126 647 332 126 100 81 
126 647 333 128 99 80 
126 646 334 136 104 85 
126 646 335 138 106 86 
126 647 334 131 101 81 
127 655 325 99 105 115 
126 648 331 116 91 75 
127 648 330 99 84 75 
127 648 331 109 87 75 
127 649 330 96 89 87 
127 649 331 98 84 77 
127 650 331 101 97 98 
125 648 334 131 102 83 
126 648 332 119 95 79 
126 648 333 125 98 82 
126 649 332 108 88 76 
127 649 332 101 84 75 
126 648 334 130 101 84 
125 641 336 138 106 87 
126 640 336 139 106 87 
126 640 337 140 107 87 
126 641 336 139 107 88 
126 641 337 141 108 88 
126 640 338 142 109 88 
126 640 339 143 110 89 
126 641 338 143 109 88 
126 641 339 144 110 90 
126 642 336 141 108 88 
126 642 337 143 109 89 
126 643 336 141 109 89 
126 643 337 143 110 90 
126 642 338 144 110 90 
126 642 339 146 111 92 
126 643 338 145 112 92 
126 643 339 146 111 92 
126 640 340 144 109 89 
126 640 341 145 110 89 
126 641 340 146 110 91 
126 641 341 147 111 92 
126 640 342 146 111 91 
126 642 340 148 111 94 
125 644 337 143 110 90 
125 645 336 140 108 88 
125 645 337 142 109 89 
125 644 338 145 112 92 
125 646 336 139 107 87 
126 644 336 141 108 88 
126 644 337 142 110 90 
126 645 336 140 107 87 
127 657 320 101 106 115 
127 657 321 105 109 119 
127 656 323 105 111 122 
127 657 322 104 109 120 
127 657 323 104 109 120 
126 659 320 104 108 117 
126 659 321 106 110 120 
127 658 320 102 106 116 
127 658 321 104 109 118 
127 659 320 104 108 117 
127 658 322 107 112 123 
127 656 324 107 112 123 
126 660 320 103 107 116 
79 704 258 91 97 107 
79 704 259 90 97 107 
79 705 258 94 101 111 
79 705 259 95 103 114 
79 706 258 95 102 112 
79 706 259 105 112 123 
79 707 258 98 104 114 
79 707 259 105 112 123 
77 704 263 120 128 141 
77 705 263 115 124 137 
77 706 263 118 126 140 
77 707 263 108 118 131 
78 704 260 96 103 113 
78 704 261 101 107 118 
78 705 261 107 114 126 
79 704 260 92 99 109 
79 705 260 100 108 120 
78 704 262 115 121 133 
78 704 263 118 126 139 
78 705 262 114 121 132 
78 705 263 113 121 134 
78 706 261 114 121 133 
78 707 261 109 117 129 
79 706 260 114 121 133 
79 707 260 113 120 132 
78 706 262 113 120 133 
78 706 263 115 124 138 
78 707 262 105 113 126 
78 707 263 107 116 129 
79 708 258 98 104 113 
79 708 259 100 106 116 
79 709 258 97 103 112 
79 709 259 96 101 111 
79 710 258 96 101 110 
79 710 259 94 99 109 
79 711 258 96 101 111 
79 711 259 95 100 109 
77 708 263 105 114 126 
77 709 263 111 119 131 
77 710 262 106 112 123 
77 710 263 113 119 130 
77 711 262 103 108 118 
77 711 263 106 111 121 
78 708 261 99 106 118 
78 709 261 97 104 115 
79 708 260 101 108 119 
79 709 260 96 102 113 
78 708 262 100 108 120 
78 708 263 104 112 125 
78 709 262 102 110 122 
78 710 260 97 102 112 
78 710 261 99 104 114 
78 711 260 96 101 110 
78 711 261 98 103 113 
79 710 260 95 101 111 
79 711 260 95 100 110 
78 710 262 104 110 121 
78 711 262 101 107 117 
77 704 264 115 124 137 
77 704 265 103 112 125 
77 705 264 114 123 137 
77 705 265 107 116 129 
76 704 267 101 107 118 
76 705 267 102 109 121 
77 704 266 101 108 120 
77 705 266 104 112 124 
77 706 264 118 127 141 
77 706 265 116 124 137 
77 707 264 113 122 136 
77 707 265 113 122 136 
76 706 267 105 112 125 
76 707 266 114 122 135 
76 707 267 107 115 128 
77 706 266 112 119 132 
77 707 266 114 122 135 
76 704 268 101 107 117 
76 704 269 101 107 117 
76 705 268 102 108 120 
76 705 269 104 110 121 
76 704 270 103 109 119 
76 704 271 106 112 122 
76 705 270 107 114 125 
76 705 271 111 117 129 
76 706 268 103 110 122 
76 706 269 103 110 121 
76 707 268 104 111 123 
76 707 269 103 110 122 
76 706 270 106 114 126 
76 706 271 110 117 129 
76 707 270 104 111 122 
76 707 271 102 110 122 
77 708 264 107 116 129 
77 708 265 113 122 136 
77 709 264 110 118 130 
77 709 265 105 114 128 
76 708 266 116 123 136 
76 708 267 112 120 132 
76 709 266 106 113 126 
76 709 267 104 112 124 
77 708 266 114 122 135 
77 709 266 103 112 124 
77 710 264 109 115 127 
77 710 265 102 110 122 
77 711 264 103 108 119 
77 711 265 99 105 116 
76 710 267 98 105 116 
76 711 267 95 101 111 
77 710 266 100 107 119 
77 710 267 98 105 116 
77 711 266 98 104 114 
77 711 267 96 102 112 
76 708 268 106 113 125 
76 708 269 100 108 119 
76 709 268 101 108 120 
76 709 269 97 104 115 
76 708 270 98 105 116 
76 708 271 97 104 114 
76 709 270 94 101 111 
76 709 271 93 99 109 
76 710 268 96 103 113 
76 710 269 95 100 111 
76 711 268 94 99 109 
76 711 269 92 98 107 
76 710 270 94 99 109 
76 710 271 92 97 106 
76 711 270 91 96 105 
76 711 271 89 94 103 
79 713 257 89 95 105 
78 712 259 91 96 106 
78 713 259 88 94 103 
79 712 258 92 97 107 
79 712 259 94 99 108 
79 713 258 86 92 101 
79 713 259 89 94 103 
79 714 257 88 94 103 
79 715 256 87 92 101 
79 715 257 88 93 101 
78 714 259 86 92 101 
78 715 258 84 90 99 
78 715 259 84 90 99 
79 714 258 85 91 100 
79 715 258 86 91 100 
77 712 261 97 102 111 
77 713 261 99 104 113 
77 712 262 98 103 112 
77 712 263 97 103 112 
77 713 262 95 101 110 
77 713 263 89 96 105 
77 714 261 99 104 114 
77 715 261 89 95 104 
77 714 262 97 103 113 
77 714 263 90 96 106 
77 715 262 92 99 109 
77 715 263 89 95 105 
78 712 260 95 100 109 
78 712 261 96 101 110 
78 713 260 90 96 105 
78 713 261 96 100 109 
78 714 260 87 93 102 
78 714 261 93 98 107 
78 715 260 86 91 100 
78 715 261 89 95 103 
77 718 259 85 90 99 
77 719 259 88 93 101 
78 716 257 89 94 102 
78 717 256 89 93 101 
78 717 257 90 95 103 
79 716 256 85 90 99 
79 716 257 89 94 102 
79 717 256 86 91 99 
78 716 258 87 92 101 
78 716 259 83 89 98 
78 717 258 89 94 102 
78 717 259 85 90 99 
78 718 256 87 92 101 
78 718 257 89 94 102 
78 719 256 89 95 105 
78 719 257 88 93 102 
79 718 256 85 90 98 
79 719 256 85 91 100 
78 718 258 89 93 102 
78 718 259 86 91 99 
78 719 258 87 93 101 
78 719 259 89 94 102 
77 716 261 85 90 99 
77 717 260 85 90 98 
77 717 261 83 88 97 
77 716 262 84 90 98 
77 716 263 84 90 98 
77 717 262 81 87 95 
77 717 263 82 87 95 
77 718 260 83 88 97 
77 718 261 83 88 96 
77 719 260 84 89 97 
77 719 261 81 87 96 
77 718 262 82 87 96 
77 718 263 81 87 95 
77 719 262 82 88 97 
77 719 263 83 89 98 
78 716 260 85 90 98 
78 716 261 85 91 99 
78 717 260 85 90 99 
77 712 264 96 101 111 
77 712 265 95 100 110 
77 713 264 89 94 104 
77 713 265 90 95 104 
76 712 267 91 96 106 
77 712 266 95 100 109 
77 712 267 91 96 105 
77 713 266 90 96 104 
77 713 267 87 93 102 
77 714 264 85 91 100 
77 714 265 84 89 98 
77 715 264 84 90 99 
77 715 265 82 88 97 
77 714 266 85 90 99 
77 714 267 84 90 99 
77 715 266 83 89 98 
77 715 267 85 90 99 
76 712 268 89 94 104 
76 712 269 87 93 102 
76 713 268 86 91 100 
76 713 269 85 91 100 
77 712 269 85 91 100 
77 713 268 85 90 99 
77 713 269 85 91 100 
