ply
format ascii 1.0
comment Created by CloudCompare v2.10.1 (Zephyrus)
comment Created 1/31/20 11:06 AM
obj_info Generated by CloudCompare!
element vertex 2095
property float x
property float y
property float z
property uchar red
property uchar green
property uchar blue
end_header
367 661 230 80 85 93 
367 661 231 79 85 94 
366 662 229 89 95 104 
366 663 229 93 99 109 
366 662 230 87 93 102 
366 663 230 91 96 106 
367 662 230 85 91 100 
367 662 231 86 92 101 
367 663 230 89 94 103 
367 663 231 90 95 104 
366 656 232 65 70 78 
366 657 232 63 69 76 
367 656 232 66 72 80 
367 656 233 73 78 86 
367 657 232 65 71 79 
367 657 233 73 80 88 
367 656 234 82 88 97 
367 657 234 81 88 96 
367 658 232 69 75 82 
367 658 233 76 82 90 
367 659 232 72 78 85 
367 660 232 75 81 90 
367 661 232 81 87 96 
367 662 232 87 93 102 
367 663 232 90 94 103 
361 664 224 81 86 94 
361 665 224 80 85 93 
362 664 224 82 88 96 
362 664 225 84 89 98 
362 665 224 81 86 94 
362 665 225 82 88 96 
363 664 225 84 90 99 
363 665 225 82 88 96 
363 664 226 86 92 101 
363 665 226 84 89 98 
362 666 224 80 86 94 
362 667 224 80 86 95 
363 666 225 79 85 93 
363 667 224 80 86 95 
363 667 225 78 84 93 
363 666 226 81 86 95 
363 667 226 80 86 95 
362 668 224 83 89 98 
363 668 224 81 87 95 
363 668 225 79 86 94 
363 669 224 82 88 97 
363 669 225 81 87 96 
363 670 224 82 88 96 
363 670 225 84 90 99 
363 671 224 83 89 97 
364 664 226 88 94 103 
364 664 227 90 96 104 
364 665 226 85 90 99 
364 665 227 85 91 100 
364 666 226 81 87 96 
364 666 227 84 89 98 
364 667 226 81 87 96 
364 667 227 84 90 99 
365 666 227 85 91 100 
365 667 227 85 91 100 
365 664 228 89 95 104 
365 664 229 89 95 105 
365 665 228 85 91 100 
365 665 229 83 90 99 
365 666 228 86 92 102 
365 666 229 84 90 100 
365 667 228 85 91 101 
365 667 229 82 88 98 
366 664 229 88 95 105 
366 665 229 81 88 98 
366 664 230 88 94 103 
366 665 230 81 87 97 
367 664 230 86 92 101 
367 664 231 87 92 101 
367 665 231 82 88 97 
366 666 229 80 87 96 
366 667 229 79 86 96 
366 666 230 77 84 93 
366 667 230 78 85 94 
366 667 231 79 86 95 
367 666 231 78 85 95 
367 667 231 80 87 97 
364 669 225 82 88 97 
364 668 226 80 87 96 
364 668 227 84 90 99 
364 669 226 82 88 97 
365 668 227 84 90 99 
365 669 227 84 91 100 
364 670 225 85 91 100 
364 671 225 87 92 101 
364 670 226 86 92 101 
364 671 226 88 94 102 
365 670 226 86 92 101 
365 670 227 84 90 100 
365 671 226 86 92 101 
365 671 227 87 93 102 
365 668 228 82 89 98 
365 668 229 81 88 97 
365 669 228 83 89 99 
365 670 228 84 90 100 
365 671 228 87 92 101 
366 668 229 81 87 96 
366 669 229 82 88 97 
366 668 230 82 88 97 
366 669 230 85 91 100 
367 668 230 85 90 99 
367 668 231 89 95 104 
367 669 230 86 92 100 
367 669 231 93 99 108 
366 670 228 84 90 100 
366 670 229 84 89 98 
366 671 228 86 92 101 
366 671 229 85 91 100 
366 670 230 85 91 100 
366 671 230 82 88 98 
367 670 230 82 88 97 
367 670 231 86 92 101 
367 671 230 82 88 97 
367 671 231 79 86 95 
367 664 232 88 93 102 
367 665 232 83 88 97 
367 666 232 81 87 97 
367 667 232 83 90 100 
367 668 232 93 100 110 
367 669 232 99 105 115 
367 670 232 98 104 114 
368 651 237 79 85 93 
368 651 238 83 89 98 
368 651 239 86 92 101 
368 654 235 79 85 94 
368 655 235 82 88 97 
368 652 237 79 85 95 
368 653 236 79 85 93 
368 653 237 79 86 95 
368 652 238 84 91 100 
368 652 239 98 104 114 
368 653 238 84 91 101 
368 653 239 100 106 116 
369 653 239 107 113 123 
368 654 236 80 86 95 
368 654 237 82 89 99 
368 655 236 82 89 98 
368 655 237 87 94 103 
369 655 237 92 98 107 
368 654 238 88 94 104 
369 654 238 93 99 109 
369 654 239 100 106 117 
369 655 238 95 100 110 
369 655 239 97 103 113 
368 649 241 79 86 95 
368 648 242 80 87 96 
368 649 242 82 88 98 
368 650 240 81 87 96 
368 650 241 85 92 101 
368 651 240 95 101 110 
368 651 241 95 101 111 
368 650 242 86 93 103 
368 651 242 92 99 109 
368 652 240 110 115 125 
368 652 241 103 110 120 
369 652 240 116 122 132 
369 652 241 109 115 126 
369 653 240 115 121 131 
369 653 241 114 121 131 
369 652 242 101 108 119 
369 653 242 111 119 130 
369 654 240 114 119 129 
369 654 241 118 124 135 
369 655 240 103 109 119 
369 655 241 106 113 124 
369 654 242 112 119 131 
369 655 242 104 112 123 
368 656 234 87 94 103 
368 656 235 86 92 102 
368 657 234 83 91 100 
368 657 235 85 92 102 
368 658 233 78 85 93 
368 659 233 76 82 90 
368 658 234 83 90 99 
368 658 235 85 92 101 
368 659 234 81 88 97 
368 659 235 88 95 104 
368 656 236 87 94 104 
368 656 237 88 95 105 
368 657 236 84 91 100 
369 656 237 88 94 104 
369 657 237 85 92 102 
369 656 238 92 98 108 
369 656 239 94 100 110 
369 657 238 89 95 105 
369 657 239 91 98 108 
368 658 236 85 91 101 
369 658 236 86 92 102 
369 658 237 85 92 102 
369 659 236 89 94 104 
369 659 237 89 95 105 
369 658 238 87 94 104 
369 658 239 91 98 108 
369 659 238 89 95 105 
369 659 239 92 98 108 
370 658 239 92 99 110 
370 659 239 92 98 108 
368 660 232 77 83 91 
368 660 233 79 85 93 
368 661 232 84 90 99 
368 661 233 86 91 100 
368 660 234 83 89 98 
368 660 235 88 94 104 
368 661 234 87 92 102 
368 661 235 86 92 102 
369 660 235 90 96 106 
369 661 235 88 95 105 
368 662 232 89 94 103 
368 662 233 89 94 103 
368 663 233 89 93 102 
368 662 234 89 95 104 
368 663 234 93 98 108 
368 663 235 108 113 123 
369 662 235 91 98 109 
369 663 235 105 111 121 
369 660 236 90 96 105 
369 660 237 91 96 106 
369 661 236 90 96 106 
369 661 237 90 96 105 
369 660 238 90 96 105 
369 661 238 89 95 104 
369 662 236 90 97 108 
369 662 237 89 96 106 
369 663 236 97 103 114 
369 663 237 91 97 108 
369 662 238 89 95 104 
370 660 238 90 96 106 
370 660 239 91 97 107 
370 661 238 90 96 105 
370 661 239 92 98 108 
370 662 238 90 96 106 
370 662 239 92 98 108 
370 663 238 91 97 107 
370 663 239 92 98 109 
368 671 231 77 84 94 
368 664 232 87 92 101 
368 664 233 89 94 103 
368 665 232 84 90 99 
368 665 233 86 91 100 
368 664 234 92 98 108 
368 664 235 99 105 116 
368 665 234 86 92 102 
368 665 235 91 98 108 
369 664 235 106 112 123 
369 665 235 90 97 108 
368 666 232 81 87 97 
368 666 233 82 88 98 
368 667 232 85 92 102 
368 667 233 86 92 102 
368 666 234 81 88 98 
368 667 234 81 88 98 
369 666 234 81 88 98 
369 666 235 82 89 100 
369 667 234 82 89 99 
369 667 235 84 90 100 
369 664 236 100 107 117 
369 664 237 92 99 109 
369 665 236 94 100 111 
369 665 237 91 97 108 
369 666 236 84 91 101 
369 666 237 85 92 102 
369 667 236 85 91 100 
369 667 237 84 90 99 
370 664 237 92 98 108 
370 665 237 90 97 107 
370 664 238 92 98 109 
370 664 239 94 100 111 
370 665 238 92 98 108 
370 665 239 95 102 112 
370 666 237 87 93 102 
370 667 237 84 90 99 
370 666 238 89 95 104 
370 666 239 91 97 107 
370 667 238 87 92 101 
370 667 239 87 93 103 
371 667 239 87 93 103 
368 668 232 97 104 114 
368 668 233 100 105 115 
368 669 232 101 107 117 
368 669 233 102 107 117 
368 668 234 92 98 108 
368 669 234 95 101 110 
369 668 234 83 90 99 
369 668 235 83 90 99 
369 669 234 85 92 101 
369 669 235 84 90 100 
368 670 232 94 100 110 
368 670 233 96 101 111 
368 671 232 80 87 97 
368 671 233 85 91 100 
369 671 233 87 93 102 
369 670 234 89 95 104 
369 670 235 84 90 99 
369 671 234 86 92 101 
369 671 235 83 89 98 
370 670 235 81 87 96 
370 671 235 81 87 95 
369 668 236 85 91 100 
369 669 236 84 89 98 
370 668 236 85 90 99 
370 668 237 83 89 98 
370 669 236 82 88 97 
370 669 237 82 87 96 
370 668 238 85 91 99 
370 669 238 85 90 98 
371 668 238 85 91 100 
371 668 239 85 91 100 
371 669 238 84 88 96 
371 669 239 82 87 96 
370 670 236 80 85 94 
370 670 237 78 83 91 
370 671 236 76 81 89 
370 671 237 74 80 87 
371 670 237 77 82 90 
371 671 237 74 79 86 
371 670 238 80 85 93 
371 670 239 77 82 91 
371 671 238 75 79 87 
371 671 239 73 78 85 
369 656 240 96 103 113 
369 656 241 99 106 116 
369 657 240 94 101 111 
369 658 240 94 101 111 
370 656 241 98 104 115 
370 657 240 96 102 113 
370 657 241 98 104 115 
370 656 242 97 104 115 
370 657 242 97 104 115 
370 658 240 94 101 111 
370 658 241 101 107 118 
370 659 240 93 100 110 
370 659 241 96 103 114 
370 658 242 106 113 124 
370 659 242 106 113 125 
370 660 240 93 99 109 
370 660 241 95 102 113 
370 661 240 93 99 109 
370 661 241 96 102 113 
371 661 241 98 105 116 
370 660 242 103 111 122 
371 660 242 105 113 125 
371 661 242 102 110 121 
370 662 240 93 99 110 
370 662 241 93 100 111 
370 663 240 92 99 109 
371 662 241 94 102 113 
371 663 241 92 99 110 
371 662 242 97 104 116 
371 663 242 93 100 110 
370 664 240 93 100 110 
371 664 240 93 100 111 
371 664 241 94 101 112 
371 665 240 98 105 115 
371 665 241 103 110 120 
371 664 242 93 100 110 
371 665 242 97 103 113 
371 666 240 92 99 109 
371 666 241 96 102 112 
371 667 240 87 93 103 
371 667 241 88 94 104 
371 666 242 93 98 108 
371 667 242 85 92 101 
371 668 240 85 91 100 
371 668 241 82 88 98 
371 669 240 81 87 96 
371 669 241 78 84 93 
371 668 242 79 86 95 
371 670 240 76 82 90 
371 670 241 76 82 90 
371 671 240 73 78 86 
372 669 241 75 81 90 
372 668 242 76 83 93 
372 669 242 74 81 90 
372 670 241 73 78 87 
372 671 240 72 77 84 
372 671 241 72 77 84 
372 670 242 72 78 86 
372 671 242 72 77 84 
352 683 207 73 79 86 
352 684 206 75 82 90 
352 684 207 74 80 88 
352 685 206 78 84 92 
353 684 207 74 79 87 
353 685 206 76 82 90 
353 685 207 74 80 87 
352 686 205 80 86 94 
352 687 205 81 86 94 
353 687 205 79 84 92 
352 686 206 78 84 92 
353 686 206 75 81 89 
353 686 207 73 79 87 
353 687 206 75 81 89 
354 685 207 72 77 85 
354 686 207 72 78 86 
354 687 206 72 78 86 
354 687 207 72 78 86 
355 686 207 73 79 87 
355 687 207 75 80 88 
352 675 211 71 76 83 
352 672 213 71 77 84 
352 673 212 71 75 82 
352 673 213 71 76 82 
353 672 213 71 77 84 
353 673 213 71 76 84 
352 672 214 72 77 85 
353 672 214 71 77 84 
352 674 212 71 76 82 
352 675 212 71 76 83 
353 674 212 73 78 85 
353 674 213 74 79 86 
353 675 212 76 81 88 
354 673 213 72 78 86 
354 672 214 71 77 85 
354 672 215 70 76 84 
354 673 214 72 78 86 
355 672 215 71 77 85 
355 673 214 73 79 87 
355 673 215 72 78 86 
354 674 213 75 81 88 
354 675 212 78 83 91 
354 675 213 78 83 90 
355 674 213 74 81 89 
355 675 213 75 81 89 
355 674 214 74 80 89 
352 676 211 71 76 83 
352 677 210 70 76 83 
352 677 211 70 76 83 
353 676 211 72 77 84 
353 677 211 71 77 84 
352 679 209 74 80 87 
352 678 210 71 76 84 
352 679 210 73 79 87 
353 678 210 73 78 86 
353 678 211 73 78 86 
353 679 210 77 83 90 
354 677 211 72 77 85 
354 678 211 75 80 88 
354 679 210 79 84 92 
354 679 211 77 83 90 
355 679 211 77 82 90 
353 676 212 73 79 86 
354 676 212 74 79 87 
354 677 212 72 78 85 
355 676 212 73 78 86 
355 676 213 74 80 88 
355 677 212 73 79 87 
355 677 213 74 79 87 
354 678 212 75 80 88 
355 678 212 75 80 88 
355 679 212 76 81 89 
356 672 215 72 78 86 
356 673 214 75 81 89 
356 673 215 74 80 88 
357 673 215 77 82 91 
356 675 213 74 80 88 
356 674 214 75 81 89 
356 675 214 74 80 88 
357 674 214 75 82 90 
357 674 215 76 82 91 
357 675 214 76 82 90 
357 675 215 77 83 91 
358 674 215 78 84 92 
358 675 215 78 84 93 
356 676 213 74 80 88 
356 677 213 74 80 87 
357 677 213 73 79 87 
357 676 214 74 80 88 
357 677 214 73 79 87 
356 678 212 74 80 87 
356 678 213 73 79 87 
356 679 212 75 81 89 
356 679 213 73 79 87 
357 678 213 73 79 87 
357 679 213 74 80 88 
357 678 214 73 79 87 
357 679 214 74 80 88 
358 676 215 77 83 91 
358 677 214 72 78 86 
358 677 215 73 79 88 
359 677 215 74 80 88 
358 678 214 73 79 87 
358 678 215 73 79 87 
358 679 214 75 81 89 
359 678 215 75 81 89 
359 679 215 75 81 89 
356 672 216 73 79 86 
357 672 216 75 81 89 
357 672 217 76 82 90 
357 673 216 76 82 91 
358 672 217 77 83 91 
358 673 216 77 83 91 
358 673 217 76 82 90 
359 672 217 78 83 92 
359 673 217 79 85 93 
359 672 218 79 85 93 
359 673 218 80 86 95 
358 674 216 78 84 92 
358 675 216 81 86 95 
359 674 216 81 86 95 
359 674 217 82 87 95 
359 675 216 84 89 97 
359 675 217 84 90 98 
359 676 216 82 87 95 
359 676 217 82 87 95 
359 677 216 75 81 89 
359 678 216 77 82 90 
352 680 209 77 82 90 
352 681 208 72 78 86 
352 681 209 75 80 88 
353 680 209 79 85 92 
353 681 209 76 82 89 
353 680 210 80 86 94 
352 682 208 72 78 85 
352 683 208 73 79 86 
353 682 208 72 78 85 
353 682 209 73 79 86 
353 683 208 72 78 86 
354 680 210 79 85 93 
354 680 211 78 84 92 
354 681 210 76 82 90 
355 680 211 78 83 91 
355 681 210 77 83 91 
355 681 211 77 83 91 
354 682 209 73 79 86 
354 683 208 71 77 84 
354 683 209 71 77 85 
355 683 209 72 78 86 
354 682 210 75 81 88 
355 682 210 75 81 89 
355 683 210 74 80 88 
353 684 208 72 78 86 
354 684 208 72 77 85 
354 685 208 72 78 85 
355 684 208 74 79 87 
355 684 209 74 79 87 
355 685 208 75 80 88 
355 686 208 74 80 88 
356 680 211 77 82 90 
356 681 211 77 83 91 
357 681 211 76 81 89 
356 682 210 76 81 89 
356 682 211 76 82 90 
356 683 210 75 81 89 
357 682 211 77 82 90 
357 683 210 76 82 90 
357 683 211 77 83 91 
356 680 212 77 82 90 
357 680 212 77 82 90 
357 680 213 76 82 90 
357 681 212 77 82 90 
357 681 213 77 83 91 
357 682 212 76 81 89 
357 683 212 76 82 90 
358 680 213 77 83 91 
358 681 213 77 83 91 
358 680 214 76 82 91 
359 680 214 77 83 91 
359 680 215 76 82 90 
359 681 214 78 84 92 
358 682 212 76 81 89 
358 682 213 77 83 91 
358 683 212 78 84 92 
358 683 213 78 84 92 
359 682 213 78 84 92 
359 683 213 79 85 93 
359 682 214 79 85 93 
356 684 209 76 82 90 
356 685 209 77 82 91 
356 684 210 76 82 90 
357 684 210 77 83 91 
357 684 211 79 84 93 
357 685 210 82 88 97 
356 686 208 76 82 90 
356 686 209 77 83 91 
356 687 208 76 81 89 
356 687 209 76 82 90 
357 686 209 77 83 92 
357 687 209 78 84 93 
357 686 210 82 88 97 
357 687 210 79 86 94 
358 684 211 83 88 97 
358 685 211 86 92 100 
358 686 210 83 90 99 
358 686 211 85 91 100 
358 687 210 82 88 97 
358 687 211 83 90 99 
359 687 211 81 87 96 
358 684 212 83 88 97 
358 685 212 87 92 100 
359 684 212 83 89 97 
359 684 213 83 89 98 
359 685 212 85 91 99 
359 685 213 85 90 99 
359 686 212 86 91 100 
359 686 213 87 92 101 
359 687 212 84 90 98 
360 672 219 80 86 94 
360 673 218 80 86 94 
360 673 219 79 85 93 
361 673 219 78 84 92 
360 674 217 81 87 95 
360 675 217 81 87 95 
360 674 218 80 86 94 
360 675 218 79 85 93 
361 674 219 78 84 92 
361 675 218 78 84 92 
361 675 219 79 85 94 
360 672 220 79 85 94 
361 672 220 77 84 92 
361 672 221 81 87 96 
361 673 220 77 83 92 
361 674 220 79 85 93 
361 675 220 80 86 95 
362 672 221 81 88 97 
362 673 220 77 83 92 
362 673 221 79 85 94 
362 672 222 84 90 98 
362 672 223 84 90 98 
362 673 222 80 86 95 
363 672 223 83 89 97 
363 673 222 80 86 94 
363 673 223 81 87 95 
362 674 220 80 86 95 
362 674 221 81 87 96 
362 675 220 82 88 97 
362 675 221 83 88 97 
363 675 221 82 88 96 
363 674 222 80 86 95 
363 674 223 82 88 96 
363 675 222 81 87 96 
363 675 223 82 88 97 
360 676 217 79 85 93 
360 677 217 76 82 90 
360 676 218 78 84 92 
361 676 218 78 84 93 
361 676 219 80 86 95 
361 677 218 79 84 92 
361 677 219 80 85 94 
360 678 216 77 82 90 
360 678 217 76 82 90 
360 679 216 76 81 90 
361 678 217 78 83 91 
361 679 216 77 82 90 
361 679 217 77 83 91 
361 678 218 79 84 92 
362 676 219 82 88 97 
362 677 219 81 87 95 
362 679 217 79 84 92 
362 678 218 79 85 94 
362 678 219 82 88 96 
362 679 218 81 86 94 
363 678 219 84 90 98 
363 679 219 86 91 99 
362 676 220 84 90 98 
362 677 220 84 90 98 
363 676 220 82 88 97 
363 676 221 82 88 97 
363 677 220 84 90 99 
363 677 221 85 91 99 
363 676 222 82 88 97 
363 678 220 87 92 101 
363 678 221 88 93 102 
363 679 220 87 92 100 
364 675 223 86 92 101 
364 677 221 85 90 99 
364 676 222 82 88 97 
364 676 223 84 90 98 
364 677 222 83 89 97 
364 677 223 82 87 95 
365 677 223 83 88 96 
364 678 221 87 92 100 
364 679 220 85 91 99 
364 679 221 84 89 97 
364 678 222 84 89 97 
364 679 222 82 87 95 
365 678 222 81 86 94 
365 678 223 79 84 91 
365 679 222 76 81 89 
365 679 223 74 79 86 
366 679 223 70 75 82 
360 680 215 77 83 91 
360 681 214 78 84 92 
360 681 215 80 85 93 
361 681 215 79 84 93 
360 683 213 80 86 95 
360 682 214 80 86 94 
360 682 215 82 87 95 
360 683 214 81 87 96 
360 683 215 81 86 95 
361 682 215 80 86 94 
361 683 215 80 85 94 
360 684 213 83 89 98 
360 685 213 84 90 99 
360 684 214 86 92 101 
360 685 214 87 93 102 
361 684 214 88 94 102 
361 684 215 83 89 97 
361 685 214 87 92 101 
361 685 215 84 89 98 
360 686 213 84 90 99 
360 687 212 80 86 94 
360 687 213 82 88 97 
361 686 213 82 88 97 
361 687 212 78 84 92 
361 687 213 79 85 94 
361 686 214 81 87 96 
361 687 214 78 84 92 
362 684 215 78 85 93 
362 685 215 77 84 92 
362 686 215 76 82 90 
362 687 214 76 82 90 
362 687 215 74 80 88 
363 686 215 72 78 86 
363 687 215 71 77 84 
364 687 215 69 74 81 
360 680 216 77 82 91 
361 680 216 77 83 91 
361 680 217 78 83 91 
361 681 216 79 84 92 
361 682 216 80 85 93 
362 680 217 79 84 92 
362 681 216 80 85 93 
362 681 217 80 85 93 
362 680 218 80 85 93 
362 681 218 79 84 92 
363 680 218 81 87 94 
363 680 219 83 88 97 
363 681 218 77 82 90 
363 681 219 76 82 90 
362 682 216 79 84 92 
362 682 217 78 83 91 
362 683 216 76 82 91 
362 683 217 75 81 89 
363 683 217 73 79 86 
363 682 218 74 79 87 
363 683 218 73 78 86 
363 680 220 85 91 99 
362 684 216 75 81 89 
362 685 216 73 80 88 
363 684 216 73 79 87 
363 684 217 72 78 85 
363 685 216 71 78 86 
363 685 217 70 76 84 
363 684 218 71 76 84 
363 686 216 69 75 83 
364 681 219 76 82 90 
364 682 219 72 78 86 
364 683 218 73 78 85 
364 683 219 74 79 86 
365 683 219 74 79 86 
364 680 220 82 88 96 
364 680 221 81 87 94 
364 681 220 75 81 89 
365 680 221 76 81 89 
365 681 221 73 78 86 
365 680 222 72 77 85 
364 682 220 72 77 85 
365 682 220 71 76 83 
365 682 221 70 75 82 
365 683 220 71 76 83 
366 680 222 68 74 81 
366 680 223 66 72 79 
366 681 222 67 73 80 
366 681 223 65 70 78 
367 681 223 64 69 77 
366 682 221 67 73 80 
366 683 220 70 75 82 
366 683 221 67 72 79 
366 682 222 67 72 79 
367 682 222 66 71 78 
367 682 223 65 70 77 
367 683 222 66 71 78 
364 685 217 69 75 82 
364 684 218 72 77 84 
364 685 218 70 75 83 
365 684 219 73 78 85 
365 685 218 69 75 83 
365 685 219 71 76 84 
364 686 216 68 74 81 
364 686 217 68 74 81 
364 687 216 68 74 81 
365 686 217 67 73 80 
365 687 216 68 74 81 
365 687 217 67 73 80 
365 686 218 68 73 81 
366 684 219 72 77 84 
366 685 219 69 75 82 
366 687 217 67 73 80 
366 686 218 67 73 81 
366 686 219 68 74 81 
366 687 218 67 73 80 
367 686 219 68 73 80 
367 687 218 68 73 80 
367 687 219 68 73 79 
366 684 220 70 76 83 
366 684 221 68 74 81 
366 685 220 69 75 82 
367 684 221 70 74 81 
367 685 220 70 75 82 
367 685 221 70 75 82 
367 684 222 67 72 79 
367 686 220 69 74 81 
352 688 205 81 87 95 
352 689 204 76 82 90 
352 689 205 76 82 90 
353 688 205 77 82 90 
353 689 205 75 81 89 
352 690 204 74 80 88 
352 691 204 75 81 89 
353 690 204 75 81 89 
353 690 205 75 81 89 
353 691 204 76 82 90 
353 691 205 76 82 90 
354 688 205 74 80 88 
354 689 205 74 80 88 
354 688 206 73 79 87 
354 689 206 74 80 88 
355 688 206 73 79 87 
355 688 207 74 79 87 
355 689 206 73 79 87 
355 689 207 74 80 87 
354 690 205 75 81 89 
354 691 205 76 81 89 
355 691 205 73 79 87 
354 690 206 75 80 88 
355 690 206 74 79 87 
355 691 206 73 79 87 
352 692 203 75 81 89 
352 693 203 74 80 88 
353 693 203 74 80 88 
352 695 201 74 80 88 
352 694 202 74 80 87 
352 695 202 75 80 88 
353 694 202 75 80 88 
353 694 203 74 80 88 
353 695 202 76 81 89 
354 693 203 73 79 87 
354 694 203 72 78 86 
354 695 202 75 81 88 
354 695 203 73 79 87 
355 694 203 72 78 86 
355 695 203 73 79 86 
352 692 204 75 81 89 
353 692 204 78 84 92 
353 693 204 78 83 91 
354 692 204 80 85 93 
354 692 205 77 83 90 
354 693 204 77 83 90 
355 692 205 74 80 88 
355 693 204 72 78 87 
355 693 205 74 80 88 
355 694 204 71 77 85 
356 688 207 75 80 88 
356 689 207 74 80 87 
356 690 206 74 79 87 
356 690 207 74 79 87 
356 691 206 73 79 87 
356 691 207 74 80 88 
357 690 207 74 80 87 
357 691 207 74 80 88 
358 691 207 75 81 88 
356 695 203 74 79 86 
356 693 205 71 77 85 
357 693 205 71 77 85 
356 692 206 72 78 86 
356 693 206 71 77 85 
357 692 206 73 79 87 
357 692 207 75 80 88 
357 693 206 72 78 86 
356 694 204 71 77 85 
356 694 205 70 76 84 
356 695 204 73 79 86 
357 694 205 71 77 84 
357 695 204 73 78 86 
357 695 205 72 78 85 
358 692 207 77 82 90 
358 693 206 74 79 86 
358 693 207 77 82 89 
359 693 207 76 81 88 
358 695 205 73 78 86 
358 694 206 72 77 85 
358 695 206 73 79 86 
359 694 206 72 78 85 
359 694 207 73 78 85 
359 695 206 72 78 85 
352 699 199 72 78 86 
352 700 199 74 79 87 
352 701 198 74 79 87 
352 701 199 74 79 87 
353 700 199 74 79 87 
353 701 199 75 80 88 
352 703 197 82 88 95 
352 702 198 77 82 89 
352 703 198 79 85 93 
353 702 198 77 82 89 
353 702 199 76 81 88 
353 703 198 76 81 89 
354 701 199 76 81 89 
354 702 199 75 80 88 
354 703 198 73 78 85 
354 703 199 73 78 86 
355 703 199 72 78 85 
352 696 201 74 81 89 
352 697 200 73 80 88 
352 697 201 75 81 89 
353 696 201 78 84 92 
353 697 201 80 86 94 
353 696 202 78 83 91 
352 698 200 74 80 88 
352 699 200 73 79 87 
353 698 200 76 82 91 
353 698 201 79 85 93 
353 699 200 74 80 89 
354 696 201 80 86 94 
354 697 201 82 88 96 
354 696 202 79 84 92 
354 697 202 81 86 94 
355 696 202 77 82 90 
355 696 203 75 80 88 
355 697 202 78 84 92 
354 698 200 77 84 92 
354 698 201 80 86 94 
354 699 200 75 81 90 
354 699 201 76 82 91 
355 698 201 79 85 93 
355 699 201 77 83 92 
355 698 202 79 85 93 
353 700 200 73 79 88 
354 700 200 73 80 88 
354 701 200 75 81 88 
355 700 200 73 79 88 
355 700 201 74 80 89 
355 701 200 74 80 88 
355 701 201 74 80 88 
355 702 200 73 79 87 
355 703 200 72 78 86 
356 696 203 74 80 87 
356 697 202 77 83 90 
356 697 203 75 80 88 
357 697 203 74 79 87 
356 699 201 75 81 90 
356 698 202 77 83 91 
356 699 202 75 82 90 
357 698 202 75 80 88 
357 698 203 73 79 87 
357 699 202 73 79 87 
357 699 203 72 78 86 
358 698 203 73 79 87 
358 699 203 73 79 86 
357 696 204 73 79 86 
357 697 204 74 80 87 
358 696 204 74 79 87 
358 696 205 74 80 87 
358 697 204 75 80 87 
358 697 205 74 80 87 
359 696 205 74 79 86 
359 697 205 75 80 87 
359 696 206 73 78 85 
359 697 206 74 79 86 
358 698 204 75 81 88 
358 699 204 74 79 87 
359 698 204 75 80 88 
359 698 205 76 81 88 
359 699 204 74 80 87 
359 699 205 75 80 88 
356 700 201 74 80 88 
356 701 201 75 81 89 
357 701 201 76 81 89 
357 700 202 72 78 86 
357 700 203 71 77 85 
357 701 202 75 80 88 
356 702 200 74 80 87 
356 702 201 75 81 88 
356 703 200 73 79 87 
357 702 201 75 81 89 
357 703 200 73 79 87 
357 703 201 77 82 90 
357 702 202 77 83 91 
358 700 203 73 79 87 
358 701 202 76 82 90 
358 701 203 75 81 89 
359 700 203 74 81 89 
359 701 203 78 84 93 
358 702 202 81 87 95 
358 703 202 84 90 98 
359 702 203 83 89 98 
359 703 202 84 90 99 
359 703 203 84 91 100 
359 700 204 73 80 88 
359 701 204 77 84 92 
360 693 207 73 78 85 
360 694 207 71 76 83 
360 695 207 72 77 83 
361 695 207 72 77 84 
360 696 206 72 77 84 
360 696 207 73 78 84 
360 697 206 73 78 84 
361 696 207 73 78 84 
361 697 207 73 78 85 
360 699 205 75 80 88 
360 698 206 74 79 86 
360 699 206 75 81 89 
361 698 206 74 80 87 
361 698 207 75 80 88 
361 699 206 76 82 90 
361 699 207 77 82 90 
362 698 207 77 82 90 
362 699 207 79 85 92 
360 702 203 83 90 99 
360 703 203 85 92 102 
360 700 205 74 81 89 
360 701 204 77 84 93 
360 701 205 78 85 94 
361 701 205 82 89 98 
360 700 206 75 81 89 
361 700 206 78 84 93 
361 701 206 84 91 99 
360 702 204 82 89 99 
360 702 205 83 90 99 
360 703 204 86 93 103 
361 702 205 85 92 101 
361 703 204 89 96 105 
361 703 205 89 96 105 
361 702 206 87 93 103 
361 703 206 87 94 103 
362 700 207 81 87 95 
362 701 206 87 93 102 
362 701 207 85 90 99 
363 701 207 83 89 98 
362 702 206 86 93 102 
362 702 207 85 91 100 
362 703 206 87 93 102 
363 702 207 84 90 99 
363 703 207 85 91 100 
356 688 208 76 81 89 
356 689 208 76 81 89 
357 688 208 76 81 89 
357 688 209 78 84 92 
357 689 208 77 82 90 
357 690 208 75 81 88 
358 688 209 79 85 94 
358 689 209 78 84 92 
359 689 209 79 85 93 
358 688 210 81 87 96 
358 689 210 80 86 94 
359 688 210 81 87 95 
359 688 211 80 86 94 
359 689 210 79 85 93 
358 690 208 75 81 89 
358 690 209 76 82 90 
358 691 208 74 80 88 
359 690 209 76 82 89 
359 691 208 75 80 88 
359 691 209 75 80 88 
359 690 210 77 83 90 
358 692 208 77 83 90 
359 692 208 77 82 89 
359 693 208 77 82 90 
360 688 211 77 83 91 
360 689 210 75 81 89 
360 689 211 75 81 89 
361 689 211 74 79 87 
360 691 209 73 78 86 
360 690 210 75 80 88 
360 690 211 74 80 87 
360 691 210 73 78 85 
361 690 210 74 79 86 
361 690 211 73 78 85 
361 691 210 72 77 84 
362 690 211 70 75 83 
362 691 210 71 76 83 
362 691 211 69 75 82 
360 688 212 76 82 90 
361 688 212 75 82 90 
361 688 213 76 82 91 
361 689 212 74 80 88 
362 688 213 75 81 89 
362 689 212 73 79 86 
362 689 213 74 79 87 
363 689 213 71 77 84 
362 688 214 74 80 87 
363 688 214 72 78 85 
363 688 215 71 76 83 
363 689 214 71 76 83 
362 690 212 70 75 83 
363 690 212 69 75 82 
363 690 213 70 75 82 
363 691 212 69 75 82 
360 692 208 74 79 86 
360 692 209 72 78 85 
360 693 208 74 79 86 
360 693 209 72 77 84 
361 692 209 72 77 84 
361 693 208 73 78 85 
361 693 209 72 77 84 
361 692 210 71 76 83 
360 694 208 72 77 84 
361 694 208 73 78 85 
361 695 208 73 78 84 
362 693 209 72 77 83 
362 692 210 70 75 82 
362 692 211 70 75 82 
362 693 210 71 75 82 
363 692 211 69 75 81 
363 693 211 72 77 84 
362 694 209 73 78 85 
362 695 209 74 79 86 
363 695 209 74 79 86 
362 694 210 73 78 84 
363 694 210 72 77 84 
363 694 211 72 77 84 
363 695 210 74 79 86 
363 692 212 70 75 82 
364 688 215 70 75 82 
364 689 214 71 76 83 
364 689 215 70 76 83 
365 688 215 70 75 82 
365 689 215 70 76 83 
364 690 213 70 75 82 
364 691 212 69 75 82 
364 691 213 69 74 81 
365 691 213 69 74 81 
364 690 214 70 76 83 
365 690 214 70 75 83 
365 690 215 70 76 83 
365 691 214 69 75 82 
366 690 215 72 77 85 
366 691 214 69 75 82 
366 691 215 72 77 84 
367 691 215 75 80 87 
364 693 211 72 77 84 
364 694 211 75 80 87 
364 695 210 77 82 90 
364 695 211 78 83 91 
365 695 211 78 83 91 
364 692 212 71 76 83 
364 693 212 71 76 83 
365 692 213 70 75 82 
365 693 212 72 77 84 
365 693 213 71 76 83 
365 692 214 70 75 82 
364 694 212 77 82 89 
365 694 212 73 79 86 
365 694 213 73 78 85 
365 695 212 76 81 89 
366 693 213 71 76 83 
366 692 214 70 75 82 
366 692 215 70 75 83 
366 693 214 71 76 83 
367 692 215 75 80 86 
367 693 214 74 78 85 
367 693 215 76 80 86 
366 694 213 72 77 84 
366 695 213 73 79 86 
367 695 213 73 79 87 
366 694 214 72 77 84 
367 694 214 74 79 86 
367 694 215 78 83 89 
367 695 214 75 80 88 
367 695 215 77 82 90 
365 688 216 69 75 81 
365 689 216 70 76 83 
366 688 216 69 74 81 
366 688 217 69 74 81 
366 689 216 70 76 83 
366 689 217 71 76 83 
367 688 217 70 75 81 
367 689 217 73 78 85 
367 688 218 69 74 81 
366 690 216 72 77 84 
367 690 216 76 81 88 
367 690 217 75 80 87 
367 691 216 79 84 90 
367 692 216 80 84 91 
361 696 208 73 78 85 
361 697 208 73 78 85 
362 696 208 74 79 86 
362 696 209 75 80 87 
362 697 208 74 80 87 
363 696 209 75 80 88 
363 697 209 76 81 88 
363 696 210 75 81 88 
362 698 208 77 82 90 
362 699 208 79 84 92 
363 698 208 78 84 91 
363 698 209 78 83 91 
363 699 208 79 85 92 
363 699 209 79 85 93 
363 700 208 80 86 94 
363 700 209 80 86 94 
363 701 208 80 86 95 
363 702 208 82 88 96 
363 703 208 82 88 97 
364 696 210 78 84 91 
364 696 211 79 85 93 
364 697 210 77 83 90 
365 696 211 80 85 93 
365 697 211 79 85 93 
364 698 209 78 84 92 
364 699 209 80 86 95 
364 698 210 79 85 93 
364 699 210 83 89 98 
365 698 210 82 88 96 
365 698 211 82 88 97 
365 699 210 89 95 103 
365 699 211 94 99 108 
366 698 211 85 91 99 
366 699 211 94 100 109 
365 696 212 78 84 92 
365 697 212 78 84 93 
366 696 212 77 83 91 
366 696 213 76 81 90 
366 697 212 79 85 94 
366 697 213 79 84 93 
367 696 213 76 81 90 
367 697 213 79 85 93 
367 696 214 79 85 93 
367 697 214 81 87 96 
366 698 212 83 89 98 
366 699 212 90 95 104 
367 698 213 83 89 98 
367 699 212 86 91 100 
367 699 213 84 89 98 
364 700 209 83 88 97 
364 701 209 83 89 98 
364 700 210 88 94 103 
365 700 210 94 100 109 
365 701 210 90 95 104 
364 702 208 81 87 96 
364 702 209 82 88 97 
364 703 208 83 89 98 
364 703 209 82 88 97 
365 702 209 82 88 97 
365 703 209 82 88 97 
365 702 210 83 89 98 
365 703 210 82 88 97 
366 700 211 96 101 110 
366 701 210 85 91 101 
366 701 211 86 92 101 
366 702 210 83 89 98 
366 702 211 81 87 96 
366 703 210 80 87 96 
366 703 211 80 86 95 
367 703 211 80 86 95 
366 700 212 88 94 103 
367 700 212 84 89 98 
367 700 213 82 88 97 
367 701 212 81 87 97 
367 701 213 82 88 97 
367 702 212 81 87 96 
367 702 213 85 91 100 
367 703 212 83 89 98 
368 682 223 63 69 75 
368 683 222 65 70 77 
368 683 223 65 70 77 
369 683 223 68 73 79 
368 687 219 70 75 81 
368 685 221 70 75 81 
368 684 222 68 73 79 
368 684 223 68 73 80 
368 685 222 70 75 81 
369 684 223 73 77 84 
369 685 222 72 77 83 
369 685 223 77 82 88 
368 686 220 69 74 81 
368 686 221 70 75 81 
368 687 220 71 76 82 
369 686 221 69 75 81 
369 687 220 73 78 84 
369 687 221 72 77 84 
369 686 222 71 76 82 
369 686 223 74 79 86 
369 687 222 70 75 82 
370 685 223 78 83 90 
370 686 223 76 81 88 
370 687 222 72 78 85 
370 687 223 77 82 91 
371 687 223 82 88 97 
368 694 215 80 85 91 
368 695 215 81 86 95 
368 689 217 76 81 87 
368 688 218 70 75 81 
368 688 219 71 76 81 
368 689 218 74 79 86 
369 688 219 73 77 84 
369 689 219 74 79 86 
368 690 217 79 84 91 
368 691 216 83 87 94 
368 691 217 83 88 95 
369 691 217 84 89 97 
368 690 218 81 86 93 
369 690 218 77 83 90 
369 690 219 76 81 88 
369 691 218 79 84 92 
369 691 219 77 82 90 
369 688 220 73 78 85 
369 688 221 74 79 86 
369 689 220 74 79 86 
369 690 220 77 82 89 
370 688 221 74 80 87 
370 689 220 76 81 88 
370 689 221 77 82 90 
370 688 222 76 82 91 
370 688 223 83 89 98 
370 689 222 83 88 97 
370 689 223 88 94 104 
371 688 223 89 95 105 
371 689 223 98 104 114 
370 690 220 79 84 92 
370 690 221 82 87 95 
370 691 220 83 88 96 
370 691 221 90 95 104 
370 690 222 89 95 103 
370 690 223 94 100 110 
370 691 222 97 102 112 
370 691 223 102 108 118 
371 690 223 104 111 121 
371 691 223 105 111 123 
368 692 216 82 87 94 
368 692 217 86 91 98 
368 693 216 80 84 91 
368 693 217 82 86 94 
369 692 217 85 90 98 
369 693 217 84 89 97 
369 692 218 80 86 94 
369 692 219 78 84 92 
369 693 218 82 88 97 
369 693 219 84 89 98 
368 694 216 83 88 95 
368 695 216 86 92 101 
369 694 216 84 88 97 
369 694 217 85 91 100 
369 695 216 89 95 105 
369 695 217 94 100 110 
369 694 218 89 95 105 
369 694 219 93 99 109 
369 695 218 102 107 117 
369 695 219 105 110 120 
370 692 219 83 88 96 
370 693 219 86 92 100 
370 694 219 97 102 112 
370 695 219 102 108 118 
370 692 220 87 92 101 
370 692 221 94 100 109 
370 693 220 91 96 106 
370 693 221 95 101 112 
370 692 222 100 106 116 
370 692 223 102 108 119 
370 693 222 97 104 115 
370 693 223 99 106 117 
371 692 223 104 111 123 
371 693 223 101 109 121 
370 694 220 97 102 112 
370 694 221 96 102 113 
370 695 220 99 106 116 
370 695 221 97 104 115 
370 694 222 95 102 113 
370 694 223 96 104 115 
370 695 222 97 104 116 
370 695 223 98 105 117 
371 695 223 100 107 119 
368 696 214 81 87 95 
368 696 215 85 90 99 
368 697 214 83 89 98 
368 697 215 86 92 101 
368 699 213 85 90 99 
368 698 214 86 92 101 
368 698 215 91 97 106 
368 699 214 88 94 102 
368 699 215 91 97 106 
368 700 213 85 90 98 
368 701 213 86 92 101 
368 700 214 88 93 102 
368 700 215 92 97 107 
368 701 214 93 99 108 
368 701 215 100 105 115 
369 700 215 94 100 109 
369 701 215 105 110 120 
368 702 213 86 93 102 
368 703 212 85 91 100 
368 703 213 84 91 101 
368 702 214 94 100 110 
368 703 214 87 94 104 
369 702 215 102 108 118 
369 703 215 94 101 111 
368 696 216 89 95 104 
368 697 216 91 97 107 
369 696 216 98 105 115 
369 696 217 113 119 129 
369 697 216 102 109 119 
369 697 217 116 122 133 
369 696 218 116 121 132 
369 696 219 112 118 128 
369 697 218 120 125 136 
369 697 219 115 121 131 
369 698 216 97 103 112 
369 698 217 99 106 117 
369 699 216 92 98 108 
369 699 217 95 101 112 
369 698 218 103 109 120 
369 698 219 108 113 124 
369 699 218 97 103 113 
370 696 219 106 112 122 
370 697 219 105 111 122 
370 698 219 100 106 117 
370 699 218 97 103 113 
370 699 219 97 103 115 
370 696 220 100 107 118 
370 696 221 99 107 118 
370 697 220 102 108 119 
370 697 221 104 111 122 
370 696 222 102 110 122 
370 696 223 105 112 124 
370 697 222 111 118 130 
370 697 223 117 124 136 
371 696 223 105 112 124 
371 697 223 117 124 136 
370 698 220 101 108 119 
370 698 221 104 111 123 
370 699 220 99 105 116 
370 699 221 98 105 116 
370 698 222 109 116 128 
370 699 222 96 104 115 
371 698 223 112 119 130 
371 699 222 95 102 113 
371 699 223 94 101 112 
369 700 216 94 100 110 
369 700 217 95 101 112 
369 701 216 103 109 119 
369 701 217 94 101 111 
369 700 218 95 101 111 
369 701 218 93 100 110 
369 702 216 104 111 121 
369 702 217 101 108 119 
369 703 216 98 105 115 
369 703 217 100 107 118 
369 702 218 102 108 119 
369 703 218 98 105 116 
370 700 218 95 101 111 
370 700 219 94 100 111 
370 701 218 95 101 111 
370 701 219 94 100 110 
370 702 218 98 105 116 
370 702 219 93 100 110 
370 703 218 95 102 112 
370 703 219 90 96 106 
370 700 220 95 101 112 
370 700 221 96 102 112 
370 701 220 92 98 108 
370 701 221 92 98 107 
370 700 222 94 101 111 
370 701 222 92 98 108 
370 701 223 90 97 106 
371 700 223 93 100 110 
371 701 223 92 98 108 
370 702 220 89 95 105 
370 702 221 89 95 105 
370 703 220 86 92 102 
370 703 221 86 92 102 
370 702 222 89 95 105 
370 702 223 90 96 105 
370 703 222 88 94 104 
371 702 223 91 97 106 
371 703 223 91 97 106 
363 672 224 83 89 97 
363 673 224 83 89 98 
363 674 224 83 90 99 
364 672 224 84 90 99 
364 672 225 88 94 103 
364 673 224 85 91 100 
364 673 225 88 94 103 
364 672 226 90 96 105 
364 673 226 89 95 105 
365 672 226 90 96 105 
365 672 227 88 94 103 
365 673 226 91 97 107 
365 673 227 92 98 108 
364 674 224 86 92 101 
364 674 225 89 95 105 
364 675 224 88 94 103 
364 675 225 94 99 108 
365 674 225 92 99 108 
365 675 225 95 100 109 
365 674 226 94 101 111 
365 675 226 95 100 110 
366 673 227 92 98 107 
366 674 226 95 101 111 
366 674 227 92 98 108 
366 675 226 93 99 108 
366 675 227 90 96 106 
367 675 227 85 92 101 
366 672 228 88 93 103 
366 672 229 84 90 99 
366 673 228 87 93 102 
366 673 229 84 89 98 
367 673 229 81 87 95 
367 672 230 80 86 95 
367 673 230 80 86 94 
366 674 228 90 96 105 
367 674 228 87 93 102 
367 674 229 82 88 96 
367 675 228 82 88 98 
367 675 229 81 87 96 
364 676 224 87 92 101 
365 676 224 84 90 98 
365 676 225 89 94 102 
365 677 224 80 85 93 
365 676 226 93 99 107 
365 678 224 78 82 90 
366 676 225 84 89 97 
366 677 225 78 83 90 
366 676 226 88 94 102 
366 677 226 77 82 89 
367 676 226 84 89 98 
367 676 227 82 88 97 
367 677 226 76 81 89 
367 677 227 75 81 89 
366 678 224 75 80 87 
366 678 225 73 77 84 
366 679 224 70 74 81 
366 679 225 69 74 81 
367 678 225 70 75 81 
367 679 224 67 72 79 
367 679 225 67 72 79 
367 678 226 70 75 82 
367 679 226 67 73 80 
367 676 228 78 85 94 
367 680 224 65 71 77 
367 680 225 65 70 77 
367 681 224 63 68 74 
367 680 226 65 71 78 
368 672 230 78 84 93 
368 672 231 78 84 92 
368 673 230 78 84 92 
368 673 231 75 81 89 
368 674 229 77 83 91 
368 675 229 74 80 88 
368 674 230 74 80 88 
368 674 231 73 78 86 
368 675 230 71 77 84 
369 674 231 72 77 84 
369 675 230 71 76 83 
369 675 231 70 74 81 
368 677 227 73 79 86 
368 678 226 69 74 80 
368 678 227 70 75 81 
368 679 226 68 72 78 
368 679 227 69 73 78 
368 676 228 77 83 92 
368 676 229 72 78 85 
368 677 228 75 81 89 
368 677 229 72 78 85 
369 676 229 69 74 82 
369 677 229 70 75 82 
369 676 230 69 74 80 
369 676 231 69 74 80 
369 677 230 69 74 80 
368 678 228 71 76 83 
369 678 228 70 75 81 
369 678 229 70 75 81 
369 679 228 70 74 80 
369 679 229 70 75 80 
369 678 230 70 75 80 
370 676 231 70 74 80 
370 677 230 71 75 81 
370 677 231 71 75 81 
370 679 229 71 75 80 
370 678 230 71 75 81 
370 678 231 72 77 83 
370 679 230 72 76 82 
370 679 231 73 77 84 
371 679 231 74 79 86 
368 672 232 75 82 91 
369 672 232 74 80 88 
369 672 233 77 82 91 
369 673 232 74 79 87 
369 673 233 72 77 84 
369 672 234 78 84 92 
369 674 232 72 77 83 
369 674 233 71 76 82 
369 675 232 71 75 81 
370 673 233 70 74 81 
370 672 234 74 79 87 
370 672 235 76 81 89 
370 673 234 69 74 82 
370 673 235 68 73 80 
370 674 233 70 75 81 
370 675 232 69 74 80 
370 675 233 69 74 81 
370 674 234 68 73 80 
370 674 235 68 73 80 
370 675 234 71 76 82 
371 674 235 70 75 82 
371 675 234 76 80 87 
371 675 235 76 81 87 
370 672 236 73 78 85 
370 672 237 72 77 84 
370 673 236 69 74 81 
371 672 237 72 76 83 
371 673 236 69 75 82 
371 673 237 70 76 83 
371 672 238 71 76 83 
371 672 239 71 76 83 
371 673 238 72 77 84 
371 674 236 71 76 84 
371 674 237 74 79 86 
371 675 236 75 81 88 
371 675 237 76 82 90 
371 674 238 73 78 86 
370 676 232 71 75 81 
370 676 233 70 75 81 
370 677 232 72 76 83 
370 677 233 73 77 83 
371 676 233 71 76 83 
371 677 233 73 77 84 
371 676 234 74 79 86 
371 676 235 78 83 89 
371 677 234 76 81 88 
371 677 235 77 82 89 
370 678 232 71 76 83 
371 678 232 72 78 84 
371 678 233 74 79 86 
371 679 232 74 80 87 
371 679 233 74 80 88 
371 678 234 77 82 89 
371 676 236 76 81 88 
372 672 239 70 75 82 
372 673 239 72 77 84 
372 675 237 76 82 90 
372 674 238 74 80 88 
372 674 239 77 83 90 
372 675 238 76 83 91 
372 675 239 79 84 92 
373 675 239 80 86 94 
372 677 235 78 83 90 
372 679 233 76 82 90 
372 678 234 78 84 92 
372 678 235 81 86 95 
372 679 234 82 88 96 
372 679 235 85 92 101 
373 679 235 89 96 106 
372 676 236 76 82 89 
372 676 237 77 84 92 
372 677 236 76 83 90 
372 677 237 77 83 91 
373 677 237 84 90 99 
372 676 238 78 85 93 
373 676 238 82 88 97 
373 676 239 83 90 98 
373 677 238 89 95 105 
373 677 239 89 95 105 
372 678 236 81 87 96 
372 678 237 81 87 96 
373 678 237 86 93 103 
373 679 236 90 97 107 
373 679 237 95 103 114 
373 678 238 94 102 112 
373 678 239 97 104 116 
373 679 238 102 110 122 
373 679 239 107 115 127 
368 680 225 66 71 77 
368 681 224 62 67 73 
368 681 225 65 69 75 
368 680 226 68 72 79 
368 680 227 69 73 79 
368 681 226 68 72 79 
369 680 227 72 75 81 
369 681 226 70 74 79 
369 681 227 75 78 84 
368 682 224 64 69 75 
368 682 225 65 70 76 
368 683 224 66 71 77 
369 682 225 67 72 78 
369 683 224 70 74 80 
369 683 225 71 75 81 
369 682 226 69 74 79 
369 682 227 72 76 81 
369 683 226 72 76 82 
370 681 227 76 80 86 
370 683 225 74 78 85 
370 682 227 75 79 85 
370 683 226 74 78 84 
370 683 227 76 80 86 
371 683 227 77 83 90 
369 680 228 72 76 81 
370 680 228 73 78 84 
370 680 229 72 76 83 
370 681 228 74 79 86 
370 681 229 73 78 85 
371 681 229 74 80 87 
370 680 230 73 77 84 
371 680 230 76 81 89 
371 680 231 79 85 93 
371 681 230 77 83 91 
371 681 231 81 88 98 
370 682 228 76 81 88 
371 682 228 78 84 92 
371 682 229 79 85 93 
371 683 228 80 86 95 
371 683 229 87 93 103 
371 682 230 84 90 100 
371 683 230 92 99 109 
369 684 224 73 78 85 
370 684 224 75 79 86 
370 684 225 74 79 86 
370 685 224 78 83 90 
370 685 225 77 82 90 
370 684 226 75 80 87 
370 684 227 78 82 88 
370 685 226 79 85 94 
371 684 227 80 85 93 
371 685 226 82 87 96 
371 685 227 90 96 105 
370 686 224 80 85 93 
370 686 225 83 89 97 
370 687 224 84 89 98 
370 687 225 90 95 104 
371 686 225 88 94 102 
371 687 224 90 96 105 
371 687 225 96 102 112 
371 686 226 91 97 107 
371 686 227 102 108 119 
371 687 226 101 108 119 
371 687 227 111 118 131 
371 684 228 87 94 103 
371 684 229 96 103 114 
371 685 228 101 107 118 
371 685 229 110 117 128 
371 686 228 110 116 128 
371 686 229 116 122 134 
371 687 228 115 123 136 
371 687 229 118 125 139 
371 687 230 118 125 139 
372 681 231 86 93 103 
372 682 230 91 98 109 
372 682 231 92 99 110 
372 683 230 98 104 115 
372 683 231 105 112 124 
372 684 230 108 115 126 
372 684 231 117 124 136 
372 685 230 117 124 136 
372 685 231 119 127 139 
372 686 230 118 125 137 
372 686 231 118 126 138 
372 687 230 118 126 139 
372 687 231 117 124 137 
371 680 232 79 85 94 
372 680 232 82 89 98 
372 680 233 82 89 98 
372 681 232 89 96 107 
372 681 233 94 101 112 
372 680 234 88 95 105 
372 681 234 100 106 117 
373 680 234 95 102 113 
373 680 235 95 102 113 
373 681 234 103 111 122 
373 681 235 109 116 128 
372 682 232 99 106 118 
372 682 233 105 113 124 
372 683 232 111 119 130 
372 683 233 115 122 134 
372 682 234 112 119 132 
372 682 235 118 127 140 
372 683 234 119 127 140 
372 683 235 127 135 149 
373 682 234 113 121 134 
373 682 235 116 124 137 
373 680 236 102 109 121 
373 680 237 110 117 129 
373 681 236 114 122 135 
373 681 237 118 126 139 
373 680 238 115 122 135 
373 680 239 117 125 138 
373 681 238 117 124 137 
373 681 239 111 118 131 
372 682 237 123 132 146 
372 683 236 131 140 154 
372 683 237 126 135 151 
373 682 236 122 130 144 
373 682 237 122 130 144 
372 682 238 115 123 136 
372 682 239 107 113 125 
372 683 238 112 120 134 
372 683 239 105 111 123 
373 682 238 116 123 136 
372 684 232 120 127 139 
372 684 233 121 128 141 
372 685 232 121 128 141 
372 685 233 118 125 137 
372 684 234 119 126 139 
372 684 235 126 133 146 
372 685 234 111 118 130 
372 685 235 112 118 130 
372 686 232 119 126 139 
372 686 233 114 120 133 
372 687 232 113 121 133 
372 687 233 105 112 124 
372 686 234 108 114 125 
372 686 235 108 113 124 
372 687 234 99 105 117 
372 687 235 100 106 116 
372 684 236 133 141 155 
372 684 237 124 134 149 
372 685 236 122 128 140 
372 685 237 117 124 137 
372 684 238 108 117 131 
372 684 239 100 108 120 
372 685 238 106 114 126 
372 685 239 99 106 118 
372 686 236 111 115 125 
372 686 237 103 109 120 
372 687 236 109 113 123 
372 687 237 107 113 123 
372 686 238 100 107 118 
372 686 239 97 103 114 
372 687 238 100 106 117 
372 687 239 96 102 111 
372 672 240 70 75 82 
372 672 241 71 76 83 
372 673 240 74 79 87 
373 672 241 72 77 84 
373 673 240 76 82 90 
373 673 241 74 79 87 
372 672 242 73 78 85 
373 672 242 73 78 86 
373 673 242 75 81 89 
372 674 240 80 86 93 
373 674 240 80 86 94 
373 674 241 77 83 91 
373 675 240 81 87 96 
373 675 241 80 86 95 
373 674 242 76 83 91 
374 675 241 82 89 98 
374 674 242 79 85 94 
374 675 242 83 90 100 
373 676 240 84 90 100 
373 677 240 92 98 109 
373 678 240 101 108 120 
373 679 240 112 120 133 
373 679 241 122 130 144 
373 679 242 127 135 150 
374 676 240 88 95 105 
374 676 241 89 96 106 
374 677 240 94 101 111 
374 677 241 98 105 116 
374 676 242 94 101 112 
374 677 242 104 112 124 
374 678 240 101 109 121 
374 678 241 108 116 129 
374 679 240 110 118 130 
374 679 241 115 122 135 
374 678 242 114 122 136 
371 685 241 90 96 106 
371 685 242 94 98 107 
371 686 241 87 94 104 
371 687 241 87 93 104 
371 686 242 91 97 107 
371 687 242 90 97 108 
372 681 241 115 122 135 
373 680 240 120 126 139 
373 680 241 132 138 151 
373 681 240 107 113 127 
373 681 241 124 131 143 
372 681 242 128 136 150 
373 680 242 139 148 162 
373 681 242 136 144 158 
372 682 240 102 108 120 
372 682 241 103 110 122 
372 683 240 101 107 118 
372 683 241 101 106 116 
372 682 242 109 115 127 
372 683 242 100 106 116 
372 684 240 99 105 115 
372 684 241 98 102 112 
372 685 240 96 102 112 
372 685 241 94 99 108 
372 684 242 94 99 109 
372 686 240 93 98 107 
372 686 241 91 96 105 
372 687 240 93 98 107 
372 687 241 90 97 107 
371 688 224 95 102 112 
371 688 225 101 108 120 
371 689 224 108 115 126 
371 689 225 115 123 135 
371 688 226 110 119 132 
371 688 227 115 124 138 
371 689 226 125 133 147 
371 689 227 121 130 144 
371 690 224 122 129 141 
371 690 225 130 137 150 
371 691 224 115 122 135 
371 691 225 125 133 146 
371 690 226 133 141 154 
371 690 227 129 137 150 
371 691 226 126 134 147 
371 691 227 125 133 146 
371 688 228 118 127 141 
371 688 229 124 133 147 
371 689 228 122 131 145 
371 689 229 130 138 152 
371 688 230 130 138 152 
371 689 230 137 146 160 
371 690 228 125 134 147 
371 690 229 122 131 145 
371 691 228 125 133 146 
371 691 229 117 126 139 
371 690 230 124 134 148 
371 691 230 111 122 136 
371 692 224 107 116 128 
371 692 225 119 127 141 
371 693 224 104 113 126 
371 693 225 111 120 133 
371 692 226 116 125 139 
371 692 227 108 116 129 
371 693 226 110 119 132 
371 693 227 102 111 123 
371 694 224 99 107 119 
371 694 225 103 111 123 
371 695 224 99 107 118 
371 695 225 99 106 117 
371 694 226 100 108 120 
371 694 227 93 102 115 
371 695 226 97 104 115 
371 695 227 96 103 113 
371 692 228 105 114 126 
371 692 229 106 114 127 
371 693 228 100 109 121 
371 693 229 107 115 127 
371 692 230 103 112 126 
371 693 230 108 116 128 
371 694 228 96 105 117 
371 694 229 104 112 124 
371 695 228 96 103 114 
371 695 229 97 104 116 
372 688 230 127 135 149 
372 688 231 120 127 141 
372 689 230 137 144 158 
372 689 231 127 135 148 
372 690 230 124 133 147 
372 690 231 118 126 139 
372 691 230 108 117 131 
372 691 231 103 112 125 
372 692 230 100 110 123 
372 692 231 98 106 118 
372 693 230 100 109 122 
372 693 231 96 105 117 
372 694 229 102 110 122 
372 695 229 98 106 117 
372 694 230 104 112 124 
372 694 231 99 106 117 
372 695 230 100 107 118 
372 695 231 101 107 118 
372 688 232 110 118 130 
372 688 233 102 108 119 
372 689 232 106 114 126 
372 689 233 97 104 115 
372 688 234 97 103 114 
372 688 235 101 108 118 
372 689 234 99 105 115 
372 689 235 107 112 123 
372 690 232 103 111 123 
372 690 233 95 102 114 
372 691 232 96 104 115 
372 691 233 93 100 111 
372 690 234 99 105 115 
372 690 235 105 110 120 
372 691 234 95 101 110 
372 691 235 96 101 110 
372 688 236 112 118 129 
372 688 237 119 125 135 
372 689 236 111 118 128 
372 689 237 107 114 125 
372 688 238 106 112 123 
372 688 239 95 102 112 
372 689 238 99 106 116 
372 689 239 96 102 113 
372 690 236 105 111 121 
372 690 237 97 104 114 
372 691 236 98 103 113 
372 691 237 95 100 109 
372 690 238 94 100 110 
372 690 239 97 103 114 
372 691 238 93 98 108 
372 691 239 93 99 110 
372 692 232 94 101 112 
372 692 233 91 98 109 
372 693 232 95 101 112 
372 693 233 93 99 110 
372 692 234 91 97 107 
372 692 235 95 100 109 
372 693 234 93 100 110 
372 693 235 99 105 115 
372 694 232 97 104 115 
372 694 233 99 105 116 
372 695 232 101 108 118 
372 695 233 109 116 127 
372 694 234 105 112 124 
372 694 235 114 122 134 
372 695 234 123 131 144 
372 695 235 126 135 150 
372 692 236 95 101 110 
372 692 237 93 98 108 
372 693 236 97 104 114 
372 693 237 94 100 110 
372 692 238 94 98 107 
372 692 239 92 97 107 
372 693 238 95 99 108 
372 693 239 93 97 106 
372 694 236 109 118 131 
372 694 237 99 107 118 
372 695 236 128 137 151 
373 694 237 104 112 123 
373 695 236 133 142 157 
373 695 237 118 126 139 
372 694 238 101 105 114 
372 694 239 94 99 108 
372 695 238 103 109 120 
372 695 239 99 104 114 
373 695 238 108 114 126 
371 696 224 103 111 122 
371 696 225 100 107 119 
371 697 224 113 120 132 
371 697 225 104 111 123 
371 696 226 99 105 115 
371 696 227 100 105 115 
371 697 226 100 105 115 
371 697 227 100 106 115 
371 698 224 107 114 125 
371 698 225 100 106 117 
371 699 224 94 100 111 
371 699 225 94 100 109 
371 698 226 98 103 112 
371 698 227 103 108 117 
371 699 226 94 100 109 
371 699 227 102 108 118 
371 696 228 101 106 116 
371 697 228 101 107 116 
371 698 228 104 109 120 
371 699 228 110 116 127 
371 700 224 93 99 109 
371 700 225 94 100 109 
371 701 224 93 99 109 
371 701 225 96 102 111 
371 700 226 99 104 113 
371 700 227 111 116 126 
371 701 226 103 108 118 
371 701 227 116 121 130 
371 702 224 92 98 108 
371 702 225 94 100 111 
371 703 224 93 99 109 
371 703 225 94 100 111 
371 702 226 96 103 113 
371 702 227 106 112 122 
371 703 226 96 103 114 
371 703 227 98 105 115 
371 700 228 115 121 132 
371 701 228 118 123 134 
371 702 228 112 117 127 
372 696 229 100 107 117 
372 697 228 102 108 117 
372 697 229 102 108 118 
372 696 230 102 108 118 
372 696 231 103 109 119 
372 697 230 102 108 118 
372 697 231 102 108 117 
372 698 228 103 108 119 
372 698 229 100 107 118 
372 699 228 107 114 125 
372 699 229 105 112 124 
372 698 230 97 104 115 
372 698 231 98 103 113 
372 699 230 97 104 116 
372 699 231 96 101 111 
372 700 228 116 122 134 
372 700 229 112 119 131 
372 701 228 117 122 134 
372 701 229 109 116 128 
372 700 230 101 108 120 
372 700 231 93 99 109 
372 701 230 99 106 118 
372 701 231 94 100 110 
372 702 228 116 121 131 
372 702 229 110 116 127 
372 703 228 101 107 117 
372 703 229 102 109 119 
372 702 230 98 104 115 
372 702 231 92 99 110 
372 703 230 100 106 117 
372 703 231 96 101 111 
