ply
format ascii 1.0
comment Created by CloudCompare v2.10.1 (Zephyrus)
comment Created 1/31/20 11:18 AM
obj_info Generated by CloudCompare!
element vertex 1949
property float x
property float y
property float z
property uchar red
property uchar green
property uchar blue
end_header
150 589 143 105 112 124 
150 590 142 107 114 126 
150 590 143 109 117 129 
152 578 128 97 104 115 
152 578 129 96 103 114 
152 579 129 96 103 114 
152 579 130 99 106 118 
152 580 130 99 107 119 
152 580 131 100 108 120 
152 580 132 98 107 119 
152 581 132 103 111 123 
152 581 133 101 108 119 
152 581 134 98 105 117 
152 582 134 99 106 117 
152 582 135 100 107 117 
152 582 136 101 108 118 
152 582 137 102 109 119 
152 583 137 104 110 121 
153 582 136 100 107 118 
153 582 137 104 110 121 
153 583 137 98 105 116 
152 583 138 105 111 122 
152 583 139 105 111 122 
153 583 138 101 108 119 
153 583 139 99 106 117 
152 583 140 104 109 120 
152 583 141 102 108 119 
153 583 140 101 107 118 
153 583 141 102 108 119 
153 584 138 94 101 112 
153 584 139 95 101 112 
152 584 141 102 108 119 
153 584 140 96 103 114 
153 584 141 97 104 115 
152 584 142 103 109 120 
152 584 143 104 111 122 
152 585 143 104 110 121 
153 584 142 101 108 119 
153 584 143 103 109 120 
153 585 142 97 104 116 
153 585 143 100 107 119 
152 591 143 89 96 107 
151 585 144 104 111 123 
151 585 145 108 114 125 
150 586 144 104 110 121 
150 587 144 108 114 125 
150 587 145 109 115 127 
151 586 144 106 113 124 
151 586 145 106 113 124 
151 587 144 103 109 120 
151 587 145 105 112 123 
150 587 146 109 114 125 
150 587 147 107 113 124 
151 586 146 107 113 124 
151 586 147 109 115 127 
151 587 146 108 114 125 
151 587 147 107 114 125 
151 587 148 107 113 125 
151 587 149 111 117 129 
149 589 144 113 120 132 
149 589 145 113 121 133 
149 589 146 113 119 131 
149 589 147 110 117 130 
149 590 144 116 123 136 
149 590 145 114 121 133 
149 591 144 116 122 134 
149 591 145 112 119 131 
149 590 146 111 118 131 
149 590 147 108 115 127 
149 591 146 109 116 128 
149 591 147 106 113 124 
150 588 144 105 111 123 
150 588 145 106 113 125 
150 589 144 109 116 128 
150 589 145 109 117 130 
150 588 146 107 114 125 
150 588 147 107 112 124 
150 589 146 108 115 127 
150 589 147 106 114 126 
150 590 144 111 119 132 
149 590 148 108 114 125 
149 591 148 105 112 124 
150 588 148 108 114 126 
150 589 148 108 115 126 
150 589 149 108 114 125 
151 588 148 106 113 124 
151 588 149 108 114 125 
151 589 149 106 112 123 
151 588 150 106 112 123 
151 588 151 105 111 122 
151 589 150 106 112 123 
151 589 151 105 111 122 
150 590 148 108 115 126 
150 590 149 108 114 125 
150 591 148 106 112 124 
150 591 149 105 112 124 
150 590 150 107 113 125 
150 590 151 105 112 124 
150 591 150 104 111 123 
150 591 151 103 110 122 
151 590 151 105 111 123 
151 591 151 106 112 123 
151 589 152 104 111 122 
151 589 153 104 111 122 
151 589 154 104 111 122 
151 590 152 104 111 123 
151 590 153 104 111 123 
151 591 152 105 111 123 
151 591 153 105 111 123 
151 590 154 105 112 123 
151 590 155 105 112 124 
151 591 154 105 112 124 
151 591 155 106 113 125 
151 591 156 107 113 125 
152 585 144 104 110 122 
152 585 145 104 111 123 
153 585 144 102 109 120 
153 585 145 103 109 121 
152 586 145 107 113 125 
152 586 146 106 113 124 
152 586 147 108 114 126 
153 586 146 103 109 121 
153 586 147 105 112 123 
154 585 145 99 106 118 
154 586 146 99 106 118 
154 586 147 100 107 118 
154 587 147 99 106 118 
152 586 148 107 113 125 
152 587 148 108 114 126 
152 587 149 107 114 126 
153 586 148 104 111 122 
153 587 148 104 110 122 
153 587 149 104 111 123 
152 587 150 105 112 124 
152 587 151 104 111 123 
153 587 150 104 111 122 
153 587 151 104 111 122 
154 587 148 100 107 119 
154 587 149 100 108 119 
154 587 150 100 107 119 
154 587 151 103 110 122 
152 591 144 89 96 108 
152 588 150 105 112 124 
152 588 151 104 111 123 
154 588 149 99 106 117 
154 588 150 99 106 118 
154 588 151 100 108 119 
154 589 150 97 104 116 
154 589 151 98 106 117 
154 590 151 95 103 114 
153 587 152 104 111 122 
152 588 152 104 111 123 
152 588 153 104 111 122 
152 589 153 104 111 122 
153 588 152 103 110 122 
153 588 153 103 110 122 
153 589 153 103 110 122 
152 589 154 104 111 122 
152 589 155 104 111 123 
153 588 154 104 110 122 
153 589 154 104 111 122 
153 589 155 104 111 123 
152 590 155 105 112 124 
154 588 152 100 108 119 
154 588 153 102 109 120 
154 589 152 99 106 118 
154 589 153 100 108 119 
154 589 154 103 110 121 
154 589 155 104 111 122 
154 590 152 97 105 116 
154 590 153 100 107 119 
154 591 153 97 105 116 
154 590 154 101 108 120 
154 590 155 102 109 121 
154 591 154 100 107 118 
154 591 155 101 108 120 
152 589 156 105 112 123 
153 589 156 105 112 123 
153 589 157 106 113 124 
152 590 156 106 113 124 
152 590 157 107 113 125 
152 591 156 106 113 125 
152 591 157 107 114 125 
153 590 156 105 112 124 
153 590 157 106 112 124 
152 590 158 107 114 125 
152 591 158 107 114 126 
152 591 159 108 115 126 
153 590 158 106 113 125 
153 590 159 107 114 126 
153 591 159 108 114 126 
154 589 156 104 111 123 
154 589 157 105 111 123 
154 590 156 103 110 122 
154 590 157 104 111 123 
154 591 156 102 109 121 
155 590 156 103 110 122 
155 590 157 104 111 123 
154 590 158 106 113 124 
154 590 159 107 113 125 
155 590 158 105 112 124 
155 590 159 106 113 124 
155 591 158 105 112 124 
155 591 159 106 113 124 
144 592 137 94 100 110 
144 593 137 94 100 110 
145 592 137 93 99 110 
145 593 137 93 99 110 
145 593 138 93 100 110 
144 594 138 96 102 113 
144 595 138 98 105 115 
144 595 139 96 103 114 
145 594 138 94 101 111 
145 595 138 95 101 112 
145 595 139 95 102 113 
146 592 137 93 100 111 
146 593 137 94 100 111 
147 592 137 94 100 111 
146 593 138 94 100 111 
147 592 138 95 101 112 
147 592 139 98 105 115 
147 593 138 97 103 114 
147 593 139 100 107 118 
146 594 138 93 100 111 
146 594 139 95 102 114 
146 595 139 95 103 115 
147 594 139 100 107 119 
147 593 140 103 110 122 
146 595 140 102 109 121 
146 595 141 112 119 132 
147 594 140 103 111 123 
147 594 141 107 115 127 
147 595 140 104 111 124 
147 595 141 112 120 133 
147 594 142 109 117 129 
147 595 142 113 122 135 
147 595 143 111 121 135 
144 596 139 99 105 116 
144 597 139 98 105 116 
145 596 139 98 105 116 
144 597 140 97 104 115 
145 596 140 101 108 120 
145 597 140 103 110 122 
145 597 141 108 116 128 
144 598 140 98 105 116 
144 598 141 102 108 119 
144 599 141 99 106 118 
145 598 140 102 110 122 
145 598 141 107 114 126 
144 599 142 101 107 118 
145 598 142 106 112 124 
145 599 142 102 108 119 
145 599 143 102 108 118 
146 596 140 105 112 125 
146 596 141 109 117 130 
146 597 141 107 115 127 
146 596 142 109 117 130 
146 597 142 109 116 128 
146 597 143 109 116 129 
147 596 142 110 118 131 
147 596 143 108 117 130 
147 597 143 110 117 129 
146 598 141 112 119 132 
146 598 142 111 118 130 
146 598 143 109 116 127 
146 599 143 104 110 121 
148 592 139 98 105 116 
148 592 140 103 110 122 
148 592 141 112 119 131 
148 593 140 106 113 125 
148 593 141 107 114 125 
148 592 142 113 119 131 
148 592 143 113 120 132 
148 593 142 111 118 130 
148 593 143 114 121 133 
149 592 143 115 121 132 
148 594 141 106 113 125 
148 594 142 110 117 130 
148 594 143 112 121 134 
148 595 143 113 121 135 
151 593 141 91 99 110 
151 593 142 92 99 110 
151 593 143 89 97 108 
151 594 142 92 100 112 
151 594 143 90 98 110 
151 595 143 90 99 111 
144 600 141 100 107 118 
144 600 142 99 106 116 
144 601 142 99 105 116 
144 601 143 98 105 116 
145 600 142 100 106 116 
145 600 143 106 111 121 
145 601 143 99 105 116 
144 602 143 98 104 116 
144 603 143 99 105 116 
144 604 143 98 104 115 
147 595 144 104 114 128 
147 596 144 109 118 131 
147 596 145 110 118 131 
147 597 144 110 118 130 
147 597 145 110 118 131 
147 597 146 107 115 128 
147 597 147 103 111 123 
146 598 144 111 117 128 
146 599 144 105 112 123 
146 599 145 103 111 123 
147 598 144 108 115 126 
147 598 145 103 111 123 
146 599 146 102 110 122 
146 599 147 100 106 116 
147 598 146 100 109 121 
147 598 147 99 107 119 
147 599 146 99 108 121 
147 599 147 101 107 119 
147 597 148 94 102 115 
147 598 148 102 108 119 
147 598 149 100 106 117 
147 599 148 97 103 114 
147 599 149 101 107 118 
147 598 150 104 110 121 
147 599 150 105 111 122 
147 599 151 102 109 121 
148 593 144 114 121 134 
148 593 145 110 118 131 
149 592 144 116 121 133 
149 592 145 112 119 131 
149 593 144 111 119 131 
148 593 146 106 115 129 
148 593 147 108 117 131 
149 592 146 110 117 128 
149 592 147 108 116 128 
149 593 146 108 116 128 
149 593 147 109 118 131 
148 594 144 111 120 133 
148 594 145 109 118 132 
148 595 144 111 120 134 
148 595 145 108 117 131 
148 594 146 104 113 127 
148 594 147 104 113 126 
148 595 146 108 116 129 
148 595 147 107 115 127 
151 594 144 88 97 109 
151 595 144 88 97 109 
151 595 145 88 97 109 
151 594 146 89 98 110 
151 595 146 89 98 110 
148 593 148 107 115 128 
149 592 148 103 112 125 
149 592 149 103 110 122 
149 593 148 107 115 127 
149 593 149 104 112 124 
149 592 150 101 109 121 
149 593 150 105 112 124 
149 593 151 107 113 125 
148 594 148 109 117 129 
148 594 149 110 118 130 
148 595 148 110 118 130 
148 595 149 113 120 133 
149 594 149 110 117 130 
148 595 150 107 114 126 
149 594 150 109 116 129 
149 594 151 104 112 124 
149 595 150 105 113 125 
149 595 151 105 113 125 
150 592 149 104 111 123 
150 592 150 101 109 121 
150 592 151 102 110 122 
150 593 151 106 114 126 
148 596 145 111 119 132 
148 596 146 109 118 131 
148 596 147 105 113 126 
148 597 147 94 103 116 
151 596 145 89 98 110 
148 596 148 100 108 121 
148 596 149 103 110 122 
148 597 148 100 109 121 
148 597 149 101 108 120 
148 596 150 106 112 124 
148 596 151 106 112 124 
148 597 150 105 111 122 
148 597 151 109 115 127 
149 596 151 105 112 124 
148 598 150 107 113 124 
148 598 151 108 114 126 
151 598 148 89 97 109 
151 599 148 88 97 109 
151 599 149 89 97 109 
147 599 152 97 104 116 
147 599 153 95 102 113 
147 599 154 101 107 120 
149 594 152 109 116 128 
149 594 153 110 117 129 
149 595 152 108 116 128 
149 595 153 112 120 132 
149 594 154 111 119 132 
149 595 154 111 119 131 
149 595 155 113 120 133 
150 592 152 104 111 123 
150 593 152 104 112 124 
150 593 153 106 113 125 
151 592 152 105 111 123 
151 592 153 105 112 124 
150 593 154 109 117 129 
150 593 155 109 116 129 
151 592 154 106 113 125 
151 592 155 106 113 125 
151 593 154 106 114 126 
151 593 155 107 114 126 
150 594 154 111 118 130 
150 594 155 111 118 130 
149 595 156 113 119 131 
150 593 156 109 117 129 
151 592 156 107 114 126 
151 592 157 108 114 126 
151 593 156 108 115 127 
151 593 157 108 115 127 
151 593 158 109 115 127 
151 593 159 110 116 128 
150 594 156 111 118 130 
150 594 157 113 119 131 
150 595 156 112 118 130 
150 595 157 112 119 130 
151 594 156 109 116 128 
151 594 157 110 116 128 
150 595 158 112 118 130 
151 594 158 110 116 128 
151 594 159 110 117 128 
151 595 158 111 118 129 
151 595 159 111 118 129 
148 597 152 111 118 129 
148 597 153 113 119 131 
149 596 152 111 118 130 
149 596 153 112 118 130 
149 597 153 114 121 133 
148 597 154 107 114 126 
149 596 154 113 119 131 
149 596 155 110 117 129 
149 597 154 108 115 127 
149 597 155 105 112 124 
148 598 152 108 114 126 
148 598 153 106 113 125 
148 599 152 103 111 124 
148 599 153 100 109 122 
148 598 154 100 108 121 
148 598 155 101 109 122 
148 599 154 97 105 117 
148 599 155 98 106 118 
149 598 155 99 107 119 
149 596 156 110 117 128 
149 596 157 108 115 126 
149 597 156 108 115 128 
149 597 157 108 115 127 
149 597 158 108 115 127 
148 599 156 99 107 119 
148 599 157 98 104 116 
149 598 156 105 113 126 
149 598 157 106 113 125 
149 599 156 103 111 123 
149 599 157 102 109 121 
148 599 158 102 108 119 
149 598 158 105 113 125 
149 598 159 106 113 125 
149 599 158 104 111 123 
149 599 159 106 113 124 
150 596 156 110 117 129 
150 596 157 110 116 128 
150 596 158 110 116 128 
150 596 159 109 115 127 
150 597 158 108 115 127 
150 597 159 107 113 125 
150 598 159 107 114 126 
145 600 144 102 108 119 
145 601 144 100 106 117 
145 601 145 97 103 114 
145 601 146 101 107 118 
145 601 147 100 107 118 
144 603 144 100 106 116 
145 602 144 100 105 116 
145 602 145 98 104 114 
145 603 144 99 104 114 
145 603 145 98 103 113 
145 602 146 99 105 115 
145 602 147 98 103 114 
145 603 146 96 101 111 
145 603 147 95 101 112 
146 600 144 101 107 118 
146 600 145 105 111 122 
146 601 145 95 102 113 
146 600 146 100 107 118 
146 600 147 98 104 114 
146 601 146 99 105 116 
146 601 147 99 105 115 
145 602 148 96 103 114 
145 603 148 98 104 115 
145 603 149 98 104 114 
145 603 150 96 102 113 
146 600 148 98 104 114 
146 600 149 98 104 115 
146 601 148 99 104 114 
146 601 149 97 103 114 
147 600 148 97 103 113 
147 600 149 99 105 116 
146 601 150 94 100 111 
147 600 150 98 104 115 
147 600 151 96 103 114 
147 601 150 95 101 112 
147 601 151 96 102 113 
146 602 148 96 102 112 
146 602 149 97 102 113 
146 603 149 98 104 115 
146 602 150 97 103 114 
146 602 151 95 101 112 
146 603 150 95 101 112 
146 603 151 95 101 112 
147 602 151 94 100 111 
144 604 144 99 105 115 
144 605 144 98 104 115 
144 605 145 99 106 117 
145 604 144 99 105 114 
145 604 145 98 103 113 
145 605 145 100 105 116 
145 604 146 97 102 113 
145 604 147 95 102 113 
145 605 146 100 106 117 
145 605 147 100 107 117 
144 606 144 104 112 124 
144 606 145 103 111 123 
144 607 144 108 116 128 
144 607 145 106 113 126 
145 606 145 103 110 121 
144 607 146 101 108 121 
145 606 146 103 110 122 
145 606 147 100 107 118 
145 607 146 99 107 118 
145 607 147 99 106 117 
145 604 148 98 104 115 
145 604 149 98 104 115 
145 605 148 98 104 115 
145 605 149 96 102 114 
145 604 150 99 104 115 
145 604 151 95 102 113 
145 605 150 94 101 112 
145 605 151 95 102 114 
145 606 148 99 105 117 
145 606 149 95 101 113 
145 607 148 96 103 114 
145 607 149 96 103 114 
145 606 150 96 103 114 
145 606 151 101 108 119 
145 607 150 100 107 119 
145 607 151 107 114 127 
151 600 150 88 97 109 
151 601 151 91 100 113 
149 605 146 89 99 113 
149 606 148 98 109 122 
149 607 149 98 109 123 
150 605 151 98 108 122 
147 600 152 98 105 116 
147 600 153 97 104 114 
147 601 152 95 102 112 
147 601 153 96 102 112 
147 600 154 96 103 114 
147 600 155 94 101 112 
147 601 154 97 103 113 
147 601 155 97 102 112 
146 602 152 94 100 110 
146 603 152 95 101 111 
146 603 153 94 100 110 
147 602 152 95 100 110 
147 602 153 96 101 111 
146 603 154 93 99 110 
146 603 155 95 102 114 
147 602 154 95 101 111 
147 602 155 95 101 111 
147 603 154 92 99 109 
147 603 155 98 104 115 
147 601 156 97 102 112 
147 602 156 95 101 110 
147 602 157 97 102 112 
147 603 156 99 105 116 
147 603 157 98 104 115 
147 602 158 99 104 115 
147 603 158 98 104 114 
147 603 159 100 106 116 
145 605 152 98 105 117 
145 605 153 104 111 123 
145 606 152 107 114 126 
145 606 153 108 115 127 
145 607 152 109 116 128 
145 607 153 112 119 131 
145 607 154 109 116 127 
146 604 152 93 100 112 
146 604 153 95 102 113 
146 605 153 101 108 119 
146 604 154 97 103 114 
146 604 155 99 106 117 
146 605 154 103 109 121 
146 605 155 104 110 122 
147 604 155 97 104 116 
146 606 153 107 114 126 
146 606 154 112 119 130 
146 606 155 108 114 125 
146 607 154 113 119 130 
146 607 155 104 111 122 
146 605 156 104 110 121 
146 605 157 99 106 117 
147 604 156 104 110 121 
147 604 157 101 107 118 
147 605 156 106 111 121 
147 605 157 100 107 118 
146 605 158 99 105 115 
147 604 158 99 105 115 
147 604 159 98 104 114 
147 605 158 98 105 116 
147 605 159 98 105 116 
146 606 156 103 110 121 
146 606 157 102 108 119 
146 607 156 98 105 116 
146 607 157 98 105 116 
146 606 158 100 106 117 
146 606 159 99 105 116 
146 607 158 98 104 115 
146 607 159 98 104 115 
147 606 159 100 106 117 
148 600 155 96 103 115 
151 600 152 92 101 114 
151 600 153 93 102 115 
151 601 152 93 102 114 
151 601 153 94 102 115 
151 601 154 95 103 116 
151 601 155 95 104 116 
151 602 152 95 103 116 
151 602 153 95 104 116 
151 602 154 95 104 116 
151 602 155 95 104 116 
151 603 154 96 104 117 
151 603 155 96 105 117 
148 600 156 96 103 113 
148 600 157 97 103 114 
148 601 157 98 104 114 
148 600 158 100 105 115 
148 600 159 101 107 118 
148 601 158 97 103 113 
148 601 159 97 103 113 
149 600 159 103 108 119 
148 602 157 97 102 111 
148 602 158 99 105 115 
148 602 159 100 106 116 
148 603 159 100 106 117 
151 602 156 96 105 117 
151 603 156 96 105 117 
151 603 157 97 105 118 
151 603 158 97 105 118 
150 605 152 94 104 117 
151 604 155 96 105 117 
150 606 153 95 103 116 
150 606 154 97 105 118 
150 607 154 99 107 120 
150 607 155 98 107 119 
151 604 156 97 105 118 
151 604 157 97 105 118 
151 605 156 97 106 118 
151 605 157 97 106 118 
151 604 158 97 106 118 
151 604 159 97 106 119 
151 605 158 97 106 118 
151 605 159 97 106 119 
151 606 158 97 106 119 
151 606 159 97 106 119 
151 607 159 97 106 119 
152 592 144 89 97 109 
152 592 145 90 98 110 
152 593 145 90 99 110 
152 592 146 92 100 111 
152 592 147 91 99 110 
152 593 146 91 99 111 
152 593 147 91 99 111 
152 594 147 90 98 110 
152 593 148 91 99 110 
153 592 149 93 100 112 
153 592 150 93 101 113 
153 592 151 93 101 113 
153 593 150 92 100 112 
153 593 151 93 101 113 
152 594 148 90 98 110 
152 594 149 90 99 110 
152 595 148 89 98 110 
152 595 149 90 98 110 
152 595 150 91 99 111 
152 595 151 91 99 111 
152 596 149 89 98 110 
152 596 150 90 99 111 
152 596 151 91 99 111 
152 597 151 91 100 112 
153 592 152 94 102 113 
153 592 153 97 105 116 
153 593 152 94 102 113 
153 593 153 95 103 115 
153 592 154 99 107 118 
153 593 154 97 105 116 
153 593 155 97 105 116 
152 595 153 93 101 113 
153 594 152 93 101 113 
153 594 153 94 102 114 
153 595 153 93 102 114 
152 595 154 95 103 115 
153 594 154 96 103 115 
153 594 155 97 104 116 
153 595 154 95 103 115 
153 595 155 96 104 116 
154 592 154 99 107 119 
154 592 155 99 107 118 
154 593 155 97 105 117 
152 592 157 108 114 126 
152 592 158 108 115 127 
152 592 159 109 115 127 
152 593 159 109 116 127 
153 594 156 97 105 117 
153 595 156 98 105 117 
153 595 157 98 106 118 
153 595 158 100 108 119 
153 595 159 104 111 123 
154 592 156 99 106 118 
154 593 156 99 106 118 
155 592 159 105 112 123 
154 594 157 99 107 118 
154 594 158 101 109 120 
154 594 159 103 110 122 
154 595 158 100 108 119 
154 595 159 103 110 121 
152 596 152 92 100 112 
152 596 153 93 101 113 
152 597 152 92 100 112 
152 597 153 93 101 114 
152 596 154 94 102 114 
152 596 155 96 104 116 
152 597 154 94 102 114 
152 597 155 95 103 115 
152 598 152 92 101 113 
152 598 153 93 102 114 
152 599 153 93 102 114 
152 598 154 94 103 115 
152 598 155 95 103 115 
152 599 154 94 103 115 
152 599 155 95 103 116 
152 597 156 96 104 116 
152 597 157 97 105 117 
153 596 156 99 107 119 
153 596 157 98 106 118 
153 597 156 97 104 116 
153 597 157 98 106 118 
153 596 158 100 107 119 
153 596 159 102 109 120 
153 597 158 99 107 119 
153 597 159 100 108 120 
152 598 156 96 104 116 
152 598 157 98 106 118 
152 599 156 96 105 117 
152 599 157 97 105 118 
152 598 158 99 106 118 
152 598 159 99 107 119 
152 599 158 98 106 118 
152 599 159 99 107 119 
153 598 158 99 107 119 
153 598 159 100 108 119 
152 600 155 95 104 116 
152 600 156 96 104 117 
152 600 157 97 105 117 
152 601 156 96 105 117 
152 601 157 97 105 117 
152 600 158 98 106 118 
152 600 159 99 107 119 
152 601 158 97 106 118 
152 601 159 98 106 119 
152 602 157 97 105 118 
152 602 158 97 106 118 
152 602 159 98 106 119 
152 603 159 97 106 119 
152 591 160 108 115 126 
152 591 161 109 115 126 
153 590 160 108 114 126 
153 590 161 108 115 126 
153 591 160 108 115 126 
153 591 161 108 115 126 
152 591 162 109 115 126 
153 591 162 108 115 126 
153 591 163 108 115 126 
154 590 160 107 114 125 
154 590 161 108 114 126 
155 590 160 107 113 125 
155 590 161 108 114 126 
155 591 160 107 113 125 
155 591 161 108 114 126 
154 590 162 108 114 126 
154 591 162 108 115 126 
154 591 163 108 115 126 
155 590 162 108 114 126 
155 591 162 108 114 126 
151 593 160 110 116 128 
151 594 160 110 117 128 
151 595 160 111 117 129 
151 595 161 109 115 127 
151 595 162 109 115 126 
151 595 163 108 114 125 
151 595 164 107 114 125 
149 598 160 106 113 125 
149 599 160 108 115 126 
150 596 160 108 115 126 
150 596 161 108 115 126 
150 597 160 105 112 124 
150 597 161 106 113 125 
151 596 160 110 116 128 
151 596 161 108 115 126 
150 597 162 105 112 123 
151 596 162 107 114 125 
151 596 163 107 113 125 
151 597 162 106 112 124 
151 597 163 105 112 123 
150 598 160 106 113 125 
150 598 161 104 111 123 
150 599 160 107 114 126 
150 599 161 103 110 122 
150 598 162 104 111 122 
150 598 163 105 111 123 
150 599 162 102 109 121 
150 599 163 103 110 121 
151 596 164 107 113 124 
151 596 165 106 113 124 
151 597 164 105 112 123 
151 597 165 106 112 123 
151 597 166 106 112 124 
151 597 167 106 112 124 
150 598 164 104 111 122 
150 598 165 104 111 122 
150 599 164 104 110 122 
150 599 165 104 110 121 
151 598 164 105 111 122 
151 598 165 104 111 122 
151 599 165 104 110 122 
150 599 166 103 110 121 
151 598 166 104 111 122 
151 598 167 106 112 123 
151 599 166 103 110 121 
151 599 167 103 110 121 
151 598 168 106 112 123 
151 599 168 105 111 123 
151 599 169 105 112 123 
147 603 160 101 107 118 
147 604 160 99 105 116 
147 604 161 98 104 115 
147 605 160 99 105 116 
147 605 161 100 107 118 
147 605 162 102 109 120 
146 607 160 94 101 111 
147 606 160 100 107 118 
147 606 161 100 107 118 
147 607 160 97 103 114 
147 607 161 101 107 118 
147 606 162 100 107 118 
147 606 163 100 106 117 
147 607 162 100 106 117 
147 607 163 100 106 117 
147 606 164 100 106 117 
147 606 165 101 107 118 
147 607 164 100 106 117 
147 607 165 101 107 118 
147 607 166 101 108 119 
148 601 160 98 104 114 
149 600 160 102 109 119 
149 600 161 103 110 121 
149 601 160 103 109 120 
149 601 161 101 108 119 
149 600 162 104 110 122 
149 600 163 105 111 122 
149 601 162 104 110 121 
149 601 163 103 109 120 
148 602 160 99 105 116 
148 602 161 99 105 115 
148 603 160 100 106 117 
148 603 161 99 106 117 
149 602 161 100 106 117 
148 603 162 100 106 117 
148 603 163 100 106 117 
149 602 162 102 108 119 
149 602 163 102 109 119 
149 603 162 102 108 119 
149 603 163 101 107 118 
150 600 162 103 110 121 
150 600 163 104 110 121 
149 601 164 104 110 121 
149 601 165 104 110 121 
149 602 164 103 109 120 
149 602 165 103 109 120 
149 603 164 102 108 119 
149 603 165 101 107 118 
149 602 166 101 107 118 
149 602 167 100 107 118 
149 603 166 100 107 118 
149 603 167 100 107 118 
150 600 164 103 110 121 
150 600 165 103 110 121 
150 601 164 104 110 121 
150 601 165 103 109 121 
150 600 166 103 110 121 
150 600 167 103 109 121 
150 601 166 103 109 120 
150 601 167 102 109 120 
151 600 167 103 110 121 
150 602 166 102 108 119 
150 602 167 101 107 118 
148 604 161 97 104 115 
148 604 162 100 106 117 
148 604 163 99 105 116 
148 605 162 100 106 117 
148 605 163 99 106 117 
151 604 160 98 106 119 
151 604 161 98 107 120 
151 605 160 97 106 119 
151 605 161 98 107 120 
151 604 162 98 107 120 
151 605 162 98 107 120 
151 605 163 98 107 120 
151 606 160 97 106 119 
151 606 161 97 107 120 
151 607 160 97 106 119 
151 607 161 97 107 120 
151 606 162 98 107 120 
151 606 163 98 107 120 
151 607 162 97 107 120 
151 607 163 98 107 120 
148 604 164 98 105 115 
148 604 165 100 107 118 
148 605 164 100 107 117 
148 605 165 101 107 118 
149 604 164 98 104 115 
149 604 165 100 107 118 
148 604 166 100 107 118 
148 605 166 101 107 118 
149 604 166 100 107 118 
149 604 167 100 107 118 
149 605 166 100 106 117 
149 605 167 100 106 118 
148 606 164 102 109 120 
148 606 165 102 108 119 
148 606 166 99 106 117 
148 606 167 99 106 117 
148 607 166 100 107 118 
148 607 167 100 107 118 
149 606 167 99 106 117 
151 605 164 99 108 120 
151 606 164 99 108 121 
151 606 165 99 108 121 
151 607 164 98 107 120 
151 607 165 98 108 121 
151 606 166 99 108 121 
151 607 166 98 108 121 
149 603 168 100 107 118 
149 603 169 100 107 118 
150 600 168 102 109 120 
150 601 168 101 108 119 
150 601 169 101 108 119 
151 600 168 103 110 121 
151 600 169 103 110 121 
151 601 168 102 109 120 
151 601 169 102 109 120 
151 600 170 105 111 122 
151 601 170 102 109 121 
151 601 171 102 109 121 
150 602 168 100 107 118 
150 602 169 101 108 119 
150 603 168 100 107 118 
150 603 169 101 107 119 
150 602 170 101 108 119 
150 602 171 101 108 119 
150 603 170 101 108 119 
150 603 171 101 108 119 
151 602 171 101 108 120 
151 603 171 100 108 119 
150 603 172 100 107 119 
151 602 172 101 108 120 
151 603 172 100 108 119 
151 603 173 100 107 119 
149 604 168 100 107 118 
149 604 169 100 107 118 
149 605 168 100 106 118 
149 605 169 99 105 117 
149 604 170 100 107 119 
149 604 171 100 107 118 
149 605 170 99 106 117 
149 605 171 99 106 118 
148 606 168 99 106 117 
148 606 169 99 106 117 
148 607 168 100 106 117 
148 607 169 99 106 117 
149 606 168 99 106 117 
149 606 169 99 106 117 
148 607 170 99 106 117 
148 607 171 99 106 117 
149 606 170 99 106 117 
149 606 171 99 106 117 
149 607 170 99 106 117 
149 607 171 99 106 117 
150 604 170 101 108 119 
150 604 171 100 107 119 
149 605 172 99 106 118 
148 607 172 98 105 116 
149 606 172 99 106 117 
149 606 173 99 106 118 
149 607 172 98 105 117 
149 607 173 98 105 117 
149 606 174 98 106 118 
149 606 175 98 106 117 
149 607 174 98 105 117 
149 607 175 98 105 117 
150 604 172 100 107 119 
150 604 173 99 107 119 
150 605 172 99 107 118 
150 605 173 99 107 118 
151 604 173 100 107 119 
150 605 174 99 107 118 
150 605 175 99 106 118 
151 604 174 99 107 119 
151 604 175 99 107 119 
151 605 174 99 107 119 
151 605 175 99 107 119 
150 606 174 99 106 118 
150 606 175 98 106 118 
152 592 160 109 115 127 
152 592 161 109 115 127 
152 593 160 110 116 127 
152 593 161 109 115 127 
152 592 162 109 115 126 
152 592 163 109 115 126 
152 593 162 109 115 127 
152 593 163 109 115 126 
153 592 163 108 115 126 
152 594 160 110 116 128 
152 594 161 109 116 127 
153 595 160 105 112 123 
152 594 162 109 115 126 
152 594 163 108 114 126 
152 595 162 109 115 126 
155 592 160 107 113 125 
155 592 161 108 114 126 
155 593 160 105 112 124 
155 593 161 107 113 125 
154 592 163 108 114 126 
154 593 163 108 114 126 
155 592 162 108 114 126 
155 592 163 108 114 126 
155 593 162 108 114 126 
155 593 163 108 114 126 
154 594 160 104 111 123 
154 594 161 106 112 124 
154 595 160 103 110 122 
154 595 161 106 112 124 
154 594 162 107 114 125 
154 594 163 108 114 125 
154 595 162 107 113 125 
154 595 163 107 114 125 
155 594 162 107 114 125 
155 594 163 108 114 125 
152 593 164 108 115 126 
153 592 164 108 115 126 
153 593 164 108 114 126 
153 593 165 108 114 126 
152 594 164 108 114 126 
152 594 165 108 114 126 
152 595 164 108 114 125 
152 595 165 108 114 125 
153 594 165 108 114 125 
153 595 165 108 114 125 
152 594 166 108 114 125 
152 595 166 107 113 125 
153 594 166 108 114 125 
153 595 166 107 114 125 
154 592 164 108 114 126 
154 593 164 108 114 126 
154 594 164 108 114 126 
154 594 165 108 114 125 
154 595 164 107 114 125 
154 595 165 108 114 125 
153 596 160 104 111 122 
153 596 161 106 112 124 
153 597 160 103 111 122 
153 597 161 105 112 123 
153 596 162 106 113 124 
153 597 162 106 112 124 
153 597 163 106 113 124 
152 598 160 101 109 121 
152 599 160 100 108 120 
153 598 160 103 110 122 
153 598 161 103 110 122 
153 599 161 102 109 121 
153 598 162 104 111 123 
153 598 163 104 111 123 
153 599 162 102 110 122 
153 599 163 103 110 122 
154 596 162 106 113 125 
154 596 163 107 113 125 
154 597 162 106 113 124 
154 597 163 105 112 124 
154 598 163 104 111 123 
152 596 165 107 113 124 
152 596 166 107 113 124 
152 596 167 107 113 125 
152 597 166 107 113 124 
152 597 167 107 113 124 
153 596 166 107 114 125 
153 596 167 107 113 125 
153 597 167 107 113 124 
153 599 164 104 111 123 
154 596 164 107 114 125 
154 596 165 107 114 125 
154 597 164 106 113 124 
154 597 165 107 113 125 
154 596 166 107 114 125 
154 596 167 107 113 125 
154 597 166 107 113 125 
154 597 167 107 113 125 
154 598 164 105 112 123 
154 598 165 106 112 124 
154 599 164 104 111 123 
154 599 165 104 111 123 
154 598 166 106 113 124 
154 598 167 107 113 124 
154 599 166 105 112 123 
154 599 167 106 113 124 
152 597 168 107 113 124 
153 597 168 107 113 124 
152 598 168 106 112 123 
152 598 169 106 113 124 
152 599 169 106 112 123 
153 598 169 107 113 124 
152 599 170 106 112 124 
153 599 170 107 113 124 
154 597 168 107 113 125 
154 598 168 107 113 124 
154 598 169 107 113 124 
154 599 168 107 113 124 
154 599 169 107 113 124 
152 600 160 100 108 120 
152 600 161 101 108 121 
152 601 160 99 107 119 
152 601 161 99 108 120 
153 600 161 101 109 121 
153 601 161 100 108 120 
152 601 162 100 108 121 
153 600 162 102 109 121 
153 600 163 102 110 122 
153 601 162 101 109 121 
153 601 163 101 109 121 
152 602 160 98 107 119 
152 602 161 99 107 120 
152 603 160 98 107 119 
152 603 161 99 107 120 
152 602 162 100 108 120 
152 602 163 100 108 121 
152 603 162 99 107 120 
152 603 163 100 108 121 
153 602 163 101 109 121 
153 600 164 103 110 122 
153 601 164 102 110 122 
153 601 165 103 110 122 
153 600 166 104 111 123 
153 600 167 104 111 123 
153 601 166 103 111 122 
153 601 167 103 111 122 
152 603 164 100 109 121 
153 602 164 101 109 122 
153 602 165 102 110 122 
153 603 164 101 109 121 
153 603 165 101 109 122 
153 602 166 102 110 122 
153 603 166 102 110 122 
153 603 167 102 110 122 
154 600 165 104 111 123 
154 600 166 104 111 123 
154 600 167 104 111 123 
154 601 166 103 110 122 
154 601 167 103 110 122 
154 602 167 103 110 122 
152 604 160 98 107 119 
152 604 161 98 107 120 
152 604 162 98 107 120 
152 604 163 99 108 120 
152 604 164 100 108 121 
152 604 165 100 109 121 
152 605 164 99 108 121 
152 605 165 99 108 121 
153 604 165 101 109 122 
152 604 166 101 109 122 
152 604 167 101 109 122 
152 605 166 100 109 121 
152 605 167 100 109 121 
153 604 166 101 109 122 
153 604 167 102 109 122 
152 606 164 99 108 121 
152 606 165 99 108 121 
152 607 165 99 108 121 
152 606 166 99 108 121 
152 606 167 99 108 121 
152 607 166 99 108 121 
152 607 167 99 108 121 
153 601 169 103 110 122 
152 600 170 105 112 123 
152 600 171 105 111 123 
152 601 171 105 111 122 
153 600 170 106 113 124 
153 600 171 105 112 123 
153 601 170 104 111 123 
153 601 171 105 111 123 
153 602 168 103 110 122 
153 602 169 102 110 122 
153 603 168 102 110 122 
153 603 169 102 110 122 
153 602 170 102 110 122 
153 602 171 103 110 122 
153 603 170 101 109 121 
153 603 171 101 108 121 
154 600 168 105 112 123 
154 600 169 106 113 124 
154 601 168 103 110 122 
154 601 169 104 111 123 
154 600 170 105 112 123 
154 601 170 105 112 123 
152 601 172 104 111 122 
153 601 172 105 111 123 
152 602 172 104 110 121 
152 602 173 102 110 121 
152 603 173 101 108 120 
153 602 172 104 110 122 
153 602 173 103 110 122 
153 603 172 100 108 120 
153 603 173 100 108 120 
152 603 174 100 107 119 
152 604 168 101 109 122 
152 604 169 101 109 122 
152 605 168 100 109 121 
152 605 169 101 109 121 
153 604 168 102 109 122 
153 604 169 101 109 121 
153 605 169 100 109 121 
153 604 170 101 109 121 
153 604 171 100 108 121 
153 605 170 100 108 121 
153 605 171 100 108 121 
152 606 168 100 108 121 
152 607 168 99 108 121 
152 607 169 99 108 121 
153 606 169 100 108 121 
153 607 169 99 108 121 
153 606 170 100 108 121 
153 606 171 99 108 121 
153 607 170 99 108 121 
153 607 171 99 108 121 
153 604 172 100 108 120 
153 604 173 100 108 120 
153 605 172 100 108 120 
153 605 173 99 108 120 
152 604 174 100 107 120 
152 604 175 99 107 119 
152 605 174 99 107 120 
152 605 175 99 107 119 
153 605 174 99 107 120 
153 606 172 99 108 120 
153 606 173 99 108 120 
153 607 172 99 108 121 
153 607 173 99 108 120 
152 606 174 99 107 120 
152 606 175 99 107 120 
153 606 174 99 107 120 
153 606 175 99 107 120 
153 607 174 99 107 120 
153 607 175 99 107 120 
149 607 176 98 105 117 
151 604 176 99 107 119 
151 605 176 99 107 119 
151 605 177 98 106 118 
151 605 178 98 106 118 
151 605 179 98 106 118 
150 606 176 98 106 118 
150 606 177 98 106 118 
150 607 176 98 105 117 
150 607 177 97 105 117 
151 606 176 98 106 118 
151 606 177 98 106 118 
150 607 178 97 105 117 
150 607 179 97 104 116 
151 606 178 98 106 118 
151 606 179 98 105 118 
151 607 179 97 105 117 
151 607 180 97 105 117 
151 607 181 96 104 116 
151 607 182 95 103 115 
152 604 176 99 107 119 
152 604 177 99 107 119 
152 605 176 99 107 119 
152 605 177 99 106 119 
152 605 178 98 106 118 
152 605 179 97 106 118 
152 606 176 99 107 119 
152 606 177 98 106 118 
152 607 176 99 107 119 
152 607 177 98 106 118 
153 606 176 99 107 119 
153 607 176 99 107 119 
153 607 177 98 106 119 
152 606 178 98 106 118 
152 606 179 97 105 118 
152 607 178 97 106 118 
152 607 179 97 105 117 
152 606 180 97 105 117 
152 606 181 96 105 117 
152 607 180 97 105 117 
152 607 181 96 104 116 
153 607 180 97 105 117 
152 606 182 96 104 116 
152 606 183 95 104 116 
152 607 182 95 104 116 
152 607 183 95 103 115 
152 607 184 94 103 115 
139 608 146 98 105 115 
139 608 147 99 106 117 
139 609 147 100 107 117 
139 610 147 101 108 119 
139 611 147 101 108 119 
140 608 145 100 106 117 
141 608 145 101 108 119 
140 608 146 98 105 116 
140 609 146 100 106 117 
141 609 146 102 108 119 
140 610 146 102 108 119 
140 610 147 101 108 119 
140 611 147 101 108 119 
141 610 146 102 109 120 
141 610 147 103 109 120 
141 611 147 101 108 119 
142 608 144 103 109 121 
142 608 145 101 108 119 
142 609 145 102 108 120 
143 608 144 109 117 129 
143 608 145 106 113 125 
143 609 145 103 110 121 
142 609 146 102 109 120 
143 609 146 102 109 121 
142 610 146 102 109 121 
142 610 147 101 108 120 
142 611 147 101 109 121 
143 610 146 102 109 120 
143 610 147 102 110 122 
143 611 147 103 110 123 
143 611 148 111 118 130 
140 612 147 101 108 120 
141 612 147 101 108 120 
142 612 147 101 108 120 
140 612 148 103 111 123 
140 613 148 106 114 127 
140 613 149 108 116 129 
141 612 148 101 109 121 
141 613 148 103 111 123 
141 613 149 104 113 125 
142 612 148 101 109 121 
142 613 149 103 111 123 
143 612 148 107 114 126 
143 612 149 109 116 129 
143 613 149 103 111 122 
143 612 150 104 112 124 
143 613 150 100 107 118 
143 613 151 97 103 115 
143 613 152 94 100 111 
143 613 154 99 105 116 
144 608 145 102 110 122 
144 608 146 100 107 119 
144 608 147 99 107 118 
144 609 146 103 109 121 
144 609 147 103 110 122 
145 608 147 97 104 116 
144 610 147 105 113 125 
144 608 148 99 106 118 
144 609 148 111 118 130 
144 609 149 121 127 139 
145 608 148 100 107 119 
145 608 149 107 114 125 
145 609 148 112 119 131 
145 609 149 119 125 137 
145 608 150 112 119 130 
145 608 151 112 120 131 
145 609 150 121 128 140 
145 609 151 118 125 137 
144 610 148 114 121 134 
144 610 149 121 128 140 
144 611 148 112 119 131 
144 611 149 118 125 137 
144 610 150 122 128 140 
144 610 151 114 121 133 
144 611 150 111 118 131 
144 611 151 109 116 128 
145 610 150 121 127 139 
145 610 151 116 123 135 
144 612 149 108 116 128 
144 612 150 102 110 123 
144 612 151 97 105 117 
149 608 150 96 106 120 
149 608 151 97 107 120 
145 608 152 113 120 132 
145 608 153 107 115 127 
145 609 152 110 118 130 
145 609 153 105 113 125 
145 608 154 103 110 122 
145 608 155 99 106 118 
145 609 154 99 106 117 
145 609 155 98 105 116 
144 611 152 108 115 126 
144 611 153 110 115 126 
145 610 152 105 112 124 
145 610 153 103 110 121 
145 611 152 102 108 120 
145 611 153 95 102 113 
145 610 154 101 107 118 
145 610 155 99 105 115 
145 611 154 103 109 120 
145 611 155 103 108 119 
146 608 155 99 106 117 
145 609 156 99 105 115 
145 609 157 100 105 116 
145 609 158 97 103 114 
145 610 156 100 106 116 
145 610 157 99 105 116 
145 611 156 103 109 119 
145 611 157 101 108 119 
145 610 158 99 105 116 
145 610 159 101 107 118 
145 611 158 101 108 120 
145 611 159 101 108 119 
146 608 156 98 105 116 
146 608 157 97 103 114 
146 609 156 97 103 114 
146 609 157 97 103 113 
146 608 158 96 102 113 
146 608 159 97 103 114 
146 609 158 98 104 115 
146 609 159 100 106 116 
146 610 159 103 109 120 
146 611 159 104 111 122 
144 612 152 99 105 116 
144 612 153 100 106 117 
144 613 152 97 103 114 
144 613 153 95 101 112 
144 612 154 104 110 121 
144 612 155 105 111 122 
144 613 154 100 106 117 
144 613 155 104 111 122 
144 612 156 103 110 121 
144 613 156 105 112 124 
144 613 157 106 113 125 
145 612 156 104 111 122 
145 612 157 104 111 122 
145 613 157 105 111 123 
144 613 158 108 115 127 
144 613 159 108 114 126 
145 612 158 105 113 125 
145 612 159 108 115 126 
145 613 158 105 112 123 
145 613 159 107 113 125 
146 612 159 106 113 124 
149 608 152 100 109 122 
149 609 152 101 110 123 
149 609 153 102 110 122 
149 609 154 101 109 122 
149 610 153 100 108 121 
149 610 154 98 107 119 
149 610 155 95 105 118 
149 611 154 94 103 116 
149 611 155 95 105 118 
150 608 155 100 108 121 
149 611 156 98 108 122 
149 611 157 99 109 123 
150 608 156 97 106 119 
150 608 157 96 105 118 
150 609 157 95 104 117 
150 609 158 96 105 118 
150 609 159 96 106 119 
150 610 158 97 106 120 
150 610 159 97 107 120 
150 611 159 97 106 120 
149 612 156 97 107 121 
149 612 157 99 109 123 
149 613 157 98 107 120 
149 612 158 98 109 123 
149 613 158 98 108 122 
149 613 159 96 106 120 
146 608 160 100 106 117 
146 608 161 102 108 118 
146 609 160 102 107 118 
146 609 161 102 107 118 
147 608 161 100 106 117 
146 609 162 101 107 118 
146 609 163 103 110 121 
147 608 162 101 107 117 
147 608 163 101 107 118 
147 609 162 101 107 117 
147 609 163 101 108 119 
146 610 160 104 110 120 
146 610 161 104 110 121 
146 611 160 106 112 123 
146 611 161 103 110 121 
146 610 162 103 110 121 
146 610 163 102 109 121 
146 611 162 102 109 120 
146 611 163 100 108 119 
147 610 163 102 109 121 
147 608 164 102 109 120 
147 608 165 102 108 120 
147 609 164 102 109 120 
147 609 165 102 109 120 
147 608 166 102 109 120 
147 609 166 101 107 119 
147 609 167 99 106 117 
146 610 164 100 107 119 
146 611 164 98 106 117 
146 611 165 97 104 116 
147 610 164 102 109 121 
147 610 165 99 106 118 
147 611 165 97 104 115 
147 610 166 97 104 115 
147 610 167 97 103 115 
147 611 166 96 103 114 
147 611 167 96 103 114 
145 612 160 105 112 124 
145 612 161 103 110 122 
145 613 160 104 111 123 
145 613 161 101 108 120 
145 612 162 101 108 120 
145 613 162 98 106 118 
145 613 163 97 105 116 
146 612 160 106 113 124 
146 612 161 103 110 122 
146 612 162 103 110 121 
146 612 163 99 106 118 
145 613 164 95 103 114 
146 612 164 97 104 115 
146 612 165 96 103 114 
146 613 164 102 110 122 
146 613 165 94 102 112 
146 612 166 95 102 113 
146 612 167 96 102 113 
146 613 166 96 102 113 
146 613 167 96 102 113 
147 612 166 94 102 113 
147 612 167 97 104 115 
150 609 160 97 107 120 
150 609 161 97 107 120 
151 608 160 97 106 120 
151 608 161 97 107 120 
150 609 162 97 107 120 
150 609 163 97 107 120 
151 608 162 97 107 120 
151 608 163 97 107 120 
151 609 162 97 107 120 
151 609 163 97 107 120 
150 610 160 97 107 120 
150 610 161 97 107 120 
150 611 160 96 106 120 
150 611 161 96 106 119 
150 610 162 97 106 120 
150 610 163 97 106 120 
150 611 162 96 106 119 
150 611 163 96 106 119 
151 610 163 97 107 120 
148 608 166 101 108 119 
148 608 167 100 107 118 
151 608 164 98 107 120 
151 608 165 98 107 121 
151 609 164 97 107 120 
151 609 165 97 107 120 
151 608 166 98 108 121 
151 608 167 98 108 121 
151 609 166 98 107 121 
151 609 167 98 108 121 
150 611 164 97 107 120 
150 611 165 97 107 121 
151 610 164 97 107 120 
151 610 165 97 107 121 
151 611 165 98 107 121 
150 611 166 98 108 122 
150 611 167 99 108 122 
151 610 166 98 108 121 
151 610 167 98 108 121 
151 611 166 98 108 121 
151 611 167 98 108 122 
150 612 161 95 105 118 
150 612 162 95 105 118 
150 612 163 96 106 120 
150 613 162 95 105 119 
150 613 163 98 108 121 
150 612 164 98 108 122 
150 612 165 99 109 122 
150 613 164 100 109 123 
150 613 165 100 110 124 
150 612 166 99 109 122 
150 612 167 98 108 122 
150 613 166 99 109 122 
150 613 167 98 108 121 
147 608 168 100 106 117 
147 609 168 99 105 116 
147 609 169 99 105 116 
147 609 170 98 105 115 
147 610 168 98 105 115 
147 610 169 99 105 116 
147 611 168 98 104 115 
147 611 169 100 106 117 
147 610 170 98 104 115 
147 610 171 98 104 115 
147 611 170 100 106 117 
147 611 171 100 106 117 
147 610 172 99 105 116 
147 611 172 99 106 117 
147 611 173 100 106 117 
146 613 168 98 104 115 
146 613 169 99 106 117 
147 612 168 97 104 115 
147 612 169 99 106 117 
147 613 169 99 106 117 
147 612 170 99 106 117 
147 612 171 99 106 117 
147 613 170 99 106 117 
147 613 171 98 106 117 
147 612 172 99 106 117 
147 612 173 98 105 117 
147 613 172 98 105 117 
147 613 173 97 105 116 
147 612 174 98 105 116 
147 612 175 97 104 115 
147 613 174 96 103 114 
147 613 175 95 102 113 
148 608 168 100 106 117 
148 608 169 100 106 117 
148 609 169 100 106 116 
148 608 170 99 106 117 
148 608 171 98 105 116 
148 609 170 99 105 116 
148 609 171 98 104 115 
151 609 168 99 108 121 
151 609 169 99 108 121 
151 609 170 99 108 121 
151 610 168 99 108 121 
151 610 169 99 108 121 
151 611 168 99 108 122 
151 611 169 99 108 121 
151 610 170 99 108 121 
151 610 171 99 108 121 
151 611 170 99 108 121 
151 611 171 99 108 121 
148 608 172 97 104 116 
148 608 173 97 104 116 
148 609 172 97 104 115 
148 609 173 97 104 115 
149 608 173 97 105 116 
148 608 174 97 104 116 
148 609 174 97 104 115 
148 609 175 97 104 116 
149 608 174 97 104 116 
149 608 175 97 105 116 
149 609 174 97 104 116 
149 609 175 97 104 116 
148 610 172 97 104 115 
148 610 173 99 105 116 
148 611 173 99 106 117 
148 610 174 98 105 116 
148 610 175 97 104 115 
148 611 174 99 106 117 
148 611 175 98 105 116 
149 610 175 97 104 115 
151 610 172 99 108 121 
151 611 172 99 108 121 
151 611 173 98 107 120 
151 611 174 98 106 119 
151 611 175 97 106 119 
150 612 168 98 108 121 
150 612 169 98 108 121 
150 613 168 98 108 121 
150 613 169 98 108 121 
151 612 168 98 108 121 
151 612 169 98 108 121 
151 613 169 98 108 121 
150 613 170 98 107 121 
150 613 171 98 107 120 
151 612 170 98 108 121 
151 612 171 98 108 121 
151 613 170 98 108 121 
151 613 171 98 107 120 
148 612 175 98 105 116 
151 612 172 98 107 120 
151 612 173 98 107 120 
151 613 172 98 107 120 
151 613 173 97 106 119 
151 612 174 97 106 119 
151 612 175 97 106 119 
151 613 174 97 106 119 
151 613 175 97 105 118 
152 608 166 98 108 121 
152 608 167 99 108 121 
152 608 168 99 108 121 
152 608 169 99 108 121 
152 608 170 99 108 121 
152 608 171 99 108 121 
152 609 170 99 108 121 
152 609 171 99 108 121 
153 608 170 99 108 121 
153 608 171 99 108 121 
152 608 172 99 108 121 
152 608 173 99 108 121 
152 609 172 99 108 121 
152 609 173 99 108 121 
153 608 172 99 108 121 
153 608 173 99 108 120 
152 609 174 99 107 120 
152 609 175 98 107 120 
153 608 174 99 108 120 
153 608 175 99 107 120 
153 609 175 98 107 119 
152 610 172 99 108 121 
152 610 173 99 108 121 
152 610 174 99 107 120 
152 610 175 98 107 119 
152 611 174 98 107 120 
152 611 175 97 106 119 
147 612 176 97 104 115 
147 612 177 96 103 114 
147 613 176 95 102 112 
147 613 177 95 101 112 
147 613 178 94 100 111 
149 608 176 97 105 116 
149 608 177 97 104 116 
149 609 176 97 104 115 
149 609 177 97 104 115 
149 609 178 96 104 115 
148 611 176 98 105 116 
148 611 177 96 103 114 
149 610 176 97 104 115 
149 610 177 96 103 115 
149 611 177 97 104 115 
148 611 178 96 103 113 
149 610 178 96 103 114 
149 610 179 95 103 114 
149 611 178 95 103 114 
149 611 179 95 102 113 
150 608 177 97 104 116 
150 608 178 97 104 116 
150 608 179 96 104 116 
150 609 178 96 104 115 
150 609 179 96 103 115 
150 610 179 95 103 114 
149 610 180 95 102 114 
149 611 180 94 102 113 
149 611 181 94 102 113 
150 608 180 96 104 115 
150 609 180 95 103 114 
150 609 181 95 102 114 
151 608 180 96 104 116 
151 608 181 96 104 116 
150 609 182 94 102 114 
151 608 182 95 103 115 
151 608 183 94 103 115 
151 609 182 94 102 114 
151 609 183 94 102 115 
150 610 180 95 102 114 
150 610 181 94 102 113 
150 610 182 94 102 113 
150 610 183 94 102 114 
150 611 182 94 101 113 
150 611 183 94 102 113 
148 612 176 98 105 116 
148 612 177 96 103 114 
148 612 178 95 102 113 
148 612 179 94 101 112 
148 613 178 94 101 112 
148 613 179 93 100 111 
149 612 179 94 101 113 
151 612 176 97 105 118 
151 612 177 96 105 118 
151 613 176 96 105 118 
151 613 177 96 105 118 
151 612 178 96 105 117 
151 612 179 96 104 117 
151 613 178 96 105 117 
151 613 179 96 104 117 
148 613 180 93 100 112 
148 613 181 93 101 112 
149 612 180 94 101 112 
149 612 181 94 101 112 
149 613 180 94 101 112 
149 613 181 93 101 112 
149 612 182 94 101 113 
149 612 183 94 101 113 
149 613 182 93 101 112 
149 613 183 94 101 112 
151 612 180 95 104 117 
151 612 181 95 104 116 
151 613 180 95 104 117 
151 613 181 96 104 117 
150 612 183 94 101 113 
151 613 182 96 104 117 
151 613 183 97 105 118 
151 608 184 94 103 115 
151 609 184 94 103 115 
151 609 185 95 104 116 
151 609 186 95 104 116 
150 610 184 94 102 114 
150 610 185 95 103 115 
150 611 184 94 102 113 
150 611 185 95 103 115 
151 610 184 94 103 114 
151 610 185 95 103 115 
150 611 186 95 103 115 
150 611 187 96 104 116 
151 610 186 96 104 116 
151 610 187 96 104 116 
151 611 186 96 104 116 
151 611 187 96 104 116 
151 610 188 96 104 116 
151 610 189 96 104 116 
151 611 188 96 104 116 
151 611 189 96 104 116 
151 610 190 96 104 116 
151 610 191 95 103 115 
151 611 190 95 103 115 
151 611 191 93 101 113 
149 612 184 94 102 113 
149 612 185 94 102 114 
149 613 184 94 102 113 
149 613 185 94 102 114 
149 613 186 95 102 114 
149 613 187 95 103 115 
150 612 184 94 102 113 
150 612 185 95 102 114 
150 612 186 95 103 115 
150 612 187 95 103 115 
150 613 187 95 103 115 
149 613 188 95 103 114 
150 612 188 96 104 115 
150 612 189 95 103 115 
150 613 188 95 103 115 
150 613 189 95 103 115 
151 612 188 96 104 116 
151 612 189 95 103 115 
150 612 190 94 102 114 
150 612 191 93 101 113 
150 613 190 94 102 113 
150 613 191 93 101 112 
151 612 190 95 103 114 
151 612 191 93 101 113 
152 609 176 98 106 119 
153 608 176 98 107 119 
153 608 177 98 106 119 
153 609 176 98 107 119 
153 609 177 97 106 118 
152 608 178 97 105 118 
152 608 179 97 105 117 
153 608 178 97 106 118 
153 608 179 97 105 117 
153 609 178 97 105 118 
153 609 179 96 105 117 
152 610 176 97 106 119 
152 610 177 97 105 118 
152 611 176 97 106 118 
152 611 177 97 105 118 
152 610 178 97 105 118 
152 610 179 96 105 117 
152 611 178 96 105 117 
152 611 179 96 104 117 
153 610 178 97 105 118 
153 610 179 96 105 117 
152 608 181 95 104 116 
152 609 180 96 104 117 
152 609 181 95 104 116 
153 608 180 96 105 117 
153 608 181 96 104 117 
153 609 180 96 104 117 
152 608 182 95 103 115 
152 608 183 94 103 115 
152 609 182 95 103 115 
152 609 183 95 103 115 
152 610 180 96 104 117 
152 610 181 95 104 116 
152 611 180 95 104 116 
152 611 181 95 104 116 
152 610 182 95 103 115 
152 610 183 95 103 115 
152 611 182 95 104 116 
152 611 183 95 104 116 
152 612 177 96 105 118 
152 612 178 96 105 117 
152 612 179 96 104 117 
152 612 180 95 104 117 
152 612 181 95 104 116 
152 612 182 95 104 116 
152 612 183 96 105 117 
152 613 182 96 104 117 
152 613 183 97 106 118 
152 608 184 94 103 115 
152 608 185 95 103 116 
152 609 184 95 103 115 
152 609 185 95 104 116 
152 609 186 96 104 116 
152 609 187 96 104 117 
152 610 184 96 104 116 
152 610 185 96 104 116 
152 611 184 96 104 117 
152 611 185 96 105 117 
152 610 186 96 105 117 
152 610 187 96 105 117 
152 611 186 97 105 118 
152 611 187 97 105 118 
152 610 188 96 105 117 
152 610 189 95 104 116 
152 611 188 97 105 118 
152 611 189 97 105 118 
152 610 190 93 101 113 
152 610 191 91 98 110 
152 611 190 96 104 116 
152 611 191 93 102 114 
152 612 184 97 105 118 
152 612 185 97 106 118 
152 613 184 98 106 119 
152 613 185 98 106 119 
152 612 186 97 106 118 
152 612 187 98 106 119 
152 613 186 97 106 119 
152 613 187 98 106 119 
152 612 188 97 106 118 
152 612 189 97 106 118 
152 613 188 98 106 119 
152 613 189 96 105 117 
152 612 190 96 104 117 
152 612 191 93 101 113 
152 613 190 95 103 115 
152 613 191 93 101 113 
154 607 207 73 79 87 
154 607 208 73 79 87 
154 607 209 72 78 86 
155 607 208 73 79 87 
155 607 209 73 78 86 
155 607 210 72 78 86 
155 607 211 73 78 86 
155 606 213 73 78 86 
155 607 212 73 78 86 
155 607 213 73 78 86 
