ply
format ascii 1.0
comment Created by CloudCompare v2.10.1 (Zephyrus)
comment Created 1/31/20 11:18 AM
obj_info Generated by CloudCompare!
element vertex 2023
property float x
property float y
property float z
property uchar red
property uchar green
property uchar blue
end_header
123 520 147 93 98 107 
123 521 147 92 98 107 
123 522 147 90 96 105 
123 523 147 88 94 104 
121 520 150 84 90 99 
121 520 151 85 90 99 
121 521 150 90 96 105 
121 521 151 90 95 105 
121 522 150 101 106 115 
121 522 151 98 103 113 
121 523 150 99 105 115 
121 523 151 95 102 112 
122 520 149 82 89 98 
122 521 149 87 93 103 
123 520 148 88 94 103 
123 521 148 90 96 105 
122 520 150 82 88 98 
122 521 150 87 94 104 
122 522 149 94 101 111 
122 523 149 94 101 111 
123 522 148 90 96 106 
123 523 148 90 96 106 
122 522 150 99 105 115 
122 523 150 98 105 115 
123 527 147 86 92 101 
121 524 150 87 95 105 
121 524 151 86 93 103 
121 525 150 82 89 99 
121 525 151 81 88 98 
121 526 150 80 86 95 
121 526 151 81 87 96 
121 527 150 82 87 96 
121 527 151 84 90 98 
122 524 149 89 96 106 
122 525 149 83 90 99 
123 524 148 87 93 102 
123 524 149 87 94 103 
123 525 148 84 90 99 
123 525 149 84 90 100 
122 524 150 89 96 106 
122 525 150 83 90 100 
122 526 149 80 87 95 
122 527 148 81 86 95 
122 527 149 80 86 94 
123 526 148 83 89 98 
123 526 149 82 88 97 
123 527 148 83 89 97 
123 527 149 81 87 96 
122 526 150 80 86 95 
122 527 150 82 87 95 
125 520 145 88 94 104 
125 521 145 89 95 104 
124 520 146 92 97 106 
124 520 147 94 99 107 
124 521 146 91 96 105 
124 521 147 92 97 106 
125 520 146 88 94 103 
125 521 146 89 95 104 
125 522 145 89 95 104 
125 523 145 88 94 103 
124 522 146 90 96 105 
124 522 147 90 96 105 
124 523 146 89 94 103 
124 523 147 88 94 103 
125 522 146 90 95 105 
125 523 146 89 94 104 
126 520 144 91 96 106 
126 521 144 90 96 105 
126 522 144 87 93 103 
126 523 144 86 92 101 
126 523 145 87 93 102 
125 524 145 88 94 103 
125 525 145 90 96 105 
124 524 146 86 92 101 
124 524 147 85 91 100 
124 525 146 84 90 99 
124 525 147 83 89 98 
125 524 146 87 93 102 
125 525 146 86 92 101 
125 526 145 93 98 108 
125 527 145 95 101 110 
124 526 146 84 91 100 
124 526 147 82 89 97 
124 527 146 90 96 105 
124 527 147 85 91 100 
125 526 146 88 94 103 
125 527 146 93 99 108 
126 524 144 88 94 103 
126 524 145 89 95 104 
126 525 144 90 97 106 
126 525 145 91 97 106 
126 526 144 94 100 109 
126 527 144 93 100 109 
120 520 152 83 88 96 
120 520 153 82 87 94 
120 521 152 87 92 100 
120 521 153 86 91 100 
121 520 152 84 89 98 
121 521 152 88 93 102 
120 520 154 81 85 93 
120 522 152 89 95 103 
120 522 153 87 92 101 
120 523 152 86 93 102 
120 523 153 85 91 100 
121 522 152 93 98 107 
121 523 152 91 97 107 
120 524 152 84 90 100 
120 524 153 86 92 101 
120 525 152 82 88 98 
120 525 153 84 90 99 
121 524 152 85 92 102 
120 526 152 81 88 97 
120 526 153 82 88 97 
120 527 152 87 93 102 
120 527 153 88 94 103 
127 528 142 94 100 109 
127 528 143 93 100 109 
127 529 142 91 97 106 
127 529 143 92 98 108 
127 530 142 86 92 101 
127 530 143 88 94 104 
127 531 142 86 92 101 
127 531 143 87 93 102 
127 532 142 87 93 102 
127 532 143 88 94 103 
127 533 142 87 93 102 
127 533 143 89 95 104 
127 534 142 87 93 102 
127 534 143 89 95 103 
127 535 142 87 94 103 
127 535 143 88 94 103 
127 536 142 89 95 104 
127 536 143 89 95 104 
127 537 143 89 95 104 
127 538 143 90 95 105 
127 539 143 90 96 105 
127 540 143 91 97 107 
127 541 143 95 102 113 
119 528 154 94 100 110 
119 528 155 90 96 105 
119 529 154 96 102 112 
119 529 155 90 97 107 
119 530 153 98 104 114 
119 530 154 98 104 114 
119 530 155 93 100 110 
119 531 154 94 101 111 
119 531 155 91 98 108 
117 528 159 103 109 120 
117 529 159 103 110 121 
117 530 159 99 105 116 
117 531 159 94 100 111 
118 528 156 89 95 105 
118 528 157 90 97 106 
118 529 156 88 94 104 
118 529 157 90 97 106 
119 528 156 88 94 104 
119 529 156 87 94 103 
118 528 158 94 100 109 
118 528 159 99 105 115 
118 529 158 93 99 108 
118 529 159 98 105 115 
118 530 157 90 96 105 
118 531 157 91 97 106 
119 530 156 88 94 104 
119 531 156 88 95 105 
118 530 158 92 98 108 
118 530 159 96 102 112 
118 531 158 92 98 107 
118 531 159 94 100 110 
119 533 153 87 93 102 
119 532 154 91 97 107 
119 532 155 90 96 107 
119 533 154 88 95 104 
119 533 155 90 96 105 
119 534 153 86 92 101 
119 535 153 88 94 103 
119 534 154 88 94 103 
119 534 155 90 96 105 
119 535 154 89 95 104 
119 535 155 92 98 108 
117 532 159 94 100 111 
118 532 156 90 96 106 
118 532 157 90 96 106 
118 533 157 92 98 108 
119 532 156 89 95 105 
119 533 156 90 96 106 
118 532 158 92 98 108 
118 532 159 95 100 110 
118 533 158 93 99 110 
118 533 159 95 102 112 
118 534 156 96 103 113 
118 534 157 97 103 114 
118 535 156 100 106 117 
118 535 157 103 110 121 
119 534 156 93 99 109 
119 535 156 97 103 113 
118 534 158 100 106 117 
118 534 159 100 106 117 
118 535 158 110 116 127 
118 535 159 105 111 122 
119 536 153 89 95 104 
119 537 153 91 97 107 
119 536 154 90 96 105 
119 536 155 95 102 112 
119 537 154 92 98 108 
119 537 155 96 103 113 
119 538 154 94 100 110 
119 538 155 99 105 116 
119 539 154 96 102 113 
119 539 155 104 110 120 
118 536 156 102 109 119 
118 536 157 107 114 125 
118 537 156 103 109 120 
118 537 157 107 113 124 
119 536 156 100 106 117 
119 537 156 102 108 118 
118 536 158 113 119 130 
118 536 159 112 118 128 
118 537 158 113 119 130 
118 537 159 109 115 125 
118 538 157 106 112 123 
118 539 157 108 115 126 
119 538 156 102 109 119 
119 539 156 106 112 123 
119 539 157 108 114 126 
118 538 158 110 116 126 
118 538 159 105 111 122 
118 539 158 110 116 127 
118 539 159 106 112 122 
119 540 154 96 103 113 
119 540 155 108 114 125 
119 541 154 96 103 113 
119 541 155 106 112 123 
119 542 154 96 103 114 
119 542 155 101 108 119 
119 543 155 103 110 120 
119 540 156 117 123 135 
119 540 157 116 123 134 
119 541 156 116 123 134 
119 541 157 117 123 135 
118 540 158 110 116 127 
118 540 159 106 112 123 
118 541 159 106 112 122 
119 540 158 111 118 129 
119 541 158 111 117 128 
119 541 159 104 110 120 
119 542 156 109 116 126 
119 542 157 111 116 127 
119 543 156 108 114 125 
119 543 157 106 111 121 
118 542 159 103 108 118 
118 543 159 101 107 117 
119 542 158 108 113 124 
119 542 159 102 108 118 
119 543 158 105 111 120 
119 543 159 102 108 118 
123 528 147 85 91 100 
123 529 147 84 90 98 
123 530 147 83 88 97 
123 531 147 82 88 96 
120 528 151 90 96 105 
120 529 151 90 96 105 
121 528 150 82 87 96 
121 528 151 85 91 100 
121 529 150 81 87 96 
121 529 151 84 90 99 
120 530 151 90 96 105 
120 531 151 91 98 107 
121 530 150 81 87 96 
121 530 151 84 90 99 
121 531 150 81 87 96 
121 531 151 85 91 100 
122 528 148 81 86 94 
122 528 149 80 85 94 
122 529 148 79 85 93 
122 529 149 79 85 93 
123 528 148 82 88 97 
123 529 148 81 87 95 
122 530 148 79 85 93 
122 530 149 79 85 93 
122 531 148 79 84 93 
122 531 149 78 85 93 
123 530 148 81 86 95 
123 531 148 80 86 94 
123 532 147 83 88 96 
123 533 147 85 91 99 
123 534 147 87 92 101 
123 535 147 89 94 103 
120 532 151 87 93 103 
120 533 151 85 91 100 
121 532 150 79 86 95 
121 532 151 82 89 98 
121 533 150 78 85 94 
121 533 151 82 88 97 
120 534 151 85 91 100 
121 534 150 84 90 99 
121 534 151 85 91 100 
121 535 150 93 99 108 
121 535 151 92 98 107 
122 532 148 78 84 92 
122 532 149 78 84 92 
122 533 148 80 86 94 
122 533 149 78 85 93 
123 532 148 81 86 94 
123 533 148 83 88 97 
122 534 148 84 89 98 
122 534 149 83 89 97 
122 535 148 88 93 102 
122 535 149 89 95 104 
123 534 148 85 91 99 
123 535 148 88 93 101 
125 528 145 96 102 111 
125 529 145 94 100 109 
124 528 146 91 97 106 
124 528 147 88 93 102 
124 529 146 88 94 103 
124 529 147 86 91 100 
125 528 146 94 100 109 
125 530 145 89 95 104 
125 531 144 89 95 104 
125 531 145 86 92 101 
124 530 146 85 91 100 
124 530 147 84 89 98 
124 531 146 84 89 98 
124 531 147 82 88 96 
126 528 144 93 100 109 
126 529 144 95 101 111 
126 530 144 93 99 108 
126 531 144 90 96 105 
125 532 144 87 93 102 
125 532 145 86 92 101 
125 533 144 90 96 105 
125 533 145 88 94 103 
124 532 146 85 90 99 
124 532 147 84 89 97 
124 533 146 87 93 101 
124 533 147 86 92 100 
125 534 144 94 100 109 
125 534 145 95 100 109 
125 535 144 93 99 108 
125 535 145 94 99 108 
124 534 146 90 96 105 
124 534 147 88 93 102 
124 535 146 91 97 106 
124 535 147 89 95 104 
126 532 144 88 94 104 
126 533 144 91 97 105 
126 534 144 92 98 107 
126 535 144 90 96 105 
120 528 152 93 99 109 
120 528 153 95 101 110 
120 529 152 96 102 112 
120 529 153 97 104 114 
120 530 152 94 101 110 
120 530 153 97 103 113 
120 531 152 94 101 111 
120 531 153 96 102 112 
120 532 152 88 95 104 
120 532 153 90 97 107 
120 533 152 85 92 101 
120 533 153 87 93 103 
120 534 152 87 93 102 
120 534 153 86 92 102 
120 535 152 88 94 102 
120 535 153 87 93 102 
121 536 150 93 99 108 
121 536 151 92 98 107 
121 537 150 85 92 101 
121 537 151 86 92 102 
121 538 150 87 93 103 
121 538 151 87 93 103 
121 539 150 92 98 108 
121 539 151 92 98 108 
122 536 149 89 94 103 
122 537 149 86 92 101 
123 536 148 88 93 102 
123 537 148 90 95 103 
122 536 150 91 97 106 
122 537 150 85 91 100 
122 538 149 89 95 104 
122 539 149 91 97 107 
123 538 148 92 97 105 
123 539 148 91 97 106 
123 539 149 91 97 107 
122 538 150 88 94 103 
122 539 150 92 98 108 
121 540 151 103 109 119 
121 541 151 107 113 123 
121 542 151 100 107 118 
122 540 149 96 102 112 
122 541 149 100 107 118 
123 540 148 94 100 110 
123 540 149 94 101 111 
123 541 148 99 105 116 
123 541 149 101 108 119 
122 540 150 99 105 115 
122 541 150 105 111 122 
122 541 151 106 112 123 
123 542 149 100 107 118 
123 543 149 96 104 115 
122 542 150 101 108 119 
122 542 151 102 109 120 
122 543 150 95 103 114 
122 543 151 94 101 112 
123 543 150 96 103 114 
125 536 145 91 97 105 
125 537 145 90 96 105 
124 536 146 90 96 104 
124 536 147 90 95 104 
124 537 146 90 96 105 
124 537 147 91 96 104 
125 536 146 91 96 105 
125 537 146 90 96 105 
125 538 145 90 96 105 
125 539 145 91 97 107 
124 538 146 91 97 106 
124 538 147 92 97 106 
124 539 146 91 97 106 
124 539 147 92 98 107 
125 538 146 91 96 105 
125 539 146 91 97 107 
126 536 144 89 95 105 
126 537 144 89 95 105 
127 537 144 89 95 104 
126 538 144 90 95 105 
126 538 145 91 96 105 
126 539 144 90 96 106 
126 539 145 91 97 106 
127 538 144 89 95 104 
127 539 144 90 96 106 
124 539 148 92 98 107 
125 540 145 94 99 109 
125 541 145 95 101 111 
124 540 147 94 100 110 
124 541 147 96 103 113 
125 540 146 94 100 109 
125 541 146 95 101 111 
125 541 147 96 102 112 
124 542 147 96 103 113 
125 542 146 96 103 114 
125 542 147 95 102 113 
125 543 146 99 107 118 
125 543 147 97 104 116 
126 540 144 93 99 109 
126 540 145 94 99 109 
126 541 144 98 104 114 
126 541 145 97 104 114 
127 540 144 92 99 109 
127 541 144 97 104 114 
126 542 145 99 106 117 
126 543 145 103 110 122 
127 542 144 102 109 120 
127 542 145 102 109 121 
127 543 144 106 113 125 
127 543 145 105 113 124 
126 542 146 98 105 116 
126 543 146 101 108 119 
124 540 148 94 100 109 
124 541 148 97 104 114 
124 542 148 97 104 115 
124 542 149 97 104 116 
124 543 148 97 104 115 
124 543 149 97 104 115 
125 543 148 98 105 116 
120 536 152 88 94 103 
120 536 153 87 93 103 
120 537 152 87 93 103 
120 537 153 90 96 106 
120 538 152 90 96 105 
120 538 153 93 99 108 
120 539 152 93 99 108 
120 539 153 94 100 110 
121 539 152 92 98 108 
120 540 152 96 102 111 
120 540 153 94 101 111 
120 541 152 96 102 112 
120 541 153 94 100 111 
121 540 152 100 105 115 
121 541 152 102 108 118 
120 540 154 95 102 113 
120 541 154 95 102 112 
120 542 152 94 100 111 
120 542 153 93 100 110 
120 543 153 96 102 112 
121 542 152 95 102 113 
121 543 152 95 101 111 
120 542 154 96 102 113 
120 543 154 99 105 116 
120 543 155 101 108 119 
111 527 182 37 43 50 
111 527 183 38 43 50 
111 524 187 38 42 48 
111 525 186 37 42 48 
111 525 187 37 42 48 
111 526 185 37 43 49 
111 527 184 38 43 50 
111 527 185 38 44 50 
110 526 187 38 43 49 
110 527 186 39 44 50 
110 527 187 37 43 49 
111 526 186 37 43 49 
111 526 187 38 43 48 
111 527 186 38 43 50 
111 524 188 37 42 47 
111 524 189 36 41 47 
111 525 188 37 42 47 
111 525 189 37 42 47 
110 526 188 37 42 48 
110 526 189 37 42 47 
110 527 188 37 42 48 
110 527 189 38 43 48 
111 526 188 37 42 48 
111 531 175 95 102 112 
111 532 175 95 102 113 
111 533 175 87 95 106 
111 534 175 86 93 104 
111 535 175 86 94 104 
103 535 187 57 62 69 
102 535 189 51 56 62 
103 534 189 44 49 55 
103 535 188 54 59 65 
103 535 189 45 50 56 
102 537 187 83 88 96 
103 536 186 75 80 89 
103 536 187 69 74 81 
103 537 186 85 90 99 
103 537 187 82 87 95 
102 538 187 91 96 105 
102 539 187 97 102 111 
103 538 186 90 96 105 
103 538 187 90 95 104 
103 539 186 92 98 108 
101 537 188 73 78 86 
101 537 189 67 72 80 
100 538 189 87 92 101 
100 539 189 94 99 108 
101 538 188 82 87 95 
101 538 189 80 85 93 
101 539 188 92 97 106 
101 539 189 90 95 104 
102 536 188 61 66 73 
102 536 189 56 61 68 
102 537 188 73 78 87 
103 536 188 61 66 73 
102 538 188 84 89 98 
102 539 188 92 98 107 
102 540 187 95 100 110 
102 541 187 92 98 108 
103 540 186 89 96 106 
103 541 186 88 95 105 
102 542 187 93 99 109 
102 543 187 103 109 119 
103 542 186 94 101 111 
103 543 186 102 109 120 
103 543 187 106 113 123 
100 540 189 98 104 114 
100 541 189 99 106 116 
101 540 188 96 101 111 
101 540 189 98 103 112 
101 541 188 95 100 110 
101 541 189 97 102 112 
100 542 189 98 104 115 
100 543 189 99 104 114 
101 542 188 96 101 111 
101 542 189 95 100 110 
101 543 188 93 98 109 
101 543 189 95 101 111 
102 541 188 94 99 109 
102 542 188 95 100 110 
102 543 188 96 102 113 
107 533 182 78 82 90 
107 533 183 66 71 79 
107 534 181 87 93 102 
107 535 181 88 94 105 
106 534 183 82 87 95 
106 535 182 95 101 111 
106 535 183 92 97 106 
107 534 182 88 93 101 
107 534 183 84 89 97 
107 535 182 92 98 108 
111 529 178 45 51 59 
111 529 179 42 48 54 
110 531 177 80 86 95 
111 530 176 75 81 90 
111 530 177 58 65 74 
111 531 176 87 93 103 
111 531 177 70 77 86 
110 530 179 50 57 64 
110 531 178 68 74 82 
110 531 179 61 67 75 
111 530 178 54 60 68 
111 530 179 48 54 61 
111 531 178 64 70 79 
109 531 180 57 62 70 
109 531 181 54 59 66 
108 531 182 49 55 62 
108 531 183 47 53 60 
109 530 182 41 48 55 
109 530 183 40 46 52 
109 531 182 48 54 61 
109 531 183 42 48 55 
110 529 181 38 44 51 
111 528 180 38 44 51 
111 528 181 38 44 51 
111 529 180 39 45 52 
111 529 181 38 44 51 
110 528 183 37 43 50 
110 529 182 37 44 51 
110 529 183 38 44 50 
111 528 183 37 43 50 
111 529 182 37 44 51 
111 529 183 37 43 50 
110 530 180 46 51 58 
110 530 181 41 47 53 
110 531 180 52 59 66 
110 531 181 49 55 62 
111 530 180 44 49 56 
110 530 182 40 46 53 
110 530 183 38 44 51 
109 532 178 88 94 103 
109 532 179 78 84 93 
109 533 178 89 95 105 
109 533 179 86 93 103 
109 534 177 87 94 105 
108 534 179 86 94 104 
108 535 179 87 95 106 
109 534 178 88 95 106 
109 534 179 87 94 105 
109 535 178 96 103 114 
109 535 179 90 98 109 
110 532 177 86 92 102 
110 533 176 88 95 106 
110 533 177 88 95 105 
111 532 176 91 97 107 
111 533 176 88 95 105 
110 532 178 82 88 97 
110 532 179 77 83 91 
110 534 176 89 96 107 
110 534 177 88 95 106 
110 535 176 94 100 111 
110 535 177 99 106 116 
111 534 176 88 95 105 
111 535 176 92 99 109 
108 532 181 69 75 82 
108 533 180 85 90 99 
108 533 181 80 85 93 
109 532 180 72 78 87 
109 532 181 64 70 77 
109 533 180 86 91 101 
108 532 182 61 66 73 
108 532 183 54 60 67 
108 533 182 72 77 85 
108 534 180 87 93 103 
108 534 181 86 92 101 
108 535 180 86 93 104 
108 535 181 86 93 103 
107 531 186 40 45 52 
107 531 187 36 41 47 
107 530 189 37 41 46 
107 531 188 37 42 47 
107 531 189 37 41 47 
105 533 187 42 47 53 
105 534 185 62 66 73 
105 535 184 86 91 99 
105 535 185 76 81 88 
104 534 187 49 55 61 
104 535 186 63 68 75 
104 535 187 55 60 67 
105 534 186 55 60 67 
105 534 187 46 51 57 
105 535 186 63 68 74 
106 533 185 53 58 65 
107 532 184 53 58 66 
107 532 185 44 50 57 
107 533 184 61 66 73 
107 533 185 52 57 64 
106 532 187 41 46 52 
106 533 186 44 49 55 
106 533 187 42 46 52 
107 532 186 40 46 52 
107 532 187 38 43 49 
106 534 184 72 77 84 
106 534 185 63 68 75 
106 535 184 85 90 98 
106 534 186 50 55 61 
105 533 188 40 45 50 
105 533 189 39 44 50 
104 534 188 46 51 57 
104 534 189 43 48 54 
104 535 188 49 54 61 
105 534 188 42 48 54 
105 534 189 41 47 53 
106 532 188 39 43 49 
106 532 189 38 42 47 
106 533 188 40 45 51 
107 532 188 37 42 48 
109 529 185 38 44 50 
109 528 186 37 43 49 
109 528 187 36 42 48 
109 529 186 37 43 49 
109 529 187 36 42 49 
108 530 185 39 44 51 
108 531 184 43 49 56 
108 531 185 41 47 53 
109 530 184 39 45 51 
109 530 185 38 44 51 
108 530 186 37 43 50 
108 530 187 37 42 48 
108 531 186 39 44 51 
108 531 187 36 42 48 
109 530 186 38 44 51 
110 528 184 37 43 50 
110 528 185 38 43 50 
110 529 184 37 43 49 
110 529 185 38 44 50 
111 528 184 38 43 50 
110 528 186 38 44 50 
110 528 187 37 43 49 
108 529 188 36 41 47 
108 529 189 36 41 47 
109 528 188 37 42 49 
109 528 189 37 42 48 
109 529 188 37 42 48 
108 530 188 36 41 47 
108 530 189 36 41 46 
110 528 188 37 43 49 
108 532 184 49 54 61 
108 532 185 45 51 58 
105 538 183 96 102 113 
105 539 183 97 102 112 
107 536 181 89 96 107 
107 537 181 92 99 109 
106 536 182 97 103 114 
106 536 183 100 105 115 
106 537 182 96 102 113 
106 537 183 99 105 115 
107 536 182 92 99 109 
107 537 182 92 99 110 
107 538 181 92 99 110 
107 539 181 92 99 109 
106 538 182 92 99 109 
106 538 183 95 102 112 
106 539 182 92 99 109 
106 539 183 94 100 110 
107 538 182 91 98 109 
107 539 182 93 100 110 
107 540 181 92 98 109 
107 541 181 92 98 108 
106 540 182 97 103 113 
106 540 183 93 99 109 
106 541 183 95 100 110 
107 540 182 97 103 113 
107 541 182 98 103 113 
106 542 183 96 101 111 
106 543 183 91 97 107 
107 542 182 93 98 108 
107 543 182 86 93 103 
107 543 183 89 95 105 
108 536 179 94 101 111 
108 537 179 99 105 115 
109 536 178 104 111 121 
109 536 179 100 106 117 
109 537 178 106 112 123 
109 537 179 101 107 118 
108 538 179 97 103 113 
109 538 178 96 103 113 
109 538 179 93 99 110 
109 539 179 87 94 104 
110 536 177 104 110 121 
110 537 177 98 105 115 
111 536 176 90 97 108 
111 537 176 94 101 112 
110 536 178 110 116 126 
110 537 178 106 112 123 
110 538 177 97 103 114 
110 539 177 95 101 111 
111 538 176 94 100 111 
111 538 177 95 102 112 
111 539 176 95 102 113 
111 539 177 95 101 111 
110 538 178 95 101 112 
110 539 178 92 98 108 
108 536 180 91 98 108 
108 537 180 97 103 113 
108 538 180 96 102 112 
108 538 181 93 99 110 
108 539 180 89 96 106 
108 539 181 91 98 108 
109 540 179 84 91 101 
109 541 179 85 92 102 
109 542 179 88 94 104 
109 543 179 91 98 108 
111 540 177 100 107 117 
111 541 177 104 110 121 
110 540 178 93 99 109 
110 540 179 88 94 104 
110 541 178 94 100 111 
110 541 179 91 97 107 
111 541 178 100 107 117 
111 542 177 103 110 121 
110 542 178 95 101 111 
110 542 179 91 97 107 
110 543 178 93 100 111 
110 543 179 93 100 110 
111 542 178 99 106 117 
111 543 178 97 104 115 
108 540 180 85 92 102 
108 540 181 88 95 105 
108 541 180 84 91 101 
108 541 181 87 94 103 
109 540 180 83 90 100 
109 541 180 84 91 101 
108 542 181 86 93 102 
108 543 181 86 93 103 
109 542 180 86 92 102 
109 543 180 92 99 108 
104 536 185 84 89 96 
104 537 185 89 94 103 
105 536 184 92 97 106 
105 536 185 89 93 101 
105 537 184 93 99 109 
105 537 185 89 94 103 
104 536 186 76 82 89 
104 537 186 85 91 100 
104 538 185 87 94 104 
104 539 185 86 93 104 
105 538 184 91 97 108 
105 539 184 93 99 110 
104 538 186 88 95 104 
106 536 184 93 98 107 
104 540 185 87 94 105 
104 541 185 89 96 106 
105 540 184 91 97 108 
105 541 184 88 94 105 
104 541 186 89 96 106 
104 542 185 95 101 112 
104 543 185 100 106 116 
105 542 184 88 94 105 
105 542 185 90 96 107 
105 543 184 89 95 106 
105 543 185 98 104 115 
104 543 186 103 109 120 
106 543 184 88 95 105 
115 523 165 41 48 56 
115 523 166 38 46 54 
115 523 167 39 45 53 
115 524 165 49 56 66 
115 525 164 80 86 95 
115 525 165 67 74 83 
114 525 167 52 59 68 
115 524 166 41 48 58 
115 524 167 39 47 55 
115 525 166 55 62 71 
115 525 167 47 54 64 
115 526 164 102 109 119 
115 526 165 97 104 114 
115 527 164 107 115 127 
115 527 165 109 116 128 
115 526 166 82 89 98 
115 526 167 75 81 90 
115 527 166 106 113 124 
115 527 167 95 100 110 
117 521 160 51 57 65 
117 521 161 45 51 58 
117 520 162 42 48 54 
117 520 163 42 47 53 
117 521 162 41 47 55 
117 521 163 41 47 54 
117 522 160 61 67 75 
117 522 161 51 58 66 
117 523 160 84 90 99 
117 523 161 76 82 91 
116 522 163 43 50 59 
116 523 162 62 70 79 
116 523 163 55 62 72 
117 522 162 44 51 60 
117 522 163 41 48 55 
117 523 162 61 69 78 
118 520 160 44 50 56 
118 520 161 43 48 55 
118 521 160 46 52 59 
118 520 162 42 47 54 
118 520 163 41 46 52 
116 521 164 42 47 54 
116 521 165 42 48 55 
117 520 164 42 47 53 
117 520 165 43 48 54 
117 521 164 41 47 53 
117 521 165 43 48 54 
116 521 166 43 49 55 
116 521 167 45 50 57 
117 520 166 43 48 55 
117 520 167 44 49 55 
117 521 166 44 49 55 
117 521 167 46 51 57 
116 522 164 42 49 57 
116 522 165 40 47 55 
116 523 164 46 54 64 
116 523 165 41 48 57 
117 522 164 42 48 55 
116 522 166 40 47 54 
116 522 167 42 48 54 
116 523 166 37 45 52 
116 523 167 38 45 52 
116 525 161 109 116 127 
117 524 160 98 104 114 
117 524 161 99 105 114 
117 525 160 104 111 121 
117 525 161 109 115 126 
116 524 162 89 96 105 
116 524 163 78 84 94 
116 525 162 106 112 123 
116 525 163 97 103 113 
117 524 162 86 92 102 
116 526 161 107 114 126 
117 526 160 103 110 122 
117 526 161 106 114 126 
117 527 160 106 113 125 
117 527 161 109 116 128 
116 526 162 106 113 125 
116 526 163 102 110 121 
116 527 162 109 116 128 
116 527 163 106 114 127 
116 524 164 63 70 79 
116 525 164 85 91 100 
116 526 164 103 109 119 
116 527 164 105 113 125 
115 522 169 43 49 55 
115 523 168 42 47 54 
115 523 169 41 47 53 
114 523 170 37 43 51 
114 523 171 38 44 51 
115 522 170 39 45 52 
115 522 171 37 44 51 
115 523 170 37 44 51 
115 523 171 38 44 52 
115 521 173 38 45 52 
115 521 174 37 44 51 
115 521 175 36 43 50 
114 523 172 39 45 52 
114 523 173 39 45 52 
115 522 172 37 44 51 
115 522 173 37 44 51 
115 523 172 39 45 52 
114 523 174 37 43 50 
114 523 175 36 42 49 
115 522 174 36 43 50 
115 522 175 35 42 49 
113 526 171 39 48 56 
113 527 171 52 60 69 
114 524 169 37 44 51 
114 525 168 43 50 59 
114 525 169 38 46 54 
115 524 168 38 45 53 
115 524 169 38 44 51 
115 525 168 40 47 57 
114 524 170 36 42 50 
114 524 171 37 43 50 
114 525 170 36 43 51 
114 525 171 36 42 49 
114 526 168 60 66 75 
114 526 169 52 58 67 
114 527 168 83 89 98 
114 527 169 73 79 87 
114 526 170 44 51 59 
114 526 171 38 45 53 
114 527 170 60 66 75 
113 525 172 37 43 49 
113 525 173 38 43 50 
113 525 174 37 43 50 
113 525 175 39 44 50 
113 526 172 37 44 52 
113 526 173 37 42 50 
113 527 172 44 53 62 
113 527 173 38 46 55 
113 526 174 36 42 50 
113 526 175 37 43 49 
113 527 174 36 44 52 
113 527 175 36 43 51 
114 524 172 39 45 52 
114 524 173 39 45 51 
114 525 172 37 43 50 
114 525 173 38 44 51 
114 524 174 39 44 51 
114 524 175 38 43 50 
114 525 174 39 44 51 
114 525 175 39 44 50 
116 521 168 46 51 58 
116 521 169 44 49 55 
117 520 168 45 51 57 
117 520 169 42 48 56 
117 521 168 47 52 58 
117 521 169 42 48 55 
116 520 170 37 45 52 
116 520 171 38 45 53 
116 521 170 38 45 53 
116 521 171 35 43 51 
117 520 170 40 47 54 
117 520 171 41 48 55 
116 522 168 45 50 56 
116 522 169 44 50 56 
116 522 170 37 44 52 
116 520 172 41 48 55 
116 520 173 41 47 55 
116 521 172 38 45 52 
116 521 173 41 47 54 
116 520 174 39 46 54 
116 520 175 37 44 52 
116 521 174 39 46 53 
116 521 175 37 44 51 
115 520 176 35 42 50 
115 521 176 36 42 50 
115 521 177 35 42 49 
115 520 178 36 43 50 
115 520 179 36 43 51 
115 521 178 35 42 49 
115 521 179 36 42 49 
114 522 177 35 41 48 
114 523 176 35 42 48 
114 523 177 36 42 49 
115 522 176 35 41 48 
115 522 177 35 42 48 
115 523 176 35 41 48 
115 523 177 35 41 48 
114 523 178 37 43 49 
115 522 178 35 42 48 
115 522 179 36 42 49 
115 523 178 36 42 48 
115 523 179 36 42 49 
114 520 181 35 43 50 
114 521 180 35 42 49 
114 521 181 35 42 49 
115 520 180 36 43 51 
115 520 181 36 43 51 
115 521 180 35 42 50 
114 520 182 35 43 50 
114 520 183 35 42 50 
114 521 182 36 42 49 
114 521 183 36 42 49 
114 522 180 35 42 49 
114 522 181 36 42 49 
114 523 180 35 41 48 
114 523 181 36 42 49 
115 522 180 35 41 48 
114 522 182 36 42 49 
114 522 183 36 43 50 
114 523 182 37 42 49 
114 523 183 36 42 49 
113 525 176 38 43 50 
113 525 177 37 43 50 
112 527 176 37 43 50 
112 527 177 37 43 50 
113 526 176 37 43 50 
113 526 177 36 43 50 
113 527 176 37 43 51 
113 527 177 36 43 50 
112 527 178 37 43 50 
112 527 179 37 43 49 
113 526 178 36 43 50 
113 526 179 37 43 49 
113 527 179 37 43 50 
114 524 176 36 42 49 
114 524 177 36 42 49 
114 525 176 37 42 49 
114 525 177 36 42 49 
114 524 178 36 42 49 
114 525 178 36 42 49 
114 525 179 37 43 49 
115 524 178 36 42 49 
115 524 179 36 42 48 
115 525 179 36 42 48 
114 526 178 36 42 48 
113 524 182 35 42 48 
113 524 183 35 42 49 
113 525 182 36 42 49 
113 525 183 36 42 49 
112 527 180 37 43 50 
112 527 181 37 43 50 
113 526 180 38 43 50 
113 526 181 37 43 49 
113 527 180 37 43 50 
113 527 181 37 43 50 
112 526 183 37 43 50 
112 527 182 37 43 50 
112 527 183 38 43 50 
113 526 182 37 43 49 
113 526 183 38 43 50 
113 527 182 38 43 50 
114 524 180 36 42 49 
114 524 181 36 42 49 
114 525 180 37 43 49 
114 525 181 36 42 48 
115 524 180 36 42 48 
115 525 180 36 41 48 
115 525 181 36 42 49 
114 524 182 36 42 49 
114 524 183 36 42 49 
114 525 182 36 42 49 
114 526 181 36 42 48 
116 520 176 36 43 51 
116 520 177 36 43 50 
116 520 178 37 43 50 
113 520 184 35 42 50 
113 520 185 35 42 50 
113 521 184 36 42 49 
113 521 185 35 42 49 
112 521 187 35 42 49 
113 520 186 35 42 50 
113 520 187 34 42 49 
113 521 186 34 41 49 
113 521 187 34 41 48 
112 523 185 35 41 48 
113 522 184 36 42 49 
113 522 185 36 42 49 
113 523 184 36 42 49 
113 523 185 35 42 49 
112 522 186 34 41 48 
112 522 187 34 41 48 
112 523 186 34 41 48 
112 523 187 35 41 47 
113 522 186 34 41 48 
113 522 187 34 41 48 
114 521 184 36 43 50 
114 522 184 36 42 49 
112 520 189 35 43 51 
112 521 188 34 41 49 
112 521 189 34 41 48 
113 520 188 34 42 50 
113 521 188 33 41 49 
112 522 188 35 41 48 
112 522 189 35 41 48 
112 523 188 35 41 47 
112 523 189 36 41 47 
112 524 185 36 42 49 
112 525 184 36 42 48 
112 525 185 36 42 48 
113 524 184 36 42 49 
113 524 185 36 42 49 
113 525 184 36 42 49 
112 524 186 35 42 48 
112 524 187 37 42 48 
112 525 186 36 42 48 
112 526 184 37 43 49 
112 526 185 36 42 49 
112 524 188 36 41 47 
112 524 189 36 42 47 
115 528 164 111 119 132 
115 528 165 110 118 130 
115 529 165 107 115 127 
114 528 167 93 100 110 
114 529 167 94 101 112 
115 528 166 103 111 123 
115 528 167 96 104 115 
115 529 166 98 107 119 
115 529 167 95 103 114 
115 530 165 106 113 125 
115 531 165 102 109 120 
114 530 167 100 106 118 
114 531 167 103 109 120 
115 530 166 102 109 120 
115 530 167 100 107 118 
115 531 166 101 108 120 
115 531 167 102 109 121 
115 532 166 99 106 117 
115 532 167 102 109 120 
115 533 166 98 104 116 
115 533 167 100 106 118 
115 534 166 101 108 119 
115 534 167 98 105 117 
115 535 167 94 102 113 
117 528 160 107 114 125 
117 528 161 107 115 126 
117 529 160 104 111 122 
117 529 161 102 109 121 
116 528 162 104 112 124 
116 528 163 104 113 125 
116 529 162 100 108 120 
116 529 163 105 113 125 
117 530 160 100 107 118 
117 530 161 99 106 117 
117 531 160 95 102 112 
117 531 161 98 104 115 
116 530 162 97 105 116 
116 530 163 104 111 123 
116 531 162 97 103 114 
116 531 163 99 106 117 
117 530 162 96 103 114 
117 531 162 95 101 111 
116 528 164 108 117 129 
116 529 164 110 118 131 
116 530 164 112 119 131 
116 530 165 107 114 125 
116 531 164 103 110 121 
116 531 165 100 107 119 
117 532 160 92 99 109 
117 532 161 95 102 112 
117 533 160 94 100 110 
117 533 161 96 102 112 
116 532 163 97 103 114 
116 533 163 99 105 115 
117 532 162 94 100 110 
117 532 163 95 101 112 
117 533 162 97 103 113 
117 533 163 98 104 114 
117 534 160 98 104 113 
117 534 161 98 103 113 
117 535 160 100 106 116 
117 535 161 98 104 114 
117 534 162 99 105 115 
117 534 163 103 109 119 
117 535 162 99 105 115 
117 535 163 101 108 119 
118 534 160 100 106 116 
118 535 160 103 108 119 
116 532 164 95 102 112 
116 532 165 96 103 114 
116 533 164 101 107 118 
116 533 165 99 106 118 
116 533 166 97 105 116 
116 534 164 115 120 131 
116 534 165 113 119 129 
116 535 164 115 121 132 
116 535 165 116 122 133 
117 534 164 111 117 128 
117 535 164 110 116 127 
116 534 166 107 113 125 
116 535 166 110 116 127 
116 535 167 100 107 118 
113 529 169 91 97 107 
113 528 170 80 85 94 
113 528 171 76 82 91 
113 529 170 92 98 107 
113 529 171 92 98 107 
113 530 170 95 102 112 
113 530 171 97 104 114 
113 531 170 97 104 115 
113 531 171 104 111 122 
114 528 168 94 100 109 
114 528 169 89 94 103 
114 529 168 95 101 112 
114 529 169 92 98 108 
114 528 170 83 89 97 
114 530 168 98 105 115 
114 530 169 97 103 114 
114 531 168 101 108 119 
114 531 169 99 106 118 
112 529 172 97 104 115 
112 529 173 89 96 106 
113 528 172 64 71 79 
113 528 173 51 59 68 
113 529 172 91 97 107 
113 529 173 74 82 91 
112 528 175 42 50 58 
112 529 174 74 80 90 
112 529 175 55 63 72 
113 528 174 45 53 62 
113 528 175 41 49 58 
113 529 174 63 70 80 
112 530 172 103 110 122 
112 530 173 102 109 120 
112 531 172 108 116 128 
112 531 173 107 115 127 
113 530 172 99 106 117 
113 531 172 107 115 127 
112 530 174 93 100 111 
112 530 175 82 89 98 
112 531 174 102 109 121 
112 531 175 99 106 116 
113 532 170 98 105 117 
113 532 171 102 110 122 
113 533 171 96 104 115 
114 532 168 105 112 123 
114 532 169 102 109 121 
114 533 168 104 111 122 
114 533 169 102 109 121 
115 533 168 103 109 121 
114 532 170 101 108 120 
114 533 170 98 106 117 
114 533 171 96 104 115 
114 534 169 104 111 122 
115 534 168 100 108 120 
115 534 169 104 111 123 
115 535 168 95 103 115 
115 535 169 104 111 123 
114 534 170 106 112 124 
114 534 171 101 107 118 
114 535 170 118 124 136 
114 535 171 111 117 129 
112 532 173 103 111 123 
112 533 173 95 103 115 
113 532 172 104 112 125 
113 533 172 96 104 116 
113 533 173 93 101 113 
112 532 174 100 108 119 
112 533 174 91 99 111 
113 534 172 96 103 114 
113 534 173 95 102 113 
113 535 173 94 101 112 
112 534 174 89 97 108 
112 534 175 85 93 104 
112 535 174 92 99 110 
112 535 175 88 95 106 
113 534 174 95 101 112 
113 535 174 94 101 112 
114 534 172 99 106 117 
114 535 172 100 107 118 
115 536 167 95 101 112 
117 536 161 103 109 119 
117 537 161 106 111 121 
117 536 162 100 106 116 
117 536 163 101 108 118 
117 537 162 102 107 118 
117 537 163 103 109 119 
117 538 162 104 109 119 
117 538 163 104 109 119 
117 539 163 105 110 120 
118 536 160 107 112 122 
118 537 160 106 111 122 
118 537 161 105 111 121 
118 538 160 104 109 120 
118 538 161 105 110 120 
118 539 160 104 109 120 
118 539 161 104 109 119 
118 538 162 105 111 121 
118 539 162 106 111 121 
116 536 165 106 113 123 
116 537 165 103 109 120 
117 536 164 104 110 121 
117 537 164 103 109 119 
117 537 165 104 109 119 
116 536 166 105 111 122 
116 536 167 99 105 116 
116 537 166 100 106 117 
116 537 167 95 101 112 
117 538 164 104 109 119 
117 538 165 102 107 116 
117 539 164 105 110 120 
117 539 165 102 107 117 
116 538 166 98 104 113 
116 538 167 95 101 110 
116 539 166 98 103 113 
116 539 167 96 101 111 
117 539 166 100 104 114 
117 540 163 104 110 120 
117 541 163 103 109 119 
118 540 160 102 108 118 
118 540 161 103 108 118 
118 541 160 102 108 118 
118 541 161 101 107 117 
118 540 162 104 109 119 
118 540 163 105 111 120 
118 541 162 102 108 118 
118 541 163 103 109 119 
118 542 160 102 108 118 
118 542 161 101 107 118 
118 543 160 102 108 118 
118 543 161 108 114 124 
118 542 162 105 111 122 
118 542 163 103 110 121 
118 543 162 115 122 133 
118 543 163 111 118 130 
117 540 164 104 109 119 
117 540 165 103 108 118 
117 541 164 103 108 119 
117 541 165 101 107 117 
116 540 166 96 102 111 
116 540 167 95 100 110 
116 541 167 93 99 109 
117 540 166 99 104 114 
117 541 166 97 102 112 
117 541 167 94 100 109 
117 542 164 101 107 118 
117 542 165 100 105 115 
117 543 165 97 104 114 
117 542 166 96 101 110 
117 542 167 91 97 106 
117 543 166 95 100 109 
117 543 167 90 96 105 
118 542 164 102 108 118 
118 543 164 103 110 121 
118 543 165 99 106 117 
115 536 168 94 101 112 
115 536 169 102 109 120 
115 537 168 92 98 109 
115 537 169 93 100 110 
114 536 170 120 126 138 
114 536 171 117 123 134 
114 537 171 105 111 123 
115 536 170 113 120 131 
115 537 170 98 105 116 
115 537 171 101 107 118 
115 538 169 89 95 105 
115 538 170 93 99 110 
115 538 171 98 104 114 
115 539 170 90 97 107 
115 539 171 95 101 112 
113 536 173 98 104 115 
112 536 174 94 101 112 
112 536 175 91 98 109 
112 537 174 97 104 114 
112 537 175 95 101 112 
113 536 174 96 103 114 
113 537 174 100 106 116 
112 538 175 96 103 114 
112 539 175 97 104 115 
113 538 174 99 105 116 
113 539 174 96 102 113 
113 539 175 97 104 115 
114 536 172 104 111 121 
114 536 173 99 105 116 
114 537 172 105 111 122 
114 537 173 103 109 119 
114 538 172 104 110 121 
114 538 173 103 108 119 
114 539 173 98 104 115 
115 538 172 100 106 116 
115 539 172 97 103 115 
115 539 173 97 104 115 
114 538 174 100 106 117 
114 539 174 96 103 114 
115 540 170 92 99 109 
115 540 171 98 105 115 
113 540 174 94 101 112 
113 540 175 99 106 117 
113 541 175 100 107 119 
113 542 175 99 107 118 
114 540 173 97 103 114 
115 540 172 100 106 117 
115 540 173 100 106 117 
115 541 172 99 105 116 
115 541 173 98 104 115 
114 540 174 96 103 113 
114 541 174 95 101 112 
114 541 175 96 104 115 
115 541 174 97 103 113 
115 542 172 91 97 108 
115 542 173 88 94 105 
115 543 172 84 91 101 
115 543 173 82 88 98 
114 542 174 92 99 110 
114 542 175 96 103 115 
114 543 174 88 94 105 
114 543 175 95 102 113 
115 542 174 87 94 104 
115 543 174 83 90 100 
116 537 168 92 98 109 
116 538 168 91 97 107 
116 538 169 90 96 106 
116 539 168 93 99 108 
116 539 169 91 97 107 
116 539 170 91 97 107 
116 540 168 93 99 109 
116 540 169 95 101 111 
116 541 168 92 98 108 
116 541 169 96 102 113 
117 541 168 92 98 108 
116 540 170 94 101 111 
116 540 171 97 104 115 
116 541 170 98 105 116 
116 541 171 98 105 116 
116 542 168 93 100 110 
116 542 169 97 104 115 
116 543 169 91 98 109 
117 542 168 91 97 107 
117 543 168 90 96 106 
117 543 169 90 96 106 
116 542 170 99 106 117 
116 542 171 96 103 113 
116 543 170 93 100 110 
116 543 171 91 98 108 
116 541 172 98 105 115 
116 542 172 93 100 110 
116 543 172 86 92 103 
112 528 176 38 45 53 
112 528 177 39 45 53 
112 529 176 49 56 65 
112 529 177 44 51 58 
113 528 176 38 45 53 
112 528 178 38 45 52 
112 528 179 37 43 50 
112 529 178 43 49 56 
112 530 176 62 68 77 
112 528 180 37 43 49 
112 528 181 37 43 50 
112 528 182 37 44 51 
112 537 176 94 100 111 
112 538 176 93 100 111 
112 539 176 98 104 115 
112 540 176 107 114 125 
112 541 176 110 117 128 
112 541 177 109 116 127 
113 540 176 106 113 124 
113 541 176 107 114 125 
112 542 177 106 113 125 
112 543 177 101 108 120 
113 542 176 105 112 124 
113 543 176 102 110 121 
113 543 177 102 110 121 
119 544 155 103 109 120 
119 545 155 103 109 120 
119 546 155 106 112 123 
119 547 155 107 114 126 
119 544 156 105 111 121 
119 544 157 102 108 118 
119 545 156 106 112 122 
119 545 157 105 110 120 
119 544 158 101 106 116 
119 544 159 99 106 116 
119 545 158 100 106 116 
119 545 159 99 105 115 
119 546 156 105 112 122 
119 546 157 103 109 119 
119 547 156 104 111 122 
119 547 157 102 109 120 
119 546 158 100 105 115 
119 546 159 99 105 115 
119 547 158 100 105 115 
119 547 159 100 106 116 
119 548 156 107 115 126 
119 548 157 103 109 120 
119 549 156 112 118 130 
119 549 157 105 111 122 
119 548 158 100 105 115 
119 548 159 99 104 114 
119 549 158 99 105 115 
119 549 159 97 102 111 
119 550 156 107 114 125 
119 550 157 104 109 119 
119 551 157 103 108 118 
119 550 158 98 104 114 
119 550 159 96 101 110 
119 551 158 99 104 114 
119 551 159 96 102 111 
119 552 157 104 110 120 
119 552 158 101 107 117 
119 552 159 99 105 115 
119 553 158 106 112 123 
119 553 159 108 114 124 
119 554 158 110 116 128 
119 554 159 115 120 131 
119 555 158 113 119 131 
119 555 159 114 121 132 
119 556 159 110 117 128 
119 557 159 107 114 125 
119 558 159 108 114 126 
123 544 149 96 103 114 
123 545 149 97 104 114 
122 544 150 94 102 113 
122 544 151 94 101 111 
122 545 151 95 101 111 
123 544 150 94 102 113 
123 545 150 96 102 113 
123 545 151 95 101 111 
122 546 151 96 102 112 
122 547 151 96 102 112 
123 546 150 96 103 113 
123 546 151 96 102 112 
123 547 150 97 103 113 
123 547 151 96 102 113 
123 548 150 98 104 115 
123 548 151 98 104 114 
123 549 151 97 104 114 
123 550 151 99 105 115 
123 551 151 100 106 117 
125 544 147 101 109 120 
125 545 147 105 112 124 
125 546 147 106 113 125 
126 544 145 107 115 127 
127 544 144 109 117 129 
127 544 145 109 116 128 
127 545 145 108 116 129 
126 544 146 104 111 123 
126 545 146 107 115 127 
126 545 147 107 114 126 
127 546 145 105 113 126 
127 547 145 101 110 123 
126 546 146 104 113 125 
126 546 147 105 113 125 
126 547 146 102 110 123 
126 547 147 104 111 123 
127 547 146 102 111 123 
124 544 148 100 107 117 
124 544 149 98 105 115 
124 545 148 102 109 120 
124 545 149 100 107 118 
125 544 148 100 107 118 
125 545 148 104 111 122 
124 546 149 100 107 118 
124 547 149 98 105 115 
125 546 148 104 112 123 
125 547 148 102 110 121 
125 547 149 100 106 117 
124 547 150 97 104 114 
127 548 145 101 109 122 
127 549 145 102 110 121 
126 548 146 102 111 123 
126 548 147 104 111 124 
126 549 147 105 112 124 
127 548 146 103 111 123 
127 549 146 104 112 124 
127 549 147 106 113 125 
126 550 147 107 114 125 
126 551 147 108 115 126 
127 550 146 106 113 125 
127 550 147 108 114 126 
127 551 146 109 116 127 
127 551 147 109 116 128 
124 548 149 99 105 116 
124 549 149 100 107 117 
125 548 148 102 109 120 
125 548 149 101 107 118 
125 549 148 102 108 119 
125 549 149 101 107 118 
124 548 150 98 104 115 
124 549 150 98 105 116 
125 550 149 102 108 119 
125 551 148 104 110 121 
125 551 149 102 108 119 
124 550 150 100 107 117 
124 550 151 100 106 117 
124 551 150 101 107 118 
124 551 151 101 107 118 
126 548 148 103 110 121 
126 549 148 104 111 122 
126 550 148 106 112 123 
126 551 148 107 113 124 
120 544 153 98 104 114 
120 545 153 99 105 116 
121 544 152 97 103 112 
121 544 153 98 104 114 
121 545 152 98 104 114 
121 545 153 99 105 116 
120 544 154 100 106 117 
120 544 155 102 108 118 
120 545 154 100 107 117 
120 545 155 102 108 119 
121 546 152 100 107 117 
121 546 153 102 109 120 
121 547 152 103 109 120 
121 547 153 108 115 127 
120 546 154 106 113 124 
120 546 155 107 113 124 
120 547 154 113 120 132 
120 547 155 113 120 131 
121 547 154 113 120 132 
122 544 152 96 102 112 
122 545 152 96 102 112 
122 546 152 98 104 114 
122 547 152 100 106 117 
121 548 153 106 114 126 
121 549 153 107 115 128 
120 548 154 115 122 135 
120 548 155 114 122 134 
120 549 155 115 123 135 
121 548 154 112 120 132 
121 549 154 111 119 132 
121 550 153 105 113 126 
120 550 155 111 118 130 
120 551 155 105 112 124 
121 550 154 109 117 129 
121 550 155 110 118 130 
121 551 154 103 111 123 
121 551 155 104 112 124 
122 548 152 100 107 117 
122 549 152 101 108 119 
122 549 153 104 112 124 
123 549 152 99 105 116 
122 550 152 100 107 119 
122 550 153 103 111 123 
122 551 152 99 106 118 
122 551 153 101 109 120 
123 550 152 98 105 116 
123 551 152 99 105 117 
122 551 154 101 109 121 
120 549 156 114 121 133 
120 550 156 107 113 125 
120 551 156 103 110 121 
127 552 146 111 118 130 
127 552 147 113 120 132 
127 553 147 117 123 136 
127 554 147 109 117 129 
127 555 147 105 112 125 
125 552 149 101 108 119 
125 553 149 100 107 119 
124 552 150 101 107 119 
124 552 151 100 107 119 
124 553 151 105 112 123 
125 552 150 99 106 117 
125 553 150 102 109 120 
124 554 151 110 117 129 
124 555 151 106 113 125 
125 554 150 103 110 122 
125 554 151 109 116 128 
125 555 150 101 108 120 
125 555 151 104 111 123 
126 552 148 107 114 126 
126 552 149 102 109 121 
126 553 148 108 116 128 
126 553 149 102 109 121 
127 552 148 111 118 131 
127 553 148 113 121 133 
126 554 148 102 110 122 
126 554 149 100 107 119 
126 555 149 99 106 118 
127 554 148 108 115 128 
127 555 148 103 110 123 
126 555 150 99 106 118 
125 556 150 102 109 121 
125 556 151 102 109 121 
125 557 151 104 112 124 
125 558 151 107 114 127 
125 559 151 110 118 130 
126 556 149 101 108 119 
126 557 149 105 111 123 
127 556 148 105 112 124 
127 556 149 103 109 121 
127 557 148 105 112 123 
127 557 149 104 111 122 
126 556 150 101 108 119 
126 557 150 104 111 123 
126 558 149 104 111 122 
127 558 148 103 109 121 
127 558 149 102 109 121 
127 559 148 101 107 119 
127 559 149 101 108 120 
126 558 150 105 112 124 
126 558 151 108 116 128 
126 559 150 107 114 126 
126 559 151 111 119 132 
127 559 150 104 111 124 
120 552 155 103 110 121 
121 552 154 101 109 120 
121 552 155 102 109 121 
121 553 154 100 107 118 
121 553 155 101 108 119 
121 554 155 101 108 119 
121 555 155 102 108 119 
122 552 153 100 108 120 
122 553 153 101 109 121 
123 552 152 99 107 118 
123 553 152 104 111 123 
123 553 153 103 110 123 
122 552 154 101 108 120 
122 553 154 100 107 119 
122 554 153 105 112 124 
123 554 152 110 117 129 
123 554 153 107 115 127 
123 555 152 106 113 125 
123 555 153 105 112 124 
122 554 154 100 107 119 
122 555 154 101 108 120 
122 555 155 101 108 119 
120 552 156 103 110 121 
120 552 157 103 110 120 
120 553 156 103 110 121 
120 553 157 104 110 122 
120 554 156 103 110 122 
120 554 157 105 112 123 
120 555 156 104 110 121 
120 555 157 106 112 124 
121 554 156 102 109 120 
121 555 156 103 109 120 
120 554 158 108 115 126 
120 555 158 109 116 127 
121 556 155 104 110 121 
123 556 153 101 109 121 
123 557 153 102 110 122 
122 556 154 102 109 120 
122 556 155 104 110 121 
122 557 154 104 111 122 
122 557 155 105 112 123 
123 556 154 102 109 121 
123 557 154 102 110 121 
123 558 153 103 111 123 
122 558 155 101 108 120 
122 559 155 100 107 119 
123 558 154 101 109 121 
123 559 154 106 113 125 
123 559 155 101 109 121 
120 556 157 106 112 123 
120 557 157 105 112 124 
121 556 156 105 111 122 
121 557 156 107 113 125 
121 557 157 107 114 126 
120 556 158 107 114 126 
120 557 158 103 111 123 
120 557 159 106 113 125 
120 558 157 109 116 128 
121 558 156 107 113 125 
121 558 157 114 121 133 
121 559 156 107 115 126 
121 559 157 118 125 137 
120 558 158 111 118 131 
120 558 159 109 117 129 
120 559 158 120 127 140 
120 559 159 113 121 133 
121 559 158 121 128 141 
122 557 156 106 113 124 
122 558 156 103 110 122 
122 559 156 102 109 121 
122 559 157 106 113 125 
124 553 152 105 112 124 
124 554 152 112 119 131 
124 555 152 106 114 126 
124 556 152 101 109 121 
124 557 152 103 111 123 
124 557 153 103 110 122 
125 557 152 104 112 124 
124 558 152 106 114 126 
124 558 153 105 113 125 
124 559 152 112 120 132 
124 559 153 116 123 135 
125 558 152 105 113 126 
125 559 152 112 120 132 
124 559 154 115 122 133 
127 560 149 102 110 122 
126 560 151 114 121 134 
126 561 151 115 123 136 
127 560 150 107 115 127 
127 561 150 106 114 127 
127 561 151 113 121 134 
127 562 150 101 109 121 
127 562 151 104 112 125 
127 563 151 99 107 118 
127 564 151 97 104 115 
127 565 151 96 103 113 
127 566 151 94 101 112 
123 560 155 103 110 123 
123 561 155 100 107 119 
123 562 155 102 109 121 
121 560 157 111 119 131 
121 561 157 105 112 124 
120 560 158 120 127 140 
120 560 159 113 121 133 
120 561 159 110 118 130 
121 560 158 117 124 137 
121 561 158 110 118 130 
120 562 159 106 113 125 
121 562 158 105 112 123 
121 562 159 104 111 123 
121 563 158 101 107 119 
121 563 159 102 109 120 
122 560 156 101 108 120 
122 560 157 103 111 123 
122 561 156 101 108 119 
122 561 157 101 109 121 
123 560 156 100 107 119 
123 561 156 100 107 119 
122 562 156 101 108 119 
122 562 157 103 109 120 
122 563 157 99 106 117 
123 562 156 101 108 119 
123 563 156 99 105 116 
123 563 157 98 104 115 
122 563 158 100 107 118 
121 564 159 102 109 120 
121 565 159 102 108 119 
122 564 157 98 104 115 
123 564 156 97 104 115 
123 564 157 98 105 116 
123 565 156 102 110 122 
123 565 157 107 114 127 
122 564 158 100 106 117 
122 564 159 100 107 118 
122 565 158 101 108 119 
122 565 159 101 107 118 
123 565 158 106 113 125 
123 566 157 118 126 139 
122 566 159 101 108 120 
123 566 158 111 119 132 
123 566 159 105 113 125 
123 567 158 116 124 136 
123 567 159 111 118 130 
124 560 153 120 127 138 
125 560 152 117 124 137 
125 560 153 121 128 140 
125 561 152 112 120 133 
125 561 153 113 120 132 
124 560 154 114 121 133 
124 561 154 106 114 126 
124 561 155 101 109 121 
125 562 152 107 115 128 
125 562 153 102 110 122 
125 563 153 102 109 121 
124 562 154 100 108 119 
124 562 155 102 108 120 
124 563 155 100 106 117 
125 562 154 99 107 119 
125 563 154 101 108 119 
126 560 152 112 121 134 
126 561 152 112 121 134 
126 562 152 106 114 127 
126 563 152 101 109 121 
126 563 153 102 109 121 
127 563 152 101 108 120 
124 563 156 99 105 116 
125 564 153 101 108 120 
124 564 155 100 107 119 
125 564 154 101 108 120 
125 564 155 102 109 120 
125 565 154 104 111 123 
125 565 155 106 113 125 
125 566 154 105 112 124 
125 566 155 111 118 131 
125 567 155 112 120 133 
126 564 152 99 106 117 
126 564 153 101 108 119 
126 565 152 98 105 116 
126 565 153 101 108 119 
127 564 152 98 105 116 
127 565 152 97 103 114 
126 565 154 103 110 121 
126 566 153 98 105 117 
126 567 153 96 103 115 
127 566 152 94 101 112 
127 567 152 95 101 112 
127 567 153 96 103 114 
126 566 154 102 109 121 
126 567 154 100 108 119 
126 567 155 106 114 126 
124 564 156 99 106 117 
124 565 156 109 117 129 
124 565 157 116 124 137 
125 565 156 114 121 134 
124 566 156 120 129 142 
124 566 157 120 128 142 
124 567 156 120 129 143 
124 567 157 123 132 146 
125 566 156 120 128 141 
125 567 156 119 127 141 
124 567 158 123 131 144 
123 568 159 116 123 135 
127 568 152 96 102 112 
127 568 153 96 103 113 
127 569 152 96 102 112 
127 569 153 97 103 113 
126 568 154 99 106 117 
126 568 155 107 114 127 
126 569 154 98 105 117 
126 569 155 102 109 120 
127 569 154 98 104 114 
127 569 155 99 105 116 
127 570 153 98 103 113 
127 571 153 97 103 112 
126 570 155 98 104 115 
127 570 154 98 104 114 
127 570 155 95 101 112 
127 571 154 96 102 112 
127 571 155 97 103 114 
124 568 157 125 134 147 
125 568 156 120 128 141 
125 568 157 124 132 145 
125 569 156 115 122 135 
125 569 157 111 119 131 
124 568 158 123 131 144 
124 568 159 115 123 135 
124 569 158 116 123 136 
124 569 159 109 116 129 
125 568 158 122 129 142 
125 569 158 111 118 131 
125 570 157 100 107 119 
124 570 159 103 110 122 
124 571 159 103 110 121 
125 570 158 101 109 121 
125 570 159 102 109 122 
125 571 158 98 105 116 
125 571 159 101 107 119 
126 568 156 114 122 134 
126 569 156 106 114 126 
126 570 156 97 104 115 
126 570 157 99 106 117 
126 571 156 97 103 113 
126 571 157 97 103 114 
127 571 156 97 103 113 
126 571 158 97 103 114 
127 572 154 101 106 116 
127 572 155 105 110 120 
127 573 154 108 113 123 
127 573 155 103 108 118 
127 574 155 95 101 110 
127 575 155 96 102 112 
125 572 158 98 104 114 
125 572 159 99 105 115 
125 573 159 98 103 114 
126 572 156 97 103 112 
126 572 157 96 102 112 
126 573 157 95 101 111 
127 572 156 102 107 116 
127 573 156 98 104 114 
127 573 157 93 99 109 
126 572 158 96 102 112 
126 573 158 94 100 110 
126 573 159 95 101 111 
127 574 156 93 99 109 
127 574 157 93 99 109 
127 575 156 95 101 111 
127 575 157 95 101 111 
126 574 158 93 99 109 
126 574 159 95 101 111 
126 575 159 96 102 113 
127 574 158 92 98 108 
127 575 158 96 102 112 
102 544 187 110 116 127 
103 544 186 108 115 126 
103 544 187 112 119 130 
103 545 187 106 114 126 
103 546 187 93 101 113 
101 544 188 92 98 108 
101 544 189 93 99 109 
101 545 189 98 104 115 
102 544 188 101 107 118 
102 545 188 103 110 122 
102 545 189 99 106 117 
103 545 188 100 108 120 
102 546 188 91 99 111 
102 546 189 91 98 110 
102 547 189 88 96 107 
103 546 188 90 98 110 
103 547 188 92 99 109 
102 548 189 97 103 114 
102 549 189 103 109 119 
103 548 188 97 103 112 
103 548 189 100 106 116 
