ply
format ascii 1.0
comment Created by CloudCompare v2.10.1 (Zephyrus)
comment Created 1/31/20 11:07 AM
obj_info Generated by CloudCompare!
element vertex 1948
property float x
property float y
property float z
property uchar red
property uchar green
property uchar blue
end_header
156 739 157 92 98 109 
157 738 157 93 99 110 
157 739 157 93 99 109 
156 739 158 92 99 110 
158 736 156 90 97 108 
158 737 156 92 99 109 
159 736 156 89 96 107 
159 737 156 92 99 110 
158 738 156 93 100 111 
158 739 157 92 99 109 
159 738 156 96 103 114 
159 739 156 95 103 114 
159 739 157 92 99 110 
157 740 157 92 99 109 
156 740 158 91 98 108 
156 741 158 90 96 107 
157 740 158 92 98 108 
157 741 158 92 98 108 
156 742 158 92 98 108 
156 743 158 92 98 108 
156 743 159 92 98 108 
157 742 158 93 99 109 
157 743 158 94 100 110 
158 740 157 91 98 108 
158 741 157 92 98 108 
159 740 156 94 101 112 
159 740 157 92 99 110 
159 741 157 93 99 109 
158 742 157 91 97 108 
159 742 157 92 99 109 
159 743 157 92 98 109 
158 742 158 92 98 108 
158 743 158 92 99 109 
154 744 159 93 99 109 
155 744 159 94 100 110 
155 745 159 97 103 113 
155 746 159 98 105 116 
156 744 158 92 98 108 
156 744 159 93 100 110 
156 745 159 96 103 114 
157 744 158 97 103 114 
157 744 159 97 103 114 
157 745 158 99 107 118 
157 745 159 98 105 117 
156 746 159 97 105 116 
156 747 159 99 107 119 
157 746 158 99 107 119 
157 746 159 99 107 119 
157 747 159 105 113 126 
159 744 157 93 100 111 
158 744 158 97 104 115 
158 745 158 100 107 119 
159 744 158 96 103 113 
159 745 158 97 104 115 
158 746 158 100 108 120 
158 747 158 104 112 124 
158 747 159 109 117 129 
159 746 158 97 105 116 
159 747 158 102 110 122 
157 748 159 104 113 125 
157 749 159 104 112 125 
157 750 159 103 111 124 
158 748 159 108 116 129 
158 749 159 103 111 124 
159 748 158 102 110 122 
159 748 159 105 113 125 
159 749 159 103 111 123 
158 750 159 101 109 121 
158 751 159 101 108 120 
159 750 159 102 109 121 
159 751 159 102 109 121 
159 752 159 101 108 119 
143 736 167 97 104 114 
143 737 167 100 107 118 
143 738 167 103 109 120 
137 736 174 101 107 118 
137 736 175 103 109 119 
137 737 175 105 111 121 
137 738 175 102 108 119 
137 739 175 98 104 115 
138 736 173 101 108 119 
138 737 173 103 110 121 
139 736 172 100 107 119 
139 736 173 101 108 119 
139 737 172 102 109 121 
139 737 173 103 110 121 
138 736 174 102 108 119 
138 737 174 104 110 121 
138 737 175 105 111 121 
139 738 173 104 110 121 
139 739 173 98 105 116 
138 738 174 104 110 121 
138 738 175 104 110 120 
138 739 174 100 106 117 
138 739 175 98 105 115 
139 738 174 104 110 121 
139 739 174 98 105 116 
139 740 173 97 103 114 
139 741 173 97 104 114 
138 740 174 98 104 115 
138 740 175 98 104 114 
138 741 174 98 104 115 
138 741 175 99 105 116 
139 740 174 97 104 114 
139 741 174 99 105 115 
138 742 175 101 107 118 
138 743 175 101 107 118 
139 742 174 100 106 117 
139 743 174 100 106 117 
139 743 175 100 107 118 
140 736 171 99 105 116 
140 737 171 99 106 117 
141 736 170 96 103 113 
141 737 170 98 105 116 
141 737 171 98 105 116 
140 738 171 98 105 116 
141 738 170 101 107 118 
141 738 171 98 105 115 
141 739 170 100 106 117 
141 739 171 98 104 115 
142 736 168 97 103 114 
142 736 169 97 103 114 
142 737 168 99 105 116 
142 737 169 100 107 118 
143 736 168 98 104 114 
143 737 168 101 107 118 
142 737 170 101 107 118 
142 738 169 103 109 121 
142 739 169 103 110 121 
143 738 168 104 110 121 
143 739 168 102 109 120 
143 739 169 103 109 120 
142 738 170 102 109 120 
142 739 170 102 108 119 
140 736 172 101 107 118 
140 737 172 102 109 120 
140 738 172 101 107 118 
140 739 172 97 104 115 
140 739 173 97 104 115 
141 740 170 99 106 117 
141 740 171 97 104 115 
141 741 171 99 105 116 
141 742 171 99 105 116 
141 743 171 98 105 116 
142 740 169 101 108 119 
143 740 168 102 109 120 
143 740 169 101 107 118 
143 741 168 101 108 119 
143 741 169 100 107 118 
142 740 170 100 107 118 
142 741 170 99 106 117 
143 742 169 98 105 116 
143 743 169 100 107 118 
142 742 170 97 104 116 
142 742 171 98 105 116 
142 743 170 98 105 116 
142 743 171 99 106 117 
143 742 170 97 104 115 
143 743 170 99 105 117 
140 740 172 97 104 114 
140 740 173 97 103 114 
140 741 172 98 105 115 
140 741 173 98 104 114 
141 741 172 99 105 116 
140 742 172 99 106 116 
140 742 173 99 106 117 
140 743 173 100 106 117 
141 742 172 99 106 116 
141 743 172 100 106 117 
140 742 174 100 106 117 
140 743 174 99 106 117 
138 744 175 99 106 117 
139 744 174 101 107 119 
139 744 175 101 107 118 
139 745 175 103 110 122 
139 746 175 105 112 124 
139 747 175 106 114 126 
143 744 169 103 110 121 
143 745 169 102 109 120 
142 744 170 100 107 118 
142 744 171 100 107 119 
142 745 171 101 109 120 
143 744 170 101 108 119 
143 745 170 101 108 119 
143 746 169 100 107 118 
142 746 171 102 110 122 
142 747 171 104 112 124 
143 746 170 100 107 118 
143 746 171 102 109 121 
143 747 170 99 106 118 
143 747 171 102 110 122 
140 744 173 103 110 121 
140 745 173 106 113 124 
141 744 172 102 109 120 
141 744 173 103 110 121 
141 745 172 104 111 123 
141 745 173 105 112 123 
140 744 174 102 109 120 
140 745 174 105 112 123 
140 746 173 107 115 126 
141 746 172 105 113 125 
141 746 173 107 115 127 
141 747 173 111 118 131 
140 746 174 108 116 127 
140 746 175 106 114 126 
140 747 174 110 118 131 
140 747 175 108 116 129 
141 747 174 111 119 132 
142 745 172 103 110 122 
142 746 172 105 113 126 
142 747 172 108 115 128 
142 747 173 109 117 130 
143 748 170 100 107 119 
143 748 171 102 110 122 
143 749 171 103 110 121 
143 750 171 101 108 119 
143 751 171 99 106 117 
141 748 173 111 118 131 
141 749 173 111 118 131 
140 748 174 111 119 132 
140 748 175 110 118 131 
140 749 175 109 117 130 
141 748 174 110 118 131 
141 749 174 111 119 131 
140 750 175 106 114 127 
140 751 175 105 113 126 
141 750 174 107 115 128 
141 750 175 107 115 128 
141 751 174 105 113 125 
141 751 175 105 113 126 
142 748 172 107 115 127 
142 748 173 109 117 130 
142 749 172 107 114 126 
142 749 173 109 116 128 
143 748 172 106 113 125 
143 749 172 105 112 124 
142 750 173 106 113 125 
142 751 173 103 110 122 
143 750 172 103 110 121 
143 751 172 101 108 119 
143 751 173 101 108 119 
142 751 174 104 111 123 
131 736 182 99 105 116 
131 736 183 99 105 116 
131 737 183 103 109 119 
131 738 183 99 106 116 
131 739 183 96 103 114 
135 736 177 102 109 120 
135 737 177 105 111 122 
134 736 178 105 111 123 
134 736 179 105 111 122 
134 737 179 105 111 123 
135 736 178 104 111 122 
135 737 178 106 112 123 
134 738 179 106 112 122 
134 739 179 103 109 120 
135 738 178 104 111 122 
135 738 179 106 112 123 
135 739 178 101 107 119 
135 739 179 103 110 121 
132 736 181 100 107 118 
132 737 181 104 110 121 
133 736 180 103 109 120 
133 736 181 103 110 120 
133 737 180 105 111 122 
133 737 181 105 111 122 
132 736 182 100 107 118 
132 737 182 103 109 120 
132 738 181 103 110 121 
133 738 180 103 110 121 
133 738 181 103 109 120 
133 739 181 100 107 118 
132 738 182 102 108 119 
132 738 183 98 105 116 
132 739 182 100 106 117 
132 739 183 97 104 115 
134 737 180 105 111 122 
134 738 180 104 111 122 
134 739 180 101 108 119 
134 740 179 101 108 119 
135 740 178 100 107 118 
135 740 179 101 108 119 
135 741 178 103 110 121 
135 741 179 106 113 124 
135 742 179 111 118 129 
135 743 179 116 122 133 
133 740 181 100 107 118 
133 741 181 104 111 122 
132 740 182 99 106 117 
132 740 183 99 106 117 
132 741 182 102 109 120 
132 741 183 103 110 122 
133 740 182 101 107 119 
133 741 182 104 111 122 
133 742 181 109 115 127 
132 742 183 105 112 123 
132 743 183 103 109 121 
133 742 182 107 113 124 
133 743 182 107 114 125 
133 743 183 103 110 121 
134 740 180 99 107 118 
134 740 181 100 107 118 
134 741 180 105 112 124 
134 741 181 105 112 123 
135 741 180 108 115 126 
134 742 180 113 119 131 
134 742 181 110 117 129 
134 743 181 113 120 131 
135 742 180 114 120 132 
135 743 180 117 124 135 
129 736 186 96 103 113 
129 736 187 94 100 111 
129 737 186 103 110 121 
129 737 187 100 107 118 
129 738 187 105 112 124 
129 739 187 102 109 120 
130 736 184 101 107 117 
130 736 185 100 107 117 
130 737 184 104 110 120 
130 737 185 107 113 123 
131 736 184 99 105 116 
131 737 184 103 109 119 
130 736 186 98 104 115 
130 737 186 107 113 124 
130 738 184 103 109 120 
130 738 185 107 113 124 
130 739 184 98 105 116 
130 739 185 101 108 120 
131 738 184 100 107 118 
131 739 184 97 103 114 
130 738 186 108 115 126 
130 739 186 103 110 121 
129 736 188 91 97 107 
129 736 189 90 96 105 
129 737 188 94 100 110 
129 737 189 92 98 108 
128 736 190 88 94 103 
128 736 191 89 95 105 
128 737 190 94 99 108 
128 737 191 93 99 108 
129 736 190 89 95 104 
129 737 190 93 99 108 
129 738 188 93 100 110 
129 738 189 91 97 106 
129 739 188 90 97 108 
129 739 189 87 93 103 
128 738 190 91 97 106 
128 738 191 89 95 104 
128 739 190 89 95 104 
128 739 191 87 92 102 
129 738 190 92 97 107 
129 739 190 88 94 103 
129 740 187 96 104 115 
129 741 187 98 105 116 
130 740 185 98 106 118 
130 741 185 103 111 123 
131 740 184 98 106 117 
131 741 184 105 112 124 
131 741 185 104 112 124 
130 740 186 101 108 119 
130 740 187 97 104 116 
130 741 186 103 110 122 
130 741 187 101 108 119 
131 742 184 111 118 130 
131 742 185 114 121 132 
131 743 184 112 119 131 
131 743 185 115 122 133 
130 742 186 110 117 129 
130 742 187 105 112 123 
130 743 186 112 118 130 
130 743 187 107 113 125 
131 743 186 113 119 131 
129 740 188 89 97 108 
129 740 189 89 95 105 
129 741 188 95 101 113 
129 741 189 94 100 111 
128 740 191 88 94 103 
128 741 191 92 98 108 
129 740 190 91 97 106 
129 741 190 95 101 111 
129 742 188 101 108 119 
129 742 189 101 107 118 
129 743 188 104 110 121 
129 743 189 103 109 120 
128 742 191 99 105 115 
128 743 191 101 107 118 
129 742 190 102 108 119 
129 743 190 104 110 121 
129 743 191 104 110 120 
132 741 184 106 113 125 
132 742 184 107 114 126 
132 743 184 105 112 124 
135 744 179 115 121 133 
133 744 182 106 112 123 
133 744 183 102 109 120 
133 745 183 101 107 118 
133 746 183 101 107 118 
133 747 183 103 109 120 
134 744 181 111 117 129 
134 745 181 103 110 121 
135 744 180 114 120 131 
135 744 181 113 119 131 
135 745 180 106 113 124 
135 745 181 105 112 124 
134 744 182 105 112 123 
134 745 182 101 107 118 
134 746 181 101 107 119 
135 746 180 101 108 120 
135 746 181 100 107 118 
135 747 181 101 107 118 
134 746 182 100 107 118 
134 746 183 101 108 119 
134 747 182 101 108 119 
134 747 183 103 110 121 
135 747 182 102 108 119 
135 748 181 103 110 120 
135 749 181 105 111 122 
134 748 182 105 111 122 
134 748 183 106 112 123 
134 749 182 107 113 124 
134 749 183 109 116 127 
135 748 182 104 111 122 
135 749 182 107 113 124 
135 750 181 105 111 122 
134 750 183 111 118 129 
134 751 183 110 117 129 
135 750 182 107 113 124 
135 750 183 109 116 127 
135 751 182 104 110 121 
135 751 183 107 113 125 
131 744 185 105 113 124 
131 745 185 100 107 118 
130 744 186 108 115 126 
130 744 187 103 110 121 
130 745 187 99 106 118 
131 744 186 107 114 126 
131 745 186 100 108 119 
131 746 185 102 108 119 
130 746 187 99 106 117 
130 747 187 101 108 119 
131 746 186 100 107 118 
131 746 187 99 106 117 
131 747 186 102 108 119 
131 747 187 102 109 120 
129 744 188 101 107 118 
129 744 189 102 108 118 
129 745 188 100 106 116 
129 745 189 102 108 119 
128 744 191 100 106 116 
129 744 190 103 109 119 
129 744 191 102 108 119 
129 745 190 106 112 122 
129 745 191 112 118 128 
129 746 189 101 107 118 
129 747 189 101 108 119 
129 746 190 107 113 124 
129 746 191 113 119 130 
129 747 190 107 113 125 
129 747 191 108 115 127 
130 744 188 102 108 119 
130 745 188 98 105 115 
130 746 188 99 106 116 
130 747 188 102 109 119 
130 747 189 102 109 121 
131 748 186 105 111 122 
131 748 187 104 111 122 
131 749 187 104 111 122 
131 750 187 104 110 121 
131 751 187 103 109 120 
129 748 190 108 115 126 
129 748 191 108 114 126 
129 749 190 106 113 124 
129 749 191 105 112 123 
129 750 191 102 109 120 
129 751 191 97 103 114 
130 748 188 103 110 121 
130 748 189 104 111 122 
130 749 188 103 109 120 
130 749 189 103 110 121 
131 748 188 104 111 122 
131 749 188 103 109 120 
130 748 190 108 115 126 
130 749 190 105 112 123 
130 750 188 101 108 118 
130 750 189 101 107 118 
130 751 189 98 104 115 
131 750 188 102 108 118 
131 751 188 100 106 117 
130 750 190 103 109 120 
130 751 190 98 105 116 
130 751 191 96 103 113 
132 744 184 101 108 120 
132 745 184 99 107 118 
132 745 185 100 107 118 
133 745 184 101 108 119 
132 746 184 102 108 119 
132 746 185 102 108 119 
132 747 185 103 109 121 
133 746 184 102 108 119 
133 747 184 104 111 121 
133 747 185 105 111 123 
132 747 186 103 109 120 
132 748 185 105 112 123 
132 749 185 110 117 129 
133 748 184 108 114 126 
133 748 185 108 114 126 
133 749 184 113 120 132 
133 749 185 112 119 131 
132 748 186 105 112 123 
132 749 186 106 113 125 
133 750 185 115 122 134 
133 751 185 114 121 134 
132 750 186 108 115 127 
132 750 187 105 111 123 
132 751 186 108 115 126 
132 751 187 104 110 122 
133 751 186 112 119 131 
134 749 184 112 118 130 
134 750 184 114 121 133 
134 751 184 110 118 130 
134 751 185 112 120 132 
136 736 176 102 109 119 
136 736 177 102 109 120 
136 737 176 104 110 121 
136 737 177 104 110 121 
137 736 176 104 110 121 
137 737 176 104 110 121 
136 738 177 101 108 119 
136 739 177 98 105 116 
137 738 176 101 107 118 
137 739 176 98 104 114 
136 740 177 99 106 116 
136 741 177 102 109 119 
137 740 176 98 104 115 
137 740 177 99 105 116 
137 741 176 101 108 118 
137 741 177 102 108 119 
136 740 178 99 105 116 
136 741 178 104 110 121 
136 742 177 106 112 123 
137 742 176 103 110 121 
137 742 177 104 111 122 
137 743 177 106 112 123 
136 742 178 108 114 125 
136 743 178 109 115 126 
136 743 179 115 121 132 
138 741 176 100 106 117 
138 742 176 102 109 120 
138 743 176 102 109 120 
137 744 177 104 111 122 
137 745 177 103 110 121 
136 744 178 109 115 126 
136 744 179 112 118 129 
136 745 179 106 113 124 
137 744 178 108 114 125 
137 745 178 105 111 122 
137 746 177 103 110 121 
136 746 179 102 109 121 
136 747 179 101 108 119 
137 746 178 103 110 121 
137 746 179 102 109 120 
137 747 178 105 111 122 
137 747 179 102 109 120 
138 744 176 100 107 119 
138 744 177 101 108 119 
138 745 176 102 109 120 
138 745 177 102 109 120 
139 745 176 102 109 121 
138 746 176 103 110 122 
138 746 177 104 111 122 
138 747 177 106 113 124 
139 746 176 104 111 123 
139 747 176 106 114 126 
139 747 177 107 114 126 
138 747 178 106 112 123 
136 745 180 106 113 125 
136 746 180 101 108 119 
136 747 180 101 108 119 
136 747 181 102 108 119 
137 748 178 106 112 124 
137 748 179 104 111 122 
137 749 179 105 111 122 
137 750 179 104 110 121 
137 751 179 101 108 118 
138 748 177 107 114 126 
138 749 177 109 116 127 
139 748 176 109 117 130 
139 748 177 108 116 128 
139 749 176 110 118 130 
139 749 177 108 116 128 
138 748 178 107 114 125 
138 749 178 108 114 126 
139 750 177 106 114 126 
139 751 177 104 111 123 
138 750 178 105 112 124 
138 751 178 103 110 121 
138 751 179 101 107 119 
139 750 178 105 112 124 
139 751 178 104 111 123 
136 748 180 102 109 120 
136 748 181 103 109 120 
136 749 180 103 110 121 
136 749 181 104 110 121 
137 749 180 104 110 121 
136 750 180 104 110 120 
136 750 181 104 110 121 
136 751 181 102 108 119 
137 750 180 103 109 120 
137 751 180 101 107 117 
137 751 181 101 107 117 
136 751 182 102 108 119 
140 748 176 110 118 131 
140 749 176 109 117 129 
140 750 176 105 113 125 
140 751 176 104 112 124 
140 751 177 102 110 122 
141 752 174 101 109 121 
141 752 175 103 110 122 
141 753 175 101 108 120 
141 754 175 102 108 119 
142 752 173 100 106 117 
142 753 173 98 104 115 
143 752 172 98 104 115 
143 752 173 98 104 115 
143 753 172 97 103 114 
143 753 173 97 104 115 
142 752 174 100 107 118 
142 753 174 98 104 115 
143 754 173 98 105 116 
143 755 173 100 107 118 
142 754 174 99 105 116 
142 754 175 100 107 118 
142 755 174 101 107 118 
142 755 175 102 108 119 
143 755 174 100 107 118 
143 756 173 104 111 122 
142 756 175 104 110 121 
142 757 175 102 109 120 
143 756 174 103 110 121 
143 757 174 103 110 121 
143 757 175 101 108 119 
142 758 175 100 106 117 
143 758 174 103 110 121 
143 758 175 100 107 118 
143 759 174 102 108 119 
143 759 175 99 106 117 
143 760 175 100 107 118 
143 761 175 103 110 121 
135 752 182 103 109 120 
135 752 183 104 111 123 
135 753 183 104 111 122 
135 754 183 104 111 122 
129 752 191 94 100 111 
129 753 191 98 104 114 
129 754 191 102 107 117 
130 752 189 99 105 116 
131 752 188 100 106 117 
131 752 189 100 106 116 
131 753 188 102 109 120 
131 753 189 103 110 120 
130 752 190 97 104 114 
130 752 191 96 102 112 
130 753 190 103 109 119 
130 753 191 101 106 116 
131 754 188 106 112 123 
131 754 189 109 115 125 
131 755 189 110 116 127 
130 754 190 108 113 124 
130 754 191 106 111 121 
130 755 190 109 114 125 
130 755 191 102 108 118 
131 754 190 110 115 126 
131 755 190 109 115 126 
131 756 189 108 114 125 
130 756 191 96 102 112 
130 757 191 95 100 109 
131 756 190 108 114 124 
131 757 190 106 112 122 
131 757 191 103 108 118 
130 758 191 92 97 106 
130 759 191 83 89 98 
131 758 190 102 107 117 
131 758 191 101 106 116 
131 759 190 94 99 108 
131 759 191 87 93 102 
133 752 185 108 116 129 
133 753 185 105 112 124 
132 752 187 102 109 120 
132 753 187 102 109 120 
133 752 186 106 113 125 
133 753 186 103 110 122 
133 753 187 103 110 121 
132 754 187 104 110 122 
133 754 186 104 111 122 
133 754 187 104 111 122 
133 755 186 107 113 124 
133 755 187 107 113 124 
134 752 184 107 115 127 
134 752 185 109 117 129 
134 753 184 104 112 124 
134 753 185 105 112 124 
135 752 184 105 112 124 
135 753 184 103 111 122 
134 754 184 104 111 122 
134 754 185 105 111 123 
134 755 185 108 114 125 
135 754 184 104 111 122 
135 755 184 108 115 126 
135 755 185 109 115 126 
134 755 186 107 113 124 
132 752 188 99 106 117 
132 753 188 102 108 119 
132 754 188 106 112 123 
132 755 188 108 114 125 
132 755 189 109 116 127 
133 755 188 106 113 124 
133 756 187 105 111 122 
133 757 187 103 109 120 
133 758 187 100 106 117 
133 759 187 99 105 115 
134 756 185 108 114 125 
135 756 184 108 115 126 
135 756 185 109 115 126 
135 757 184 106 112 123 
135 757 185 105 111 122 
134 756 186 106 112 123 
134 757 186 104 110 120 
134 757 187 103 109 120 
135 758 184 102 109 120 
135 758 185 99 106 117 
135 759 185 99 105 116 
134 758 186 100 107 118 
134 758 187 100 106 117 
134 759 186 98 105 117 
134 759 187 99 105 116 
135 758 186 99 106 117 
135 759 186 98 105 117 
132 756 188 105 112 123 
132 756 189 107 113 124 
132 757 188 103 109 120 
132 757 189 105 111 122 
133 757 188 102 108 119 
132 758 188 102 107 118 
132 758 189 102 107 117 
132 759 189 97 103 112 
133 758 188 101 107 118 
133 759 188 98 104 114 
132 759 190 95 100 109 
130 760 191 82 88 98 
131 760 190 88 94 103 
131 760 191 85 90 99 
131 761 190 87 93 103 
131 761 191 85 92 101 
131 762 190 91 98 108 
131 762 191 92 99 109 
131 763 190 93 100 111 
131 763 191 96 103 113 
131 764 191 97 103 114 
131 765 191 95 101 112 
131 766 191 92 98 108 
131 767 191 91 97 107 
133 760 187 99 105 115 
135 760 185 102 109 120 
135 761 185 104 110 121 
134 760 187 99 106 116 
134 761 187 97 104 114 
135 760 186 100 107 118 
135 761 186 103 109 120 
134 762 187 90 97 107 
134 763 187 86 93 103 
135 762 186 100 106 117 
135 762 187 94 101 111 
135 763 186 90 97 107 
135 763 187 89 96 106 
132 760 189 95 100 109 
132 761 189 94 100 110 
133 760 188 98 104 114 
133 760 189 96 102 111 
133 761 188 97 102 112 
133 761 189 96 102 111 
132 760 190 92 97 107 
132 761 190 90 96 106 
132 762 189 92 99 109 
133 762 188 90 97 107 
133 762 189 90 97 108 
133 763 188 86 93 104 
133 763 189 89 96 107 
132 762 190 91 98 108 
132 763 190 92 100 110 
134 762 188 87 94 104 
134 763 188 86 92 103 
134 764 187 88 94 105 
134 765 187 91 97 108 
135 764 186 88 95 105 
135 764 187 87 94 104 
135 765 186 89 96 106 
135 765 187 89 96 107 
134 766 187 93 100 111 
134 767 187 97 105 116 
135 766 186 92 99 110 
135 766 187 92 99 111 
135 767 186 96 104 115 
135 767 187 99 107 118 
133 764 188 89 96 106 
133 764 189 92 98 108 
133 765 188 92 98 108 
133 765 189 95 101 111 
132 764 190 95 102 112 
132 765 190 97 103 113 
133 766 189 96 102 113 
133 767 189 97 104 115 
132 766 190 95 100 110 
132 766 191 93 99 109 
132 767 190 93 99 109 
132 767 191 92 97 107 
133 766 190 95 101 111 
133 767 190 95 101 112 
134 764 188 88 95 105 
134 765 188 92 99 109 
134 766 188 95 101 112 
134 767 188 99 106 118 
139 752 177 101 109 120 
138 752 178 102 109 120 
138 752 179 101 107 118 
138 753 179 101 108 119 
139 752 178 102 109 121 
139 753 178 102 109 121 
139 753 179 102 109 120 
138 754 179 104 110 121 
139 754 178 104 110 122 
139 754 179 105 112 123 
139 755 178 106 112 123 
139 755 179 107 113 124 
136 752 181 100 106 117 
136 753 181 100 107 118 
137 752 180 100 107 117 
137 752 181 100 106 117 
137 753 180 100 107 118 
137 753 181 100 106 118 
136 752 182 102 108 119 
136 753 182 102 109 120 
137 754 181 101 108 119 
137 755 181 105 112 123 
136 754 182 102 109 120 
136 754 183 103 110 121 
136 755 182 105 112 124 
136 755 183 107 113 125 
137 755 182 105 111 123 
138 752 180 100 107 118 
138 753 180 101 107 118 
138 754 180 103 109 120 
138 755 180 107 113 124 
138 755 181 104 111 122 
139 756 179 106 113 124 
139 757 179 104 110 121 
139 758 179 102 108 118 
137 756 181 107 114 125 
137 757 181 105 112 123 
136 756 183 108 114 126 
136 757 183 107 113 124 
137 756 182 108 114 126 
137 757 182 106 112 124 
137 757 183 107 114 125 
136 758 183 102 109 120 
136 759 183 98 105 116 
137 758 182 100 107 118 
137 758 183 99 106 118 
137 759 182 97 104 115 
137 759 183 99 106 117 
138 756 180 107 113 124 
138 756 181 107 113 125 
138 757 180 105 111 122 
138 757 181 104 111 122 
139 756 180 106 113 124 
139 757 180 103 110 121 
138 758 180 99 106 117 
138 758 181 98 105 116 
138 759 181 97 104 115 
139 758 180 98 105 116 
139 759 180 98 104 116 
139 759 181 98 105 117 
138 758 182 98 105 116 
138 759 182 98 105 116 
140 752 176 103 111 122 
140 752 177 102 109 121 
140 753 176 103 110 121 
140 753 177 103 110 121 
141 752 176 102 110 121 
141 753 176 102 109 120 
140 754 177 103 110 122 
140 755 177 106 112 124 
141 754 176 102 109 121 
141 755 176 104 111 122 
141 755 177 106 112 124 
140 755 178 105 112 123 
140 756 177 109 116 127 
141 756 176 107 114 125 
141 756 177 109 115 127 
141 757 177 105 112 123 
140 756 178 107 114 125 
140 757 178 105 112 123 
140 757 179 105 111 122 
141 758 177 100 107 118 
141 759 177 99 106 117 
140 758 178 100 106 117 
140 758 179 100 106 117 
140 759 178 98 105 116 
140 759 179 98 105 116 
141 758 178 99 106 117 
141 759 178 99 106 117 
142 756 176 106 112 123 
142 757 176 104 110 121 
142 758 176 100 107 118 
142 758 177 100 107 118 
142 759 176 99 105 116 
142 759 177 99 106 117 
143 759 176 99 105 116 
140 759 180 98 105 116 
136 756 184 109 116 127 
136 757 184 106 113 124 
136 758 184 100 107 118 
136 759 184 99 106 117 
136 759 185 100 106 117 
137 760 183 103 110 121 
137 761 183 108 115 127 
137 762 183 109 116 128 
137 763 183 102 109 120 
138 760 181 101 108 120 
139 760 180 101 108 119 
139 760 181 101 108 120 
139 761 180 104 111 122 
139 761 181 104 111 123 
138 760 182 102 109 120 
138 761 182 105 113 124 
138 761 183 107 114 126 
139 762 180 104 111 122 
139 762 181 105 111 123 
139 763 181 101 107 118 
138 762 182 106 113 124 
138 762 183 108 115 126 
138 763 182 102 108 119 
138 763 183 102 109 120 
139 762 182 105 112 123 
139 763 182 102 108 119 
137 764 183 96 103 114 
139 764 181 99 105 116 
139 765 181 97 103 114 
138 764 182 98 104 115 
138 764 183 95 102 113 
138 765 182 94 101 112 
138 765 183 92 99 109 
139 764 182 99 105 115 
139 765 182 95 101 112 
139 766 181 96 102 113 
139 767 181 96 102 112 
138 766 182 93 99 109 
138 766 183 91 97 107 
138 767 183 89 95 105 
139 766 182 93 100 110 
139 767 182 93 99 109 
141 760 177 100 106 117 
140 760 179 100 107 118 
140 761 179 103 109 120 
141 760 178 100 107 118 
141 761 178 104 110 121 
141 761 179 103 109 120 
140 762 179 103 109 120 
140 763 179 101 108 119 
141 762 178 104 111 122 
141 762 179 103 110 121 
141 763 178 103 110 121 
141 763 179 101 108 119 
142 760 176 100 107 118 
142 760 177 101 107 118 
142 761 176 103 110 121 
142 761 177 103 110 121 
143 760 176 100 107 118 
143 761 176 103 109 121 
142 762 177 104 110 122 
142 763 177 103 110 121 
143 762 176 104 111 122 
143 763 176 104 111 123 
143 763 177 103 111 122 
142 762 178 104 110 121 
142 763 178 103 110 122 
140 760 180 100 107 118 
140 761 180 103 110 121 
140 762 180 102 109 120 
140 763 180 100 106 117 
141 764 179 101 109 120 
141 765 179 104 111 123 
141 766 179 107 114 126 
141 767 179 107 115 127 
142 764 177 106 114 126 
142 765 177 110 118 130 
143 764 176 105 113 125 
143 764 177 106 114 126 
143 765 176 110 118 130 
143 765 177 111 119 131 
142 764 178 105 112 124 
142 765 178 109 117 129 
142 765 179 107 114 126 
143 766 176 110 118 131 
143 766 177 111 119 132 
143 767 177 107 116 129 
142 766 178 111 118 131 
142 766 179 109 117 129 
142 767 178 107 116 128 
142 767 179 107 115 127 
143 767 178 107 115 128 
140 764 180 99 105 116 
140 764 181 98 104 115 
140 765 180 99 106 117 
140 765 181 98 104 115 
141 765 180 101 108 119 
140 766 180 102 109 120 
140 766 181 99 106 116 
140 767 180 103 110 121 
140 767 181 100 106 117 
141 766 180 104 111 122 
141 767 180 105 112 124 
136 760 184 104 110 122 
136 760 185 104 110 122 
136 761 184 108 114 126 
136 761 185 106 112 123 
137 761 184 109 116 127 
136 762 184 112 118 129 
136 762 185 107 113 124 
136 763 185 99 105 116 
137 762 184 110 116 127 
137 763 184 102 108 119 
136 763 186 95 102 112 
136 764 185 92 99 108 
136 765 185 89 95 105 
137 764 184 94 101 111 
137 765 184 90 97 107 
137 765 185 89 95 105 
136 764 186 90 96 106 
136 765 186 89 95 105 
136 766 185 90 97 107 
136 767 185 92 99 109 
137 766 184 90 96 106 
137 766 185 90 96 106 
137 767 184 89 95 105 
137 767 185 91 98 108 
136 766 186 91 98 108 
136 767 186 93 100 111 
138 767 184 89 95 104 
146 736 163 101 109 121 
146 737 163 99 106 117 
147 736 162 100 107 119 
147 736 163 102 109 121 
147 737 162 97 104 115 
147 737 163 98 105 116 
147 738 162 96 102 113 
147 738 163 97 103 114 
147 739 163 95 101 112 
145 736 164 98 106 117 
145 736 165 98 105 116 
145 737 165 97 103 114 
144 736 166 96 103 114 
144 737 166 97 104 115 
144 737 167 100 106 118 
145 737 166 97 103 114 
145 738 165 96 102 113 
145 739 165 95 101 112 
144 738 166 99 105 116 
144 738 167 102 109 120 
144 739 166 98 105 116 
144 739 167 101 107 118 
145 738 166 97 103 114 
145 739 166 96 102 113 
146 736 164 98 106 118 
146 737 164 97 104 115 
146 738 164 97 103 114 
146 738 165 96 102 113 
146 739 164 96 102 112 
146 739 165 95 101 112 
147 739 164 95 101 111 
147 740 163 95 101 111 
147 741 163 94 100 111 
144 740 167 99 106 117 
144 741 167 101 108 119 
145 740 166 96 103 114 
145 741 166 98 105 116 
145 741 167 100 107 118 
144 742 167 101 108 119 
145 742 166 99 106 117 
145 742 167 100 107 118 
145 743 166 98 105 116 
145 743 167 100 107 118 
146 740 164 96 102 112 
146 740 165 96 102 113 
146 741 165 97 103 114 
147 740 164 95 101 112 
147 741 164 96 103 113 
146 741 166 97 104 114 
146 742 165 97 103 114 
146 743 165 95 102 113 
147 742 164 96 103 113 
147 742 165 96 102 113 
147 743 164 95 102 113 
147 743 165 95 102 113 
146 742 166 97 104 115 
146 743 166 96 103 114 
148 736 161 95 102 112 
148 737 161 99 105 116 
149 736 160 96 102 112 
149 736 161 96 103 113 
149 737 161 100 106 117 
148 736 162 95 102 113 
148 737 162 98 104 115 
149 738 161 101 107 118 
149 739 161 100 106 117 
148 738 162 97 104 114 
148 739 162 98 104 114 
149 739 162 104 110 121 
150 736 160 93 100 110 
150 737 160 96 102 112 
151 737 160 91 97 107 
150 738 160 96 102 113 
150 738 161 99 105 115 
150 739 160 93 99 110 
150 739 161 97 103 114 
151 738 160 91 98 108 
151 739 160 92 98 109 
149 740 161 103 109 120 
148 740 162 101 107 118 
148 740 163 96 102 112 
148 741 163 95 102 113 
149 740 162 104 110 121 
149 741 162 99 106 117 
148 742 163 96 103 114 
148 743 163 96 103 115 
149 742 162 99 106 118 
149 743 162 99 106 118 
149 743 163 99 106 117 
150 740 160 92 100 111 
150 740 161 96 103 114 
150 741 161 97 104 116 
151 740 160 93 99 110 
151 741 160 95 102 113 
150 742 161 97 105 116 
150 743 161 100 107 118 
151 742 160 97 103 114 
151 742 161 98 105 116 
151 743 160 99 105 115 
151 743 161 99 106 116 
150 742 162 99 106 118 
150 743 162 100 107 118 
144 740 168 102 108 119 
144 741 168 100 107 118 
144 742 168 100 107 118 
144 743 168 101 108 120 
144 743 169 101 108 119 
145 744 166 98 105 116 
145 744 167 102 109 121 
145 745 167 99 106 118 
145 746 167 96 103 114 
145 747 167 95 102 113 
146 744 165 95 102 113 
147 744 164 96 104 115 
147 744 165 96 103 114 
147 745 165 98 105 117 
146 744 166 97 103 114 
146 745 166 96 103 114 
147 745 166 95 102 113 
147 746 165 99 106 117 
147 747 165 99 106 117 
146 746 166 95 102 113 
146 746 167 95 102 113 
146 747 166 97 104 115 
146 747 167 95 102 113 
147 746 166 97 104 115 
147 747 166 99 106 117 
146 748 166 99 106 117 
146 748 167 98 105 116 
146 749 167 102 108 120 
147 748 166 102 109 120 
147 749 166 106 113 124 
147 749 167 105 112 123 
146 750 167 107 114 125 
147 750 166 109 116 128 
147 750 167 109 116 128 
147 751 166 114 122 134 
147 751 167 114 122 134 
148 744 163 100 108 119 
148 745 163 107 115 127 
149 744 162 102 110 122 
149 744 163 104 111 123 
149 745 163 109 117 129 
149 746 163 107 114 127 
149 747 163 100 108 120 
150 744 161 100 107 118 
151 744 161 101 107 118 
151 745 161 101 108 120 
150 744 162 99 107 119 
150 745 162 104 112 125 
151 745 162 104 111 123 
151 746 161 103 110 121 
150 746 162 105 113 125 
150 746 163 105 114 126 
150 747 162 103 111 122 
150 747 163 101 108 120 
151 746 162 106 113 124 
151 747 162 101 108 119 
148 744 164 98 106 117 
148 745 164 105 113 124 
148 746 164 104 112 123 
148 747 164 98 105 117 
148 747 165 99 106 118 
149 747 164 98 105 117 
150 748 163 97 104 116 
150 749 163 98 105 115 
151 748 162 96 103 114 
151 748 163 97 103 114 
151 749 162 97 103 114 
151 749 163 97 103 114 
150 750 163 98 105 116 
150 751 163 98 105 115 
151 750 163 97 104 114 
151 751 163 99 105 116 
148 748 164 100 108 119 
148 748 165 103 110 121 
148 749 165 106 113 125 
149 748 164 100 107 118 
149 749 164 103 110 121 
148 750 165 108 115 127 
148 751 165 108 116 128 
149 750 164 104 111 122 
149 750 165 107 114 126 
149 751 165 105 112 124 
148 750 166 108 116 128 
148 751 166 111 118 131 
150 749 164 99 106 117 
150 750 164 100 106 118 
150 751 164 99 106 117 
144 744 168 105 112 123 
144 744 169 104 111 122 
144 745 168 103 110 121 
144 745 169 103 110 121 
145 744 168 105 112 124 
145 745 168 102 109 121 
144 746 169 99 106 118 
144 747 169 97 105 116 
145 746 168 97 105 116 
145 747 168 95 103 114 
145 747 169 97 104 115 
144 747 170 97 104 116 
144 748 169 98 104 116 
144 749 169 99 105 116 
145 748 168 95 102 113 
145 748 169 96 103 114 
145 749 168 98 105 116 
145 749 169 97 104 115 
144 748 170 100 107 118 
144 749 170 100 107 118 
145 750 169 98 105 116 
145 751 169 99 106 118 
144 750 170 98 105 116 
144 750 171 100 107 118 
144 751 170 96 104 115 
144 751 171 98 105 116 
145 751 170 97 104 116 
146 748 168 97 104 115 
146 749 168 99 106 117 
146 750 168 103 110 121 
146 751 168 109 116 128 
146 751 169 104 111 123 
152 739 160 93 99 110 
152 740 160 92 99 110 
152 741 160 94 101 111 
153 741 160 94 100 111 
152 742 160 95 102 112 
152 743 160 97 103 114 
153 742 160 94 100 111 
153 743 160 95 101 112 
154 743 160 92 99 109 
152 744 160 98 105 115 
152 744 161 99 105 116 
152 745 161 97 104 115 
153 744 160 96 103 113 
153 745 160 93 100 111 
153 745 161 95 102 113 
152 746 161 99 105 116 
152 747 161 97 104 115 
153 746 161 95 102 113 
153 747 161 95 102 113 
152 747 162 97 105 116 
154 744 160 93 100 110 
154 745 160 92 98 109 
155 745 160 95 102 112 
154 746 160 93 100 111 
154 747 160 98 105 116 
154 747 161 96 103 115 
155 746 160 98 104 115 
155 747 160 101 108 119 
153 748 161 94 101 112 
153 749 161 97 104 115 
152 748 162 95 102 113 
152 749 162 96 103 114 
153 749 162 96 103 113 
153 750 161 102 109 120 
152 750 162 98 104 115 
152 751 162 98 104 115 
152 751 163 99 105 116 
153 750 162 99 106 117 
153 751 162 98 105 116 
154 748 160 100 107 118 
154 748 161 96 103 115 
154 749 161 98 106 117 
155 748 160 101 108 120 
155 749 160 106 113 125 
155 749 161 106 114 125 
154 750 161 105 112 124 
154 751 161 102 109 121 
155 750 160 106 114 126 
155 750 161 105 112 124 
155 751 161 104 112 124 
154 751 162 97 104 116 
156 747 160 100 108 120 
156 748 160 101 109 121 
156 749 160 104 112 124 
157 748 160 103 112 124 
157 749 160 106 114 126 
156 750 160 106 113 125 
156 751 160 100 109 121 
156 751 161 101 109 121 
157 750 160 106 114 126 
157 751 160 99 108 120 
158 751 160 96 104 116 
147 752 167 113 121 134 
147 753 167 113 120 132 
147 754 167 110 117 129 
151 752 163 98 105 115 
151 753 163 98 105 115 
149 752 165 101 109 121 
149 753 165 100 108 120 
148 752 166 112 120 133 
148 753 166 111 119 131 
148 753 167 113 121 133 
149 752 166 107 115 127 
149 753 166 106 114 126 
148 754 166 109 116 128 
148 754 167 108 115 127 
148 755 167 98 105 117 
149 754 166 104 111 122 
149 755 166 96 103 114 
149 755 167 95 103 114 
150 752 164 97 103 115 
150 753 164 96 103 114 
150 753 165 97 105 116 
151 753 164 98 104 115 
150 754 164 96 103 114 
150 754 165 97 104 115 
150 755 165 96 103 114 
151 754 164 98 105 115 
151 754 165 97 104 114 
151 755 164 100 107 117 
151 755 165 99 105 116 
150 755 166 96 103 114 
148 756 167 99 105 116 
148 757 167 100 106 117 
149 756 166 95 102 113 
149 756 167 97 104 114 
149 757 167 98 105 116 
149 758 167 99 106 116 
149 759 167 99 105 116 
151 756 164 101 107 118 
151 756 165 100 106 117 
151 757 165 103 109 121 
150 756 166 97 103 115 
150 757 166 101 108 119 
150 757 167 102 109 120 
151 757 166 106 112 124 
151 758 165 106 113 125 
151 759 165 101 109 121 
150 758 166 107 114 125 
150 758 167 101 108 119 
150 759 166 101 108 120 
150 759 167 101 108 119 
151 758 166 110 116 128 
151 759 166 104 112 124 
145 752 169 101 108 120 
145 753 169 103 110 122 
144 752 170 97 105 116 
144 752 171 97 104 115 
144 753 171 98 105 116 
145 752 170 98 106 118 
145 753 170 100 107 118 
144 754 171 99 106 117 
144 755 171 100 107 118 
145 754 170 99 106 118 
145 754 171 99 106 117 
145 755 170 99 107 118 
145 755 171 101 109 120 
146 752 168 109 117 129 
146 752 169 105 113 125 
146 753 168 112 120 131 
146 753 169 107 115 126 
147 752 168 112 119 132 
147 753 168 113 120 132 
146 754 169 103 110 122 
146 755 169 97 105 116 
147 754 168 107 114 126 
147 755 168 99 106 117 
147 755 169 98 105 116 
146 754 170 100 108 119 
146 755 170 98 105 117 
144 752 172 97 104 115 
144 753 172 97 104 115 
144 754 172 98 105 116 
144 755 172 102 109 120 
144 755 173 101 108 119 
145 756 171 106 113 124 
145 757 171 107 114 125 
145 758 171 104 112 123 
147 756 168 100 106 117 
147 756 169 99 106 117 
147 757 169 100 106 117 
146 756 170 102 109 121 
146 757 170 103 110 121 
146 757 171 106 113 124 
147 757 170 101 107 119 
147 758 169 99 106 117 
147 759 169 99 106 118 
146 758 170 101 107 119 
146 758 171 102 109 121 
146 759 170 100 107 119 
146 759 171 104 111 123 
147 758 170 100 107 118 
147 759 170 101 108 120 
144 756 172 107 114 126 
144 756 173 105 112 124 
144 757 173 105 112 124 
145 756 172 107 114 125 
145 757 172 106 114 126 
144 758 173 106 113 124 
144 759 173 105 112 123 
145 758 172 107 114 126 
145 758 173 107 114 126 
145 759 172 106 113 125 
145 759 173 105 112 124 
144 758 174 105 111 123 
144 759 174 102 109 120 
146 759 172 106 113 125 
148 755 168 97 104 115 
148 756 168 100 106 117 
148 757 168 100 106 117 
148 758 168 97 104 114 
148 758 169 97 104 115 
148 759 168 97 104 115 
148 759 169 98 105 117 
149 758 168 98 104 114 
149 759 168 98 104 116 
150 760 167 99 106 118 
150 761 167 102 108 120 
151 760 166 101 109 121 
151 760 167 101 108 120 
151 761 166 107 115 126 
151 761 167 105 112 123 
150 762 167 106 113 124 
151 762 166 110 117 129 
151 762 167 111 119 130 
151 763 167 116 123 135 
151 764 167 113 120 132 
151 765 167 107 114 126 
146 760 171 105 112 124 
146 761 171 107 114 126 
147 760 170 104 111 123 
147 760 171 105 112 124 
147 761 170 106 113 125 
147 761 171 108 115 127 
147 762 170 108 115 127 
147 762 171 114 121 133 
147 763 171 111 118 129 
144 760 173 103 110 121 
145 760 172 103 110 122 
145 760 173 102 109 121 
145 761 172 103 111 123 
145 761 173 104 111 123 
144 760 174 101 108 120 
144 760 175 101 108 119 
144 761 174 102 109 120 
144 761 175 103 109 121 
145 761 174 103 110 122 
145 762 173 105 113 124 
145 763 173 105 112 124 
144 762 174 103 110 121 
144 762 175 103 110 122 
144 763 175 103 111 123 
145 762 174 103 110 122 
145 763 174 103 110 122 
146 760 172 104 112 124 
146 761 172 107 114 126 
146 762 172 111 117 129 
146 762 173 107 114 126 
146 763 172 110 117 128 
146 763 173 107 114 126 
147 762 172 115 121 133 
147 763 172 111 118 129 
147 764 171 102 110 122 
147 765 171 99 106 117 
147 766 171 99 105 117 
144 764 175 104 111 123 
144 765 175 105 113 125 
145 764 174 102 109 121 
145 764 175 103 111 123 
145 765 174 100 107 119 
145 765 175 102 110 122 
144 766 175 104 113 125 
144 767 175 104 112 124 
145 766 174 99 106 118 
145 766 175 102 110 122 
145 767 174 98 106 118 
145 767 175 102 110 122 
146 764 172 104 111 123 
146 764 173 103 110 122 
146 765 172 99 106 118 
146 765 173 99 106 117 
147 764 172 104 111 123 
147 765 172 99 106 117 
146 766 173 97 104 115 
146 767 173 97 104 115 
147 766 172 98 104 115 
147 767 172 98 105 115 
147 767 173 97 104 114 
146 766 174 97 105 116 
146 767 174 97 105 116 
148 760 169 100 107 119 
148 761 169 102 109 121 
149 760 168 99 105 117 
149 761 168 99 106 117 
149 761 169 99 107 118 
148 761 170 104 112 123 
148 762 169 101 109 121 
149 762 168 102 109 120 
149 762 169 101 108 119 
149 763 169 100 108 119 
148 762 170 105 113 124 
148 763 170 102 109 122 
148 763 171 105 112 124 
150 761 168 101 107 119 
150 762 168 104 111 123 
150 763 168 109 116 128 
149 764 169 97 105 116 
149 765 169 96 103 114 
148 764 170 98 106 118 
148 764 171 100 108 120 
148 765 170 97 104 115 
148 765 171 98 105 116 
149 764 170 97 104 116 
149 765 170 97 103 115 
149 766 169 97 104 116 
148 766 170 97 103 115 
148 766 171 98 104 115 
148 767 171 99 105 116 
149 766 170 97 104 115 
149 767 170 99 106 118 
149 767 171 99 106 117 
150 764 168 108 115 127 
150 764 169 101 109 121 
150 765 168 102 109 121 
150 765 169 98 105 117 
151 764 168 110 117 129 
151 765 168 103 110 122 
150 766 168 98 105 117 
150 766 169 97 105 116 
150 767 169 100 107 119 
151 766 168 98 106 118 
151 767 168 100 107 119 
151 767 169 101 108 120 
150 767 170 100 107 119 
148 767 172 98 104 115 
152 752 162 98 105 116 
152 752 163 98 105 116 
152 753 163 97 104 115 
153 752 162 98 105 116 
153 753 162 96 103 114 
153 753 163 96 102 113 
152 754 163 97 103 114 
152 755 163 100 106 116 
153 754 162 94 101 112 
153 754 163 96 103 113 
153 755 163 96 102 113 
154 752 161 99 106 118 
155 752 161 102 110 122 
155 753 161 101 108 120 
154 752 162 97 105 116 
154 753 162 96 103 114 
155 754 161 100 107 118 
154 754 162 93 100 111 
154 755 162 93 100 110 
154 755 163 94 100 111 
155 754 162 95 102 114 
155 755 162 96 103 114 
152 754 164 99 105 116 
152 755 164 101 107 118 
153 756 163 95 102 114 
153 757 163 96 103 114 
154 756 162 95 102 113 
154 756 163 94 101 112 
154 757 163 95 102 113 
155 756 162 97 104 116 
155 757 162 101 108 119 
154 758 163 95 102 114 
154 759 163 95 102 113 
155 758 162 105 112 123 
155 758 163 100 107 118 
155 759 163 96 103 114 
152 756 164 99 105 116 
152 757 164 97 104 115 
152 757 165 99 106 118 
153 757 164 96 103 114 
152 758 164 97 104 116 
152 758 165 99 107 119 
152 759 165 97 105 117 
153 758 164 96 103 114 
153 759 164 97 105 116 
154 759 164 96 103 114 
156 752 161 103 111 123 
156 753 161 108 115 126 
157 752 160 96 105 117 
157 752 161 101 109 121 
157 753 160 94 102 114 
157 753 161 99 107 119 
156 754 161 104 111 122 
156 755 161 100 107 118 
157 754 161 98 106 117 
157 755 161 98 106 117 
156 755 162 99 106 117 
158 752 160 95 103 115 
158 753 160 94 101 113 
159 752 160 97 104 115 
159 753 160 94 101 112 
158 754 160 95 102 114 
158 754 161 96 103 114 
158 755 161 98 104 115 
159 754 160 95 102 113 
159 755 160 96 103 114 
159 755 161 97 104 115 
157 756 161 98 105 117 
157 757 161 101 108 120 
156 756 162 100 107 119 
156 757 162 105 112 123 
157 756 162 100 108 119 
157 757 162 104 111 123 
157 758 161 100 107 118 
156 758 162 103 110 121 
156 759 162 96 103 114 
156 759 163 97 104 115 
157 758 162 100 107 117 
157 759 162 96 103 114 
158 756 161 98 105 116 
158 757 161 99 106 117 
159 756 160 97 103 114 
159 756 161 98 104 115 
159 757 161 97 104 115 
158 758 161 99 106 117 
158 759 161 97 104 115 
159 758 161 97 104 114 
159 759 161 97 104 114 
158 759 162 96 103 114 
154 760 163 96 103 114 
155 760 163 96 102 113 
155 761 163 96 103 114 
152 760 165 99 106 119 
152 761 165 102 109 121 
153 760 164 98 105 116 
153 760 165 98 105 117 
153 761 165 99 107 118 
152 761 166 105 112 124 
153 762 165 102 109 120 
153 763 165 106 113 124 
152 762 166 107 114 126 
152 763 166 110 118 130 
152 763 167 114 122 135 
153 762 166 103 110 122 
153 763 166 109 117 128 
154 760 164 96 103 114 
154 761 164 99 106 117 
154 761 165 102 109 120 
155 761 164 99 105 116 
154 762 164 103 109 120 
154 762 165 103 109 121 
154 763 164 100 107 118 
154 763 165 103 110 121 
155 762 164 99 105 117 
155 763 164 98 105 116 
152 764 166 110 118 131 
152 764 167 113 120 133 
152 765 167 106 114 126 
153 764 166 111 118 131 
153 765 166 108 115 127 
153 765 167 107 114 127 
152 766 167 100 108 120 
152 767 167 102 109 120 
153 766 166 101 109 120 
153 766 167 101 109 120 
153 767 167 100 107 118 
154 764 165 102 109 121 
154 765 165 101 109 121 
155 764 164 98 105 117 
155 764 165 97 105 117 
155 765 165 99 107 118 
154 764 166 108 116 128 
154 765 166 106 113 125 
155 766 165 99 107 119 
155 767 165 99 107 118 
154 766 166 99 106 118 
154 767 166 99 106 118 
155 766 166 98 106 118 
155 767 166 99 106 118 
156 760 163 96 103 114 
156 761 163 97 103 114 
157 760 162 97 104 114 
157 760 163 97 104 115 
157 761 162 99 105 116 
157 761 163 98 105 115 
156 762 163 96 103 114 
156 763 163 97 103 115 
157 762 162 99 105 116 
157 762 163 97 104 115 
157 763 163 97 104 115 
159 760 161 97 104 114 
159 761 161 98 105 115 
158 760 162 98 104 115 
158 761 162 98 105 116 
159 760 162 97 104 115 
159 761 162 99 105 116 
158 762 162 96 103 114 
158 763 162 96 103 115 
158 763 163 96 103 114 
159 762 162 98 104 115 
159 763 162 97 104 116 
156 762 164 96 103 114 
156 763 164 98 105 116 
157 764 163 100 107 118 
157 765 163 102 110 122 
158 764 163 97 105 117 
158 765 163 101 109 122 
159 764 162 99 107 119 
159 764 163 98 106 118 
159 765 162 103 111 123 
159 765 163 106 114 126 
158 766 163 106 115 128 
159 766 163 111 119 132 
159 767 163 109 118 131 
156 764 164 100 107 118 
156 765 164 101 108 119 
156 765 165 100 107 119 
157 764 164 101 108 119 
157 765 164 103 110 121 
156 766 165 102 109 120 
156 767 165 102 110 122 
157 766 164 104 112 124 
157 767 164 109 117 129 
157 767 165 107 114 126 
158 766 164 104 113 126 
158 767 164 107 116 129 
159 767 164 110 118 132 
152 766 168 100 108 120 
152 767 168 102 109 120 
144 763 176 105 112 124 
144 764 176 104 112 124 
144 765 176 108 116 129 
144 766 176 108 116 129 
144 767 176 107 115 128 
170 706 143 94 101 112 
170 707 143 94 101 111 
171 706 143 94 101 112 
171 707 143 94 101 111 
171 708 143 94 101 112 
173 705 142 93 100 111 
172 706 142 92 100 111 
172 706 143 93 100 112 
172 707 143 94 101 112 
173 706 142 94 101 113 
173 707 142 97 104 116 
173 707 143 95 103 114 
174 705 141 100 107 119 
175 705 141 100 107 119 
174 705 142 99 106 117 
174 706 141 98 106 117 
175 706 141 101 108 120 
174 706 142 100 107 118 
174 707 142 100 107 119 
175 706 142 102 109 121 
175 707 142 102 109 121 
172 708 143 95 103 114 
172 709 143 97 105 117 
173 708 143 97 104 116 
173 709 143 98 106 118 
172 710 143 103 111 123 
173 710 143 103 111 124 
174 708 142 101 108 120 
174 708 143 103 111 123 
174 709 143 104 112 125 
175 708 142 107 115 127 
175 709 143 111 119 131 
174 710 143 105 113 126 
174 711 143 106 115 128 
175 710 143 105 114 127 
175 711 143 106 114 127 
174 712 143 104 113 126 
175 712 143 100 109 122 
162 707 147 92 99 110 
163 707 146 92 99 110 
163 707 147 92 99 110 
161 708 147 92 99 110 
162 708 147 93 99 110 
162 709 147 93 100 110 
163 708 147 93 100 110 
163 709 147 94 100 111 
163 710 147 93 100 110 
163 711 147 95 102 112 
160 708 148 99 106 116 
160 708 149 98 105 116 
160 709 149 94 101 112 
161 708 148 93 100 111 
161 709 148 91 98 109 
160 710 149 93 100 111 
160 711 149 92 99 109 
161 710 148 92 99 109 
161 710 149 94 100 111 
161 711 148 94 101 111 
161 711 149 94 101 111 
162 709 148 92 99 109 
162 710 148 92 99 109 
162 711 148 95 102 112 
163 710 148 95 101 111 
163 711 148 97 103 114 
165 707 145 107 114 126 
164 707 146 99 107 118 
165 707 146 106 113 125 
166 707 145 108 115 127 
167 706 145 99 107 119 
167 707 145 103 110 122 
164 708 146 97 104 116 
164 709 146 94 101 112 
164 709 147 93 100 110 
165 708 146 102 110 122 
165 709 146 94 101 113 
164 710 147 92 99 110 
164 711 147 95 102 113 
165 710 146 92 99 110 
165 710 147 92 99 110 
165 711 146 92 99 110 
165 711 147 93 100 111 
166 708 145 104 111 123 
167 708 145 101 109 120 
167 709 145 97 104 115 
166 708 146 103 110 122 
166 709 146 93 101 112 
167 709 146 94 101 113 
166 710 146 93 100 111 
166 711 146 93 100 111 
167 710 146 93 100 111 
167 711 146 94 101 112 
160 712 149 91 98 108 
160 713 149 90 97 108 
161 712 149 93 100 111 
161 713 149 95 102 113 
160 712 150 91 98 108 
160 713 150 91 98 109 
161 714 149 98 106 117 
161 715 149 103 110 121 
160 714 150 93 99 110 
160 715 150 93 100 111 
161 714 150 95 102 113 
161 715 150 96 103 114 
162 712 148 99 106 117 
162 713 148 105 112 123 
162 713 149 104 111 122 
163 712 148 100 107 119 
163 713 148 105 112 124 
162 714 149 108 116 127 
162 715 149 112 119 131 
163 714 148 108 116 129 
163 714 149 110 118 130 
163 715 148 109 117 130 
163 715 149 110 118 131 
161 716 149 102 109 121 
160 716 150 92 98 109 
160 717 150 90 97 108 
160 717 151 90 97 108 
161 716 150 96 103 114 
161 717 150 92 100 111 
160 718 150 91 98 109 
160 718 151 92 99 109 
160 719 151 96 103 115 
161 718 150 93 100 110 
161 719 150 94 100 111 
161 719 151 94 101 112 
162 716 149 104 111 123 
162 717 149 97 105 116 
163 716 149 106 114 126 
163 717 149 100 107 119 
162 717 150 93 101 112 
163 718 149 95 102 114 
163 719 149 95 102 112 
162 718 150 94 101 112 
162 719 150 93 99 110 
163 719 150 94 100 111 
164 712 147 96 103 115 
164 713 147 101 109 120 
165 712 147 95 102 113 
165 713 147 99 107 118 
165 714 147 98 106 118 
165 715 147 97 105 117 
166 712 146 95 102 113 
166 712 147 95 102 113 
166 713 147 96 103 114 
167 712 146 96 103 114 
167 713 146 95 102 113 
167 713 147 95 102 113 
166 714 147 94 101 113 
166 715 147 95 102 113 
167 714 146 93 100 112 
167 714 147 94 101 112 
167 715 147 94 101 112 
164 712 148 98 105 117 
164 713 148 104 111 123 
164 714 148 106 114 127 
164 715 148 105 113 125 
165 714 148 100 108 120 
165 715 148 100 108 120 
166 716 147 97 104 115 
167 716 147 96 102 113 
167 717 147 96 103 114 
167 718 147 97 104 115 
164 716 148 103 111 124 
164 716 149 103 111 124 
164 717 149 98 106 118 
165 716 148 101 109 121 
165 717 148 97 105 116 
164 718 149 96 103 114 
164 719 149 96 102 112 
165 718 148 94 101 113 
165 718 149 94 102 113 
165 719 148 93 100 111 
165 719 149 94 101 112 
166 716 148 98 106 117 
166 717 148 96 103 115 
166 718 148 96 103 114 
166 719 148 96 104 115 
166 719 149 95 102 114 
167 718 148 98 105 116 
