ply
format ascii 1.0
comment Created by CloudCompare v2.10.1 (Zephyrus)
comment Created 1/30/20 12:04 PM
obj_info Generated by CloudCompare!
element vertex 2168
property float x
property float y
property float z
property uchar red
property uchar green
property uchar blue
end_header
240 443 137 43 51 58 
241 443 137 45 52 59 
240 442 138 45 52 59 
240 442 139 45 52 60 
240 443 138 45 52 59 
241 442 138 45 52 59 
243 441 137 47 53 60 
242 440 139 46 52 59 
242 441 138 47 53 60 
242 441 139 46 52 59 
243 440 138 46 52 59 
243 440 139 46 52 59 
243 441 138 46 53 60 
242 442 137 46 53 60 
242 443 137 46 52 59 
243 442 137 47 53 61 
243 443 136 46 53 60 
243 443 137 45 52 59 
242 442 138 47 53 60 
240 440 141 45 51 58 
240 441 140 46 52 59 
240 441 141 45 52 59 
241 440 140 46 52 59 
241 440 141 45 51 58 
241 441 140 46 52 59 
240 440 142 44 51 58 
242 440 140 45 51 58 
242 440 141 44 51 58 
243 440 140 46 52 59 
240 444 136 44 51 59 
240 444 137 43 50 58 
240 445 136 45 51 59 
241 444 136 45 52 59 
241 444 137 44 51 58 
241 445 136 45 52 59 
242 444 136 45 52 59 
242 444 137 45 52 59 
242 445 136 45 51 58 
243 444 136 45 52 59 
243 445 136 45 52 59 
244 440 137 44 51 58 
244 441 137 45 52 59 
245 440 137 44 51 58 
245 441 136 46 53 60 
245 441 137 44 51 58 
244 440 138 45 51 58 
244 440 139 45 51 59 
245 440 138 44 51 58 
244 442 136 47 53 60 
244 442 137 46 53 60 
244 443 136 46 53 60 
245 442 136 47 53 60 
245 443 136 47 53 61 
246 440 136 44 51 58 
246 440 137 44 50 57 
246 441 136 45 52 59 
246 441 137 44 51 58 
247 440 136 44 51 58 
247 440 137 44 51 58 
247 441 136 44 51 58 
244 444 136 46 52 59 
250 439 135 43 50 57 
251 439 135 42 49 56 
252 439 135 43 49 57 
253 438 135 44 50 57 
253 439 134 44 50 56 
253 439 135 43 49 56 
254 439 133 45 51 58 
255 439 133 47 53 59 
254 438 134 45 51 58 
254 438 135 45 51 58 
254 439 134 45 51 58 
255 438 134 46 52 59 
255 438 135 45 51 58 
255 439 134 46 52 59 
248 432 142 41 48 54 
248 433 142 42 48 55 
249 432 142 41 47 54 
249 433 142 42 48 55 
248 435 141 44 50 57 
249 435 141 44 50 57 
248 434 142 44 50 56 
248 435 142 45 50 57 
249 434 142 43 49 56 
249 435 142 45 51 57 
250 432 141 40 47 54 
250 433 141 41 47 54 
251 432 141 41 47 54 
251 433 141 41 48 55 
250 433 142 41 47 55 
250 434 141 42 48 55 
250 435 140 44 50 57 
250 435 141 43 50 56 
251 434 141 42 48 55 
251 435 140 43 49 56 
251 435 141 43 49 56 
250 434 142 41 48 55 
248 437 139 45 50 57 
249 437 139 44 50 57 
248 439 136 45 51 57 
248 439 137 45 51 57 
249 438 137 43 49 57 
249 439 136 43 50 57 
249 439 137 44 50 57 
248 438 138 45 51 57 
248 438 139 45 51 57 
249 438 138 44 50 57 
249 438 139 44 50 57 
250 437 138 43 50 57 
250 437 139 44 50 57 
251 436 139 43 50 57 
251 437 138 43 49 57 
251 437 139 43 50 57 
250 438 137 43 50 57 
250 439 136 42 49 57 
251 438 136 42 49 56 
251 438 137 42 49 57 
251 439 136 42 49 57 
250 438 138 43 50 57 
248 436 141 45 50 57 
248 437 140 45 50 57 
248 437 141 45 50 56 
249 436 140 44 50 56 
249 436 141 44 50 57 
249 437 140 45 50 57 
248 436 142 45 50 57 
250 436 140 44 50 57 
250 436 141 44 50 56 
250 437 140 43 49 56 
251 436 140 44 50 57 
253 435 139 43 50 57 
254 435 139 42 49 57 
255 434 139 42 48 56 
255 435 138 43 50 57 
255 435 139 42 49 56 
252 432 141 41 47 54 
252 433 141 41 48 55 
253 432 141 40 47 54 
253 433 140 40 47 55 
253 433 141 41 47 54 
252 434 140 43 49 56 
252 434 141 42 49 56 
252 435 140 43 49 56 
253 434 140 42 49 56 
253 435 140 42 49 57 
254 432 140 39 46 53 
254 433 140 40 47 54 
254 433 141 39 46 53 
255 432 140 40 47 55 
255 433 140 41 48 55 
254 434 140 40 47 55 
254 435 140 41 48 56 
255 434 140 40 47 55 
255 435 140 40 48 55 
252 437 137 42 49 57 
253 437 136 43 50 57 
253 437 137 43 50 57 
252 436 139 43 50 57 
252 437 138 42 49 57 
252 437 139 42 49 56 
253 436 138 42 49 56 
253 436 139 42 49 57 
253 437 138 42 49 57 
252 438 136 42 49 57 
252 438 137 42 49 56 
252 439 136 42 49 57 
253 438 136 43 50 57 
254 436 137 43 50 57 
254 437 136 43 50 58 
254 437 137 43 50 57 
255 436 137 43 50 58 
255 437 136 44 51 58 
255 437 137 44 50 58 
254 436 138 42 49 57 
254 436 139 41 49 56 
254 437 138 42 49 57 
255 436 138 43 50 57 
254 438 136 44 51 58 
252 436 140 43 49 57 
249 443 131 45 52 59 
250 443 131 45 51 59 
251 443 131 44 51 58 
249 441 133 45 51 58 
248 440 135 44 50 57 
248 441 134 44 51 58 
248 441 135 44 51 58 
249 440 135 43 50 57 
249 441 134 44 50 57 
248 442 133 44 51 58 
248 443 132 45 51 59 
248 443 133 44 51 58 
249 442 133 44 51 58 
249 443 132 45 51 58 
248 442 134 45 51 59 
250 441 133 44 50 58 
251 441 133 43 49 56 
250 440 134 44 51 58 
250 440 135 44 50 57 
250 441 134 44 50 57 
251 440 134 44 50 57 
251 440 135 44 50 57 
251 441 134 44 50 57 
250 442 132 45 51 59 
250 442 133 45 51 58 
250 443 132 45 52 59 
251 442 132 43 50 57 
251 442 133 43 49 56 
251 443 132 44 51 58 
249 445 129 43 50 57 
248 444 131 44 50 58 
248 445 130 42 49 56 
248 445 131 43 50 57 
249 444 130 44 51 58 
249 444 131 44 51 58 
249 445 130 43 50 57 
248 446 129 42 49 57 
248 447 129 42 49 56 
249 446 129 43 50 57 
249 447 128 43 50 57 
249 447 129 43 49 57 
248 446 130 42 49 56 
250 445 129 44 51 58 
251 445 129 46 52 59 
250 444 130 44 51 58 
250 444 131 44 51 59 
251 444 130 46 52 59 
250 446 129 43 50 57 
250 447 128 43 50 57 
251 446 129 45 51 59 
251 447 128 43 50 57 
251 447 129 44 51 58 
248 444 132 45 51 59 
252 443 131 44 51 57 
253 443 131 45 51 58 
254 443 131 43 49 56 
255 442 131 45 51 58 
255 443 131 44 50 57 
252 441 133 44 50 56 
253 441 133 44 50 56 
252 440 134 44 50 56 
252 440 135 43 49 56 
252 441 134 44 49 56 
253 440 134 44 49 56 
252 442 132 44 50 56 
252 442 133 43 49 56 
252 443 132 43 49 56 
253 442 132 44 50 57 
253 443 132 45 51 57 
254 440 133 44 50 57 
254 441 132 44 50 57 
254 441 133 43 49 56 
255 440 133 45 52 59 
255 441 132 44 50 57 
254 440 134 44 50 56 
254 442 132 43 49 56 
255 442 132 44 50 57 
252 445 129 46 53 59 
253 445 129 48 53 60 
252 444 130 46 52 59 
252 444 131 45 51 58 
252 445 130 47 53 60 
253 444 130 46 52 59 
253 444 131 45 51 58 
253 445 130 47 53 60 
252 446 129 46 52 59 
252 447 128 45 51 58 
252 447 129 45 51 58 
253 446 129 47 53 60 
253 447 129 47 52 59 
254 445 129 45 52 58 
254 444 130 44 50 57 
254 444 131 44 50 57 
254 445 130 45 51 58 
255 444 131 44 50 57 
255 445 130 45 51 58 
255 445 131 44 50 57 
254 446 129 46 52 59 
254 447 129 47 53 60 
255 446 129 46 53 60 
255 447 129 46 53 60 
254 446 130 45 52 59 
254 447 130 47 53 60 
255 446 130 45 51 59 
248 440 136 44 50 57 
243 435 147 41 48 54 
240 432 151 39 46 53 
240 433 151 39 46 53 
241 432 150 40 46 53 
241 432 151 40 46 54 
241 433 150 39 46 54 
241 433 151 40 46 53 
240 435 149 41 48 55 
241 435 149 42 48 54 
240 434 150 40 47 54 
240 434 151 40 47 54 
240 435 150 41 47 54 
241 434 150 40 47 54 
243 432 148 41 47 54 
243 432 149 41 47 54 
243 433 148 41 48 55 
243 433 149 40 47 54 
242 432 150 40 46 53 
242 433 150 40 46 54 
242 434 149 41 47 54 
242 435 148 41 47 54 
242 435 149 40 47 54 
243 434 148 41 47 54 
243 434 149 40 47 54 
243 435 148 41 47 54 
242 434 150 39 46 54 
240 437 145 43 49 55 
241 437 145 43 49 55 
240 437 146 43 48 55 
240 437 147 41 47 54 
241 436 147 42 48 54 
241 437 146 42 48 55 
241 437 147 42 48 55 
240 438 144 43 49 56 
240 438 145 42 48 55 
240 439 144 45 51 57 
241 438 144 43 49 56 
241 438 145 42 48 55 
242 437 145 42 49 56 
243 436 145 42 48 55 
243 437 144 43 49 56 
243 437 145 43 49 56 
242 436 147 41 47 54 
242 437 146 42 48 55 
243 436 146 42 48 55 
243 436 147 42 48 55 
243 437 146 42 48 55 
242 438 144 42 49 55 
243 438 144 43 49 56 
240 436 148 41 47 54 
240 436 149 41 48 55 
241 436 148 41 47 54 
242 436 148 41 47 54 
243 436 148 41 47 54 
245 432 145 40 47 54 
245 433 145 40 47 54 
244 432 146 41 47 54 
244 432 147 41 47 54 
244 433 146 40 47 54 
244 433 147 40 47 54 
245 432 146 40 47 54 
245 433 146 40 47 54 
244 435 145 42 48 55 
245 434 144 42 48 55 
245 434 145 41 48 55 
245 435 144 42 48 55 
245 435 145 42 48 55 
244 434 146 41 47 54 
244 434 147 41 47 54 
244 435 146 41 47 55 
244 435 147 41 48 54 
245 434 146 41 48 55 
246 432 144 41 48 54 
246 433 144 42 48 55 
246 434 144 43 49 55 
246 435 144 43 49 55 
244 432 148 40 47 54 
244 433 148 41 48 55 
244 434 148 41 48 55 
244 436 144 42 48 55 
244 436 145 42 49 55 
244 437 144 43 49 56 
245 436 144 42 48 55 
245 437 144 43 49 56 
244 436 146 42 48 55 
246 436 144 43 49 55 
227 427 167 42 48 55 
227 431 163 38 45 52 
225 431 165 40 44 51 
224 431 166 41 45 51 
224 431 167 41 46 51 
225 430 166 40 45 51 
225 430 167 41 46 52 
225 431 166 40 45 51 
225 431 167 41 45 51 
227 429 165 40 46 53 
226 428 167 40 46 53 
226 429 166 39 45 52 
226 429 167 40 46 53 
227 428 166 41 47 55 
227 428 167 41 47 54 
227 429 166 40 46 53 
226 430 165 40 46 52 
226 431 164 38 44 51 
226 431 165 39 45 51 
227 430 164 39 45 52 
227 430 165 40 46 53 
227 431 164 38 45 52 
226 430 166 40 46 52 
226 430 167 40 45 52 
226 431 166 40 45 51 
227 430 166 40 46 53 
229 427 163 40 47 54 
231 427 161 42 48 55 
230 427 162 41 48 55 
230 427 163 42 48 55 
231 427 162 42 49 56 
228 427 165 42 48 55 
229 427 164 41 48 55 
229 427 165 42 48 55 
228 427 166 43 49 56 
228 427 167 43 49 56 
228 429 163 39 45 53 
229 428 162 39 46 53 
229 428 163 39 46 53 
229 429 162 39 45 52 
229 429 163 39 45 52 
229 431 161 38 45 52 
228 430 163 39 45 52 
228 431 162 38 45 52 
228 431 163 38 45 52 
229 430 162 38 45 52 
229 430 163 39 45 52 
229 431 162 38 45 52 
230 429 161 39 45 53 
231 428 160 41 48 54 
231 428 161 40 47 54 
231 429 160 39 46 53 
231 429 161 39 46 53 
230 428 162 40 47 54 
230 429 162 39 45 53 
230 430 161 38 45 52 
230 431 160 38 44 52 
230 431 161 38 45 52 
231 430 160 39 45 52 
231 430 161 39 45 53 
231 431 160 38 45 52 
230 430 162 38 45 52 
228 428 164 40 47 54 
228 428 165 41 47 55 
228 429 164 39 46 54 
228 429 165 39 46 53 
229 428 164 39 46 54 
228 428 166 41 47 55 
228 430 164 39 45 53 
225 427 169 43 48 55 
224 427 170 43 49 56 
225 427 170 43 49 56 
226 427 168 42 48 55 
226 427 169 42 48 55 
227 427 168 42 48 55 
224 428 169 39 46 53 
224 429 169 40 46 54 
225 428 168 40 46 53 
225 428 169 41 47 54 
225 429 168 40 46 53 
225 429 169 40 47 54 
224 428 170 40 47 55 
224 430 168 41 46 53 
224 430 169 39 46 53 
224 431 168 41 46 52 
225 430 168 42 47 53 
226 428 168 41 47 54 
232 427 160 42 48 55 
232 428 160 41 48 54 
232 429 160 40 46 53 
232 430 160 39 46 53 
224 433 163 40 46 53 
225 433 162 40 46 54 
225 433 163 40 46 53 
224 435 160 42 47 54 
224 435 161 42 48 55 
225 434 161 41 47 54 
225 435 160 43 48 55 
225 435 161 41 47 54 
224 434 162 40 46 54 
224 434 163 40 46 53 
225 434 162 40 46 53 
227 433 161 39 46 54 
226 432 163 39 45 52 
226 433 162 40 46 53 
226 433 163 39 45 52 
227 432 162 38 45 52 
227 432 163 39 45 52 
227 433 162 38 45 53 
226 434 160 40 46 54 
226 434 161 41 47 54 
226 435 160 41 46 53 
227 434 160 40 47 54 
227 434 161 40 46 54 
226 434 162 41 47 54 
224 432 165 41 46 52 
224 433 164 40 46 53 
224 433 165 41 46 52 
225 432 164 40 45 51 
225 432 165 40 45 51 
225 433 164 39 45 52 
224 432 166 42 46 52 
225 432 166 42 46 52 
226 432 164 39 45 52 
228 433 160 39 46 53 
228 433 161 39 45 53 
229 432 160 38 45 52 
229 432 161 38 45 52 
229 433 160 39 45 53 
229 433 161 39 45 52 
228 432 162 38 45 52 
228 433 162 38 45 53 
229 432 162 38 45 52 
228 434 160 39 46 53 
230 432 160 38 45 52 
230 433 160 39 45 52 
231 432 160 38 44 52 
207 427 192 33 41 50 
207 427 193 32 41 49 
206 427 194 32 40 49 
206 427 195 31 40 48 
207 427 194 32 40 49 
207 427 195 31 40 48 
205 427 197 30 39 47 
204 427 198 31 39 46 
204 427 199 31 38 46 
205 427 198 30 38 46 
205 427 199 30 38 46 
206 427 196 32 40 48 
206 427 197 32 40 48 
207 427 196 31 40 48 
207 427 197 32 41 49 
206 427 198 31 39 46 
207 427 198 31 39 47 
207 428 194 32 40 48 
207 428 195 32 40 48 
205 428 199 30 38 46 
207 428 196 32 40 48 
207 428 197 32 40 48 
206 428 198 30 38 45 
206 428 199 31 39 46 
207 428 198 31 38 46 
207 428 199 31 38 45 
203 427 200 32 39 46 
203 427 201 33 39 46 
203 427 202 35 41 48 
203 427 203 34 41 48 
202 427 204 34 41 48 
202 427 205 36 43 50 
203 427 204 35 41 48 
203 427 205 34 41 47 
202 427 206 35 42 50 
202 427 207 35 42 50 
203 427 206 36 42 48 
203 428 205 35 41 48 
202 428 207 35 42 50 
203 428 206 37 43 49 
203 428 207 37 43 49 
203 429 207 34 41 48 
204 427 200 31 38 45 
204 427 201 31 38 45 
205 427 200 29 37 44 
205 427 201 31 38 45 
204 427 202 33 39 46 
204 427 203 34 41 48 
205 427 202 32 39 46 
204 427 204 35 41 48 
205 428 200 30 38 45 
205 428 201 31 38 45 
204 428 203 33 40 47 
205 428 202 32 38 45 
205 428 203 33 40 47 
206 428 200 31 38 46 
206 428 201 31 39 46 
207 428 200 32 38 45 
207 428 201 32 38 45 
207 429 201 33 39 46 
206 428 202 32 38 45 
206 428 203 32 39 46 
206 429 203 32 38 45 
207 429 202 31 38 45 
207 429 203 32 39 46 
204 428 204 34 40 48 
204 428 205 34 40 48 
204 429 205 33 40 48 
205 428 204 33 40 47 
205 429 204 32 39 46 
205 429 205 32 39 47 
204 428 206 35 41 48 
204 429 206 34 41 47 
204 429 207 35 41 48 
205 429 206 34 41 48 
205 429 207 35 41 48 
205 430 207 34 40 48 
206 429 204 31 38 45 
206 429 205 32 39 46 
207 429 204 31 37 44 
207 429 205 31 37 44 
206 429 206 32 40 47 
206 430 205 32 38 45 
207 430 205 33 40 46 
206 430 206 31 39 46 
206 430 207 33 40 47 
206 431 207 34 41 48 
207 430 206 33 40 47 
207 431 207 35 41 48 
199 427 216 37 43 49 
199 427 217 39 44 50 
199 427 218 41 45 51 
199 427 219 44 48 54 
198 427 221 38 44 50 
199 427 220 40 45 51 
199 427 221 37 43 50 
198 427 222 37 43 51 
198 427 223 39 45 53 
199 428 219 42 47 52 
199 429 219 41 45 51 
199 428 220 38 44 51 
199 428 221 37 43 50 
199 429 220 39 45 52 
199 429 221 37 43 50 
198 428 222 35 42 50 
198 428 223 37 44 52 
198 429 223 37 44 52 
199 428 222 35 43 51 
199 429 222 36 44 52 
199 429 223 36 44 52 
199 430 220 38 44 50 
199 430 221 37 44 51 
199 430 222 38 45 52 
199 430 223 37 45 52 
199 431 222 37 44 52 
199 431 223 36 44 52 
201 427 208 32 40 47 
201 427 209 34 41 48 
201 427 210 34 41 48 
201 427 211 34 41 48 
202 427 208 34 41 49 
202 427 209 33 40 47 
200 427 212 35 42 49 
200 427 213 35 42 49 
201 427 212 33 40 48 
200 427 214 34 41 49 
200 427 215 34 41 49 
202 428 208 36 42 49 
202 428 209 34 41 48 
203 428 208 34 41 49 
203 428 209 34 41 48 
203 429 208 33 41 48 
203 429 209 35 41 48 
202 428 210 34 41 48 
202 428 211 34 41 49 
202 429 211 34 41 49 
203 428 210 35 41 48 
203 429 210 34 41 48 
203 429 211 34 41 48 
203 430 211 34 41 48 
201 428 212 34 41 49 
201 428 213 35 42 50 
201 429 213 36 43 50 
200 428 214 35 42 49 
200 428 215 34 41 48 
201 428 214 35 42 50 
201 428 215 35 42 50 
201 429 214 35 42 49 
201 429 215 35 42 49 
202 428 212 34 41 49 
202 429 212 33 41 49 
202 429 213 35 42 50 
203 429 212 33 41 49 
202 429 214 36 43 50 
202 429 215 36 42 49 
202 430 213 34 42 50 
203 430 212 34 41 49 
203 430 213 35 42 50 
203 431 213 35 42 50 
202 430 214 36 43 50 
202 430 215 36 42 48 
202 431 215 36 42 48 
203 430 214 35 43 50 
203 431 214 36 43 50 
203 431 215 36 42 49 
204 429 208 34 41 48 
204 429 209 35 41 48 
204 429 210 35 41 47 
204 430 208 33 40 47 
204 430 209 34 41 48 
205 430 208 35 41 48 
205 430 209 34 41 48 
205 431 209 35 41 48 
204 430 210 36 41 47 
204 430 211 34 41 47 
204 431 210 36 41 47 
204 431 211 36 41 47 
205 431 210 34 41 47 
205 431 211 35 41 47 
206 430 208 36 42 49 
206 431 208 36 43 50 
206 431 209 36 42 50 
207 431 208 37 43 49 
204 431 212 35 41 48 
204 431 213 35 41 48 
204 431 214 36 42 49 
200 427 216 36 42 48 
200 427 217 41 45 51 
200 428 216 36 42 49 
200 428 217 41 46 51 
200 429 217 41 45 51 
201 429 216 37 43 49 
201 429 217 41 45 50 
200 428 218 43 47 52 
200 428 219 43 47 53 
200 429 218 43 47 53 
200 429 219 42 46 52 
201 429 218 44 47 53 
201 430 216 39 43 49 
201 430 217 42 46 52 
200 430 219 40 45 51 
201 430 218 43 47 53 
201 430 219 42 46 53 
201 431 218 40 45 50 
201 431 219 37 43 50 
202 430 216 37 43 49 
202 430 217 43 47 52 
202 431 216 38 42 48 
202 431 217 42 46 51 
203 431 216 36 41 48 
202 431 218 42 46 52 
200 430 220 37 43 50 
200 430 221 38 44 51 
200 431 220 37 43 49 
200 431 221 37 43 50 
201 431 220 36 42 48 
200 431 222 36 43 50 
200 431 223 36 43 51 
203 432 215 37 42 49 
205 432 210 34 41 48 
205 432 211 35 41 47 
206 432 209 34 42 49 
207 432 208 40 45 52 
207 432 209 38 44 51 
206 432 210 35 42 49 
206 432 211 34 41 48 
206 433 211 35 42 49 
207 432 210 37 44 51 
207 433 210 42 47 54 
207 433 211 38 44 51 
204 432 213 35 42 48 
205 432 212 34 41 48 
205 432 213 35 41 48 
205 433 213 36 42 48 
204 432 214 37 42 49 
204 432 215 37 43 49 
204 433 215 36 42 48 
205 433 214 35 41 48 
205 433 215 36 42 48 
205 434 214 35 41 47 
205 434 215 37 42 48 
206 433 212 36 42 48 
206 433 213 36 42 48 
207 433 212 37 43 49 
206 434 213 36 41 48 
207 434 212 38 43 49 
207 434 213 36 41 47 
206 434 214 36 41 47 
206 434 215 36 42 47 
207 434 214 35 40 46 
207 434 215 36 41 46 
207 435 215 37 41 46 
201 432 219 36 42 48 
202 432 217 46 49 55 
203 432 216 39 43 49 
203 432 217 41 45 50 
202 432 218 43 48 53 
202 432 219 38 44 50 
202 433 219 38 44 50 
203 432 218 41 46 51 
203 433 218 39 44 49 
203 433 219 38 43 49 
203 434 219 37 42 49 
200 432 221 35 41 48 
201 432 220 36 42 49 
201 432 221 36 42 49 
201 433 221 36 42 49 
200 432 222 35 42 49 
200 432 223 34 42 50 
200 433 223 33 41 49 
201 432 222 36 42 49 
201 433 222 36 43 50 
201 433 223 35 42 50 
201 434 222 36 43 50 
201 434 223 36 43 50 
202 433 220 37 43 50 
202 433 221 37 43 50 
202 434 220 37 44 51 
202 434 221 38 44 51 
203 434 220 36 43 50 
203 434 221 36 43 50 
203 435 220 35 42 49 
203 435 221 35 42 49 
202 434 222 37 44 51 
202 434 223 37 44 51 
202 435 222 34 42 50 
202 435 223 35 43 50 
203 435 222 34 42 50 
203 435 223 34 42 50 
203 436 222 34 42 49 
203 436 223 34 42 50 
204 432 216 39 44 50 
204 433 216 39 44 50 
204 433 217 42 46 52 
205 433 216 37 42 49 
204 433 218 40 44 50 
204 434 217 40 45 51 
205 434 216 40 45 51 
205 434 217 39 44 50 
205 435 217 40 45 51 
204 434 218 36 42 48 
204 434 219 36 42 48 
204 435 219 35 41 48 
205 435 218 36 42 49 
205 435 219 35 41 48 
206 434 216 39 44 50 
206 435 216 40 44 50 
206 435 217 39 44 50 
207 435 216 38 42 48 
207 435 217 39 44 49 
204 435 220 34 41 48 
204 435 221 34 42 49 
205 436 219 35 41 48 
206 436 217 38 43 49 
207 436 217 38 43 48 
206 436 218 36 42 48 
206 436 219 35 42 48 
207 436 218 36 41 47 
207 436 219 36 41 48 
207 437 219 35 41 48 
204 436 220 35 42 48 
204 436 221 36 43 50 
205 436 220 35 42 48 
205 436 221 35 42 49 
205 437 221 35 41 49 
204 436 222 35 42 50 
204 436 223 34 42 50 
204 437 223 33 41 49 
205 437 222 34 42 49 
205 437 223 33 41 49 
205 438 223 34 41 49 
206 436 220 36 42 49 
206 437 220 36 42 49 
206 437 221 36 42 49 
207 437 220 35 42 48 
206 437 222 34 41 49 
207 438 220 34 41 48 
207 438 221 36 42 49 
206 438 222 35 42 49 
206 438 223 34 42 49 
207 438 222 36 42 49 
207 438 223 36 42 49 
207 439 222 35 42 49 
207 439 223 35 42 49 
208 427 192 33 41 50 
208 427 193 33 41 49 
209 427 192 33 42 50 
208 428 193 33 41 49 
209 428 192 33 41 49 
209 428 193 33 41 49 
208 428 194 32 41 49 
208 428 195 32 40 48 
209 428 194 33 41 49 
209 428 195 32 40 48 
210 428 192 33 42 50 
210 428 193 33 41 49 
211 428 192 34 42 50 
211 428 193 33 41 49 
210 428 194 33 41 49 
210 428 195 33 40 48 
211 428 194 33 41 49 
211 428 195 33 41 49 
208 428 196 32 40 48 
208 428 197 32 39 47 
209 428 196 32 40 48 
209 428 197 32 40 47 
209 429 197 32 40 48 
208 428 198 31 39 46 
208 428 199 31 38 45 
209 428 198 32 39 47 
209 428 199 32 39 46 
209 429 199 33 39 47 
210 428 196 32 40 48 
210 428 197 33 40 48 
211 428 196 33 41 48 
211 428 197 33 40 48 
211 429 197 33 41 48 
210 428 198 32 40 47 
210 429 198 33 40 47 
210 429 199 33 40 47 
211 429 198 33 41 48 
211 429 199 34 41 48 
214 427 192 36 44 52 
215 427 192 36 44 52 
215 427 193 36 44 52 
215 427 194 36 43 51 
212 428 192 34 42 50 
212 428 193 34 42 50 
213 428 192 35 43 51 
213 428 193 34 42 50 
212 428 194 33 41 49 
212 428 195 33 41 49 
213 428 194 34 42 49 
213 428 195 34 41 49 
214 428 192 35 43 51 
214 428 193 35 43 51 
215 428 193 35 43 51 
214 428 194 35 42 50 
214 428 195 35 42 50 
215 428 194 35 43 51 
215 428 195 35 43 50 
212 428 196 33 41 49 
212 429 196 34 41 49 
212 429 197 34 41 49 
213 428 196 34 41 49 
213 429 196 34 42 49 
213 429 197 34 42 49 
212 429 198 34 41 49 
212 429 199 35 42 49 
213 429 198 35 42 49 
213 429 199 36 42 50 
214 428 196 35 42 50 
214 428 197 35 42 50 
214 429 197 35 42 50 
215 428 196 36 43 50 
215 428 197 36 43 50 
215 429 197 36 43 50 
214 429 198 36 43 50 
214 429 199 37 43 51 
215 429 198 36 43 50 
215 429 199 37 43 51 
208 428 200 32 39 45 
208 429 200 32 39 45 
208 429 201 32 39 45 
209 429 200 33 39 46 
209 429 201 34 40 46 
208 429 202 33 40 47 
208 429 203 37 43 51 
209 429 202 35 41 48 
209 429 203 39 47 54 
209 430 203 37 43 50 
210 429 200 34 40 47 
210 429 201 35 41 47 
211 429 200 35 41 48 
210 429 202 35 41 47 
210 430 201 36 41 48 
211 430 200 35 42 49 
211 430 201 37 43 49 
210 430 202 36 41 47 
210 430 203 37 43 49 
211 430 202 38 44 51 
211 430 203 40 46 52 
211 431 203 44 50 57 
208 429 204 35 41 47 
208 430 204 35 41 47 
208 430 205 36 42 49 
209 430 204 36 42 49 
209 430 205 38 45 52 
209 431 205 37 44 50 
208 430 206 37 43 50 
208 431 206 38 44 51 
208 431 207 39 45 52 
209 431 206 38 45 52 
209 431 207 40 46 52 
210 430 204 37 43 50 
210 431 204 38 44 51 
210 431 205 38 44 51 
211 431 204 42 48 54 
211 431 205 41 48 55 
210 431 206 38 44 51 
211 431 206 40 47 54 
212 429 200 36 42 49 
212 430 200 36 43 50 
212 430 201 40 46 53 
213 430 200 37 44 51 
213 430 201 41 48 55 
212 430 202 44 50 58 
212 431 202 47 53 60 
212 431 203 47 54 61 
213 431 202 46 53 61 
213 431 203 47 53 61 
215 429 200 37 44 51 
214 430 200 38 45 52 
214 430 201 41 47 55 
214 431 201 42 49 56 
215 430 200 38 45 52 
215 430 201 39 45 53 
215 431 201 39 46 54 
214 431 202 43 50 58 
214 431 203 42 49 57 
215 431 202 38 46 54 
215 431 203 38 46 54 
212 431 204 47 53 60 
212 431 205 49 55 62 
213 431 204 47 53 61 
213 431 205 48 56 63 
214 431 204 42 49 57 
214 431 205 43 50 58 
215 431 204 38 45 54 
215 431 205 38 45 52 
216 427 192 37 45 53 
216 427 193 36 44 52 
217 427 192 37 45 53 
217 427 193 37 45 53 
216 427 194 36 44 52 
216 427 195 36 44 51 
217 427 194 37 44 52 
217 427 195 36 44 52 
218 427 195 37 44 52 
217 427 196 36 44 51 
218 427 196 37 44 52 
218 427 197 37 44 52 
219 427 197 37 44 52 
218 427 198 37 44 52 
219 427 198 37 44 52 
219 427 199 37 44 52 
216 428 195 36 43 51 
216 428 196 36 43 51 
216 428 197 36 43 51 
217 428 196 36 44 51 
217 428 197 37 44 51 
216 428 198 36 43 51 
216 429 198 37 43 51 
216 429 199 37 44 51 
217 428 198 37 44 51 
217 428 199 37 44 51 
217 429 198 37 44 51 
217 429 199 37 44 51 
218 428 198 37 44 51 
218 428 199 37 44 51 
219 427 200 37 44 51 
216 429 200 37 44 51 
217 429 200 37 44 51 
217 429 201 37 43 51 
216 430 201 37 44 51 
217 430 201 37 44 51 
216 430 202 36 43 51 
216 431 202 36 44 52 
216 431 203 36 43 52 
217 430 202 37 43 51 
217 431 203 36 43 51 
218 428 200 37 44 51 
218 429 200 37 43 51 
218 429 201 37 43 50 
219 428 200 37 44 51 
219 428 201 37 43 51 
219 429 201 37 43 50 
218 429 202 36 41 48 
219 429 202 36 43 50 
219 429 203 35 42 49 
218 430 201 37 43 50 
218 430 202 36 42 49 
218 430 203 36 42 49 
216 431 204 35 43 52 
216 431 205 35 43 50 
217 431 204 35 42 50 
217 431 205 35 42 49 
216 431 206 36 43 50 
217 431 206 35 42 49 
217 431 207 35 41 48 
219 429 204 35 41 49 
219 429 205 35 42 49 
218 430 204 35 42 49 
218 430 205 35 41 49 
218 431 204 35 42 49 
218 431 205 35 42 49 
219 430 204 35 41 48 
219 430 205 35 41 48 
218 430 206 35 41 49 
218 431 206 35 42 49 
218 431 207 34 41 48 
219 430 206 34 41 48 
219 430 207 34 41 48 
219 431 207 34 41 48 
220 427 200 37 44 52 
220 427 201 37 44 52 
220 427 202 36 43 51 
221 427 202 35 43 51 
221 427 203 35 43 51 
221 427 204 36 43 51 
221 427 205 36 43 51 
221 427 206 38 44 52 
221 427 207 38 45 52 
222 427 207 39 45 52 
220 428 201 36 43 51 
220 428 202 36 43 50 
220 428 203 36 43 50 
220 429 202 36 43 50 
220 429 203 36 43 51 
220 428 204 36 43 50 
220 428 205 36 43 51 
220 429 204 36 42 50 
220 429 205 35 42 50 
221 428 205 35 43 51 
220 429 206 36 43 50 
220 429 207 36 43 51 
221 428 206 37 43 51 
221 428 207 38 44 52 
220 430 207 36 43 50 
208 431 208 40 46 52 
218 431 208 34 41 48 
218 431 209 34 40 48 
219 430 208 34 40 47 
219 431 208 34 40 47 
219 431 209 34 41 48 
219 431 210 35 41 48 
222 427 208 38 45 52 
222 427 209 37 44 51 
222 427 210 38 45 52 
223 427 210 38 44 51 
223 427 211 39 45 52 
223 427 212 40 46 52 
220 429 208 36 43 51 
220 429 209 37 44 51 
221 428 208 37 44 52 
221 428 209 37 44 52 
221 429 208 37 44 52 
221 429 209 38 45 52 
221 429 210 38 45 52 
220 430 208 35 41 49 
220 430 209 36 42 50 
220 431 209 35 42 49 
221 430 209 37 44 51 
220 430 210 37 43 50 
220 431 210 37 43 50 
220 431 211 37 43 50 
221 430 210 38 44 51 
221 430 211 37 44 51 
221 431 211 37 43 51 
222 428 209 37 44 52 
222 428 210 37 44 51 
222 428 211 37 44 51 
222 429 210 37 44 51 
222 429 211 37 43 51 
222 430 211 37 44 51 
221 430 212 36 43 50 
221 431 212 36 43 50 
221 431 213 38 43 50 
221 431 214 39 44 50 
222 428 212 38 44 51 
222 429 212 37 43 51 
223 428 212 38 45 51 
223 428 213 41 46 52 
223 429 212 38 44 51 
223 429 213 38 44 51 
223 429 214 40 45 52 
222 430 212 36 43 51 
222 430 213 35 42 49 
222 431 213 37 43 50 
223 430 213 37 43 50 
222 430 214 37 43 50 
222 430 215 39 45 52 
222 431 214 38 44 50 
222 431 215 40 46 52 
223 430 214 38 44 51 
223 430 215 40 45 52 
222 431 216 38 45 52 
223 430 216 38 44 50 
223 431 216 38 44 51 
223 431 217 37 43 51 
209 432 207 39 45 52 
210 432 207 37 44 51 
211 432 206 40 47 55 
211 432 207 40 47 54 
212 432 205 48 54 62 
213 432 205 47 54 62 
212 432 206 46 53 60 
212 432 207 47 53 60 
213 432 206 45 52 60 
213 432 207 46 53 60 
214 432 205 42 49 57 
215 432 205 38 45 52 
214 432 206 41 48 56 
214 432 207 41 47 55 
215 432 206 38 45 52 
215 432 207 37 44 51 
216 432 206 37 44 51 
216 432 207 37 43 50 
217 432 207 35 41 49 
208 432 208 41 46 53 
208 432 209 43 48 55 
208 433 209 44 49 55 
209 432 208 40 46 53 
209 432 209 43 48 54 
209 433 209 44 49 56 
208 433 210 43 49 55 
208 433 211 43 48 54 
209 433 210 45 50 56 
209 433 211 45 50 55 
209 434 211 44 49 55 
210 432 208 38 44 51 
210 432 209 38 44 51 
210 433 209 39 45 51 
211 432 208 41 48 55 
211 433 209 39 46 53 
210 433 210 41 46 53 
210 433 211 42 47 53 
211 433 210 39 45 52 
210 434 211 41 46 52 
211 434 210 43 49 55 
211 434 211 42 47 54 
208 434 212 42 47 52 
208 434 213 41 45 50 
209 434 212 44 48 54 
209 434 213 44 48 53 
209 435 213 43 47 52 
208 434 214 38 43 48 
208 435 214 39 43 48 
208 435 215 38 42 47 
209 435 214 42 46 50 
209 435 215 42 45 50 
210 434 212 41 45 51 
210 434 213 42 46 51 
210 435 213 43 47 52 
211 434 212 41 46 52 
211 434 213 40 44 50 
211 435 213 41 45 51 
210 435 214 42 45 50 
210 435 215 42 46 51 
211 435 214 42 45 51 
211 435 215 42 46 50 
210 436 215 43 46 51 
211 436 215 43 47 52 
212 432 208 48 54 61 
212 433 209 49 55 61 
213 432 208 47 54 61 
213 433 209 48 54 62 
212 433 210 50 56 62 
213 433 210 46 53 60 
212 434 210 47 53 60 
212 434 211 46 52 59 
213 434 210 46 53 60 
213 434 211 45 51 58 
214 432 208 42 48 55 
214 433 208 40 45 52 
214 433 209 42 47 54 
215 432 208 37 43 50 
215 433 209 36 41 48 
214 433 210 40 46 54 
215 433 210 35 41 48 
214 434 210 40 46 54 
214 434 211 40 48 55 
215 434 210 36 43 50 
215 434 211 34 42 50 
212 434 212 45 50 57 
212 435 213 47 52 57 
213 434 212 43 48 55 
213 435 212 43 48 55 
213 435 213 47 52 58 
212 435 214 45 49 54 
213 435 214 45 50 56 
214 434 212 44 51 59 
214 435 212 40 47 55 
214 435 213 38 44 51 
215 434 212 33 41 49 
215 435 212 33 41 49 
215 435 213 32 40 47 
214 435 214 38 44 51 
215 435 214 32 39 46 
212 436 215 45 49 54 
213 436 215 45 49 54 
214 436 214 34 40 48 
214 436 215 38 43 50 
215 436 214 32 39 47 
215 436 215 33 40 47 
208 435 216 37 42 47 
208 436 216 38 43 48 
208 436 217 38 43 48 
209 436 216 41 45 51 
209 436 217 40 45 51 
209 437 217 39 44 51 
208 436 218 37 42 48 
208 437 218 37 42 48 
208 437 219 35 41 48 
209 437 218 39 44 51 
209 437 219 38 44 50 
208 438 219 34 40 47 
209 438 219 38 43 49 
210 436 216 41 46 51 
210 437 217 39 44 51 
211 436 216 42 46 51 
211 437 216 42 46 51 
211 437 217 40 45 51 
210 437 218 41 46 53 
210 437 219 42 46 52 
211 437 218 39 44 50 
210 438 219 43 47 53 
211 438 218 39 45 51 
211 438 219 41 46 52 
208 437 220 34 41 48 
208 438 220 34 41 48 
208 438 221 33 40 48 
208 439 221 34 40 47 
209 438 220 37 43 49 
209 439 221 37 43 50 
208 439 222 34 40 47 
208 439 223 34 41 47 
209 439 222 37 43 49 
209 439 223 37 42 49 
210 438 220 42 47 53 
210 439 220 43 48 54 
210 439 221 44 49 55 
211 438 220 40 46 52 
211 439 220 40 45 52 
211 439 221 41 46 53 
210 439 222 45 49 55 
210 439 223 44 48 54 
211 439 222 43 48 54 
211 439 223 43 48 55 
212 436 216 46 50 54 
212 437 216 46 50 55 
212 437 217 44 48 54 
213 436 216 44 48 53 
213 437 216 44 48 53 
213 437 217 43 47 52 
212 437 218 43 47 53 
213 437 218 41 46 51 
212 438 218 42 47 53 
212 438 219 41 47 53 
213 438 218 40 45 51 
213 438 219 40 45 52 
214 436 216 38 43 50 
214 437 216 38 44 50 
214 437 217 38 44 50 
215 436 216 34 41 48 
215 437 216 35 41 48 
215 437 217 36 42 49 
214 437 218 37 43 49 
215 437 218 36 42 49 
214 438 218 36 42 49 
214 438 219 35 42 49 
214 439 219 37 43 50 
215 438 218 36 42 48 
215 438 219 34 41 48 
212 439 220 40 46 52 
212 439 221 40 46 52 
213 439 220 41 47 53 
213 439 221 42 47 54 
212 439 222 41 47 53 
213 439 222 43 48 55 
214 439 220 37 43 50 
214 439 221 37 43 50 
215 439 220 35 42 49 
215 439 221 34 41 48 
209 440 223 38 43 49 
210 440 223 42 47 53 
211 440 223 40 46 52 
212 440 223 40 46 52 
213 440 222 44 49 56 
213 440 223 44 49 55 
214 440 222 38 44 50 
214 440 223 39 45 51 
215 440 222 34 41 48 
215 440 223 34 40 47 
215 441 223 35 41 48 
216 432 208 36 42 49 
216 433 209 34 40 47 
217 432 208 35 41 48 
217 432 209 34 40 47 
217 433 209 33 39 46 
216 433 210 34 39 46 
217 433 210 34 39 46 
216 434 210 34 40 47 
216 434 211 33 39 47 
217 434 211 33 38 46 
218 432 208 34 40 48 
218 432 209 34 40 47 
219 432 209 34 41 48 
218 432 210 34 40 47 
218 433 210 33 39 46 
218 433 211 31 39 46 
219 432 210 35 41 48 
219 432 211 35 41 49 
219 433 211 33 40 48 
218 434 211 30 38 46 
216 434 212 33 39 46 
216 435 212 33 40 46 
216 435 213 33 39 46 
217 434 212 32 38 44 
217 435 212 34 39 45 
217 435 213 35 40 46 
216 435 214 33 39 46 
217 435 214 35 40 45 
219 432 212 36 42 50 
219 433 212 34 41 49 
219 433 213 35 42 49 
218 434 212 32 39 46 
218 434 213 36 42 49 
218 435 213 35 41 47 
219 434 212 33 40 48 
219 434 213 36 43 50 
218 435 214 37 42 48 
218 435 215 38 42 47 
219 434 214 39 44 50 
219 434 215 40 45 51 
219 435 215 41 45 49 
216 436 214 33 39 46 
216 436 215 34 40 46 
217 436 214 34 39 45 
217 436 215 35 40 45 
218 436 215 36 42 48 
220 432 211 37 43 50 
220 432 212 36 43 50 
220 432 213 37 42 49 
220 433 212 37 44 51 
220 433 213 37 44 50 
221 432 212 36 43 50 
221 432 213 38 44 50 
220 432 214 38 43 49 
220 433 214 38 43 50 
220 433 215 40 45 50 
221 432 214 40 44 50 
221 432 215 41 45 51 
220 434 215 40 45 52 
219 434 216 40 45 50 
219 435 216 40 44 49 
216 436 216 35 41 47 
216 437 216 37 42 48 
216 437 217 36 42 49 
217 436 216 36 41 46 
217 437 216 37 42 47 
217 437 217 36 42 47 
216 437 218 37 42 49 
217 437 218 37 42 47 
216 438 218 38 43 49 
216 438 219 36 41 48 
216 439 219 35 41 48 
217 438 218 37 42 47 
217 438 219 36 41 46 
217 439 219 36 41 47 
218 436 216 37 42 48 
218 437 216 36 42 47 
218 437 217 35 40 47 
219 436 216 38 43 49 
219 436 217 35 42 48 
219 437 217 34 40 46 
218 437 218 34 40 47 
219 437 218 34 40 47 
219 437 219 34 41 48 
218 438 218 36 41 47 
218 438 219 35 40 46 
219 438 219 34 40 47 
216 439 220 35 41 47 
216 439 221 34 40 47 
217 439 220 36 41 47 
217 439 221 35 41 46 
218 438 220 35 40 47 
218 439 220 35 41 47 
218 439 221 34 40 47 
219 438 220 34 41 47 
219 439 221 34 41 47 
218 439 222 33 39 46 
219 439 222 33 40 46 
220 433 216 41 46 52 
221 432 216 38 44 50 
221 433 216 39 45 51 
221 433 217 39 45 52 
220 434 216 40 45 51 
220 434 217 36 44 51 
220 435 216 38 43 50 
220 435 217 35 42 49 
221 434 217 39 45 52 
220 435 218 34 42 50 
221 434 218 38 45 52 
221 435 218 35 43 50 
221 435 219 36 43 51 
222 432 216 37 43 50 
222 432 217 38 44 51 
222 433 217 38 45 52 
223 432 217 38 44 51 
222 433 218 39 46 53 
223 432 218 36 44 51 
223 433 218 38 45 52 
223 433 219 39 46 53 
222 434 218 39 46 54 
222 434 219 39 46 54 
222 435 219 37 44 52 
223 434 219 39 46 54 
223 435 220 37 44 52 
223 435 221 37 44 52 
220 436 217 34 41 48 
220 436 218 34 41 48 
220 436 219 34 41 49 
220 437 218 33 41 48 
220 437 219 35 42 49 
221 436 219 36 43 50 
221 437 219 36 43 50 
220 437 220 36 43 50 
221 436 220 35 42 50 
221 437 220 36 43 50 
221 437 221 36 43 51 
220 438 220 35 42 49 
220 438 221 35 42 49 
220 439 221 35 41 48 
221 438 221 36 43 50 
220 439 222 35 41 48 
220 439 223 34 41 48 
221 438 222 36 42 50 
221 438 223 36 43 50 
221 439 222 35 42 49 
221 439 223 35 42 49 
222 436 220 36 43 51 
222 436 221 37 44 51 
222 437 221 36 43 50 
223 436 221 38 44 52 
222 437 222 36 43 50 
223 436 222 36 43 51 
223 437 222 36 43 50 
223 437 223 35 42 50 
222 438 222 36 43 50 
222 438 223 35 42 50 
222 439 223 35 42 50 
223 438 223 35 42 49 
216 440 222 33 40 46 
216 440 223 33 40 46 
216 441 223 34 40 47 
217 440 222 33 40 46 
217 440 223 31 38 44 
217 441 223 31 38 45 
218 440 222 32 38 45 
218 440 223 31 38 45 
218 441 223 31 38 45 
219 440 223 32 39 46 
220 440 223 33 40 47 
195 427 227 37 46 53 
193 427 229 37 45 53 
192 427 231 39 45 53 
193 427 230 39 45 53 
193 427 231 39 46 53 
194 427 228 36 44 53 
194 427 229 37 45 53 
195 427 228 37 45 54 
195 428 227 38 46 54 
195 429 227 38 46 55 
192 428 231 39 46 53 
192 429 231 41 47 55 
193 428 230 40 46 53 
193 428 231 40 47 54 
193 429 230 41 47 54 
193 429 231 41 48 55 
193 430 231 41 47 55 
193 431 231 39 46 53 
194 428 228 37 45 53 
194 428 229 38 45 53 
194 429 229 40 46 53 
195 428 228 38 46 54 
195 429 228 39 46 55 
195 429 229 39 46 54 
194 428 230 40 46 53 
194 429 230 40 46 53 
194 430 229 39 45 53 
195 430 228 38 46 54 
195 430 229 38 45 53 
195 431 228 37 45 53 
195 431 229 37 45 52 
194 430 230 39 45 53 
194 430 231 40 46 53 
194 431 230 39 45 52 
194 431 231 39 46 53 
195 431 230 37 44 51 
196 427 225 41 48 56 
197 427 224 41 48 56 
197 427 225 41 48 56 
196 427 226 40 48 56 
196 427 227 39 47 55 
198 427 224 41 48 55 
197 428 225 39 47 55 
196 428 226 40 47 55 
196 428 227 39 47 55 
196 429 226 40 47 56 
196 429 227 39 46 55 
197 428 226 40 47 55 
197 429 226 39 47 55 
196 430 227 37 45 54 
196 431 227 36 44 53 
197 430 226 39 46 55 
197 431 226 37 45 53 
197 431 227 37 45 53 
198 428 224 40 47 54 
198 428 225 41 48 56 
198 429 224 39 46 54 
198 429 225 40 47 55 
198 430 224 38 45 52 
198 430 225 38 45 53 
198 431 225 37 44 52 
199 430 224 37 45 52 
199 431 224 36 44 52 
199 431 225 36 44 52 
198 430 226 38 46 54 
198 431 226 37 45 53 
196 430 228 37 45 54 
196 431 228 36 44 52 
192 427 232 40 46 53 
192 428 232 40 47 54 
192 429 232 40 48 56 
192 430 232 38 46 55 
192 431 232 37 45 54 
192 431 233 37 45 54 
193 431 232 38 45 53 
195 432 229 37 44 52 
194 432 231 37 44 52 
194 433 231 37 44 52 
195 432 230 37 44 51 
195 432 231 37 44 51 
195 433 230 37 44 51 
195 433 231 37 44 51 
195 434 231 37 44 52 
197 432 227 36 44 52 
199 432 225 34 42 50 
199 433 225 34 42 50 
198 432 226 35 43 52 
198 432 227 35 43 52 
198 433 227 34 43 51 
199 432 226 34 42 50 
199 433 226 34 42 50 
199 433 227 35 42 50 
199 434 227 35 42 50 
196 432 228 37 44 52 
196 432 229 37 44 52 
196 433 229 35 43 51 
197 432 228 36 44 52 
197 433 228 35 43 51 
197 433 229 35 42 50 
196 433 230 36 43 51 
197 434 229 34 42 50 
196 434 230 36 43 51 
196 434 231 36 43 51 
196 435 231 37 44 51 
197 434 230 35 43 50 
197 435 230 36 43 50 
197 435 231 36 43 50 
198 433 228 34 42 51 
198 434 228 35 42 50 
198 434 229 35 42 50 
198 435 229 35 42 50 
199 434 228 35 42 50 
199 434 229 35 42 50 
199 435 228 36 42 49 
199 435 229 36 42 50 
198 435 230 35 42 50 
198 435 231 35 42 50 
198 436 231 35 42 50 
199 436 230 36 43 50 
199 436 231 37 43 51 
199 437 231 35 42 50 
192 432 233 38 46 55 
193 432 232 38 45 54 
193 432 233 38 46 55 
193 433 232 37 45 53 
193 433 233 38 46 54 
192 432 234 38 46 55 
192 433 234 39 47 55 
192 433 235 39 46 54 
193 433 234 38 46 54 
193 434 233 37 45 53 
192 434 235 38 46 54 
193 434 234 38 45 54 
193 434 235 37 45 53 
193 435 235 37 45 53 
194 432 232 37 45 53 
194 433 232 37 45 53 
194 434 232 37 45 53 
194 434 233 37 45 53 
195 434 232 37 45 52 
195 434 233 38 45 53 
195 435 232 38 45 52 
195 435 233 36 44 52 
194 434 234 37 44 53 
194 435 234 36 44 52 
194 435 235 36 44 52 
195 435 234 35 43 51 
192 434 236 38 45 53 
192 435 237 37 45 52 
193 434 236 37 45 53 
193 435 236 37 45 53 
193 435 237 37 45 53 
192 435 238 38 45 53 
194 436 235 35 43 51 
195 436 234 34 42 51 
195 436 235 34 42 50 
193 436 236 36 44 52 
193 436 237 36 44 52 
193 437 237 36 44 52 
192 436 238 37 45 53 
192 436 239 37 45 53 
192 437 239 37 44 52 
193 436 238 36 44 52 
193 437 238 36 44 52 
193 437 239 36 44 52 
193 438 239 35 43 51 
194 436 236 35 43 51 
194 436 237 35 43 51 
194 437 237 35 43 52 
195 436 236 34 42 50 
195 437 236 34 42 50 
195 437 237 35 43 51 
194 437 238 35 44 52 
195 438 237 35 43 51 
194 438 238 35 43 51 
194 438 239 35 43 51 
195 438 238 35 42 50 
195 438 239 35 42 50 
195 439 239 35 43 50 
196 435 232 36 44 51 
196 436 232 35 43 50 
196 436 233 35 43 50 
196 437 233 35 42 49 
197 436 232 35 42 50 
197 436 233 35 42 50 
197 437 232 35 42 49 
197 437 233 34 42 49 
196 436 234 35 42 50 
196 437 234 34 42 49 
196 437 235 34 41 49 
197 437 234 34 42 49 
197 437 235 34 41 49 
197 438 235 34 41 50 
198 436 232 34 41 49 
198 437 232 34 42 50 
198 437 233 35 42 50 
199 437 232 34 41 49 
198 437 234 36 42 50 
198 438 233 35 42 50 
199 438 232 34 41 49 
199 438 233 34 42 49 
198 438 234 35 42 50 
198 438 235 35 41 49 
199 438 234 34 42 50 
199 438 235 34 41 49 
199 439 235 34 41 49 
196 437 236 34 41 49 
196 437 237 35 42 50 
197 437 236 34 41 49 
196 438 237 35 42 50 
197 438 236 33 41 49 
197 438 237 34 41 49 
197 439 237 34 41 49 
196 438 238 36 43 50 
196 439 238 35 42 50 
196 439 239 34 42 49 
197 439 238 34 41 49 
197 439 239 33 41 48 
198 438 236 34 41 49 
198 438 237 34 41 49 
198 439 236 34 41 49 
198 439 237 33 41 49 
199 439 236 34 41 49 
199 439 237 32 40 48 
198 439 238 32 40 48 
198 439 239 33 41 48 
199 439 238 32 41 49 
197 440 239 34 41 49 
198 440 239 34 41 49 
199 440 238 32 41 49 
199 440 239 34 42 50 
200 432 224 34 42 50 
200 432 225 33 41 49 
200 433 224 35 42 49 
200 433 225 35 42 50 
201 433 224 36 43 50 
200 433 226 34 42 49 
200 434 225 35 42 50 
201 434 224 37 44 51 
201 434 225 36 43 50 
201 435 224 36 43 51 
201 435 225 36 43 50 
200 434 226 35 42 50 
200 434 227 35 43 50 
200 435 226 35 42 49 
200 435 227 35 42 50 
201 435 226 35 42 49 
201 435 227 35 42 49 
202 435 224 36 43 50 
202 435 225 36 43 50 
200 435 228 37 43 50 
201 436 226 35 42 49 
201 436 227 35 42 49 
202 436 224 35 42 49 
202 436 225 35 42 50 
203 436 224 34 42 50 
203 436 225 35 42 50 
203 437 224 35 42 50 
203 437 225 36 43 50 
202 436 226 36 43 50 
202 436 227 35 42 49 
202 437 226 35 42 49 
202 437 227 35 42 50 
203 437 226 35 42 50 
203 437 227 34 41 49 
203 438 227 34 41 49 
200 436 228 36 43 50 
200 436 229 40 46 53 
201 436 228 35 42 50 
201 436 229 36 42 50 
201 437 229 36 43 51 
200 436 230 40 46 52 
200 437 230 38 45 52 
200 437 231 36 43 50 
201 437 230 40 46 53 
201 437 231 38 45 52 
200 438 231 35 42 50 
201 438 230 36 43 50 
201 438 231 37 44 52 
202 437 228 35 42 50 
202 437 229 36 42 50 
203 437 228 34 41 49 
202 438 229 35 42 49 
203 438 228 34 41 49 
203 438 229 34 41 49 
203 439 229 34 41 49 
202 438 230 35 42 50 
202 438 231 37 44 52 
202 439 231 36 44 52 
203 438 230 35 42 49 
203 439 230 34 42 49 
203 439 231 36 43 50 
204 437 224 33 41 49 
204 437 225 34 41 49 
205 437 224 32 40 48 
204 438 225 34 41 49 
205 438 224 34 41 49 
205 438 225 35 42 49 
204 438 226 34 41 49 
204 438 227 34 41 49 
204 439 227 34 41 48 
205 438 226 34 41 49 
205 439 226 35 41 49 
205 439 227 35 41 49 
206 438 224 35 42 49 
206 439 224 34 42 49 
206 439 225 35 42 49 
207 439 224 36 42 48 
207 439 225 36 42 49 
206 439 226 35 42 49 
206 439 227 35 42 49 
207 439 226 36 42 49 
204 438 228 34 41 48 
204 439 228 34 41 48 
204 439 229 34 41 48 
205 439 228 35 42 49 
204 439 230 35 42 49 
200 437 232 34 42 49 
200 438 232 34 42 49 
200 438 233 33 42 50 
201 438 232 34 42 51 
201 438 233 33 41 50 
201 439 232 36 44 52 
201 439 233 33 42 50 
200 438 234 33 41 50 
200 439 234 34 42 50 
200 439 235 34 42 50 
201 439 234 34 42 50 
201 439 235 34 42 50 
202 439 232 36 44 52 
202 439 233 34 42 50 
203 439 232 38 45 53 
202 439 234 32 41 49 
200 439 236 34 42 50 
200 439 237 33 41 48 
201 439 236 35 43 51 
207 440 225 35 42 49 
206 440 226 36 42 50 
206 440 227 35 42 49 
207 440 226 36 42 50 
207 440 227 35 42 50 
205 440 228 36 42 49 
205 440 229 36 42 49 
204 440 230 36 43 50 
204 440 231 37 43 51 
205 440 230 36 43 50 
205 440 231 37 43 51 
205 441 231 36 43 50 
206 440 228 36 42 50 
206 440 229 36 43 50 
207 440 228 35 42 50 
207 441 228 33 41 49 
207 441 229 34 42 49 
206 441 230 36 42 49 
206 441 231 37 43 50 
207 441 230 35 42 50 
207 441 231 36 43 50 
207 442 230 35 42 50 
207 442 231 36 43 50 
201 440 235 34 43 51 
203 440 232 39 46 53 
203 440 233 39 46 54 
202 440 234 33 41 49 
202 440 235 36 43 51 
203 440 234 38 45 52 
203 440 235 37 44 52 
203 441 234 38 45 53 
203 441 235 38 45 52 
200 440 237 35 43 50 
201 440 236 35 43 51 
201 440 237 38 45 52 
201 441 237 42 48 56 
200 440 238 35 43 51 
200 440 239 36 43 52 
200 441 239 37 45 53 
201 440 238 40 47 55 
201 441 238 41 48 56 
201 441 239 39 47 54 
202 440 236 38 45 53 
202 440 237 38 46 53 
202 441 236 41 47 55 
202 441 237 41 48 55 
203 441 236 38 45 52 
203 441 237 37 44 52 
202 441 238 42 49 56 
202 441 239 41 48 56 
203 442 237 38 45 53 
202 442 238 42 49 56 
202 442 239 41 48 56 
203 442 238 39 46 53 
203 442 239 43 49 57 
203 443 239 42 49 58 
204 440 232 38 44 52 
204 440 233 40 47 54 
204 441 232 36 43 51 
204 441 233 37 45 52 
205 441 232 35 43 51 
205 441 233 36 43 51 
204 441 234 39 46 54 
204 441 235 39 46 53 
205 441 234 36 43 51 
204 442 235 38 45 53 
205 442 234 36 44 52 
205 442 235 37 44 52 
206 441 232 37 43 50 
206 442 232 36 43 50 
206 442 233 36 43 51 
207 442 232 36 42 50 
207 442 233 35 42 50 
207 443 233 34 42 50 
206 442 234 36 43 51 
206 443 234 35 43 50 
206 443 235 35 43 51 
207 443 234 34 42 50 
207 443 235 34 43 51 
204 442 236 38 44 52 
204 442 237 37 44 52 
204 443 237 37 45 53 
205 442 236 37 44 51 
205 443 236 37 44 52 
205 443 237 37 44 53 
204 442 238 40 47 54 
204 443 238 37 45 53 
204 443 239 38 46 54 
205 443 238 38 46 54 
206 443 236 36 43 51 
206 443 237 37 44 52 
207 444 235 35 43 51 
204 444 239 39 47 55 
205 444 238 38 46 55 
205 444 239 39 47 56 
205 445 239 38 47 56 
206 444 236 36 44 52 
206 444 237 36 44 52 
207 444 236 36 44 52 
207 444 237 37 45 53 
207 445 237 37 45 54 
206 444 238 37 45 53 
206 444 239 38 46 55 
206 445 238 37 45 54 
206 445 239 38 46 55 
207 445 238 39 47 55 
207 445 239 39 47 55 
207 446 239 38 47 55 
192 437 240 36 44 52 
192 438 240 36 43 52 
192 438 241 36 44 51 
193 438 240 35 43 51 
193 438 241 35 42 50 
193 439 241 35 43 50 
192 438 242 35 43 51 
192 439 242 35 43 50 
193 439 242 35 43 50 
194 438 240 35 43 51 
194 439 240 35 43 51 
194 439 241 35 42 50 
195 439 240 35 42 50 
195 439 241 34 42 50 
194 439 242 34 42 50 
196 439 240 34 41 49 
197 439 240 33 41 49 
195 440 241 34 42 50 
194 440 242 35 42 50 
195 440 242 35 43 51 
196 440 241 35 43 51 
197 440 240 34 41 49 
197 440 241 36 43 51 
197 441 241 37 45 53 
196 440 242 37 45 53 
196 441 242 39 46 55 
197 441 242 38 46 54 
197 442 242 39 48 57 
198 440 240 35 43 50 
198 441 241 37 45 53 
199 440 240 37 44 51 
199 441 240 38 45 53 
199 441 241 38 45 53 
199 442 241 38 46 55 
198 442 242 39 47 56 
198 443 242 41 50 58 
199 442 242 39 47 56 
199 443 242 40 49 58 
199 444 242 42 50 59 
199 445 242 41 50 59 
200 441 240 38 46 54 
201 441 240 38 46 54 
200 442 240 38 46 54 
200 442 241 38 46 55 
200 443 241 38 47 55 
201 442 240 38 46 55 
201 443 241 38 47 56 
200 443 242 39 47 56 
202 442 240 38 47 56 
202 443 240 37 47 56 
202 443 241 37 47 56 
203 443 240 39 48 57 
201 444 241 38 47 56 
201 445 241 39 48 58 
200 444 242 40 49 57 
200 445 242 41 50 59 
201 444 242 38 47 57 
201 445 242 41 49 59 
200 446 242 40 49 59 
201 446 242 41 50 59 
201 447 242 39 48 58 
202 444 240 36 46 56 
202 444 241 37 47 57 
202 445 241 40 49 58 
203 444 240 39 48 58 
203 445 240 40 49 59 
203 445 241 40 49 59 
202 445 242 41 50 59 
203 446 241 41 50 60 
202 446 242 40 49 59 
202 447 242 39 48 58 
203 446 242 40 50 59 
203 447 242 41 50 59 
204 444 240 41 50 59 
204 445 240 40 49 58 
204 445 241 42 51 60 
205 445 240 39 47 56 
204 446 241 43 52 62 
204 447 241 43 52 61 
205 446 240 39 47 56 
205 446 241 39 48 57 
205 447 241 41 50 59 
204 447 242 42 51 60 
205 447 242 42 51 60 
206 446 240 38 47 56 
206 446 241 39 48 57 
206 447 240 40 48 57 
206 447 241 40 49 58 
207 446 240 38 47 56 
207 447 240 39 47 56 
207 447 241 39 48 57 
208 439 224 35 41 48 
208 440 224 35 41 48 
208 440 225 36 42 48 
209 440 224 36 42 48 
209 440 225 36 42 48 
208 440 226 35 41 48 
208 440 227 35 41 48 
208 441 227 34 41 48 
209 440 226 35 41 47 
209 441 226 36 41 48 
209 441 227 35 41 47 
210 440 224 42 46 52 
210 440 225 41 46 51 
211 440 224 40 45 51 
211 440 225 41 46 51 
211 441 225 40 44 50 
210 440 226 40 45 50 
210 441 226 41 45 51 
210 441 227 39 44 49 
211 441 226 41 45 51 
211 441 227 42 46 51 
211 442 227 42 45 51 
208 441 228 33 41 48 
208 441 229 34 42 49 
209 441 228 35 41 47 
208 442 229 35 42 49 
209 442 228 35 41 48 
209 442 229 36 42 49 
208 442 230 35 42 50 
208 442 231 36 43 50 
209 442 230 36 43 50 
209 442 231 37 43 50 
209 443 231 36 43 49 
210 441 228 38 43 49 
210 442 228 38 43 48 
210 442 229 37 42 48 
211 442 228 41 45 51 
211 442 229 42 46 51 
210 442 230 36 42 48 
210 443 230 36 42 48 
210 443 231 37 42 49 
211 442 230 42 46 51 
211 443 230 42 46 52 
211 443 231 42 46 52 
212 440 224 38 43 49 
212 441 225 38 43 49 
213 440 224 42 46 52 
213 441 224 40 45 51 
213 441 225 40 45 52 
212 441 226 38 43 48 
213 441 226 41 45 51 
212 442 227 39 44 49 
213 442 226 39 45 51 
213 442 227 40 45 51 
214 441 224 40 45 51 
214 441 225 40 45 51 
215 441 224 35 41 48 
215 441 225 36 42 48 
214 441 226 40 45 51 
214 442 226 40 45 51 
214 442 227 41 46 51 
215 442 226 36 42 48 
215 442 227 38 43 49 
212 442 228 39 44 50 
212 442 229 40 45 50 
212 443 229 39 45 51 
213 442 228 39 45 51 
213 442 229 39 45 51 
213 443 229 39 45 51 
212 443 230 40 45 51 
212 443 231 42 47 53 
213 443 230 38 44 51 
213 443 231 38 44 50 
214 442 228 42 46 52 
214 442 229 42 47 53 
214 443 229 43 48 54 
215 442 228 38 43 49 
215 442 229 38 44 50 
215 443 229 38 43 50 
214 443 230 40 46 52 
214 443 231 40 45 51 
215 443 230 37 43 50 
215 443 231 38 43 50 
208 442 232 36 43 50 
208 443 232 36 43 50 
208 443 233 35 42 50 
209 443 232 35 42 49 
209 443 233 35 42 49 
208 443 234 34 42 50 
209 443 234 35 42 50 
210 443 232 36 42 49 
210 443 233 36 43 50 
211 443 232 41 46 53 
211 443 233 39 45 51 
208 444 235 35 43 51 
209 444 234 35 43 50 
209 444 235 35 43 51 
211 444 233 42 47 54 
210 444 234 36 42 49 
210 444 235 34 42 49 
210 445 235 34 42 49 
211 444 234 39 46 53 
211 444 235 34 41 48 
211 445 235 39 46 54 
208 444 236 36 44 52 
208 444 237 36 44 52 
208 445 237 36 44 52 
209 444 236 35 43 51 
209 445 236 35 43 51 
209 445 237 35 43 51 
208 445 238 36 44 52 
209 446 237 37 44 52 
