ply
format ascii 1.0
comment Created by CloudCompare v2.10.1 (Zephyrus)
comment Created 1/31/20 11:07 AM
obj_info Generated by CloudCompare!
element vertex 1933
property float x
property float y
property float z
property uchar red
property uchar green
property uchar blue
end_header
240 850 208 152 163 181 
240 851 208 149 160 178 
240 851 209 149 159 176 
241 850 208 162 172 190 
241 851 208 162 172 189 
241 851 209 159 168 186 
240 851 210 149 158 175 
241 851 210 153 163 180 
242 850 208 161 171 189 
242 851 208 160 170 187 
242 851 209 157 166 184 
243 850 208 158 168 186 
243 851 208 158 169 186 
243 851 209 155 165 182 
242 851 210 151 161 178 
243 851 210 147 156 173 
240 852 210 146 155 172 
240 852 211 140 149 166 
241 852 210 149 158 175 
241 852 211 140 149 166 
242 852 210 147 155 173 
242 852 211 139 147 165 
243 852 211 138 146 163 
240 852 212 135 143 160 
240 853 212 134 142 159 
240 853 213 133 141 158 
241 852 212 135 144 160 
241 853 212 134 143 159 
241 853 213 133 142 159 
240 853 214 134 142 159 
241 853 214 133 141 158 
240 854 214 134 143 159 
240 854 215 134 143 159 
241 854 214 132 140 157 
241 854 215 132 140 157 
242 852 212 136 144 161 
242 853 212 136 144 161 
242 853 213 134 143 160 
243 852 212 135 143 160 
243 853 212 136 144 161 
243 853 213 133 142 158 
242 853 214 132 141 158 
243 853 214 132 141 158 
242 854 214 131 139 157 
242 854 215 130 140 157 
243 854 214 131 140 157 
243 854 215 132 143 160 
244 850 208 151 161 178 
244 851 209 150 160 177 
245 850 208 145 154 171 
245 850 209 146 155 172 
245 851 209 146 155 172 
244 851 210 147 156 173 
244 851 211 142 150 167 
245 851 210 145 154 171 
245 851 211 141 150 166 
246 850 208 141 150 167 
246 850 209 143 152 168 
246 851 209 144 152 169 
247 850 208 141 151 167 
247 850 209 144 153 169 
246 851 210 144 152 168 
246 851 211 140 148 164 
247 851 210 143 152 168 
247 851 211 141 150 166 
247 851 212 140 148 165 
244 852 211 138 146 163 
245 852 211 139 147 163 
246 852 211 139 147 164 
244 852 212 135 142 160 
244 853 213 132 141 158 
245 852 212 136 144 161 
245 852 213 133 141 158 
245 853 213 132 141 158 
244 853 214 131 141 158 
245 853 214 133 143 160 
244 854 214 132 143 159 
244 854 215 135 145 163 
245 854 214 134 145 162 
245 854 215 142 153 170 
246 852 212 136 143 160 
246 852 213 133 141 157 
246 853 213 132 142 159 
247 852 212 138 145 162 
247 852 213 134 141 158 
246 853 214 135 144 161 
246 853 215 140 149 166 
247 852 214 132 140 157 
247 853 214 131 140 156 
247 853 215 133 142 158 
246 854 215 143 153 170 
247 854 215 136 145 161 
240 854 216 135 144 160 
240 855 216 136 145 161 
240 855 217 136 145 161 
241 854 216 133 143 159 
241 855 216 135 144 160 
241 855 217 136 145 161 
240 855 218 135 144 160 
242 854 216 133 142 160 
242 855 216 134 144 161 
242 855 217 136 146 163 
243 854 216 137 148 165 
243 855 216 140 150 168 
243 855 217 140 150 167 
242 855 218 133 142 159 
243 855 218 139 149 166 
244 854 216 140 151 169 
244 855 216 143 155 173 
244 855 217 140 151 169 
245 854 216 145 156 174 
245 855 216 145 157 175 
245 855 217 140 152 171 
244 855 218 136 147 165 
245 855 218 136 148 167 
246 854 216 145 155 172 
246 855 216 144 155 173 
246 855 217 142 153 171 
247 854 216 143 152 168 
247 855 217 145 155 172 
246 855 218 141 154 172 
247 855 218 145 156 173 
240 856 218 135 143 159 
240 856 219 130 139 155 
241 856 218 133 142 158 
241 856 219 129 138 154 
242 856 218 132 141 158 
242 856 219 128 138 155 
243 856 218 133 143 161 
243 856 219 128 138 156 
240 857 220 129 137 153 
240 857 221 131 140 156 
241 857 220 130 139 155 
241 857 221 133 142 157 
240 858 221 133 143 158 
241 858 221 137 145 161 
240 858 222 138 147 163 
240 858 223 142 151 167 
240 859 223 143 151 167 
241 858 222 141 150 165 
241 858 223 144 152 167 
241 859 223 144 152 167 
242 857 220 130 140 156 
242 857 221 136 145 161 
243 857 220 131 141 159 
243 857 221 137 147 163 
242 858 221 139 148 164 
243 858 221 141 150 167 
242 858 222 143 151 167 
242 858 223 145 153 169 
242 859 223 144 153 168 
243 858 222 144 153 169 
243 858 223 145 153 169 
243 859 223 143 152 168 
244 856 218 133 144 163 
244 856 219 132 143 161 
244 857 219 131 142 161 
245 856 218 135 147 166 
245 856 219 134 147 166 
245 857 219 138 150 169 
246 856 218 142 155 173 
246 856 219 144 156 175 
246 857 219 145 157 176 
247 856 218 146 158 175 
247 856 219 147 158 176 
247 857 219 146 158 177 
244 857 220 136 147 165 
244 857 221 143 154 171 
245 857 220 144 155 173 
244 858 221 147 157 174 
245 858 221 150 161 178 
244 858 222 147 157 173 
244 859 223 144 153 169 
245 858 222 149 158 175 
245 859 223 144 153 169 
246 857 220 147 158 177 
247 857 220 147 158 176 
246 858 221 148 159 177 
247 858 221 147 157 175 
246 858 222 147 157 174 
246 859 223 142 151 167 
247 858 222 145 154 171 
247 859 223 140 149 165 
248 849 208 141 151 169 
249 849 208 142 152 170 
248 850 208 142 152 169 
248 850 209 143 154 171 
249 850 208 143 154 172 
249 850 209 148 159 177 
248 851 210 144 154 171 
248 851 211 144 153 170 
249 851 210 152 163 180 
249 851 211 149 158 175 
250 849 208 146 156 173 
251 849 208 145 155 172 
250 850 208 148 159 176 
250 850 209 154 164 182 
251 850 208 148 158 175 
251 850 209 152 161 179 
250 850 210 158 168 186 
250 851 210 159 168 186 
250 851 211 155 164 181 
251 850 210 156 165 182 
251 851 210 156 166 183 
251 851 211 151 160 178 
248 851 212 143 152 168 
249 851 212 148 157 174 
250 851 212 151 161 178 
251 851 212 146 156 173 
248 852 212 140 148 165 
248 852 213 136 144 161 
249 852 212 146 154 171 
249 852 213 143 150 167 
248 852 214 132 141 157 
248 853 214 130 139 155 
248 853 215 129 137 153 
249 852 214 134 142 159 
249 853 214 128 136 153 
249 853 215 126 134 151 
248 854 215 129 138 154 
250 852 212 149 157 174 
250 852 213 145 153 170 
251 852 212 144 153 170 
251 852 213 140 149 166 
250 852 214 136 144 160 
250 853 214 129 137 154 
250 853 215 126 134 151 
251 852 214 133 142 158 
251 853 214 129 138 154 
251 853 215 127 135 151 
252 849 208 145 155 172 
253 849 208 146 154 171 
252 850 209 148 158 174 
253 850 208 145 154 170 
253 850 209 148 156 173 
252 850 210 150 159 176 
252 851 210 150 159 175 
252 851 211 146 155 172 
253 850 210 148 157 173 
253 851 210 148 156 173 
253 851 211 144 152 169 
254 849 208 145 154 171 
255 849 208 146 154 172 
254 850 208 147 155 172 
254 850 209 146 154 171 
255 850 209 148 157 174 
254 850 210 145 154 171 
254 850 211 143 152 169 
254 851 211 141 150 167 
255 850 210 150 158 175 
255 850 211 148 157 173 
255 851 211 144 153 170 
252 851 212 142 151 168 
253 851 212 139 148 165 
254 851 212 136 145 161 
254 851 213 133 142 158 
255 851 212 138 147 164 
255 851 213 134 143 160 
252 852 212 140 149 166 
252 852 213 136 145 161 
253 852 212 139 147 163 
253 852 213 135 143 159 
252 852 214 132 140 157 
252 853 215 129 137 153 
253 852 214 132 140 156 
253 853 215 131 139 155 
254 852 213 133 142 158 
255 852 213 134 142 158 
254 852 214 133 141 157 
254 853 215 134 141 157 
255 852 214 134 142 158 
255 853 215 135 143 158 
248 854 216 134 143 159 
248 855 217 137 147 163 
249 854 216 128 137 153 
249 855 217 131 141 157 
248 855 218 141 151 168 
249 855 218 138 148 165 
250 854 216 126 135 151 
250 855 217 130 139 155 
251 854 216 125 134 150 
251 855 217 128 137 154 
250 855 218 137 146 162 
251 855 218 132 141 157 
253 853 216 129 138 153 
252 854 216 126 135 151 
252 855 217 128 137 153 
253 854 216 128 136 152 
253 855 217 129 138 153 
252 855 218 130 139 155 
253 855 218 131 140 156 
254 853 216 133 140 155 
255 853 216 132 141 157 
254 854 216 130 138 153 
254 855 217 130 139 154 
255 854 216 129 138 154 
255 854 217 129 138 154 
255 855 217 130 139 154 
254 855 218 132 141 156 
255 855 218 132 141 156 
248 856 218 144 155 172 
248 856 219 148 159 176 
248 857 219 150 160 178 
249 856 218 145 156 173 
249 856 219 155 165 182 
249 857 219 158 167 184 
250 856 218 142 151 167 
250 856 219 149 158 174 
250 857 219 150 159 176 
251 856 218 133 143 159 
251 856 219 136 145 161 
251 857 219 137 147 163 
248 857 220 150 160 177 
249 857 220 154 163 179 
248 858 221 146 155 172 
249 858 221 145 154 170 
248 858 222 142 152 168 
248 858 223 139 147 164 
248 859 223 137 146 163 
249 858 222 140 150 167 
249 858 223 138 147 164 
249 859 223 135 144 162 
250 857 220 147 155 172 
250 857 221 140 149 166 
251 857 220 138 147 163 
251 857 221 139 148 164 
250 858 221 141 150 167 
251 858 221 138 147 164 
250 858 222 138 147 164 
250 858 223 137 146 163 
250 859 223 134 144 161 
251 858 222 136 146 162 
251 858 223 134 144 161 
251 859 223 136 146 163 
252 856 218 131 140 156 
252 856 219 133 142 159 
252 857 219 136 145 161 
253 856 218 132 142 157 
253 856 219 134 144 159 
253 857 219 137 145 161 
254 856 218 132 142 157 
254 856 219 134 143 158 
254 857 219 136 145 160 
255 856 218 132 141 156 
255 856 219 133 142 157 
252 857 220 138 146 161 
252 857 221 138 147 162 
253 857 220 137 146 161 
253 857 221 136 145 160 
252 858 221 137 146 162 
253 858 221 135 144 159 
252 858 222 134 144 161 
252 858 223 137 146 162 
252 859 223 141 151 167 
253 858 222 134 143 159 
253 858 223 138 147 163 
253 859 223 144 153 169 
254 857 220 135 144 160 
254 857 221 134 143 158 
255 857 220 134 143 159 
255 857 221 133 143 159 
255 857 222 136 145 162 
254 858 222 134 143 159 
254 858 223 138 147 163 
254 859 223 141 150 166 
255 858 222 135 145 161 
255 858 223 139 149 166 
224 861 224 146 154 171 
224 861 225 144 152 170 
225 861 224 146 155 172 
225 861 225 144 153 171 
225 861 226 143 153 172 
224 862 226 143 151 170 
224 862 227 144 152 171 
225 862 226 146 156 175 
225 862 227 153 164 183 
226 861 224 151 160 177 
226 861 225 146 156 174 
227 861 224 150 160 177 
227 861 225 146 156 174 
226 861 226 146 157 176 
227 861 226 145 156 175 
226 862 226 149 161 179 
226 862 227 157 169 188 
227 862 226 148 160 178 
227 862 227 152 164 182 
224 863 228 149 157 175 
224 863 229 150 158 176 
225 862 228 160 172 191 
225 863 228 157 168 187 
225 863 229 159 170 188 
224 863 230 150 158 175 
225 863 230 158 168 186 
226 862 228 164 176 195 
226 863 228 166 177 197 
226 863 229 165 177 196 
227 862 228 158 169 188 
227 863 228 161 173 192 
227 863 229 163 174 193 
226 863 230 162 172 190 
227 863 230 158 168 185 
228 860 224 148 158 176 
228 861 224 146 157 174 
228 861 225 145 155 173 
229 860 224 143 153 171 
229 861 224 142 153 170 
229 861 225 142 152 170 
228 861 226 145 155 173 
229 861 226 142 152 170 
228 862 226 145 155 174 
228 862 227 147 157 175 
229 862 227 143 152 170 
230 860 224 136 147 165 
230 861 225 136 147 165 
231 860 224 133 143 161 
231 861 225 134 144 162 
230 861 226 139 149 167 
231 861 226 137 147 164 
231 861 227 142 151 168 
230 862 227 144 153 170 
231 862 227 144 153 170 
228 862 228 153 162 180 
228 863 229 158 167 185 
229 862 228 146 155 173 
229 862 229 147 154 172 
229 863 229 149 157 174 
228 863 230 154 162 179 
229 863 230 146 153 169 
229 863 231 142 147 162 
230 862 228 147 155 171 
230 862 229 146 154 170 
230 863 229 145 152 168 
231 862 228 147 155 171 
231 862 229 147 154 170 
231 863 229 146 152 168 
230 863 230 143 148 165 
230 863 231 140 144 160 
231 863 230 142 148 164 
231 863 231 137 143 157 
232 860 224 132 142 160 
232 860 225 135 146 164 
232 861 225 136 147 164 
233 860 224 136 146 163 
233 860 225 145 154 171 
233 861 225 145 155 172 
232 861 226 140 150 167 
232 861 227 141 151 168 
233 861 226 148 158 175 
233 861 227 144 154 170 
232 862 227 142 152 168 
234 860 224 139 149 165 
234 860 225 149 158 174 
235 860 224 140 149 166 
235 860 225 147 156 172 
234 861 226 153 162 178 
234 861 227 148 157 174 
235 860 226 147 156 172 
235 861 226 149 158 174 
235 861 227 145 154 170 
232 862 228 143 152 169 
232 862 229 143 151 167 
233 862 228 141 151 167 
233 862 229 142 151 167 
232 862 230 140 148 164 
232 863 230 140 147 163 
232 863 231 136 142 156 
233 862 230 146 154 170 
233 863 230 146 153 167 
233 863 231 142 147 161 
235 861 228 142 151 167 
234 862 228 144 153 170 
234 862 229 147 155 172 
235 862 228 143 151 167 
235 862 229 144 152 168 
234 862 230 151 159 174 
234 863 230 153 159 173 
234 863 231 144 150 164 
235 862 230 147 154 170 
235 863 230 149 156 171 
235 863 231 140 147 161 
236 859 224 139 148 165 
237 859 224 146 155 171 
238 859 224 148 157 174 
239 859 224 143 152 169 
236 860 224 139 148 165 
236 860 225 141 150 167 
237 860 224 143 153 169 
237 860 225 140 150 166 
236 860 226 142 151 167 
236 861 226 141 150 166 
236 861 227 139 148 164 
237 860 226 138 147 163 
237 861 226 136 145 161 
237 861 227 134 143 159 
238 860 224 145 154 171 
238 860 225 140 149 166 
239 860 224 143 152 169 
239 860 225 140 149 165 
238 860 226 137 145 162 
238 861 226 135 144 160 
238 861 227 133 142 158 
239 860 226 138 146 162 
239 861 226 135 143 159 
239 861 227 132 140 156 
236 861 228 138 146 162 
237 861 228 135 143 159 
236 862 228 137 145 161 
236 862 229 137 145 161 
237 862 228 134 142 158 
237 862 229 134 142 157 
236 862 230 138 145 160 
236 863 230 137 144 159 
236 863 231 129 134 148 
237 862 230 134 141 155 
237 863 230 131 137 151 
237 863 231 122 126 140 
238 862 228 132 140 157 
238 862 229 132 140 156 
239 862 228 129 138 154 
239 862 229 130 138 154 
238 862 230 133 140 156 
238 863 230 131 138 152 
238 863 231 120 125 139 
239 862 230 132 141 155 
239 863 230 137 144 158 
239 863 231 132 138 151 
240 859 224 142 151 167 
241 859 224 142 151 167 
242 859 224 143 151 167 
243 859 224 141 150 166 
240 860 224 142 150 167 
240 860 225 140 148 164 
241 860 224 142 150 166 
241 860 225 140 148 164 
240 860 226 137 145 162 
240 861 226 134 143 159 
240 861 227 131 139 155 
241 860 226 136 144 161 
241 861 226 133 142 158 
241 861 227 129 137 154 
242 860 224 142 150 165 
242 860 225 139 147 163 
243 860 224 139 148 165 
243 860 225 140 149 166 
242 860 226 136 145 161 
242 861 226 135 143 160 
242 861 227 130 139 157 
243 860 226 141 151 168 
243 861 226 144 153 171 
243 861 227 143 153 171 
240 862 228 127 136 152 
240 862 229 127 136 152 
241 862 228 126 135 152 
241 862 229 126 136 152 
240 862 230 131 140 155 
240 863 230 137 145 159 
240 863 231 138 144 157 
241 862 230 130 139 154 
241 863 230 133 141 156 
241 863 231 134 141 154 
242 862 228 127 136 155 
242 862 229 129 139 156 
243 862 228 143 154 171 
243 862 229 145 155 171 
242 862 230 131 141 156 
242 863 230 135 143 159 
242 863 231 134 140 154 
243 863 230 142 150 166 
243 863 231 135 141 155 
244 859 224 142 151 167 
245 859 224 141 150 167 
246 859 224 138 147 163 
247 859 224 135 143 160 
244 860 224 141 150 167 
244 860 225 142 152 169 
245 860 224 141 150 167 
245 860 225 141 151 168 
244 860 226 149 158 175 
244 861 226 153 163 180 
244 861 227 152 163 181 
245 860 226 146 156 173 
245 861 226 151 161 179 
245 861 227 153 164 182 
246 860 224 138 148 164 
246 860 225 136 145 162 
247 860 225 132 141 158 
246 860 226 136 146 164 
246 861 226 141 152 170 
246 861 227 147 158 176 
247 860 226 132 142 159 
247 861 226 135 145 162 
247 861 227 138 148 165 
244 862 228 154 165 183 
244 862 229 153 163 180 
245 862 228 152 164 182 
245 862 229 149 159 176 
244 863 230 147 155 170 
244 863 231 136 141 155 
245 863 230 144 151 166 
245 863 231 136 140 154 
246 861 228 145 155 172 
247 861 228 140 150 167 
246 862 228 148 159 176 
246 862 229 148 157 173 
247 862 228 141 151 167 
247 862 229 143 151 167 
246 862 230 146 153 169 
246 863 230 142 148 162 
246 863 231 133 137 151 
247 862 230 145 152 167 
247 863 230 141 146 160 
247 863 231 127 131 146 
248 859 224 133 142 159 
249 859 224 132 140 158 
249 859 225 130 139 157 
250 859 224 132 142 160 
250 859 225 132 141 159 
251 859 224 139 149 166 
251 859 225 139 149 166 
248 860 225 131 139 157 
249 860 225 131 139 157 
248 860 226 131 140 157 
248 861 226 131 141 158 
248 861 227 133 143 159 
249 860 226 132 141 158 
249 861 227 134 143 159 
250 860 225 132 141 159 
251 860 225 138 147 165 
250 860 226 134 142 159 
250 860 227 136 145 161 
250 861 227 136 144 160 
251 860 226 137 146 163 
251 860 227 137 146 163 
251 861 227 138 147 163 
248 861 228 135 144 160 
249 861 228 136 144 160 
248 862 228 137 146 163 
248 862 229 138 146 163 
249 862 229 138 146 162 
248 862 230 140 147 163 
248 863 230 135 141 156 
248 863 231 120 124 140 
249 862 230 137 143 159 
249 863 230 129 134 149 
249 863 231 110 114 132 
250 861 228 138 146 162 
250 861 229 139 147 163 
251 861 228 138 147 162 
251 861 229 139 148 163 
250 862 229 139 147 163 
251 862 229 141 148 164 
250 862 230 137 143 159 
250 863 230 128 132 147 
250 863 231 107 110 128 
251 862 230 134 141 155 
251 863 231 105 109 128 
252 859 224 145 154 171 
252 859 225 148 157 174 
253 859 224 147 157 173 
253 859 225 150 160 176 
254 859 224 143 152 169 
254 859 225 146 155 172 
255 859 224 140 150 167 
255 859 225 141 150 167 
252 860 225 147 156 173 
252 860 226 144 153 169 
252 860 227 142 151 167 
252 861 227 141 150 166 
253 860 226 147 156 172 
253 860 227 143 152 167 
253 861 227 143 151 167 
254 860 226 144 153 170 
254 860 227 142 150 166 
254 861 227 143 151 166 
255 860 226 141 149 166 
255 860 227 140 148 164 
252 861 228 141 150 165 
252 861 229 145 153 168 
253 861 228 144 153 168 
253 861 229 147 154 168 
252 862 229 143 151 166 
252 862 230 136 142 157 
252 863 231 105 110 128 
253 862 230 133 139 154 
253 863 231 100 107 125 
254 861 228 141 149 163 
254 861 229 140 145 160 
255 861 228 138 145 160 
255 861 229 135 140 154 
255 861 230 127 131 145 
254 862 230 123 127 143 
254 862 231 92 97 117 
254 863 231 91 98 118 
255 862 230 114 117 132 
255 862 231 89 92 113 
255 863 231 85 93 114 
253 863 232 98 108 125 
254 863 232 95 106 124 
255 863 232 98 110 128 
224 864 230 150 158 174 
224 864 231 150 157 172 
225 864 230 160 169 187 
225 864 231 156 164 180 
226 864 230 159 168 185 
226 864 231 153 161 177 
227 864 230 151 160 176 
227 864 231 148 155 171 
228 864 231 145 151 166 
229 864 231 141 147 162 
230 864 231 136 140 155 
231 864 231 134 138 152 
224 864 232 148 153 168 
224 864 233 146 149 163 
225 864 232 149 155 170 
225 864 233 145 150 164 
225 865 233 137 142 156 
224 865 234 137 140 153 
224 865 235 127 126 140 
225 865 234 130 131 145 
225 865 235 116 113 129 
225 866 235 101 100 117 
226 864 232 144 150 165 
226 865 233 136 139 153 
227 864 232 140 145 160 
227 865 233 129 132 146 
226 865 234 118 117 132 
227 865 234 108 107 122 
226 866 235 93 95 110 
227 866 234 92 92 108 
227 866 235 87 93 109 
224 865 236 118 117 131 
224 866 236 104 104 120 
224 866 237 94 101 116 
224 867 237 107 117 132 
225 866 236 94 98 114 
225 866 237 93 101 116 
225 867 237 112 122 136 
224 867 238 124 135 151 
225 867 238 125 135 150 
226 866 236 93 100 114 
226 867 236 108 117 131 
226 867 237 124 134 149 
227 867 236 109 119 134 
227 867 237 120 130 145 
224 868 238 131 141 157 
224 868 239 133 142 158 
224 869 239 130 138 154 
225 868 238 132 140 155 
225 869 238 133 141 156 
225 869 239 130 138 153 
226 868 237 129 138 153 
227 868 237 129 138 153 
226 868 238 131 140 155 
226 869 238 131 138 153 
226 869 239 127 136 150 
227 869 238 128 136 151 
227 869 239 124 133 148 
226 870 239 124 133 148 
227 870 239 121 130 146 
228 864 232 136 141 155 
228 864 233 125 128 142 
228 865 233 121 122 137 
229 864 232 132 136 150 
229 864 233 121 123 138 
229 865 233 107 108 124 
228 865 234 100 100 116 
229 865 234 90 93 109 
228 866 234 84 87 104 
228 866 235 88 97 113 
229 866 234 83 91 106 
229 866 235 91 100 115 
229 867 235 108 119 134 
230 864 232 128 131 145 
230 864 233 114 115 130 
230 865 233 98 100 115 
231 864 232 125 128 142 
231 864 233 106 107 121 
231 865 233 95 97 112 
230 865 234 87 91 106 
231 865 234 80 85 101 
230 866 234 86 96 110 
230 866 235 108 118 133 
230 867 235 126 135 150 
231 866 234 84 94 108 
231 866 235 108 118 133 
231 867 235 124 133 148 
228 867 236 113 123 138 
229 867 236 119 129 144 
230 867 236 127 136 150 
228 868 237 129 138 153 
228 869 237 132 140 155 
229 868 236 124 133 148 
229 868 237 128 136 151 
229 869 237 129 136 151 
228 869 238 127 135 150 
229 869 238 126 135 150 
228 870 239 122 131 147 
228 871 239 126 135 151 
229 870 238 126 135 150 
229 870 239 130 139 154 
229 871 239 139 147 162 
230 868 236 128 136 151 
230 868 237 128 136 151 
230 869 237 129 136 151 
231 868 236 129 137 151 
231 869 237 128 136 151 
230 869 238 128 136 151 
231 869 238 127 136 151 
230 870 238 129 139 154 
230 871 239 139 148 164 
231 870 238 129 138 154 
231 871 239 135 144 160 
230 872 239 141 150 165 
231 872 239 139 147 163 
232 864 231 133 138 152 
232 864 232 125 128 142 
232 864 233 103 103 118 
232 865 233 94 95 112 
233 864 232 124 128 142 
233 865 233 88 92 109 
232 865 234 78 85 102 
233 866 233 78 90 108 
232 866 234 90 100 116 
232 867 235 119 129 143 
233 866 234 98 110 126 
233 867 234 120 131 147 
233 867 235 120 130 145 
234 864 232 119 124 137 
234 865 233 84 90 107 
235 864 232 113 117 130 
235 865 233 80 85 103 
234 866 233 82 95 112 
235 866 233 84 97 114 
234 866 234 109 120 136 
234 867 234 130 140 156 
234 867 235 130 140 156 
235 866 234 113 124 140 
235 867 234 134 145 161 
235 867 235 137 147 164 
232 868 235 124 133 147 
233 868 235 124 133 148 
234 868 235 127 137 152 
235 868 235 131 142 158 
232 868 236 127 135 149 
232 869 236 128 135 149 
232 869 237 126 135 149 
233 868 236 126 134 148 
233 869 236 126 134 148 
233 869 237 124 132 147 
233 870 237 120 128 144 
232 870 238 128 137 152 
232 871 238 129 137 153 
232 871 239 131 140 156 
233 870 238 121 130 145 
233 871 238 122 131 147 
233 871 239 124 134 149 
234 868 236 125 134 150 
234 869 236 125 134 150 
234 869 237 124 133 148 
235 868 236 126 137 153 
235 869 236 128 138 155 
235 869 237 126 136 152 
234 870 237 120 129 144 
235 870 237 122 131 147 
234 870 238 119 128 143 
234 871 238 121 130 146 
235 870 238 118 127 143 
235 871 238 119 128 144 
236 864 232 103 106 120 
236 865 233 76 81 99 
237 864 232 99 101 116 
237 865 233 76 82 98 
236 866 233 90 103 119 
237 866 233 96 109 125 
236 866 234 111 123 139 
236 867 234 130 141 158 
237 866 234 115 128 144 
237 867 234 131 143 159 
238 864 232 98 102 116 
238 865 232 82 87 103 
238 865 233 79 88 103 
239 864 232 110 115 128 
239 865 232 87 93 108 
239 865 233 85 95 110 
238 866 233 101 113 129 
239 866 233 103 115 130 
238 866 234 120 132 148 
238 867 234 137 149 165 
239 866 234 120 131 147 
239 867 234 137 148 164 
236 868 235 133 144 162 
237 868 235 134 145 163 
237 869 235 136 148 165 
238 868 235 140 151 169 
238 869 235 139 150 167 
239 868 235 146 156 173 
239 869 235 143 152 169 
236 869 236 137 147 164 
237 869 236 140 150 167 
236 870 237 133 142 158 
237 870 237 136 146 162 
237 871 237 128 137 153 
236 871 238 124 133 149 
237 871 238 125 134 150 
238 869 236 135 146 163 
239 869 236 136 146 163 
238 870 236 130 141 157 
238 870 237 127 137 154 
238 871 237 126 135 151 
239 870 236 131 140 156 
239 870 237 128 137 154 
239 871 237 126 135 151 
238 871 238 124 133 149 
239 871 238 123 132 148 
232 872 239 130 139 155 
233 872 239 127 135 151 
234 872 239 125 134 149 
234 873 239 125 134 150 
235 872 239 123 132 148 
235 873 239 125 134 150 
236 872 238 126 135 150 
236 872 239 126 135 151 
236 873 239 131 140 156 
237 872 238 125 135 150 
237 872 239 127 136 152 
237 873 239 130 140 156 
238 872 238 123 132 148 
238 873 239 127 137 153 
239 872 238 122 132 148 
239 873 238 122 132 148 
239 873 239 123 134 150 
239 874 239 127 137 153 
224 869 240 129 137 152 
225 869 240 128 136 151 
224 870 240 128 136 151 
224 870 241 128 136 151 
224 871 241 127 136 151 
225 870 240 128 137 152 
225 871 240 128 137 152 
225 871 241 130 138 153 
224 871 242 126 135 150 
226 870 240 124 133 148 
226 871 240 125 134 149 
226 871 241 127 136 152 
227 871 240 124 133 148 
228 871 240 130 139 154 
229 871 240 135 144 159 
225 872 241 133 142 157 
224 872 242 131 139 154 
225 872 242 136 144 159 
225 873 242 143 150 165 
226 872 241 132 141 157 
227 872 240 128 137 152 
227 872 241 129 138 153 
227 873 241 133 141 157 
226 873 242 144 152 166 
227 873 242 138 146 160 
227 874 242 137 144 159 
228 872 240 131 140 155 
228 872 241 128 137 153 
228 873 241 128 137 152 
229 872 240 141 149 164 
229 873 240 137 144 159 
229 873 241 130 138 152 
228 873 242 130 138 153 
228 874 242 131 139 154 
229 874 242 126 134 148 
229 875 242 123 131 146 
230 872 240 142 150 165 
230 873 240 137 144 159 
230 873 241 130 137 152 
231 872 240 138 146 161 
231 873 240 132 140 154 
231 873 241 128 135 149 
230 874 241 125 133 146 
231 874 241 126 134 148 
230 874 242 123 131 145 
230 875 242 120 128 143 
231 875 242 122 130 144 
231 876 242 121 129 144 
232 872 240 134 143 158 
232 873 240 129 137 152 
232 873 241 127 135 149 
233 873 240 126 134 149 
232 874 241 126 133 147 
232 875 241 124 132 146 
233 874 240 123 131 146 
233 874 241 123 131 146 
233 875 241 121 130 144 
232 875 242 123 131 145 
234 873 240 122 131 147 
235 873 240 125 135 151 
234 874 240 121 130 146 
234 874 241 121 130 146 
234 875 241 121 130 146 
235 874 240 127 137 153 
235 874 241 128 138 154 
235 875 241 131 140 156 
232 876 242 122 130 144 
233 876 242 121 130 144 
233 877 242 121 130 145 
234 876 241 120 130 145 
235 876 241 128 138 153 
234 876 242 120 129 145 
234 877 242 121 130 145 
235 876 242 126 136 152 
235 877 242 125 134 150 
236 873 240 135 145 161 
237 873 240 137 146 162 
236 874 240 140 150 166 
236 875 240 143 152 169 
236 875 241 140 150 166 
237 874 240 140 150 166 
237 875 240 141 151 168 
237 875 241 140 151 167 
238 874 240 136 146 162 
238 875 240 140 150 166 
239 874 240 131 141 157 
239 875 240 133 143 158 
236 876 241 138 148 165 
237 876 241 137 147 163 
236 876 242 138 147 162 
236 877 242 131 140 155 
237 877 242 126 135 151 
236 878 242 123 132 147 
237 878 242 120 129 145 
238 876 241 137 146 162 
239 876 240 129 138 153 
239 876 241 132 141 156 
239 877 241 126 135 149 
238 877 242 124 133 149 
239 877 242 122 131 146 
238 878 242 118 127 142 
239 878 242 119 127 142 
241 864 231 130 135 148 
242 864 231 127 132 145 
243 864 231 126 129 144 
244 864 231 124 128 142 
245 864 231 124 127 141 
246 864 231 120 122 138 
247 864 231 113 116 133 
240 864 232 118 124 137 
240 865 232 94 101 115 
240 865 233 91 99 114 
241 864 232 115 120 134 
241 865 232 95 101 116 
241 865 233 93 101 116 
240 866 233 103 114 130 
241 866 233 106 115 131 
240 866 234 119 131 147 
240 867 234 135 146 163 
241 866 234 122 132 148 
241 867 234 134 145 161 
242 864 232 113 117 131 
242 865 232 96 100 116 
242 865 233 93 102 117 
243 864 232 109 112 127 
243 865 232 92 96 113 
243 865 233 94 103 118 
242 866 233 105 115 130 
243 866 233 110 120 135 
242 866 234 122 132 148 
242 867 234 131 141 157 
243 866 234 125 134 150 
243 867 234 129 138 154 
240 868 234 147 157 173 
240 868 235 149 158 175 
240 869 235 144 153 170 
241 868 234 144 153 169 
241 868 235 145 155 171 
241 869 235 141 150 166 
242 868 234 136 145 161 
242 868 235 136 145 161 
242 869 235 133 142 158 
243 868 234 132 141 156 
243 868 235 131 140 155 
243 869 235 127 137 152 
240 869 236 134 144 160 
241 869 236 132 141 157 
240 870 236 130 139 155 
240 870 237 129 138 153 
240 871 237 126 135 151 
241 870 236 127 137 153 
241 870 237 126 135 151 
241 871 237 123 133 148 
242 869 236 128 137 153 
243 869 236 124 134 150 
242 870 236 125 135 151 
242 871 237 123 133 148 
243 870 236 125 135 151 
243 871 237 126 136 151 
244 864 232 106 108 125 
244 865 232 94 99 116 
244 865 233 96 104 119 
245 864 232 107 108 124 
245 865 232 95 100 117 
245 865 233 97 104 121 
244 866 233 115 125 140 
245 866 233 116 126 141 
244 866 234 127 137 152 
244 867 234 132 140 156 
245 866 234 126 136 151 
245 867 234 129 137 153 
246 864 232 103 103 122 
246 865 232 96 103 120 
246 865 233 105 115 130 
247 864 232 97 101 121 
247 865 232 100 110 128 
247 865 233 110 122 139 
246 866 233 120 130 145 
247 866 233 123 134 150 
246 866 234 127 136 152 
246 867 234 127 135 151 
247 866 234 129 139 154 
247 867 234 128 137 152 
244 868 235 129 138 153 
244 869 235 124 133 148 
245 868 235 126 135 150 
245 869 235 123 131 147 
246 868 235 124 132 147 
246 869 235 122 130 146 
247 868 235 123 132 147 
247 869 235 123 132 147 
244 869 236 122 131 147 
245 869 236 123 131 147 
244 870 236 123 133 149 
244 871 237 128 138 154 
245 870 236 123 132 148 
245 871 237 126 136 151 
246 869 236 123 132 147 
247 869 236 128 136 152 
246 870 236 127 136 151 
246 871 237 126 135 150 
247 870 236 133 142 157 
247 871 237 129 138 153 
240 872 238 124 133 148 
240 873 238 124 133 149 
240 873 239 123 133 148 
241 872 238 121 131 146 
241 873 238 121 130 146 
241 873 239 121 130 146 
240 874 239 122 132 147 
241 874 239 122 131 147 
242 872 237 123 133 148 
243 872 237 128 138 154 
242 872 238 122 131 147 
242 873 238 122 132 147 
242 873 239 122 131 147 
243 872 238 128 138 154 
243 873 238 127 136 152 
243 873 239 124 133 149 
242 874 239 121 131 146 
243 874 239 122 131 147 
243 875 239 120 129 145 
244 872 237 134 144 160 
245 872 237 131 141 157 
244 872 238 136 146 162 
244 873 238 135 145 161 
244 873 239 128 138 154 
245 872 238 133 143 159 
245 873 238 133 143 159 
245 873 239 127 137 153 
244 874 239 121 131 146 
244 875 239 119 129 145 
245 874 239 121 131 147 
245 875 239 120 130 146 
246 872 237 124 133 149 
247 872 237 125 133 148 
246 872 238 124 134 149 
246 873 238 124 134 149 
246 873 239 122 132 147 
247 872 238 122 130 146 
247 873 238 119 128 143 
247 873 239 118 127 141 
246 874 239 120 130 145 
246 875 239 120 129 144 
247 874 239 117 125 140 
247 875 239 118 127 141 
248 864 231 104 109 126 
249 864 231 101 105 124 
248 864 232 98 106 125 
248 865 232 111 122 139 
248 865 233 121 132 149 
249 864 232 98 107 124 
249 865 232 117 128 144 
249 865 233 123 133 149 
248 866 233 125 136 153 
249 866 233 129 139 155 
248 866 234 128 138 154 
248 867 234 128 137 152 
249 866 234 128 138 154 
249 867 234 127 136 151 
249 867 235 125 134 149 
250 864 232 95 104 121 
250 865 233 120 130 145 
251 864 232 101 109 127 
251 865 233 123 133 148 
250 866 233 128 137 152 
251 866 233 127 135 151 
250 866 234 128 136 151 
250 867 234 125 134 149 
250 867 235 123 132 147 
251 866 234 126 134 149 
251 867 234 123 131 145 
251 867 235 121 129 144 
248 868 235 124 133 148 
248 869 235 127 136 151 
249 868 235 122 132 148 
249 869 235 126 135 151 
250 868 235 122 131 147 
250 869 235 125 135 151 
251 868 235 119 128 143 
248 869 236 134 143 158 
249 869 236 133 142 158 
248 870 236 137 145 161 
248 870 237 137 145 160 
248 871 237 132 140 154 
249 870 236 137 145 161 
249 870 237 135 144 159 
249 871 237 129 138 152 
250 869 236 127 136 152 
251 869 236 121 129 144 
250 870 236 129 138 153 
250 870 237 128 137 152 
250 871 237 123 132 147 
251 870 236 120 129 144 
251 870 237 119 128 143 
251 871 237 118 127 142 
252 864 232 110 121 136 
252 865 233 129 138 153 
253 864 232 116 126 142 
253 864 233 130 140 155 
253 865 233 132 141 156 
252 866 234 127 135 150 
252 867 234 123 131 145 
252 867 235 122 130 145 
253 866 234 129 138 153 
253 867 235 124 132 147 
254 864 232 113 124 140 
254 864 233 126 136 152 
254 865 233 130 140 156 
255 864 232 116 128 145 
255 864 233 126 138 154 
255 865 233 128 139 156 
255 865 234 130 141 158 
254 866 234 128 139 155 
254 867 235 129 139 154 
255 866 234 132 143 159 
255 866 235 136 146 163 
255 867 235 138 146 162 
252 868 235 118 127 141 
253 868 235 120 128 143 
254 868 235 125 133 148 
255 868 235 132 141 155 
252 869 236 118 126 141 
253 869 236 117 126 141 
252 870 236 118 126 141 
252 870 237 118 126 141 
252 871 237 118 126 141 
253 870 236 118 127 142 
253 870 237 117 126 141 
253 871 237 118 127 141 
254 868 236 123 131 146 
254 869 236 116 125 140 
255 868 236 125 133 148 
255 869 236 116 125 140 
254 870 237 115 125 140 
254 871 237 119 129 144 
255 870 237 115 125 140 
255 871 237 119 129 145 
248 872 237 125 133 148 
249 872 237 123 131 145 
248 872 238 122 130 145 
248 873 238 115 124 138 
248 873 239 114 122 137 
249 872 238 119 127 142 
249 873 238 114 123 138 
248 874 239 112 122 136 
248 875 239 114 124 138 
249 874 239 113 122 137 
249 875 239 114 124 138 
250 872 237 120 128 142 
251 872 237 117 126 140 
250 872 238 117 125 140 
250 873 238 115 123 138 
251 872 238 116 125 139 
251 873 238 115 123 137 
250 874 239 115 124 138 
250 875 239 115 124 138 
251 874 239 117 125 139 
251 875 239 117 126 139 
252 872 237 116 125 139 
253 872 237 118 127 142 
252 872 238 114 123 138 
252 873 238 113 122 137 
252 873 239 113 122 137 
253 872 238 119 128 143 
253 873 238 121 131 146 
253 873 239 118 128 143 
252 874 239 115 124 138 
252 875 239 116 125 139 
253 874 239 118 128 142 
253 875 239 118 127 141 
254 872 238 127 136 152 
254 873 238 132 142 158 
254 873 239 132 142 158 
255 872 238 128 138 154 
255 873 238 134 144 160 
255 873 239 134 144 160 
254 874 239 131 141 156 
254 875 239 129 137 152 
255 874 239 134 143 158 
255 875 239 131 140 155 
240 874 240 122 132 148 
240 875 240 124 133 149 
241 875 240 124 133 148 
242 875 240 123 132 147 
243 875 240 121 131 146 
240 876 240 125 134 150 
240 876 241 124 132 147 
240 877 241 121 129 144 
241 876 240 124 133 148 
241 876 241 123 131 146 
241 877 241 117 126 141 
240 877 242 119 127 142 
240 878 242 118 127 141 
240 879 242 118 126 140 
241 878 242 117 125 140 
241 879 242 116 125 139 
242 876 240 123 132 147 
242 876 241 122 130 145 
242 877 241 118 127 142 
243 876 240 121 130 146 
243 876 241 121 130 146 
243 877 241 120 129 145 
243 878 241 117 127 142 
242 878 242 116 125 139 
242 879 242 115 123 138 
243 878 242 116 126 141 
243 879 242 115 124 139 
244 875 240 120 130 145 
245 875 240 121 131 147 
246 875 240 120 129 144 
247 875 240 119 128 142 
244 876 240 123 134 149 
244 877 241 126 136 152 
245 876 240 128 138 153 
245 877 241 132 142 157 
244 878 241 125 135 150 
245 878 241 131 141 156 
244 878 242 123 133 148 
244 879 242 120 130 145 
245 879 242 126 136 150 
246 876 240 123 132 147 
246 877 240 123 131 146 
246 877 241 130 139 154 
247 876 240 118 126 140 
247 877 240 116 124 138 
247 877 241 114 123 137 
246 878 241 127 136 150 
247 878 241 114 123 137 
247 879 241 112 120 135 
246 879 242 121 130 144 
247 879 242 113 122 136 
248 875 240 116 125 139 
248 876 240 115 123 137 
248 877 240 112 121 135 
248 877 241 111 120 134 
249 876 240 113 123 137 
249 877 240 112 121 135 
249 877 241 110 120 134 
248 878 241 109 118 132 
248 879 241 110 118 133 
249 878 241 110 119 133 
249 879 241 111 119 133 
248 879 242 111 119 133 
249 879 242 112 120 134 
250 876 240 116 126 140 
250 877 240 121 129 144 
250 877 241 120 130 144 
251 876 240 119 127 141 
251 877 240 124 132 146 
251 877 241 124 133 147 
250 878 241 117 126 140 
250 879 241 111 120 134 
251 878 241 121 130 144 
250 879 242 114 123 136 
251 879 242 117 125 138 
255 875 240 129 138 153 
252 876 240 114 123 137 
252 877 240 113 122 136 
252 877 241 113 122 136 
253 876 240 114 123 137 
253 877 240 110 119 133 
253 877 241 110 119 133 
252 878 241 113 123 137 
253 878 241 112 121 135 
252 879 242 115 123 136 
253 879 242 115 122 136 
254 876 240 118 127 142 
254 877 240 109 118 133 
254 877 241 109 118 131 
255 876 240 118 127 142 
255 877 240 108 117 131 
255 877 241 108 116 130 
254 878 241 111 119 133 
255 878 241 108 117 131 
254 878 242 112 120 133 
254 879 242 114 122 134 
255 878 242 110 118 132 
255 879 242 112 120 133 
245 880 242 124 133 147 
246 880 242 119 128 142 
247 880 242 114 122 136 
248 880 242 112 120 134 
249 880 242 113 121 134 
250 880 242 115 122 135 
256 691 131 80 87 96 
257 690 131 79 86 95 
257 691 131 79 85 95 
258 690 131 82 88 97 
258 691 131 78 85 94 
259 690 131 83 90 99 
259 691 131 78 85 94 
256 692 131 79 86 95 
256 693 131 79 86 96 
257 692 131 79 86 96 
257 693 131 81 87 97 
256 694 131 85 92 102 
256 695 131 91 98 108 
257 694 131 86 92 102 
257 695 131 90 97 107 
258 692 131 79 85 95 
258 693 131 82 88 97 
259 692 131 79 86 95 
259 693 131 83 90 99 
258 694 131 86 92 102 
258 695 131 88 95 104 
259 694 131 87 93 103 
259 695 131 88 94 104 
256 695 132 93 100 110 
260 690 131 81 87 97 
260 691 131 80 86 96 
261 690 131 79 85 95 
261 691 131 80 86 95 
262 689 131 78 84 93 
262 690 131 79 85 94 
262 691 131 80 87 96 
260 692 131 82 88 98 
260 693 131 84 91 100 
261 692 131 83 89 99 
261 693 131 85 91 101 
260 694 131 87 94 104 
260 695 131 89 96 107 
261 694 131 87 94 104 
261 695 131 89 97 108 
262 692 131 82 89 99 
262 693 131 85 92 102 
262 694 131 89 96 107 
262 695 131 92 99 110 
263 695 131 93 101 112 
258 696 131 87 94 104 
259 696 131 88 95 105 
256 696 132 95 102 113 
256 697 132 94 101 112 
257 696 132 91 97 108 
257 697 132 89 96 106 
256 698 132 89 96 107 
256 699 132 86 93 104 
257 698 132 87 94 104 
257 699 132 88 94 105 
258 696 132 89 95 105 
258 697 132 89 95 105 
259 696 132 89 95 106 
259 697 132 89 96 107 
258 698 132 88 95 106 
258 699 132 90 97 108 
259 698 132 91 98 109 
259 699 132 94 102 114 
256 700 132 88 95 104 
256 701 132 90 96 106 
257 700 132 91 97 107 
257 701 132 90 97 107 
256 702 133 91 97 108 
256 703 133 91 97 108 
257 702 133 90 97 108 
257 703 133 90 97 108 
258 700 132 94 101 112 
258 701 132 92 99 110 
258 701 133 93 101 112 
259 700 132 97 105 117 
259 701 132 99 107 118 
258 702 133 90 98 109 
258 703 133 91 98 109 
259 702 132 96 103 114 
259 702 133 92 100 111 
259 703 133 91 98 109 
260 696 131 90 97 107 
261 696 131 91 98 110 
262 696 131 95 102 114 
262 697 131 99 108 120 
263 696 131 100 108 120 
263 697 131 108 116 129 
260 696 132 90 97 107 
260 697 132 91 98 110 
261 696 132 93 100 112 
261 697 132 95 103 115 
260 698 132 95 103 115 
260 699 132 101 109 122 
261 698 132 99 108 121 
261 699 132 105 114 127 
262 697 132 101 110 122 
263 697 132 109 117 130 
262 698 132 104 114 127 
262 699 132 107 117 130 
263 698 132 109 118 131 
263 699 132 108 118 131 
260 700 132 103 112 124 
260 701 132 102 110 122 
261 700 132 107 115 128 
261 701 132 103 112 125 
260 702 132 100 108 120 
260 702 133 97 105 116 
260 703 133 93 101 113 
261 702 132 102 110 123 
261 702 133 102 110 122 
261 703 133 100 107 119 
262 700 132 107 116 129 
262 701 132 102 112 125 
263 700 132 107 116 130 
263 701 132 101 111 124 
262 702 132 101 109 122 
262 702 133 105 112 124 
262 703 133 105 112 124 
263 702 132 101 110 123 
263 702 133 102 110 122 
263 703 133 102 110 121 
264 701 132 101 111 124 
264 702 132 98 107 120 
264 702 133 98 106 119 
264 703 133 98 105 118 
256 704 133 91 98 109 
256 705 133 93 100 111 
257 704 133 91 98 109 
257 705 133 93 100 110 
256 705 134 94 101 112 
257 705 134 94 101 112 
256 706 134 95 102 113 
256 707 134 98 105 116 
257 706 134 96 103 114 
257 707 134 98 106 117 
258 704 133 90 97 108 
258 705 133 92 99 110 
259 704 133 91 98 109 
259 705 133 92 99 110 
258 705 134 94 101 112 
259 705 134 94 101 112 
258 706 134 95 102 113 
258 707 134 98 105 116 
259 706 134 95 102 114 
259 707 134 98 104 116 
256 708 134 103 110 121 
256 709 134 109 115 127 
257 708 134 103 110 121 
257 709 134 104 111 123 
256 710 134 99 106 118 
256 710 135 101 108 119 
256 711 135 97 104 115 
257 710 134 98 105 117 
257 711 135 95 102 114 
258 708 134 99 107 119 
258 709 134 98 106 118 
259 708 134 101 108 119 
259 709 134 100 107 118 
258 710 134 96 104 116 
258 710 135 95 103 115 
258 711 135 95 103 114 
259 710 134 98 105 117 
259 710 135 97 104 116 
259 711 135 97 104 115 
260 704 133 90 98 110 
260 705 133 92 100 111 
261 704 133 94 102 114 
261 705 133 94 102 114 
260 705 134 94 102 113 
261 705 134 96 104 115 
260 706 134 97 104 115 
260 707 134 100 107 118 
261 706 134 100 107 119 
261 707 134 107 114 125 
262 704 133 103 111 123 
262 705 133 99 107 119 
263 704 133 103 110 122 
263 705 133 102 110 122 
262 705 134 102 110 122 
263 705 134 104 111 123 
262 706 134 107 115 127 
262 707 134 114 121 133 
263 706 134 107 115 127 
263 707 134 110 117 129 
260 708 134 101 108 120 
260 709 134 100 107 118 
261 708 134 106 112 124 
261 709 134 99 106 117 
260 710 134 98 105 116 
260 710 135 97 104 115 
260 711 135 96 103 114 
261 710 134 97 104 116 
261 710 135 97 104 115 
261 711 135 96 103 114 
262 708 134 109 116 127 
262 709 134 99 106 117 
263 708 134 105 112 123 
263 709 134 97 104 115 
262 710 134 98 104 115 
262 710 135 97 104 115 
262 711 135 95 102 113 
263 710 135 96 103 114 
263 711 135 96 103 114 
256 712 135 98 106 117 
256 713 135 105 113 126 
257 712 135 99 106 118 
257 713 135 105 113 125 
258 712 135 96 104 115 
258 713 135 100 108 120 
259 712 135 96 103 114 
259 713 135 99 106 117 
260 712 135 94 102 113 
260 713 135 94 102 114 
261 712 135 93 101 112 
261 713 135 92 100 111 
262 712 135 95 102 113 
262 713 135 94 101 112 
263 712 135 97 104 115 
263 713 135 96 103 114 
256 714 136 113 121 134 
256 715 136 110 118 131 
257 714 136 110 118 131 
257 715 136 108 117 130 
259 713 136 100 107 119 
258 714 136 104 112 125 
258 715 136 107 116 128 
259 714 136 102 110 122 
259 715 136 103 111 123 
256 716 136 99 107 120 
256 717 136 94 102 114 
257 716 136 101 109 122 
257 717 136 93 101 114 
256 718 136 94 102 113 
256 719 137 96 104 116 
257 718 136 94 101 113 
257 719 137 93 100 112 
258 716 136 103 111 123 
258 717 136 94 102 114 
259 716 136 101 108 120 
259 717 136 93 102 114 
258 718 136 91 99 111 
258 719 137 91 98 109 
259 718 136 92 100 112 
259 719 137 91 98 109 
260 713 136 94 102 113 
260 714 136 96 103 115 
260 715 136 96 104 115 
261 714 136 94 100 111 
261 715 136 92 99 110 
262 714 136 94 101 112 
262 715 136 92 99 110 
263 714 136 92 100 111 
263 715 136 91 99 111 
260 716 136 95 103 115 
260 717 136 93 101 113 
261 716 136 93 101 112 
261 717 136 93 101 113 
260 718 136 92 100 112 
260 719 137 89 97 108 
261 718 136 93 101 113 
261 718 137 96 104 115 
261 719 137 93 100 112 
262 716 136 93 101 112 
262 717 136 96 104 117 
263 716 136 94 103 115 
263 717 136 103 111 124 
262 718 136 100 108 120 
262 718 137 104 112 124 
262 719 137 105 112 124 
263 718 136 108 116 128 
263 718 137 111 119 132 
263 719 137 108 116 128 
264 704 133 100 107 119 
264 705 133 101 109 120 
264 705 134 102 109 121 
264 706 134 100 107 119 
264 707 134 98 105 117 
265 706 134 97 105 117 
265 707 134 95 103 115 
264 708 134 95 103 115 
264 709 134 94 101 113 
265 708 134 94 102 114 
265 709 134 94 102 113 
265 709 135 94 101 113 
264 710 135 94 102 113 
264 711 135 95 102 114 
265 710 135 93 101 113 
265 711 135 93 101 113 
264 712 135 93 101 113 
264 713 135 93 100 112 
265 712 135 93 101 112 
265 713 135 95 102 113 
266 712 135 94 102 113 
266 713 135 95 102 114 
264 713 136 93 100 111 
265 713 136 94 102 113 
264 714 136 91 99 110 
264 715 136 93 101 114 
265 714 136 93 101 112 
265 715 136 98 107 119 
266 713 136 96 103 114 
266 714 136 98 106 118 
266 715 136 109 117 129 
264 716 136 97 106 119 
264 717 136 105 113 126 
264 717 137 105 114 127 
265 716 136 104 113 126 
265 717 136 106 115 128 
265 717 137 108 117 131 
264 718 137 110 119 132 
264 719 137 107 115 128 
265 718 137 110 119 133 
265 719 137 104 113 126 
266 716 136 110 119 132 
266 717 137 108 117 130 
266 718 137 110 119 132 
266 719 137 102 111 124 
267 718 137 107 116 129 
267 719 137 103 111 124 
256 720 137 100 108 120 
256 721 137 102 110 123 
257 720 137 94 101 112 
257 721 137 94 102 114 
256 722 137 104 113 126 
257 722 137 95 104 116 
256 723 138 108 116 128 
257 723 138 96 104 117 
258 720 137 90 98 109 
258 721 137 92 99 110 
259 720 137 90 97 108 
259 721 137 90 97 109 
258 722 137 93 100 111 
259 722 137 91 98 109 
258 723 138 91 99 110 
259 723 138 91 98 109 
256 724 138 105 113 124 
256 725 138 97 104 116 
257 724 138 96 104 115 
257 725 138 94 102 113 
256 726 138 94 102 113 
256 726 139 95 102 114 
256 727 139 98 105 116 
257 726 138 94 101 112 
257 726 139 95 103 114 
257 727 139 99 107 119 
258 724 138 92 100 111 
258 725 138 95 102 113 
259 724 138 93 100 112 
259 725 138 97 104 115 
258 726 138 98 105 116 
258 726 139 101 108 120 
258 727 139 108 114 126 
259 726 138 100 107 118 
259 726 139 103 109 121 
259 727 139 109 116 127 
260 720 137 88 95 106 
260 721 137 89 96 107 
261 720 137 90 97 108 
261 721 137 89 96 107 
260 722 137 90 97 108 
261 722 137 90 97 108 
260 723 138 92 99 110 
261 722 138 90 97 108 
261 723 138 92 99 110 
262 720 137 94 102 113 
262 721 137 89 97 108 
263 720 137 102 109 121 
263 721 137 95 103 114 
262 722 137 90 97 108 
263 722 137 93 100 112 
262 722 138 90 98 109 
262 723 138 92 100 111 
263 722 138 91 98 110 
263 723 138 91 99 110 
260 724 138 95 102 113 
260 725 138 96 103 114 
261 724 138 95 102 113 
261 725 138 95 102 113 
260 726 138 97 105 116 
260 726 139 99 106 118 
260 727 139 102 109 121 
261 726 138 96 103 114 
261 726 139 96 104 115 
261 727 139 97 104 116 
262 724 138 93 101 112 
262 725 138 92 99 111 
263 724 138 92 99 111 
263 725 138 90 98 109 
262 726 138 92 100 111 
262 726 139 92 100 111 
262 727 139 95 102 114 
263 726 139 91 99 110 
263 727 139 94 102 113 
256 728 139 99 106 117 
256 729 139 98 104 116 
257 728 139 97 105 117 
257 729 139 95 103 115 
258 728 139 105 112 124 
258 729 139 96 104 116 
259 728 139 104 111 123 
259 729 139 96 104 116 
256 730 140 97 104 115 
256 731 140 97 104 116 
257 730 140 94 102 114 
257 731 140 97 104 116 
258 730 140 94 102 114 
258 731 140 100 109 121 
259 730 140 96 104 116 
259 731 140 104 112 125 
256 732 140 97 105 116 
256 733 141 95 103 115 
257 732 140 100 107 119 
257 733 141 100 107 120 
256 734 141 95 102 114 
256 735 141 94 102 114 
257 734 141 96 104 116 
257 735 141 96 104 116 
258 732 140 109 117 130 
258 733 141 110 118 131 
259 732 140 116 123 136 
259 733 141 115 123 136 
258 734 141 103 111 123 
258 735 141 98 106 118 
259 734 141 106 114 127 
259 735 141 100 107 120 
260 728 139 99 106 118 
260 729 139 94 101 113 
261 728 139 97 104 115 
261 729 139 95 103 115 
262 728 139 94 102 113 
262 729 139 94 102 113 
263 728 139 94 101 113 
263 729 139 94 101 113 
260 730 140 94 102 114 
260 731 140 101 109 121 
261 730 140 94 102 115 
261 731 140 100 108 121 
262 729 140 94 102 114 
263 729 140 94 101 112 
262 730 140 95 103 115 
262 731 140 99 108 120 
263 730 140 94 102 113 
263 731 140 96 104 116 
260 732 140 111 119 132 
260 733 141 117 125 137 
261 732 140 109 117 130 
261 733 141 114 122 135 
260 734 141 108 116 129 
260 735 141 100 108 120 
261 734 141 111 118 131 
261 735 141 102 110 122 
262 732 140 106 114 126 
262 733 141 108 116 128 
263 732 140 98 106 118 
263 733 141 99 107 120 
262 734 141 105 113 126 
262 735 141 98 106 118 
263 734 141 99 107 119 
263 735 141 95 103 115 
264 720 137 105 113 126 
264 721 137 102 110 122 
265 720 137 100 108 121 
265 721 137 100 108 120 
265 721 138 97 105 117 
264 722 138 96 103 115 
264 723 138 92 99 111 
265 722 138 98 105 116 
265 723 138 93 100 111 
266 720 137 95 104 116 
266 721 137 91 100 112 
267 720 137 95 103 116 
266 721 138 91 99 110 
267 721 138 92 99 111 
266 722 138 92 99 110 
266 723 138 92 99 110 
267 722 138 92 99 109 
267 723 138 92 99 110 
264 724 138 94 102 113 
264 725 138 98 105 117 
265 724 138 97 104 116 
265 725 138 105 112 124 
264 726 138 96 104 115 
264 726 139 103 110 121 
264 727 139 98 105 116 
265 726 139 105 112 123 
265 727 139 99 106 117 
266 724 138 95 103 114 
266 725 138 99 107 119 
267 724 138 94 101 113 
267 725 138 94 102 113 
267 725 139 92 100 112 
266 726 139 99 106 118 
266 727 139 97 104 116 
267 726 139 93 100 112 
267 727 139 94 102 114 
268 723 138 92 98 109 
268 724 138 91 98 109 
268 725 138 92 100 111 
268 725 139 91 98 110 
268 726 139 93 100 112 
268 727 139 96 103 114 
264 728 139 97 104 115 
264 729 139 96 103 114 
265 728 139 98 105 117 
265 729 139 98 105 116 
266 728 139 96 103 115 
266 729 139 96 104 115 
267 728 139 95 102 114 
267 729 139 96 103 114 
264 729 140 95 102 113 
265 729 140 97 104 115 
264 730 140 94 102 113 
264 731 140 95 102 114 
265 730 140 97 104 115 
265 731 140 97 105 116 
267 729 140 95 103 114 
266 730 140 96 103 114 
