ply
format ascii 1.0
comment Created by CloudCompare v2.10.1 (Zephyrus)
comment Created 1/30/20 12:05 PM
obj_info Generated by CloudCompare!
element vertex 2061
property float x
property float y
property float z
property uchar red
property uchar green
property uchar blue
end_header
367 627 273 91 98 108 
367 626 274 93 99 109 
367 626 275 93 99 111 
367 627 274 97 105 116 
367 627 275 95 105 118 
366 624 276 95 101 110 
366 624 277 100 105 114 
366 625 276 92 97 105 
366 625 277 98 103 112 
366 624 278 100 106 115 
366 624 279 99 104 113 
366 625 278 100 105 114 
366 625 279 100 105 115 
366 626 276 90 94 102 
366 626 277 94 98 108 
367 626 276 92 97 106 
367 626 277 91 96 105 
367 627 276 95 103 115 
367 627 277 92 99 109 
366 626 278 98 103 112 
366 626 279 100 106 115 
366 627 278 97 102 111 
366 627 279 99 104 113 
367 627 278 94 100 109 
367 627 279 97 102 111 
367 628 274 105 114 127 
367 628 275 109 119 133 
367 628 276 103 112 126 
367 628 277 99 106 118 
367 629 276 121 128 141 
367 629 277 118 125 137 
367 628 278 97 103 113 
367 628 279 99 104 113 
367 629 278 112 118 127 
367 629 279 104 109 119 
367 630 277 125 132 143 
367 630 278 120 125 136 
367 630 279 109 114 123 
367 631 278 115 123 136 
367 631 279 105 111 122 
365 624 281 98 104 115 
365 624 282 97 103 114 
365 624 283 97 102 112 
365 625 282 98 105 115 
365 625 283 98 103 113 
365 626 282 98 104 114 
365 626 283 96 102 112 
365 627 283 96 101 110 
366 624 280 100 105 115 
366 624 281 99 105 115 
366 625 280 101 106 116 
366 625 281 101 107 117 
366 625 282 99 106 116 
366 626 280 101 106 115 
366 626 281 100 106 116 
366 627 280 101 107 116 
366 627 281 101 106 115 
366 626 282 99 105 115 
366 627 282 99 104 114 
366 627 283 98 103 113 
365 624 284 97 103 112 
365 624 285 96 101 111 
365 625 284 98 103 112 
365 625 285 98 103 112 
365 624 286 92 98 107 
365 624 287 87 93 103 
365 625 286 96 101 110 
365 625 287 94 99 109 
365 626 284 97 102 112 
365 626 285 100 105 114 
365 627 284 95 100 109 
365 627 285 99 104 113 
365 626 286 98 103 112 
365 626 287 98 103 112 
365 627 286 102 106 115 
365 627 287 99 104 113 
366 628 280 99 105 114 
366 628 281 99 104 113 
366 629 280 100 106 116 
366 629 281 102 106 114 
367 629 280 101 107 117 
366 628 282 98 103 111 
366 628 283 98 103 112 
366 629 282 99 104 112 
366 629 283 98 103 112 
366 630 281 101 105 113 
367 630 280 99 104 114 
367 630 281 99 103 112 
367 631 280 93 98 108 
367 631 281 95 99 108 
366 630 282 99 104 113 
366 630 283 97 102 111 
366 631 282 98 102 111 
366 631 283 97 103 112 
365 628 284 96 100 109 
365 628 285 98 102 111 
365 629 284 96 100 109 
365 629 285 94 99 107 
365 628 286 102 106 114 
365 628 287 100 105 114 
365 629 286 100 104 112 
365 629 287 102 106 115 
365 630 284 97 102 111 
365 630 285 94 99 108 
365 631 284 98 103 113 
365 631 285 98 103 112 
365 630 286 96 100 109 
365 630 287 101 105 114 
365 631 286 99 103 112 
365 631 287 102 107 116 
366 629 284 98 103 112 
366 630 284 98 103 112 
366 631 284 97 102 112 
367 632 279 95 103 115 
367 633 279 87 95 107 
367 632 280 86 92 102 
367 632 281 85 90 99 
367 633 280 84 90 100 
367 633 281 82 87 96 
366 632 282 94 99 107 
366 632 283 98 103 112 
366 633 283 102 105 114 
367 632 282 91 95 103 
367 633 282 91 95 102 
367 634 280 87 94 104 
367 634 281 93 98 107 
367 635 280 96 102 111 
367 634 282 95 100 108 
365 632 285 96 102 112 
365 632 286 97 102 112 
366 632 284 96 102 112 
366 633 284 102 107 117 
368 622 256 109 116 127 
368 622 257 111 118 129 
368 623 256 112 119 130 
368 623 257 106 114 126 
368 622 258 106 115 127 
368 622 259 110 117 130 
368 623 258 102 110 122 
368 623 259 101 108 120 
368 622 260 106 114 125 
368 622 261 102 109 120 
368 623 260 97 104 115 
368 623 261 94 101 111 
368 622 262 94 100 111 
368 622 263 92 97 107 
368 623 262 90 96 106 
368 623 263 88 93 102 
368 622 264 88 94 104 
368 623 264 86 91 100 
368 623 265 83 89 99 
368 623 266 86 91 100 
368 623 267 90 94 103 
368 624 256 112 119 130 
368 624 257 103 110 122 
369 624 256 112 118 128 
369 624 257 105 112 123 
369 625 256 111 117 128 
369 625 257 106 113 124 
368 624 258 101 109 120 
368 624 259 96 103 114 
369 624 258 100 107 118 
369 624 259 96 103 114 
369 625 258 98 105 116 
369 625 259 92 99 110 
369 626 256 110 117 128 
369 626 257 104 111 122 
369 627 256 105 112 124 
369 627 257 101 109 120 
369 626 258 96 103 114 
369 626 259 92 99 109 
369 627 258 96 103 114 
369 627 259 96 103 113 
368 624 260 91 98 108 
368 624 261 88 94 104 
369 625 260 89 96 106 
369 625 261 86 93 103 
368 624 262 86 91 101 
368 624 263 84 90 99 
368 625 262 84 90 98 
368 625 263 82 87 95 
369 625 262 84 90 99 
369 625 263 82 86 94 
369 626 260 92 98 108 
369 626 261 91 97 107 
369 627 260 95 101 111 
369 627 261 95 101 110 
369 626 262 87 92 101 
369 626 263 84 89 97 
369 627 262 93 97 106 
369 627 263 91 94 101 
369 628 256 103 111 124 
369 628 257 102 110 121 
369 628 258 99 107 117 
369 628 259 99 106 116 
369 629 258 102 108 119 
369 629 259 102 109 119 
370 628 256 104 112 124 
370 628 257 104 111 123 
370 629 256 109 117 130 
370 629 257 106 114 126 
370 629 258 104 111 122 
370 629 259 103 110 121 
370 630 256 124 131 144 
370 630 257 123 130 142 
370 631 256 130 137 149 
370 631 257 137 144 156 
370 630 258 118 124 136 
370 630 259 106 113 125 
370 631 258 132 138 150 
370 631 259 109 117 130 
369 628 260 100 105 115 
369 628 261 98 104 113 
369 629 260 101 107 117 
369 629 261 98 104 114 
369 628 262 95 100 109 
369 628 263 96 99 105 
369 629 262 96 101 111 
369 629 263 100 104 111 
369 630 260 102 108 118 
369 630 261 94 100 110 
369 630 262 95 100 110 
370 630 260 100 107 118 
370 630 261 94 101 111 
370 631 260 101 108 121 
370 631 261 99 105 117 
370 630 262 96 101 110 
370 630 263 100 103 110 
370 631 262 103 107 115 
370 631 263 101 102 106 
368 624 264 89 94 103 
368 624 265 96 101 110 
368 625 264 92 96 103 
368 625 265 106 109 116 
369 625 264 86 90 97 
368 624 266 90 96 105 
368 624 267 91 96 104 
368 625 266 97 102 111 
368 625 267 92 96 104 
368 626 265 105 107 114 
369 626 264 92 97 104 
369 626 265 102 104 111 
369 627 264 93 97 106 
369 627 265 97 102 110 
368 626 266 94 97 104 
368 626 267 88 92 99 
368 627 266 88 90 97 
368 627 267 82 86 92 
369 627 266 88 91 97 
369 627 267 75 78 85 
368 624 268 91 96 105 
368 624 269 92 98 107 
368 625 268 93 98 106 
368 625 269 102 107 116 
368 625 270 122 128 139 
368 626 268 92 95 103 
368 626 269 99 105 114 
368 627 268 81 84 90 
368 627 269 88 91 98 
368 626 270 117 123 134 
368 626 271 122 127 138 
368 627 270 90 97 106 
368 627 271 94 100 111 
369 628 264 100 101 107 
369 628 265 106 107 112 
369 629 264 109 110 114 
369 629 265 108 107 110 
369 628 266 95 96 102 
369 628 267 69 72 77 
369 629 266 93 93 96 
369 629 267 73 74 78 
369 630 264 106 106 111 
369 630 265 102 101 102 
369 630 266 96 95 97 
369 630 267 96 96 100 
370 630 264 101 100 104 
370 630 265 93 91 94 
370 631 264 100 98 100 
370 631 265 85 83 84 
370 630 266 98 96 99 
370 630 267 112 112 117 
370 631 266 93 92 98 
370 631 267 117 117 123 
368 628 269 82 85 90 
369 628 268 68 70 75 
369 628 269 75 76 81 
369 629 268 68 69 74 
369 629 269 69 70 74 
368 628 270 87 91 98 
368 628 271 89 93 101 
368 629 271 88 91 97 
369 628 270 81 84 90 
369 629 270 77 79 83 
369 629 271 85 87 93 
369 630 268 91 91 95 
369 630 269 77 78 82 
369 630 270 70 71 76 
369 630 271 73 76 82 
369 631 270 69 70 74 
369 631 271 69 72 78 
370 630 268 112 112 117 
370 631 268 114 114 120 
370 631 269 91 91 96 
370 631 270 72 73 77 
370 631 271 68 70 74 
370 632 256 116 123 136 
370 632 257 123 131 143 
370 633 256 100 108 120 
370 633 257 106 114 126 
371 633 256 95 103 115 
370 632 258 121 129 142 
370 632 259 109 118 132 
370 633 258 101 111 124 
370 633 259 105 113 127 
370 634 257 101 109 122 
371 634 256 94 102 114 
371 634 257 101 108 120 
371 635 256 91 99 110 
371 635 257 99 106 117 
370 634 258 98 107 121 
370 634 259 94 104 117 
370 635 258 100 108 121 
370 635 259 94 103 116 
371 635 258 95 104 115 
371 635 259 88 98 111 
370 632 260 104 113 126 
370 632 261 99 107 119 
370 633 260 102 111 124 
370 633 261 100 109 121 
370 632 262 101 106 115 
370 632 263 100 101 105 
370 633 262 97 104 115 
370 633 263 96 99 106 
371 633 263 96 99 106 
370 634 260 93 102 115 
370 634 261 91 101 113 
370 635 260 90 99 112 
370 635 261 86 96 108 
371 635 260 86 96 108 
371 635 261 88 97 109 
370 634 262 95 103 114 
371 634 262 94 102 114 
371 634 263 93 99 109 
371 635 262 94 102 114 
371 635 263 95 102 114 
371 636 256 86 93 104 
371 636 257 88 95 105 
371 637 256 86 93 102 
371 637 257 85 92 101 
371 636 258 87 94 105 
371 636 259 84 92 104 
371 637 258 84 90 100 
371 637 259 81 87 97 
371 638 256 88 94 103 
371 638 257 85 92 101 
371 639 256 88 94 104 
371 639 257 87 93 103 
371 638 258 83 89 100 
371 638 259 81 87 96 
371 639 258 86 93 103 
371 639 259 87 92 101 
371 636 260 81 89 102 
371 636 261 85 93 106 
371 637 260 81 87 99 
371 637 261 84 91 103 
371 636 262 97 104 116 
371 636 263 99 106 117 
371 637 262 94 101 112 
371 637 263 97 103 113 
371 638 260 80 85 94 
371 638 261 81 87 96 
371 639 260 81 85 93 
371 639 261 82 86 95 
371 638 262 84 91 101 
371 638 263 81 88 98 
371 639 262 82 88 97 
371 639 263 78 84 94 
372 639 256 88 94 103 
372 639 257 87 94 104 
370 632 264 106 103 103 
370 632 265 95 91 90 
370 633 264 107 104 106 
370 633 265 111 107 108 
371 633 264 98 99 104 
370 632 266 83 83 87 
370 632 267 101 102 107 
370 633 266 88 87 89 
370 633 267 74 75 80 
370 635 265 94 100 110 
371 634 264 95 99 107 
371 634 265 96 99 105 
371 635 264 97 104 115 
371 635 265 97 103 113 
370 634 266 83 86 93 
370 634 267 68 73 81 
370 635 266 87 93 102 
370 635 267 82 89 100 
370 632 268 102 102 107 
370 632 269 89 89 93 
370 633 268 80 81 86 
370 633 269 81 81 85 
370 632 270 77 77 81 
370 632 271 72 73 79 
370 633 270 79 79 84 
370 633 271 76 79 85 
370 634 268 70 75 82 
370 634 269 75 77 83 
370 635 268 82 91 103 
370 635 269 87 94 104 
370 634 270 80 82 87 
370 634 271 84 86 93 
370 635 270 88 93 103 
370 635 271 90 94 102 
370 636 265 99 104 115 
370 637 265 102 107 117 
371 636 264 101 107 117 
371 637 264 100 105 115 
371 637 265 101 106 115 
370 636 266 95 101 111 
370 636 267 109 115 127 
370 637 266 106 111 121 
370 637 267 123 129 139 
370 638 264 92 96 105 
370 638 265 101 106 115 
370 639 264 84 89 98 
370 639 265 91 96 106 
371 638 264 89 94 104 
371 638 265 97 101 110 
371 639 264 77 82 92 
370 638 266 119 123 133 
370 638 267 132 136 147 
370 639 266 114 119 128 
370 639 267 128 133 143 
370 636 268 117 125 138 
370 636 269 110 119 132 
370 637 268 135 142 155 
370 637 269 131 139 153 
370 636 270 95 103 115 
370 636 271 92 98 109 
370 637 270 111 119 131 
370 637 271 98 104 115 
370 638 268 130 137 148 
370 638 269 132 140 153 
370 639 268 132 138 149 
370 639 269 132 138 151 
370 638 270 120 127 139 
370 638 271 102 109 120 
370 639 270 113 121 133 
370 639 271 104 111 123 
368 626 272 95 102 112 
368 627 272 90 96 106 
368 627 273 92 98 108 
368 628 272 91 96 104 
368 628 273 102 108 118 
368 629 272 91 95 102 
368 629 273 104 108 116 
369 629 272 87 90 97 
368 628 274 112 119 131 
368 629 274 117 122 132 
368 629 275 118 124 135 
368 630 272 88 94 104 
368 630 273 98 104 114 
369 630 272 83 89 98 
369 630 273 92 101 114 
369 631 272 87 93 102 
369 631 273 103 113 126 
368 630 274 108 113 123 
368 630 275 112 118 128 
368 631 274 103 112 125 
368 631 275 113 121 134 
369 631 274 105 115 129 
368 629 276 128 133 144 
368 630 276 118 125 136 
368 630 277 122 129 142 
368 631 276 120 130 144 
368 631 277 117 127 142 
368 631 278 115 124 139 
369 632 272 105 108 115 
369 632 273 122 128 139 
369 633 272 119 121 129 
369 633 273 116 119 128 
368 632 275 119 128 142 
369 632 274 120 129 143 
369 632 275 120 129 144 
369 633 274 122 129 140 
369 633 275 123 132 146 
369 634 273 109 113 121 
369 634 274 115 118 127 
369 634 275 118 125 137 
369 635 274 94 97 104 
369 635 275 101 106 115 
370 632 272 87 91 98 
370 633 272 91 96 105 
370 634 272 86 91 101 
370 634 273 100 104 114 
370 635 272 91 96 104 
370 635 273 89 93 101 
368 632 276 125 134 149 
368 632 277 116 128 144 
368 633 276 131 138 151 
368 633 277 128 137 151 
369 633 276 130 138 150 
368 632 278 102 113 128 
368 633 278 106 116 131 
368 633 279 89 99 112 
368 634 276 138 145 157 
368 634 277 132 139 152 
368 635 276 122 128 139 
368 635 277 110 118 130 
369 634 276 128 134 146 
369 635 276 112 117 127 
368 634 278 106 116 129 
368 634 279 91 100 112 
368 635 278 97 106 119 
368 635 279 95 102 113 
369 636 274 76 77 84 
369 636 275 90 94 103 
369 637 274 85 87 94 
369 637 275 93 97 105 
369 638 274 102 108 118 
369 638 275 112 118 129 
370 636 272 91 97 107 
370 636 273 80 84 91 
370 637 272 95 100 109 
370 637 273 86 91 100 
370 637 274 81 83 91 
370 638 272 98 104 113 
370 638 273 97 103 113 
370 639 272 101 106 115 
370 639 273 101 107 117 
370 638 274 100 105 116 
368 636 277 97 103 114 
369 636 276 97 102 112 
369 636 277 98 103 113 
369 637 276 96 101 111 
368 636 278 100 106 116 
368 634 280 88 95 106 
368 635 280 94 100 109 
352 608 288 82 75 70 
352 608 289 86 78 73 
353 608 288 84 77 72 
353 608 289 85 77 72 
352 608 290 89 81 77 
352 608 291 90 82 76 
353 608 290 90 82 78 
353 609 290 90 82 77 
353 609 291 90 81 75 
354 608 288 84 77 72 
354 608 289 84 76 71 
354 609 289 88 80 75 
355 608 288 82 75 70 
355 609 288 80 72 67 
355 609 289 85 78 73 
354 609 290 88 80 74 
354 609 291 95 86 81 
355 609 290 89 81 75 
355 609 291 93 84 79 
355 610 291 97 89 84 
352 608 292 90 80 73 
352 608 293 95 85 78 
352 609 292 94 85 78 
353 609 292 97 88 82 
353 609 293 97 87 79 
352 608 294 95 84 76 
352 608 295 97 85 74 
352 609 294 96 84 75 
352 609 295 99 86 75 
353 609 294 99 88 79 
353 609 295 100 87 75 
354 609 292 97 88 81 
354 609 293 99 89 81 
354 609 294 100 88 79 
354 609 295 101 88 77 
354 610 293 100 89 81 
355 610 292 101 91 85 
355 610 293 102 91 83 
354 610 294 102 89 80 
354 610 295 103 89 77 
355 610 294 103 91 81 
355 610 295 104 90 79 
355 611 294 104 92 83 
355 611 295 105 91 80 
355 612 295 105 91 79 
356 609 288 78 71 66 
356 609 289 84 76 72 
357 609 288 75 70 68 
357 609 289 80 75 72 
356 609 290 87 79 73 
357 610 288 73 69 68 
357 610 289 77 72 69 
356 610 290 87 78 73 
356 610 291 93 84 79 
356 611 291 96 88 82 
357 610 290 83 77 73 
357 611 290 80 73 70 
357 611 291 82 73 67 
358 610 288 67 65 65 
358 610 289 73 70 70 
358 611 289 71 67 67 
359 610 288 68 69 72 
359 611 288 66 66 70 
359 611 289 66 66 68 
358 611 290 72 68 66 
359 611 290 66 65 66 
356 611 292 99 89 82 
356 611 293 103 92 84 
356 611 294 104 92 83 
358 612 290 73 70 69 
358 612 291 73 67 63 
358 613 291 73 67 64 
359 612 290 68 67 68 
359 612 291 69 68 69 
359 613 291 69 68 69 
356 612 293 100 88 78 
357 612 292 89 78 70 
357 612 293 96 84 74 
357 613 292 87 75 66 
357 613 293 90 78 69 
356 612 294 104 91 81 
356 612 295 105 91 81 
356 613 294 102 89 79 
356 613 295 105 91 80 
357 613 294 98 85 74 
357 614 293 87 76 67 
356 614 295 105 91 79 
356 615 295 104 88 75 
357 614 294 94 81 70 
357 614 295 101 87 76 
357 615 294 91 78 68 
357 615 295 99 84 71 
358 612 292 77 69 64 
358 613 292 78 70 65 
359 613 292 71 68 69 
358 614 292 77 70 65 
358 614 293 79 71 66 
358 615 293 76 70 67 
359 614 292 72 71 72 
359 614 293 76 73 74 
359 615 293 78 76 77 
358 615 294 80 72 66 
358 615 295 88 76 66 
359 615 294 81 78 78 
352 608 296 100 85 73 
352 608 297 101 86 73 
352 609 296 101 86 73 
352 609 297 103 88 74 
353 609 296 103 88 75 
352 608 298 103 88 75 
352 608 299 106 90 76 
352 609 298 105 89 76 
352 609 299 108 91 77 
353 610 297 106 90 76 
352 610 299 108 91 76 
353 610 298 107 90 75 
353 610 299 108 91 76 
353 611 299 109 92 75 
354 609 296 104 89 76 
354 610 296 105 90 76 
354 610 297 107 91 76 
354 611 296 107 90 76 
354 611 297 108 90 75 
355 611 296 106 91 77 
355 611 297 108 91 75 
354 610 298 108 91 75 
354 610 299 109 91 75 
354 611 298 109 91 73 
354 611 299 110 92 74 
352 608 300 107 91 77 
352 608 301 108 92 76 
352 609 300 108 91 77 
352 609 301 107 90 75 
353 609 301 108 91 76 
352 608 302 108 91 76 
352 608 303 109 91 76 
352 609 302 109 92 76 
352 609 303 110 92 76 
353 610 300 108 91 75 
353 610 301 109 92 76 
353 611 300 109 91 75 
353 611 301 110 92 76 
352 610 302 109 92 75 
352 610 303 110 92 76 
353 610 302 109 92 76 
353 610 303 111 93 76 
353 611 302 111 92 76 
353 611 303 112 93 76 
354 611 300 110 92 75 
354 611 301 110 92 75 
354 611 302 110 92 74 
355 612 296 107 91 77 
355 612 297 108 90 74 
355 613 296 107 91 77 
355 613 297 109 91 75 
354 612 298 110 92 74 
354 612 299 112 92 74 
354 613 299 113 94 75 
355 612 298 110 91 74 
355 612 299 111 92 74 
355 613 298 111 93 75 
355 613 299 113 93 74 
355 614 297 109 91 75 
355 614 298 112 93 75 
355 614 299 113 93 74 
355 615 298 112 92 74 
355 615 299 114 94 74 
353 612 302 113 93 74 
353 612 303 113 93 73 
353 613 303 116 95 73 
353 614 303 120 97 75 
354 612 300 112 93 75 
354 612 301 112 92 74 
354 613 300 114 94 76 
354 613 301 114 94 74 
355 613 300 115 95 76 
354 612 302 112 92 73 
354 613 302 115 94 73 
354 613 303 117 95 74 
354 614 300 116 95 75 
354 614 301 116 96 75 
354 615 301 119 96 74 
355 614 300 116 95 74 
355 615 300 117 95 74 
355 615 301 119 96 74 
354 614 302 118 96 74 
354 614 303 120 97 74 
354 615 302 120 97 73 
354 615 303 123 99 75 
356 613 296 106 91 78 
356 614 296 107 92 78 
356 614 297 109 92 77 
356 615 296 107 90 75 
356 615 297 109 91 75 
357 615 296 105 88 74 
356 615 298 111 92 74 
358 616 295 86 76 68 
359 616 295 84 80 80 
359 617 295 90 85 85 
355 616 299 114 93 73 
355 617 299 114 92 72 
355 616 300 118 95 75 
355 616 301 120 97 75 
355 617 300 117 93 73 
355 617 301 119 94 72 
354 616 302 121 97 74 
354 616 303 123 99 74 
354 617 302 121 97 74 
354 617 303 123 98 74 
355 617 302 121 97 74 
355 618 300 115 92 71 
355 618 301 116 92 70 
355 619 301 117 93 72 
354 618 303 123 98 75 
354 619 303 120 96 73 
355 618 302 118 93 71 
355 618 303 120 96 73 
355 619 302 116 92 71 
355 619 303 117 93 70 
355 620 302 115 91 70 
355 620 303 115 91 69 
355 621 303 115 91 70 
356 616 297 108 89 73 
357 616 296 101 84 69 
357 616 297 104 86 69 
357 617 297 102 85 69 
356 616 298 112 92 73 
356 616 299 113 92 72 
356 617 298 109 90 71 
356 617 299 112 92 71 
357 617 298 105 87 70 
356 618 299 111 90 70 
357 618 298 107 87 70 
357 618 299 106 87 70 
357 619 299 108 89 70 
358 616 296 93 79 68 
358 617 296 89 77 67 
358 617 297 89 77 68 
359 617 296 88 82 78 
358 617 298 99 82 68 
358 618 297 86 76 68 
359 618 296 91 85 84 
359 618 297 88 81 76 
358 618 298 94 79 67 
358 619 298 90 79 70 
358 619 299 94 79 68 
359 619 298 89 83 81 
359 619 299 89 82 79 
356 617 300 114 92 71 
356 618 300 113 91 70 
356 619 300 113 91 70 
356 619 301 115 92 72 
357 619 300 108 88 70 
358 620 299 89 78 69 
359 620 299 92 87 87 
356 620 301 115 92 72 
356 621 301 112 90 70 
357 620 300 106 87 70 
357 620 301 108 88 70 
357 621 301 103 84 70 
356 620 302 116 92 71 
356 621 302 113 91 70 
356 621 303 115 92 72 
356 622 302 111 89 69 
356 622 303 112 90 70 
356 623 303 109 88 69 
357 622 302 102 85 69 
357 622 303 102 84 68 
357 623 303 99 82 66 
358 620 300 96 82 71 
358 620 301 101 85 71 
358 621 300 93 83 76 
358 621 301 97 83 72 
359 620 300 90 84 81 
359 621 300 95 90 90 
358 622 301 95 84 77 
359 622 300 96 93 96 
359 622 301 96 91 91 
359 623 301 98 95 96 
358 622 302 96 82 72 
358 623 302 94 83 75 
358 623 303 93 80 70 
359 623 302 96 92 91 
360 610 288 73 76 83 
360 611 288 70 73 78 
360 611 289 71 73 78 
361 611 288 82 87 95 
361 611 289 77 82 90 
362 611 288 95 101 110 
362 611 289 90 96 105 
363 611 288 99 105 115 
361 612 289 77 82 90 
360 612 290 71 73 77 
360 612 291 71 72 76 
360 613 291 72 74 79 
361 612 290 77 82 89 
361 613 290 85 90 99 
361 613 291 81 85 93 
361 614 291 90 95 103 
362 612 289 92 99 108 
363 612 288 99 106 116 
363 612 289 98 105 115 
363 613 289 101 107 118 
362 612 290 97 103 113 
362 613 290 95 101 110 
362 613 291 96 102 110 
363 613 290 102 107 117 
362 614 291 99 104 113 
363 614 290 105 110 120 
363 614 291 105 110 120 
363 615 291 107 112 121 
360 614 292 78 80 85 
360 614 293 83 85 90 
360 615 293 85 86 90 
361 614 292 88 93 100 
361 615 293 90 95 102 
360 615 294 88 88 93 
361 615 294 90 93 100 
362 614 292 100 105 114 
362 615 292 101 106 115 
362 615 293 101 105 114 
363 615 292 105 110 120 
363 615 293 105 110 119 
364 612 288 101 108 119 
364 613 288 100 108 119 
364 613 289 103 110 121 
364 613 290 104 110 120 
364 614 288 100 107 117 
364 614 289 101 107 118 
364 615 288 99 105 115 
364 615 289 99 105 116 
365 615 288 100 106 116 
364 614 290 103 109 119 
364 614 291 105 110 120 
364 615 290 101 106 116 
364 615 291 104 109 118 
360 616 294 89 89 93 
360 616 295 89 89 93 
360 617 295 93 93 96 
361 616 294 94 98 105 
361 616 295 94 96 102 
361 617 295 93 95 100 
362 616 293 104 108 117 
363 616 292 106 112 121 
363 616 293 106 111 120 
362 616 294 97 102 110 
362 616 295 94 98 105 
362 617 294 97 101 109 
362 617 295 96 99 107 
363 616 294 104 108 117 
363 617 294 102 107 116 
362 618 295 96 100 108 
363 618 294 103 108 117 
363 618 295 99 104 113 
363 619 295 102 107 116 
364 616 289 99 105 115 
365 616 288 101 106 115 
365 616 289 101 107 116 
365 617 288 99 104 113 
365 617 289 103 108 117 
364 616 290 100 106 115 
364 616 291 102 107 117 
364 617 291 102 107 116 
365 616 290 102 107 117 
365 617 290 104 109 118 
365 617 291 101 107 116 
365 618 288 102 106 115 
365 618 289 105 109 118 
365 619 288 102 107 116 
365 619 289 104 109 118 
364 618 291 101 106 115 
365 618 290 106 111 120 
365 618 291 104 109 118 
365 619 290 105 109 118 
365 619 291 105 110 119 
364 616 292 105 110 120 
364 616 293 108 113 122 
364 617 292 103 108 118 
364 617 293 104 110 120 
364 617 294 104 109 119 
364 618 292 100 106 115 
364 618 293 100 106 116 
364 619 292 104 108 118 
364 619 293 103 108 118 
365 619 292 104 109 118 
364 618 294 103 108 118 
364 619 294 103 108 117 
364 619 295 102 107 116 
365 620 288 102 107 117 
365 620 289 101 106 115 
365 621 288 101 106 116 
365 621 289 100 105 114 
365 620 290 102 107 116 
365 620 291 104 109 118 
365 621 290 100 105 114 
365 621 291 102 107 116 
365 622 288 99 105 115 
365 622 289 98 103 113 
365 623 288 99 105 114 
365 623 289 101 105 114 
364 623 290 101 105 113 
364 623 291 103 107 117 
365 622 290 99 104 113 
365 622 291 102 106 116 
365 623 290 100 105 114 
365 623 291 103 107 116 
364 620 292 106 110 119 
364 620 293 105 109 119 
364 621 292 102 107 116 
364 621 293 102 107 116 
365 620 292 106 110 119 
365 621 292 102 106 116 
364 620 294 102 107 117 
364 620 295 102 107 117 
364 621 294 101 106 116 
364 621 295 102 107 117 
364 622 292 103 108 118 
364 622 293 103 108 118 
364 623 292 104 109 119 
364 623 293 104 110 120 
365 622 292 102 107 116 
365 623 292 105 110 120 
364 622 294 104 109 119 
364 622 295 102 107 118 
364 623 294 104 110 120 
364 623 295 103 109 120 
360 617 296 93 92 95 
360 618 296 95 93 95 
360 618 297 94 91 92 
360 619 297 95 94 96 
361 618 296 93 95 100 
361 618 297 95 95 100 
361 619 297 95 96 101 
360 619 298 95 93 95 
361 619 298 97 97 103 
362 618 296 94 97 104 
362 619 296 95 99 107 
362 619 297 96 100 108 
363 619 296 98 103 111 
360 620 298 97 96 100 
360 620 299 95 94 98 
360 621 299 96 94 97 
361 620 298 98 99 104 
361 620 299 98 99 104 
361 621 299 98 100 107 
361 622 299 98 103 111 
362 620 297 99 104 113 
363 620 296 103 108 117 
363 620 297 103 107 116 
363 621 296 106 111 120 
363 621 297 107 111 121 
362 620 298 98 101 109 
362 621 298 100 104 113 
362 621 299 98 102 111 
363 621 298 104 109 118 
363 622 296 106 111 121 
363 622 297 107 112 121 
363 623 297 103 108 118 
362 622 298 102 108 117 
362 622 299 100 105 114 
362 623 298 104 108 117 
362 623 299 103 108 117 
363 622 298 106 110 120 
363 623 298 103 108 118 
360 621 300 97 96 101 
360 622 300 97 98 103 
360 622 301 96 97 102 
360 623 301 99 101 107 
361 622 300 97 101 109 
361 623 300 98 103 112 
361 623 301 99 103 112 
360 623 302 102 102 107 
362 623 300 100 106 116 
364 621 296 104 110 120 
364 622 296 104 109 119 
364 623 296 103 109 119 
352 608 304 109 93 77 
352 608 305 110 93 78 
352 609 304 110 92 75 
352 609 305 112 94 77 
352 608 306 111 94 80 
352 608 307 112 95 79 
352 609 306 113 95 79 
352 609 307 115 96 80 
352 610 304 112 93 76 
352 610 305 115 96 78 
352 611 305 116 96 77 
353 611 304 114 95 77 
353 611 305 115 95 76 
352 610 306 117 98 79 
352 610 307 119 99 81 
352 611 306 119 98 78 
352 611 307 121 99 79 
352 609 308 117 98 81 
352 610 308 121 100 80 
352 610 309 122 100 80 
352 611 308 124 100 80 
352 611 309 125 101 79 
353 612 304 115 94 73 
353 612 305 117 95 75 
353 613 304 119 97 75 
353 613 305 122 99 77 
352 612 306 120 97 76 
352 612 307 123 99 77 
352 613 307 126 102 80 
353 612 306 120 98 76 
353 613 306 125 100 79 
353 613 307 127 102 81 
353 614 304 123 100 77 
353 614 305 126 102 79 
353 615 304 124 100 77 
353 615 305 127 101 78 
352 614 307 129 103 81 
353 614 306 128 103 81 
353 614 307 129 103 82 
353 615 306 129 102 80 
353 615 307 131 103 80 
354 615 304 124 100 76 
352 612 308 126 101 78 
352 612 309 127 101 79 
352 613 308 128 102 79 
352 613 309 129 101 79 
352 612 310 127 101 78 
352 613 310 129 101 79 
352 614 308 130 102 81 
352 614 309 131 102 80 
352 615 308 132 103 81 
352 615 309 133 103 81 
352 614 310 130 102 80 
352 614 311 130 101 80 
352 615 310 132 103 81 
352 615 311 132 102 80 
353 616 305 127 100 76 
353 617 305 126 100 75 
353 616 306 128 100 77 
353 616 307 129 100 78 
353 617 306 126 98 75 
353 617 307 126 97 73 
353 618 306 125 97 75 
353 618 307 125 96 73 
353 619 306 125 97 75 
353 619 307 126 97 75 
354 616 304 125 100 75 
354 616 305 127 101 76 
354 617 304 124 99 74 
354 617 305 125 99 74 
354 618 304 123 98 74 
354 618 305 125 98 75 
354 619 304 121 97 75 
354 619 305 123 98 76 
354 618 306 125 99 76 
354 619 306 125 98 76 
352 616 308 132 102 80 
352 616 309 133 103 80 
352 617 308 131 102 79 
352 617 309 132 101 79 
353 616 308 131 102 80 
353 617 308 128 99 76 
352 616 310 133 103 81 
352 616 311 134 103 82 
352 617 310 133 102 80 
352 617 311 134 103 83 
352 618 308 129 100 77 
352 618 309 130 100 78 
352 619 309 129 100 78 
353 618 308 127 97 75 
353 619 308 127 98 77 
352 618 310 132 101 80 
352 618 311 133 101 80 
352 619 310 132 101 80 
352 619 311 132 101 80 
353 620 307 126 98 77 
353 621 307 126 99 79 
354 620 304 119 94 73 
354 620 305 121 96 74 
354 621 305 119 93 70 
355 620 304 117 91 70 
355 621 304 116 90 69 
355 621 305 116 90 68 
354 620 306 123 97 75 
354 621 306 122 96 75 
354 621 307 126 98 79 
355 622 304 117 93 73 
355 622 305 117 93 70 
352 620 309 129 100 78 
353 620 308 127 99 77 
353 620 309 128 100 77 
352 617 312 135 103 84 
352 618 312 134 102 83 
359 624 302 101 101 106 
364 624 289 101 105 113 
364 625 288 91 96 105 
364 625 289 98 102 110 
365 624 288 94 100 109 
365 624 289 101 105 114 
364 624 290 102 105 114 
364 624 291 101 105 114 
364 625 290 104 108 116 
364 625 291 101 105 115 
364 626 288 95 99 108 
364 626 289 93 97 106 
364 627 289 98 103 112 
365 626 288 98 103 112 
365 627 288 100 104 114 
364 626 290 101 105 113 
364 626 291 104 108 117 
364 627 290 95 100 109 
364 627 291 100 104 113 
364 624 292 99 105 115 
364 624 293 102 108 118 
364 625 292 100 105 115 
364 625 293 100 105 116 
364 624 294 103 109 120 
364 624 295 102 108 118 
364 625 294 100 106 117 
364 625 295 101 107 117 
364 626 292 101 106 115 
364 626 293 100 104 114 
364 627 292 102 106 115 
364 627 293 102 106 115 
364 626 294 98 103 113 
364 626 295 100 105 116 
364 627 294 100 104 113 
364 627 295 101 106 115 
364 628 289 98 103 112 
364 629 289 99 104 113 
365 628 288 98 103 112 
365 629 288 101 105 114 
364 628 290 94 99 108 
364 628 291 94 99 108 
364 629 290 95 100 109 
364 629 291 93 98 107 
364 630 289 101 106 116 
364 631 288 104 109 119 
365 630 288 102 107 116 
365 631 288 104 109 119 
364 630 290 100 104 114 
364 628 292 101 105 114 
364 628 293 103 108 117 
364 629 292 98 103 112 
364 628 294 105 109 118 
363 624 297 103 109 119 
363 625 297 104 110 120 
362 624 299 108 113 122 
362 625 299 109 114 124 
363 624 298 105 110 120 
363 624 299 109 114 124 
363 625 298 107 112 123 
363 625 299 110 115 126 
363 626 297 109 114 125 
363 627 296 104 109 119 
363 626 298 108 113 124 
361 624 300 101 107 117 
361 624 301 102 107 116 
360 624 302 104 105 111 
361 624 302 104 108 117 
362 624 300 103 109 119 
362 625 300 108 113 123 
364 624 296 102 108 118 
364 625 296 101 107 118 
364 626 296 102 108 119 
364 627 296 103 108 118 
320 583 323 94 84 76 
321 583 322 94 84 76 
321 583 323 94 84 77 
323 583 321 94 84 77 
322 583 322 94 84 77 
322 583 323 94 84 77 
323 582 323 95 84 77 
323 583 322 95 84 77 
323 583 323 95 84 77 
320 581 327 94 84 77 
321 581 327 94 84 77 
320 582 325 94 84 77 
320 583 324 94 84 76 
320 583 325 94 84 77 
321 582 324 94 84 77 
321 582 325 94 84 77 
321 583 324 94 84 77 
320 582 326 94 84 77 
320 582 327 94 84 77 
321 582 326 94 84 77 
321 582 327 94 84 77 
323 581 325 95 85 77 
322 581 326 95 84 77 
322 581 327 94 84 77 
323 580 327 95 85 77 
323 581 326 95 85 77 
323 581 327 95 85 77 
322 582 324 95 84 77 
322 582 325 95 84 77 
323 582 324 95 84 77 
323 582 325 95 85 77 
322 582 326 94 84 77 
324 583 320 94 84 77 
324 583 321 95 84 77 
325 582 321 95 84 77 
325 583 320 95 84 77 
325 583 321 95 84 77 
324 582 322 95 84 77 
324 582 323 95 85 77 
324 583 322 95 84 77 
325 582 322 95 85 77 
325 582 323 95 85 77 
326 581 323 95 85 77 
327 581 323 96 85 77 
326 582 320 95 84 77 
326 582 321 95 85 77 
326 583 320 95 84 77 
327 582 320 95 85 77 
327 582 321 95 85 77 
327 583 320 95 84 77 
326 582 322 95 85 77 
326 582 323 95 85 77 
327 582 322 95 85 77 
327 582 323 95 85 77 
324 581 325 95 85 77 
325 581 324 95 85 77 
325 581 325 95 85 77 
324 580 326 95 85 77 
324 580 327 95 85 77 
324 581 326 95 85 77 
325 580 326 96 85 77 
325 580 327 96 85 77 
325 581 326 96 85 77 
324 582 324 95 85 77 
325 582 324 95 85 77 
326 581 324 96 85 77 
326 581 325 96 85 77 
327 581 324 96 85 77 
327 581 325 96 85 77 
326 580 326 96 85 77 
326 580 327 96 85 77 
326 581 326 96 85 77 
327 580 326 96 85 77 
327 580 327 96 85 77 
327 581 326 96 85 77 
320 579 331 94 85 78 
321 579 331 95 85 78 
322 579 331 95 85 78 
323 579 330 95 85 77 
323 579 331 95 85 77 
320 579 332 94 85 78 
320 579 333 94 85 78 
321 579 332 95 85 78 
321 579 333 95 85 78 
320 578 334 95 85 78 
320 578 335 95 85 79 
320 579 334 95 85 78 
321 578 334 95 85 78 
321 578 335 95 85 79 
323 577 335 96 86 79 
322 578 332 95 85 78 
322 578 333 95 85 78 
322 579 332 95 85 78 
322 579 333 95 85 78 
323 578 332 95 85 78 
323 578 333 96 85 78 
323 579 332 95 85 78 
322 578 334 95 85 78 
322 578 335 95 86 79 
323 578 334 96 86 78 
323 578 335 96 86 79 
320 580 329 94 84 77 
320 581 328 94 84 77 
320 581 329 94 84 77 
321 580 329 94 84 77 
321 581 328 94 84 77 
321 581 329 94 84 77 
320 580 330 94 84 77 
320 580 331 94 84 78 
321 580 330 94 84 77 
321 580 331 94 85 78 
322 580 328 95 84 77 
322 580 329 95 85 77 
322 581 328 94 84 77 
323 580 328 95 85 77 
323 580 329 95 85 77 
322 580 330 95 85 77 
322 580 331 95 85 77 
320 580 332 94 84 78 
324 579 329 95 85 77 
325 579 329 96 85 77 
324 579 330 96 85 77 
324 579 331 96 85 77 
325 579 330 96 85 77 
325 579 331 96 85 77 
326 579 329 96 85 77 
326 579 330 96 85 77 
326 579 331 96 85 77 
327 579 330 96 85 77 
327 579 331 96 85 77 
324 577 335 96 86 79 
324 578 332 96 85 78 
324 578 333 96 85 78 
325 578 332 96 85 77 
325 578 333 96 85 78 
324 578 334 96 86 78 
324 578 335 96 86 79 
325 578 334 96 86 78 
325 578 335 96 86 78 
326 578 333 96 85 77 
326 579 332 96 85 77 
326 579 333 96 85 77 
327 579 332 96 85 77 
327 579 333 96 85 77 
326 578 334 96 85 77 
326 578 335 96 86 78 
326 579 334 96 85 77 
327 578 335 97 86 78 
327 579 334 96 86 77 
327 579 335 97 86 77 
324 580 328 95 85 77 
324 580 329 95 85 77 
325 580 328 96 85 77 
326 580 328 96 85 77 
326 580 329 96 85 77 
327 580 328 96 86 77 
327 580 329 96 86 77 
327 580 330 96 86 77 
320 584 321 94 84 76 
320 585 320 94 84 76 
320 585 321 94 84 76 
321 584 320 94 84 76 
321 584 321 94 84 76 
321 585 320 94 84 76 
320 584 322 94 84 76 
320 584 323 94 84 76 
321 584 322 94 84 76 
322 584 320 94 84 76 
322 584 321 94 84 77 
323 584 320 94 84 77 
323 584 321 94 84 77 
324 584 320 94 84 77 
328 581 323 96 85 77 
329 581 323 96 85 77 
328 582 320 95 85 77 
328 582 321 95 85 77 
329 582 320 95 85 77 
329 582 321 95 85 77 
328 582 322 95 85 77 
328 582 323 96 85 77 
329 582 322 95 85 77 
329 582 323 95 85 77 
330 582 320 95 85 77 
330 582 321 95 85 77 
330 583 320 95 85 77 
331 582 321 95 85 77 
331 583 320 95 85 77 
331 583 321 95 85 77 
330 582 322 95 85 77 
330 582 323 95 85 77 
331 582 322 95 84 77 
331 582 323 95 85 76 
331 583 322 95 85 77 
328 581 324 96 85 77 
328 581 325 96 85 77 
329 581 324 96 85 77 
329 581 325 96 85 77 
328 580 327 96 86 77 
328 581 326 96 86 77 
328 581 327 97 86 77 
329 581 326 97 86 77 
329 581 327 97 86 78 
329 582 324 96 85 77 
330 581 326 97 86 77 
330 581 327 98 86 78 
330 582 324 96 85 77 
330 582 325 96 85 77 
331 582 324 96 85 76 
331 582 325 96 85 76 
330 582 326 97 86 77 
330 582 327 98 86 78 
331 582 326 97 85 77 
331 582 327 98 86 77 
332 583 320 95 85 77 
332 583 321 95 85 77 
333 583 320 95 85 77 
333 583 321 95 85 77 
332 583 322 95 85 77 
332 583 323 96 85 77 
333 583 322 96 85 77 
333 583 323 96 86 78 
332 582 324 96 85 77 
332 582 325 96 85 76 
332 583 324 97 86 77 
332 583 325 97 86 77 
333 583 324 97 86 78 
333 583 325 98 86 78 
332 582 326 96 85 77 
332 582 327 99 87 77 
332 583 326 97 86 77 
332 583 327 98 87 77 
333 583 326 99 87 78 
333 583 327 100 88 78 
328 579 331 96 85 77 
328 579 332 96 85 77 
328 579 333 96 85 77 
329 579 333 96 85 76 
328 579 334 97 85 76 
328 579 335 97 86 77 
329 579 334 97 85 76 
329 579 335 97 86 77 
328 580 328 97 86 77 
328 580 329 97 86 78 
329 580 329 97 86 78 
329 581 328 98 86 78 
329 581 329 98 87 78 
328 580 330 97 86 77 
328 580 331 97 86 77 
329 580 330 97 86 78 
329 580 331 98 86 78 
329 581 330 98 87 78 
330 581 328 99 87 78 
330 581 329 99 88 78 
330 580 331 99 87 78 
330 581 330 100 87 78 
330 581 331 99 87 77 
331 581 330 101 89 79 
331 581 331 100 88 78 
330 582 328 99 87 78 
331 582 328 99 87 77 
331 582 329 101 88 78 
331 582 330 102 89 79 
331 582 331 102 89 78 
329 580 332 97 86 77 
329 580 333 97 86 77 
329 580 334 98 85 76 
329 580 335 98 86 76 
330 580 332 99 87 78 
330 580 333 100 87 78 
330 581 332 100 87 78 
331 581 332 100 88 78 
331 581 333 101 88 78 
330 580 334 100 88 78 
330 580 335 99 87 77 
331 581 334 102 89 79 
331 581 335 103 90 79 
331 582 332 102 89 78 
331 582 333 102 89 78 
332 582 328 100 88 78 
332 582 329 102 89 78 
332 583 328 101 88 78 
332 583 329 102 89 79 
333 583 328 102 89 78 
333 583 329 104 90 79 
332 582 330 103 90 79 
332 582 331 104 91 80 
332 583 330 104 90 79 
332 583 331 106 92 80 
333 583 330 105 91 79 
333 583 331 107 92 80 
332 582 332 104 90 79 
332 582 333 105 91 79 
332 583 332 107 92 80 
332 583 333 107 92 79 
333 583 332 106 91 78 
333 583 333 106 91 77 
332 582 334 106 91 80 
332 582 335 107 93 81 
332 583 334 107 92 79 
332 583 335 107 92 79 
333 583 334 107 91 78 
333 584 320 95 85 77 
333 584 321 95 85 77 
333 584 322 96 85 77 
333 584 323 96 86 77 
334 584 320 95 85 77 
334 584 321 95 85 77 
335 584 320 95 84 76 
335 584 321 96 85 77 
334 584 322 96 85 77 
334 584 323 97 86 77 
335 584 322 96 85 77 
335 584 323 97 86 77 
335 585 322 96 85 76 
335 585 323 98 86 77 
334 584 324 98 86 77 
334 584 325 99 87 78 
335 584 324 99 87 77 
335 585 324 101 88 77 
335 585 325 102 89 78 
334 584 326 101 89 79 
334 584 327 103 89 79 
335 585 326 103 90 79 
335 585 327 105 91 79 
335 586 326 105 91 80 
335 586 327 107 93 80 
333 584 328 103 89 79 
333 584 329 104 90 78 
333 584 330 105 91 78 
333 584 331 106 91 78 
334 584 328 104 90 79 
334 584 329 105 90 78 
334 585 328 106 91 78 
334 585 329 106 91 78 
335 585 328 107 92 79 
335 585 329 107 91 78 
334 584 330 106 91 78 
334 584 331 106 91 77 
334 585 330 107 92 78 
334 585 331 107 92 78 
335 586 328 107 93 80 
335 586 329 107 92 79 
335 587 328 106 92 80 
335 587 329 105 91 79 
334 586 330 107 92 79 
334 586 331 106 91 78 
335 586 330 106 91 79 
335 586 331 105 91 78 
335 587 330 102 89 77 
335 587 331 101 87 76 
333 584 332 107 91 78 
333 584 333 107 91 78 
333 585 333 106 91 78 
333 584 334 106 91 78 
333 584 335 106 91 78 
333 585 334 104 90 77 
333 585 335 103 89 77 
334 585 332 107 92 78 
334 585 333 105 90 78 
334 585 334 103 89 76 
334 586 332 105 90 78 
334 586 333 102 88 76 
334 587 333 99 86 75 
335 587 332 99 86 74 
335 587 333 96 84 73 
334 586 334 99 86 74 
334 586 335 98 85 73 
334 587 334 96 84 73 
334 587 335 95 83 73 
335 587 334 95 83 73 
335 588 331 97 84 74 
335 588 332 95 83 73 
335 588 333 95 83 73 
335 589 333 94 82 72 
335 588 334 95 83 74 
335 588 335 95 83 74 
335 589 334 94 83 73 
335 589 335 95 84 75 
335 590 335 95 83 73 
320 577 337 95 85 79 
321 577 336 95 86 79 
321 577 337 95 86 79 
320 577 338 95 85 79 
320 577 339 95 86 79 
321 576 339 95 86 79 
321 577 338 95 86 79 
321 577 339 95 86 79 
320 578 336 95 85 79 
321 578 336 95 86 79 
322 577 336 95 86 79 
322 577 337 95 86 79 
323 577 336 96 86 79 
323 577 337 96 86 79 
322 576 339 96 86 79 
322 577 338 96 86 79 
322 577 339 96 86 79 
323 577 338 96 86 79 
323 577 339 96 86 79 
320 576 340 95 86 79 
320 576 341 95 86 79 
321 576 340 95 86 79 
321 576 341 96 86 80 
320 576 342 96 86 80 
320 576 343 96 86 80 
321 576 342 96 86 80 
321 576 343 96 86 80 
322 576 340 96 86 79 
322 576 341 96 86 80 
323 576 340 96 86 79 
323 576 341 96 86 79 
323 577 340 96 86 79 
322 576 342 96 86 80 
322 576 343 96 87 80 
323 576 342 96 86 80 
323 576 343 96 87 80 
324 577 336 96 86 79 
324 577 337 96 86 79 
325 577 336 96 86 79 
325 577 337 97 86 79 
324 577 338 96 86 79 
324 577 339 96 86 79 
325 577 338 96 86 79 
325 577 339 97 86 79 
325 578 336 96 86 79 
325 578 337 97 86 79 
326 577 339 97 87 79 
326 578 336 97 86 79 
326 578 337 97 87 79 
327 578 336 98 87 79 
327 578 337 98 87 79 
327 579 336 98 87 78 
327 579 337 98 87 79 
326 578 338 97 87 80 
326 578 339 97 87 79 
327 578 338 98 88 80 
327 578 339 99 88 79 
324 576 341 96 86 79 
324 577 340 96 86 79 
324 577 341 96 86 79 
325 577 340 97 87 79 
325 577 341 97 87 79 
324 576 342 96 86 80 
324 576 343 96 87 80 
325 576 343 96 87 80 
325 577 342 97 86 79 
325 577 343 97 87 79 
326 577 340 97 87 79 
326 577 341 97 87 79 
326 577 342 98 87 79 
326 577 343 98 87 79 
326 578 340 98 87 79 
326 578 341 98 88 80 
327 578 340 99 88 79 
327 578 341 99 88 80 
327 578 342 99 88 79 
327 578 343 98 87 78 
322 576 344 96 87 80 
323 576 344 96 87 80 
324 576 344 97 87 80 
324 576 345 97 87 80 
325 576 344 97 87 80 
325 576 345 99 89 81 
325 577 344 98 87 80 
324 576 346 99 88 81 
324 576 347 99 89 81 
325 576 346 101 90 82 
325 576 347 100 89 81 
325 577 347 102 90 81 
326 577 344 98 87 78 
326 577 345 99 88 79 
326 577 346 102 89 80 
326 577 347 102 90 81 
327 578 344 100 88 79 
327 578 345 101 88 79 
327 578 346 102 89 79 
327 578 347 103 90 79 
324 576 348 100 89 81 
325 576 348 101 90 81 
325 576 349 102 90 81 
325 577 348 102 90 81 
324 576 350 102 90 81 
325 576 350 103 91 81 
325 576 351 103 91 81 
326 576 348 103 90 81 
326 576 349 103 90 80 
326 577 348 104 91 82 
326 577 349 104 91 81 
326 577 350 105 91 80 
326 577 351 105 91 80 
327 578 348 104 91 80 
327 578 349 105 91 80 
327 579 349 105 91 79 
327 578 350 106 92 80 
327 578 351 107 93 80 
327 579 350 107 92 80 
327 579 351 108 93 81 
328 579 336 97 86 77 
328 579 337 99 87 78 
329 579 336 98 86 77 
329 579 337 98 86 77 
328 579 338 99 88 79 
328 579 339 100 88 79 
329 579 338 99 87 78 
329 579 339 100 87 78 
328 578 341 100 89 80 
328 579 340 101 89 80 
328 579 341 102 90 81 
329 579 340 101 89 79 
329 579 341 103 90 80 
328 578 342 100 88 79 
328 578 343 100 88 79 
328 579 342 103 91 81 
328 579 343 103 90 80 
329 579 342 104 91 80 
329 579 343 105 92 81 
329 580 336 98 86 76 
329 580 337 99 87 78 
329 580 338 100 88 79 
329 580 339 101 89 79 
330 580 336 99 87 77 
330 580 337 101 88 79 
330 581 336 101 88 77 
330 581 337 102 89 79 
331 581 336 104 90 79 
331 581 337 104 90 79 
330 580 338 102 89 79 
330 580 339 103 90 79 
330 581 338 104 90 79 
330 581 339 104 91 79 
331 581 338 106 92 80 
331 581 339 106 92 80 
331 582 336 107 93 81 
331 582 337 108 93 81 
331 582 338 107 92 80 
331 582 339 106 92 79 
331 583 339 107 93 81 
329 580 340 102 89 78 
329 580 341 102 89 78 
329 580 343 106 92 80 
330 580 340 104 90 78 
330 580 341 104 90 79 
330 581 340 105 91 78 
330 581 341 106 92 80 
330 580 342 105 91 80 
330 580 343 106 92 80 
330 581 342 106 92 80 
330 581 343 106 91 79 
331 582 340 106 91 79 
331 582 341 106 91 79 
331 583 340 106 91 79 
331 583 341 105 91 78 
330 582 342 106 91 79 
330 582 343 106 91 79 
331 582 342 106 91 79 
331 582 343 105 91 78 
331 583 342 105 90 78 
331 583 343 104 90 78 
332 582 336 108 93 81 
332 582 337 108 93 81 
332 583 336 107 92 79 
332 583 337 107 92 79 
332 583 338 107 92 80 
332 583 339 107 92 80 
332 583 340 106 92 80 
328 578 344 101 88 79 
328 578 345 101 89 78 
328 579 344 102 89 79 
328 579 345 103 89 78 
329 579 344 104 91 80 
328 578 346 102 88 77 
328 579 346 104 89 77 
328 579 347 104 89 77 
328 579 348 106 91 78 
328 579 349 106 91 79 
328 579 350 106 91 79 
328 579 351 109 93 80 
329 580 344 106 92 81 
329 580 345 106 92 80 
328 580 347 109 93 80 
329 580 346 108 93 81 
329 580 347 110 94 80 
329 581 346 109 93 80 
329 581 347 110 94 80 
330 580 344 107 92 80 
330 580 345 106 91 79 
330 581 344 105 91 78 
330 581 345 106 91 78 
330 581 346 108 93 79 
330 581 347 110 94 80 
330 582 344 105 90 77 
330 582 345 104 90 77 
330 583 345 104 89 76 
331 582 344 105 90 77 
331 583 344 104 90 77 
331 583 345 103 89 77 
330 582 346 106 91 78 
330 582 347 108 92 79 
330 583 346 103 89 77 
330 583 347 103 88 76 
331 583 346 101 88 76 
331 583 347 100 87 75 
328 580 348 110 94 81 
328 580 349 109 93 80 
329 580 348 111 95 81 
329 580 349 110 95 81 
329 581 348 111 95 81 
329 581 349 111 95 81 
328 580 350 108 93 80 
328 580 351 108 93 80 
329 580 350 109 94 81 
329 580 351 108 92 79 
329 581 350 108 92 79 
329 581 351 106 91 78 
329 582 349 109 94 80 
329 582 350 107 92 79 
329 582 351 103 89 76 
329 583 351 101 87 75 
330 582 348 109 94 80 
330 582 349 109 94 81 
330 583 348 104 89 76 
330 583 349 104 89 77 
330 582 350 105 91 79 
330 583 350 102 88 76 
330 583 351 99 86 74 
331 584 341 104 90 78 
331 584 342 103 89 78 
331 584 343 101 87 76 
332 584 336 106 91 78 
332 584 337 106 91 78 
333 584 336 105 90 77 
333 584 337 104 89 77 
333 585 336 102 88 76 
333 585 337 100 87 75 
332 584 338 104 90 78 
332 584 339 104 90 78 
332 585 339 99 86 74 
333 584 338 103 88 76 
333 585 338 99 85 74 
333 585 339 98 85 73 
333 586 336 99 85 74 
333 586 337 96 83 72 
333 586 338 95 83 72 
333 586 339 95 82 72 
333 587 338 94 82 71 
333 587 339 94 82 72 
334 586 336 96 83 72 
334 586 337 95 82 71 
334 587 336 94 82 72 
334 587 337 94 82 72 
334 587 338 94 83 73 
334 587 339 95 83 74 
332 584 340 102 88 77 
332 584 341 103 89 78 
332 585 340 99 86 75 
332 585 341 99 86 76 
333 585 340 97 84 74 
332 584 342 102 88 77 
332 584 343 101 87 75 
332 585 342 99 85 74 
332 585 343 98 85 74 
332 586 341 96 84 74 
333 586 340 94 82 72 
333 586 341 95 83 73 
333 587 340 95 83 73 
333 587 341 95 83 73 
332 586 342 96 84 74 
332 586 343 97 84 74 
332 587 343 96 84 75 
333 587 342 95 83 74 
333 587 343 96 84 75 
334 588 336 95 83 74 
334 588 337 96 84 75 
334 589 337 97 85 75 
335 588 336 96 84 75 
335 589 336 96 84 75 
335 589 337 97 85 76 
334 588 338 96 84 75 
334 588 339 96 84 74 
334 589 338 96 84 75 
334 589 339 96 84 74 
335 589 338 97 85 75 
335 590 336 97 84 75 
335 590 337 97 85 75 
335 591 337 99 85 75 
334 590 339 97 84 73 
335 590 338 97 85 74 
335 590 339 97 84 73 
335 591 338 99 86 74 
335 591 339 100 86 74 
333 588 341 96 84 74 
333 588 342 97 85 75 
333 588 343 98 85 75 
333 589 342 98 86 75 
333 589 343 100 87 76 
334 588 340 96 84 74 
334 588 341 96 84 74 
334 589 340 96 84 73 
334 589 341 97 84 74 
334 589 342 98 85 75 
334 589 343 100 87 76 
334 590 340 97 83 72 
334 590 341 98 84 73 
335 590 340 96 83 71 
335 590 341 97 83 71 
335 591 340 100 86 74 
335 591 341 100 86 73 
334 590 342 100 86 74 
334 590 343 102 88 75 
334 591 342 102 87 74 
334 591 343 106 90 75 
335 591 342 102 87 74 
331 584 344 101 87 76 
331 584 345 100 86 74 
331 585 345 97 84 73 
331 584 346 97 85 74 
331 584 347 98 85 74 
331 585 346 95 83 72 
331 585 347 95 83 72 
331 586 346 93 81 71 
331 586 347 95 82 72 
330 584 348 99 85 74 
330 584 349 99 86 74 
330 585 349 99 85 74 
331 584 348 98 85 73 
331 585 348 97 85 74 
331 585 349 99 86 74 
330 584 350 99 85 74 
330 584 351 98 84 73 
330 585 350 98 85 73 
330 585 351 99 85 72 
331 585 350 99 85 73 
331 586 348 97 84 73 
331 586 349 99 86 74 
331 587 348 97 83 72 
331 587 349 101 86 73 
330 586 351 100 85 72 
331 586 350 101 86 73 
331 586 351 102 87 73 
331 587 350 103 88 74 
331 587 351 104 88 73 
331 588 349 103 87 72 
331 588 350 105 88 71 
331 588 351 106 88 71 
331 589 351 110 90 71 
331 590 351 115 94 74 
332 585 344 98 85 74 
332 585 345 97 84 73 
332 586 344 96 84 74 
332 586 345 95 83 73 
332 587 344 97 85 75 
332 587 345 97 84 74 
333 587 344 98 85 75 
333 587 345 99 86 76 
332 586 346 94 82 72 
332 587 346 97 84 73 
332 587 347 97 84 73 
332 587 348 98 84 72 
332 588 345 100 87 75 
333 588 344 99 86 75 
333 588 345 101 87 75 
333 589 344 102 87 75 
333 589 345 104 89 76 
332 588 346 100 86 73 
332 588 347 100 86 74 
332 589 347 103 88 74 
333 588 346 101 87 74 
333 589 346 103 89 75 
333 589 347 105 89 75 
333 590 344 105 89 75 
333 590 345 108 91 76 
333 591 345 112 94 77 
333 590 346 109 92 77 
333 590 347 109 92 77 
333 591 346 113 95 78 
333 591 347 113 95 77 
334 590 344 106 90 76 
334 590 345 109 92 77 
334 591 344 109 93 77 
334 591 345 112 94 77 
332 588 348 101 86 73 
332 588 349 103 87 73 
332 589 348 104 89 74 
332 589 349 106 90 74 
332 588 350 105 88 71 
332 589 350 108 90 72 
332 589 351 110 91 72 
332 590 348 108 91 74 
332 590 349 112 93 75 
332 591 349 117 96 75 
333 590 348 110 92 75 
333 591 348 115 95 76 
333 591 349 115 95 74 
332 590 350 114 94 75 
332 590 351 116 95 74 
332 591 350 119 98 77 
332 591 351 122 99 78 
335 592 339 102 87 74 
335 592 340 103 88 75 
335 592 341 104 89 75 
335 593 341 108 91 76 
334 592 343 108 90 75 
335 592 342 105 89 74 
335 592 343 108 90 74 
335 593 342 110 92 76 
335 593 343 112 93 76 
335 594 342 114 96 78 
335 594 343 116 96 78 
335 595 343 120 100 81 
335 596 343 123 102 82 
333 592 346 116 96 78 
333 592 347 118 98 79 
333 593 347 120 99 79 
333 594 347 123 99 79 
334 592 344 112 94 77 
334 592 345 116 97 80 
334 593 344 114 95 77 
334 593 345 119 99 80 
335 593 344 113 95 76 
334 592 346 117 97 79 
334 593 346 121 100 81 
334 593 347 122 100 80 
334 594 344 121 100 79 
334 594 345 122 101 81 
334 595 345 125 102 82 
335 594 344 118 98 79 
335 594 345 122 100 80 
335 595 344 122 101 81 
335 595 345 125 102 82 
334 594 346 124 101 81 
334 594 347 124 100 79 
334 595 346 127 102 82 
334 595 347 125 101 80 
333 592 348 118 97 77 
333 592 349 120 99 78 
333 593 348 122 99 78 
333 593 349 123 101 80 
332 592 350 121 99 77 
332 592 351 124 101 79 
332 593 350 125 101 80 
332 593 351 126 102 81 
333 593 350 125 102 81 
333 594 348 124 100 79 
333 594 349 126 101 80 
333 595 348 126 101 79 
333 595 349 129 103 81 
332 594 350 126 102 81 
332 594 351 127 101 79 
332 595 351 131 103 83 
333 594 350 127 103 82 
333 595 350 131 105 84 
334 595 348 126 100 79 
334 596 345 128 103 83 
335 596 344 125 102 82 
335 596 345 128 103 82 
335 597 344 128 104 83 
335 597 345 132 106 84 
334 596 346 128 103 82 
334 596 347 128 103 81 
334 597 346 132 105 84 
334 597 347 132 105 83 
335 597 346 134 107 86 
