ply
format ascii 1.0
comment Created by CloudCompare v2.10.1 (Zephyrus)
comment Created 1/30/20 12:03 PM
obj_info Generated by CloudCompare!
element vertex 2176
property float x
property float y
property float z
property uchar red
property uchar green
property uchar blue
end_header
123 263 234 47 53 60 
124 256 233 42 47 53 
124 257 233 41 46 52 
124 256 234 42 48 55 
124 256 235 45 50 56 
124 257 234 42 48 54 
124 257 235 45 50 56 
124 258 233 42 47 53 
124 259 233 42 47 53 
124 258 234 42 47 52 
124 258 235 42 47 53 
124 259 234 43 48 53 
125 258 235 42 47 53 
125 259 235 42 47 52 
124 256 236 44 50 56 
124 256 237 43 50 57 
124 257 236 44 49 55 
124 257 237 44 50 57 
124 256 238 44 51 59 
124 256 239 44 52 61 
124 257 238 43 51 59 
125 256 239 44 52 61 
125 257 238 43 51 59 
125 257 239 42 51 60 
124 258 236 45 50 56 
125 258 236 45 50 56 
125 258 237 44 51 58 
125 259 236 45 50 56 
125 259 237 44 50 58 
125 258 238 43 51 59 
125 258 239 41 50 59 
125 259 238 41 50 58 
125 259 239 39 48 58 
124 260 234 42 47 52 
124 260 235 42 47 53 
124 261 234 45 49 56 
124 261 235 45 50 56 
125 260 235 44 49 55 
125 261 235 46 51 57 
124 262 234 47 52 58 
124 262 235 46 51 58 
124 263 234 47 53 59 
124 263 235 47 52 59 
125 262 235 47 52 58 
125 260 236 46 51 57 
125 260 237 45 52 59 
125 261 236 47 52 58 
125 261 237 45 52 59 
125 260 238 43 51 59 
125 260 239 40 48 57 
125 261 238 43 51 59 
125 261 239 42 50 59 
124 262 236 45 51 58 
124 263 236 45 52 59 
124 263 237 41 48 56 
125 262 236 45 51 57 
125 262 237 44 51 58 
125 263 237 42 49 57 
124 263 238 39 47 55 
125 262 238 42 50 58 
125 262 239 39 47 56 
125 263 238 39 47 55 
125 263 239 39 46 55 
120 264 229 40 46 54 
120 264 230 44 50 58 
120 265 230 42 49 57 
121 264 230 45 52 60 
121 264 231 45 52 60 
121 265 231 45 53 61 
120 266 230 44 51 59 
120 266 231 47 54 61 
120 267 230 44 51 59 
120 267 231 45 52 60 
121 266 231 46 53 61 
121 267 231 45 52 60 
120 268 230 39 46 54 
120 268 231 42 50 57 
120 269 230 38 45 52 
120 269 231 38 45 53 
120 270 230 37 43 51 
120 270 231 36 43 51 
120 271 231 36 42 50 
121 264 232 45 53 61 
121 265 232 46 53 61 
121 266 232 45 53 61 
121 266 233 45 53 61 
121 267 232 44 52 60 
121 267 233 44 52 60 
122 264 232 46 53 61 
122 264 233 46 53 61 
122 265 232 46 53 61 
122 265 233 46 53 61 
122 264 234 45 52 60 
122 265 234 46 53 61 
123 264 234 45 51 59 
123 264 235 44 50 58 
123 265 234 46 53 60 
123 265 235 45 51 58 
122 266 233 45 52 61 
122 266 234 45 52 60 
122 267 234 46 53 61 
122 267 235 43 51 59 
123 266 234 45 52 60 
123 266 235 45 51 59 
123 267 235 42 49 58 
123 266 236 42 49 57 
123 267 236 39 46 54 
120 269 232 39 46 54 
121 268 232 44 51 59 
121 268 233 44 52 60 
121 269 232 42 49 57 
121 269 233 41 49 57 
121 268 234 45 52 61 
121 269 234 43 50 58 
120 270 232 36 43 51 
120 270 233 37 45 52 
120 271 232 36 43 50 
120 271 233 36 44 51 
121 270 233 38 45 53 
120 271 234 36 44 51 
121 270 234 40 47 54 
121 271 234 37 45 52 
121 271 235 38 45 53 
122 268 234 45 52 60 
122 268 235 45 52 59 
122 269 234 43 50 57 
122 269 235 42 48 55 
123 268 235 38 45 52 
122 270 235 39 46 53 
122 271 235 39 46 53 
123 268 236 38 44 52 
123 269 236 41 47 53 
122 271 236 39 45 51 
123 270 236 40 46 52 
123 271 236 39 45 51 
124 264 235 44 50 58 
124 265 235 44 50 58 
124 264 236 43 49 57 
124 264 237 43 50 58 
124 265 236 44 50 58 
124 265 237 41 49 57 
124 264 238 40 48 56 
124 264 239 37 45 53 
124 265 238 38 46 54 
124 265 239 37 45 53 
124 266 236 40 47 55 
124 266 237 38 46 54 
124 267 236 38 45 53 
124 267 237 37 45 54 
124 266 238 37 45 54 
124 266 239 36 44 52 
124 267 238 37 45 54 
124 267 239 37 44 52 
124 268 236 39 45 52 
124 268 237 42 49 56 
124 269 236 39 45 52 
124 269 237 37 44 52 
125 268 237 38 46 54 
125 269 237 36 44 52 
125 268 238 37 45 53 
125 268 239 37 44 52 
125 269 238 37 44 52 
125 269 239 38 44 52 
124 270 236 38 44 51 
124 270 237 35 42 50 
124 271 237 39 45 52 
125 270 237 36 44 52 
125 271 237 38 45 52 
125 270 238 37 44 52 
125 270 239 38 44 52 
125 271 238 37 44 52 
125 271 239 38 45 52 
126 271 239 38 44 52 
125 256 240 45 53 62 
125 256 241 48 54 62 
125 257 240 43 52 61 
125 257 241 47 54 62 
125 256 242 48 53 60 
125 256 243 46 51 57 
125 257 242 49 54 61 
125 257 243 47 52 58 
125 258 240 41 50 60 
125 258 241 44 52 61 
125 259 240 39 49 58 
125 259 241 42 51 60 
125 258 242 48 54 61 
125 258 243 48 53 59 
125 259 242 46 53 60 
125 259 243 47 53 59 
125 256 244 43 48 55 
125 256 245 38 46 53 
125 257 244 44 50 56 
125 257 245 41 47 55 
125 256 246 37 45 52 
125 256 247 38 45 53 
125 257 246 39 46 54 
125 257 247 39 46 54 
125 258 244 44 50 56 
125 258 245 39 46 53 
125 259 244 45 50 56 
125 259 245 43 48 54 
125 258 246 36 44 51 
125 259 246 42 48 54 
126 257 247 41 48 55 
126 258 246 37 44 51 
126 258 247 36 44 51 
126 259 246 41 47 53 
126 259 247 40 46 53 
125 260 240 38 47 55 
125 260 241 41 49 57 
125 261 240 41 49 58 
125 261 241 41 49 57 
125 260 242 46 52 60 
125 260 243 49 53 60 
125 261 242 44 51 58 
125 261 243 47 53 61 
125 262 240 38 46 54 
125 262 241 39 47 55 
125 263 240 39 46 54 
125 263 241 38 45 53 
125 262 242 44 50 58 
125 262 243 45 52 59 
125 263 242 41 48 56 
125 263 243 45 51 59 
125 260 244 49 53 58 
125 261 244 49 54 61 
126 260 244 49 52 57 
126 260 245 45 49 55 
126 261 244 48 53 59 
126 261 245 47 51 56 
126 260 246 42 47 54 
126 260 247 43 48 54 
126 261 246 44 49 54 
126 261 247 42 48 54 
126 262 244 47 53 60 
126 262 245 47 53 60 
126 263 244 48 54 62 
126 263 245 47 54 61 
126 262 246 46 52 58 
126 262 247 43 49 56 
126 263 246 46 52 60 
126 263 247 43 50 58 
122 256 255 37 45 52 
123 256 254 36 44 51 
123 256 255 36 44 52 
123 257 255 36 44 52 
123 258 255 36 44 52 
125 256 248 36 44 51 
125 256 249 40 46 53 
125 257 249 37 44 51 
125 256 250 40 47 54 
125 256 251 39 45 52 
125 257 250 39 45 52 
125 257 251 42 47 53 
125 258 250 37 44 51 
125 258 251 42 47 53 
125 259 251 44 48 54 
126 257 248 38 45 52 
126 257 249 35 43 50 
126 258 248 41 47 54 
126 258 249 41 47 54 
126 259 248 40 47 54 
126 259 249 42 48 55 
126 258 250 39 46 53 
126 259 250 43 49 56 
126 259 251 43 49 56 
124 256 252 39 45 51 
124 256 253 38 44 51 
124 257 253 39 45 51 
125 256 252 40 46 51 
125 257 252 41 46 52 
125 257 253 41 46 52 
124 256 254 36 43 50 
124 257 254 36 43 51 
124 257 255 36 44 51 
125 258 252 43 47 53 
125 258 253 40 46 52 
125 259 252 43 47 54 
125 259 253 40 46 52 
124 258 254 39 46 53 
124 258 255 36 44 52 
124 259 255 37 45 53 
125 258 254 41 47 53 
125 259 254 39 45 52 
125 259 255 38 45 53 
126 260 248 42 48 56 
126 260 249 41 48 55 
126 261 248 41 48 55 
126 261 249 38 46 54 
126 260 250 37 45 53 
126 260 251 38 45 53 
126 261 250 39 47 55 
126 261 251 37 45 54 
126 262 248 41 48 55 
126 262 249 40 48 56 
126 263 248 41 49 57 
126 263 249 39 48 56 
126 262 250 37 46 55 
126 262 251 35 45 54 
126 263 250 38 47 56 
126 263 251 38 47 57 
125 260 252 41 47 54 
125 260 253 39 46 53 
125 261 253 38 46 53 
125 260 254 38 45 52 
125 260 255 38 45 53 
125 261 254 37 45 53 
125 261 255 37 44 52 
125 262 254 36 44 53 
125 262 255 35 44 52 
125 263 255 35 43 52 
126 260 252 40 46 53 
126 261 252 37 45 53 
126 261 253 38 46 53 
126 262 252 34 44 53 
126 262 253 35 44 53 
126 263 252 35 45 56 
126 263 253 34 44 54 
126 262 254 34 44 53 
126 263 254 33 43 53 
126 263 255 34 43 52 
124 264 240 37 44 52 
124 264 241 37 44 52 
124 265 240 37 44 52 
124 265 241 38 45 52 
125 264 241 39 46 53 
125 265 241 39 45 53 
125 264 242 42 48 56 
125 264 243 44 51 58 
125 265 242 41 47 54 
125 265 243 43 49 56 
124 266 240 36 43 51 
124 266 241 37 44 51 
124 267 240 36 44 51 
124 267 241 36 43 51 
125 266 241 40 46 53 
125 267 241 36 43 50 
125 266 242 41 47 54 
125 266 243 43 49 56 
125 267 242 36 43 51 
125 267 243 39 46 54 
125 264 244 46 53 60 
125 265 244 46 52 60 
125 266 244 45 52 60 
125 267 244 41 49 57 
126 264 244 48 54 62 
126 264 245 48 54 62 
126 265 244 47 54 62 
126 265 245 47 54 62 
126 264 246 45 52 59 
126 264 247 41 49 57 
126 265 246 44 51 59 
126 265 247 41 49 57 
126 266 244 46 53 61 
126 266 245 46 53 61 
126 267 245 45 52 60 
126 266 246 45 52 60 
126 266 247 43 50 57 
126 267 246 45 52 59 
126 267 247 44 50 58 
125 268 240 37 44 52 
125 268 241 38 45 52 
125 269 240 38 44 51 
125 269 241 38 44 51 
125 268 242 38 45 52 
125 268 243 38 45 52 
125 269 242 39 46 53 
125 269 243 40 47 54 
125 270 240 38 44 51 
125 270 241 38 44 51 
125 270 242 39 45 53 
125 270 243 39 46 53 
126 270 241 38 45 52 
126 271 240 38 44 52 
126 271 241 38 45 52 
126 270 242 39 45 53 
126 270 243 40 46 54 
126 271 242 40 46 53 
126 271 243 40 47 54 
125 268 244 41 49 57 
125 269 244 39 47 56 
126 268 245 45 52 59 
126 269 244 41 49 57 
126 269 245 44 51 59 
126 268 246 46 53 60 
126 268 247 45 51 58 
126 269 246 44 51 59 
126 269 247 44 50 57 
126 270 244 41 49 57 
126 270 245 42 49 57 
126 271 244 40 48 56 
126 271 245 43 51 58 
126 270 246 42 50 58 
126 270 247 44 51 58 
126 271 246 43 50 58 
126 271 247 41 49 57 
126 264 248 40 48 56 
126 264 249 40 48 57 
126 265 248 40 48 56 
126 265 249 40 48 57 
126 264 250 38 47 57 
126 264 251 38 47 56 
126 265 250 39 48 57 
126 265 251 40 48 56 
126 266 248 42 48 56 
126 266 249 40 47 55 
126 267 248 43 48 55 
126 267 249 40 46 52 
126 266 250 40 47 55 
126 266 251 40 47 55 
126 267 250 39 45 52 
126 267 251 38 45 52 
126 264 252 37 47 56 
126 264 253 34 45 55 
126 265 252 41 47 55 
126 265 253 39 46 54 
126 264 254 32 43 53 
126 264 255 34 43 52 
126 265 254 36 45 54 
126 265 255 35 44 53 
126 266 252 41 47 55 
126 266 253 41 47 55 
126 267 252 37 44 52 
126 267 253 37 45 53 
126 266 254 40 47 55 
126 266 255 39 46 54 
126 267 254 38 45 53 
126 267 255 39 46 54 
126 268 248 42 48 55 
126 268 249 40 46 52 
126 269 248 43 49 55 
126 269 249 41 46 52 
126 268 250 40 45 51 
126 268 251 39 45 52 
126 269 250 42 46 51 
126 269 251 40 45 52 
126 270 248 44 50 57 
126 270 249 42 47 53 
126 271 248 42 49 56 
126 271 249 43 49 55 
126 270 250 41 45 51 
126 270 251 39 45 52 
126 271 250 43 48 54 
126 271 251 42 47 54 
126 268 252 37 44 52 
126 268 253 36 44 52 
126 269 252 37 45 52 
126 269 253 38 45 53 
126 268 254 36 44 52 
126 268 255 37 45 53 
126 269 254 38 45 53 
126 269 255 37 45 52 
126 270 252 37 44 52 
126 270 253 36 43 51 
126 271 252 40 47 55 
126 271 253 37 44 52 
126 270 254 37 44 52 
126 270 255 37 45 53 
126 271 254 35 43 51 
126 271 255 37 44 52 
127 271 255 37 45 52 
113 272 224 35 40 46 
113 273 224 35 40 45 
114 272 224 34 39 45 
114 272 225 34 39 45 
114 273 224 35 40 45 
114 273 225 34 39 45 
115 272 225 34 39 45 
115 273 225 33 38 44 
114 274 224 35 40 45 
114 274 225 35 39 45 
114 275 224 36 40 45 
115 274 225 34 38 44 
115 275 225 34 39 44 
114 276 224 37 40 45 
115 276 224 37 40 45 
115 276 225 36 40 46 
115 277 224 38 41 46 
115 278 224 37 42 47 
116 272 226 33 39 45 
116 273 226 33 38 44 
117 272 226 33 38 44 
117 272 227 33 38 45 
117 273 226 33 38 44 
117 273 227 32 39 45 
116 275 225 34 39 44 
116 274 226 34 39 45 
116 275 226 35 40 45 
117 274 226 34 39 45 
117 274 227 33 39 46 
117 275 226 34 40 46 
117 275 227 34 40 47 
117 274 228 33 40 47 
117 275 228 34 41 48 
118 272 228 33 39 45 
118 272 229 34 40 46 
118 273 228 32 39 45 
118 273 229 34 40 46 
118 273 230 35 41 47 
119 272 230 35 41 47 
119 272 231 35 42 48 
119 273 230 35 41 47 
119 273 231 36 42 48 
118 274 228 33 40 47 
118 274 229 35 40 46 
118 275 228 34 41 48 
118 275 229 35 41 47 
118 274 230 36 41 47 
118 275 230 35 40 47 
118 275 231 36 41 48 
119 274 231 35 40 46 
119 275 231 35 41 47 
116 276 225 38 41 46 
116 277 224 37 41 46 
116 277 225 36 41 46 
116 276 226 36 41 46 
116 277 226 36 41 47 
117 276 226 35 41 47 
117 276 227 34 40 47 
117 277 226 36 41 48 
117 277 227 35 41 48 
116 278 224 39 43 47 
116 278 225 38 43 48 
116 279 224 38 43 49 
116 279 225 38 44 50 
116 278 226 38 43 49 
116 279 226 37 43 50 
117 278 226 38 44 50 
117 278 227 36 42 49 
117 279 226 38 44 51 
117 279 227 37 43 50 
117 276 228 33 40 47 
117 277 228 34 41 49 
117 278 228 37 43 50 
117 278 229 36 43 50 
117 279 228 39 44 50 
117 279 229 35 43 51 
118 276 228 32 39 47 
118 276 229 35 41 48 
118 277 229 34 41 48 
118 276 230 35 41 48 
118 276 231 36 42 49 
118 277 230 34 41 48 
118 277 231 34 41 48 
118 278 229 35 42 49 
118 278 230 35 42 49 
118 278 231 33 41 49 
118 279 230 35 43 50 
118 279 231 35 43 51 
119 272 232 35 42 49 
119 273 232 37 42 49 
119 273 233 36 42 49 
119 274 232 36 41 48 
119 274 233 36 42 48 
119 275 232 35 41 48 
119 275 233 36 42 48 
119 274 234 35 42 48 
119 275 234 35 41 48 
118 276 232 36 42 49 
118 277 232 33 41 48 
119 276 232 35 42 49 
119 276 233 35 41 48 
119 277 232 34 41 48 
119 277 233 35 42 49 
119 276 234 36 42 48 
119 277 234 36 42 49 
119 278 232 34 42 49 
119 278 233 34 42 49 
119 279 232 36 43 51 
119 279 233 36 43 51 
119 278 234 33 41 48 
114 283 224 34 41 49 
115 283 224 35 42 49 
112 284 224 36 42 49 
112 285 224 36 42 49 
112 285 225 35 41 48 
113 284 224 35 42 49 
113 285 224 35 42 49 
113 285 225 34 41 48 
112 286 224 34 41 47 
112 286 225 34 40 47 
112 287 224 33 39 46 
113 286 225 33 40 47 
113 287 224 33 39 46 
113 287 225 33 40 47 
114 284 224 34 41 49 
114 284 225 34 41 49 
114 285 225 34 41 49 
115 284 224 33 41 48 
115 284 225 33 41 49 
115 285 225 34 42 50 
114 286 225 32 40 48 
114 287 224 32 39 46 
114 287 225 32 39 47 
115 286 225 34 41 49 
115 287 225 31 40 48 
116 280 224 36 43 50 
116 280 225 36 43 50 
116 281 224 35 43 50 
116 281 225 36 43 50 
117 280 226 38 44 51 
117 280 227 36 42 50 
117 281 226 37 44 51 
117 281 227 37 43 51 
116 282 224 35 42 50 
116 282 225 35 42 50 
116 283 224 35 42 50 
116 283 225 33 41 49 
117 282 226 35 42 50 
117 282 227 36 42 50 
117 283 226 34 41 49 
117 283 227 35 42 50 
117 280 228 37 43 48 
117 280 229 36 43 51 
117 281 228 39 44 50 
117 281 229 39 45 52 
117 282 228 37 43 50 
117 282 229 36 43 51 
117 283 228 37 43 50 
118 280 230 36 44 52 
118 280 231 37 44 52 
118 281 230 38 45 52 
118 281 231 38 44 51 
119 280 231 38 45 52 
119 281 231 38 44 51 
118 282 229 36 43 51 
118 283 229 37 44 51 
118 282 230 37 43 51 
118 283 230 37 43 50 
119 282 230 38 44 50 
119 282 231 37 43 50 
119 283 230 39 45 52 
116 284 225 33 41 49 
116 285 225 34 41 49 
117 285 225 32 40 48 
117 284 226 34 41 49 
117 284 227 35 42 50 
117 285 226 34 41 49 
116 286 225 33 41 48 
116 287 225 32 40 47 
117 286 225 34 41 48 
117 287 224 34 40 47 
117 287 225 34 41 48 
118 284 226 34 41 49 
118 284 227 35 42 50 
118 285 226 34 41 49 
119 284 227 36 43 50 
119 285 226 34 41 49 
119 285 227 35 42 50 
118 286 225 34 41 48 
118 287 224 33 40 47 
118 287 225 33 40 48 
119 286 225 34 41 49 
119 287 224 33 41 48 
119 287 225 34 41 49 
117 284 228 36 43 50 
118 284 228 37 44 51 
118 284 229 39 45 52 
119 284 228 37 44 52 
119 284 229 40 46 53 
119 280 232 37 44 52 
119 281 232 38 44 52 
120 272 232 35 42 49 
120 272 233 35 42 49 
120 273 233 35 41 48 
120 272 234 36 43 50 
120 273 234 35 42 49 
120 273 235 34 42 50 
121 272 234 36 43 51 
121 272 235 36 43 51 
121 273 235 35 43 51 
120 274 234 35 42 48 
120 274 235 36 43 51 
120 275 234 35 41 48 
120 275 235 37 44 51 
122 272 235 36 43 51 
121 273 236 37 44 51 
120 275 236 37 44 51 
121 274 236 37 44 52 
121 274 237 38 45 52 
121 275 236 38 45 52 
121 275 237 37 44 52 
122 272 236 38 45 51 
122 273 236 38 44 51 
122 273 237 38 45 51 
123 272 236 41 46 53 
123 272 237 40 45 52 
123 273 237 40 46 53 
122 274 237 37 44 52 
122 275 237 38 45 53 
123 274 237 37 44 52 
122 275 238 38 45 53 
123 274 238 37 44 52 
123 275 238 38 46 54 
120 276 234 36 42 49 
120 276 235 35 42 50 
120 277 234 36 43 50 
120 277 235 35 43 50 
120 279 233 36 44 51 
120 278 234 34 41 49 
120 278 235 34 43 51 
120 279 234 37 43 51 
121 278 235 36 44 52 
121 279 234 35 43 50 
121 279 235 37 44 51 
122 279 235 42 48 55 
123 279 235 42 49 57 
120 276 236 35 43 51 
120 276 237 36 43 51 
120 277 236 36 44 51 
121 276 237 37 44 51 
121 277 237 37 43 51 
121 276 238 37 44 51 
121 277 238 38 46 54 
121 278 236 35 43 51 
121 278 237 35 42 50 
122 276 238 36 44 53 
122 277 238 36 46 55 
123 276 238 35 44 53 
123 277 238 34 44 53 
122 278 236 36 43 51 
122 278 237 34 43 52 
122 279 236 39 46 54 
123 278 237 36 45 53 
123 279 236 42 50 58 
124 272 237 38 44 51 
124 273 237 38 44 51 
125 272 237 38 45 52 
124 273 238 38 44 51 
125 272 238 37 44 52 
125 272 239 37 44 51 
125 273 238 37 44 51 
125 273 239 37 44 51 
124 274 238 38 44 51 
124 275 238 37 44 51 
125 274 238 37 44 51 
125 274 239 37 44 51 
125 275 238 36 43 51 
125 275 239 36 43 50 
126 272 239 37 44 51 
126 273 239 37 44 51 
126 274 239 37 44 51 
126 275 239 37 44 51 
124 279 235 38 46 54 
124 276 238 36 43 51 
124 277 238 37 44 51 
125 276 238 35 43 51 
125 276 239 35 43 50 
125 277 238 37 45 53 
125 277 239 34 42 49 
124 278 237 39 47 55 
124 279 236 41 47 55 
125 278 237 37 45 52 
125 279 236 37 44 51 
125 279 237 37 43 50 
125 278 238 35 43 52 
126 276 239 36 43 50 
126 277 239 35 42 49 
126 278 237 35 43 51 
126 279 237 36 43 50 
127 279 237 35 42 50 
126 278 238 35 42 50 
126 278 239 35 42 49 
126 279 238 35 42 49 
127 278 239 35 41 49 
127 279 238 35 42 49 
127 279 239 34 41 48 
120 281 231 38 44 51 
120 282 231 35 42 50 
120 283 230 37 44 52 
121 282 231 37 44 52 
121 283 230 38 46 54 
122 282 231 39 46 54 
122 283 230 39 47 55 
123 282 231 38 45 53 
123 283 230 39 46 54 
123 283 231 38 45 53 
120 284 227 35 43 51 
120 285 226 33 41 49 
120 285 227 35 43 51 
121 285 226 35 43 51 
121 285 227 36 43 52 
120 286 225 34 41 49 
120 287 224 34 42 49 
120 287 225 34 42 49 
121 286 225 35 43 50 
121 287 224 35 42 50 
121 287 225 35 43 50 
120 286 226 34 42 50 
121 286 226 35 43 51 
122 285 226 39 46 53 
122 285 227 38 45 53 
123 285 227 40 46 53 
122 286 225 37 44 52 
122 287 225 36 44 52 
123 287 225 37 44 51 
122 286 226 38 45 52 
123 286 226 39 45 52 
123 287 226 37 44 51 
120 284 228 37 44 52 
120 284 229 39 46 54 
121 284 228 37 45 53 
121 284 229 38 46 54 
122 284 228 38 45 53 
122 284 229 38 46 54 
123 284 228 40 46 52 
123 284 229 38 45 53 
123 285 228 39 46 53 
124 282 231 35 43 52 
124 283 230 40 46 54 
124 283 231 35 44 52 
125 283 230 45 51 58 
125 283 231 35 45 53 
124 285 227 40 46 52 
124 286 227 39 45 52 
124 287 226 38 44 51 
124 287 227 39 45 51 
125 286 227 41 46 52 
125 287 227 40 45 51 
124 284 228 40 46 53 
124 284 229 40 46 54 
124 285 228 40 46 53 
125 284 229 41 47 54 
125 285 228 41 47 53 
125 285 229 41 47 54 
124 284 230 42 48 56 
125 284 230 38 46 54 
125 284 231 36 44 53 
125 285 230 38 46 54 
125 286 228 41 47 53 
125 287 228 40 46 53 
126 285 229 40 47 55 
126 284 230 37 45 54 
126 284 231 36 44 52 
126 285 230 39 46 55 
126 285 231 38 45 53 
127 285 231 38 45 53 
126 286 228 41 47 54 
126 286 229 40 47 55 
126 287 228 40 46 54 
126 287 229 40 47 55 
127 287 229 41 48 56 
126 286 230 40 47 55 
127 286 230 40 47 55 
127 286 231 40 46 53 
127 287 230 42 49 56 
120 280 232 36 44 52 
120 280 233 36 43 51 
120 281 232 37 44 51 
121 280 233 36 43 50 
121 281 232 39 46 54 
121 281 233 38 44 51 
121 280 234 37 44 50 
122 280 233 40 46 52 
122 281 232 38 45 52 
122 281 233 38 44 51 
123 281 232 35 43 51 
123 281 233 35 43 51 
122 280 234 39 45 52 
123 280 234 38 44 51 
123 280 235 39 46 54 
123 281 234 38 45 52 
122 282 232 39 46 54 
123 282 232 37 44 52 
124 281 233 35 42 50 
125 281 233 36 43 50 
124 280 234 36 43 50 
124 280 235 36 44 52 
124 281 234 36 43 51 
125 280 234 36 42 49 
125 280 235 36 44 51 
125 281 234 36 42 49 
124 282 232 35 43 51 
124 282 233 35 43 50 
125 282 232 35 43 51 
125 282 233 37 43 50 
125 283 232 35 43 51 
126 280 235 38 43 49 
126 281 234 38 43 49 
126 281 235 38 43 49 
127 281 235 37 43 49 
126 282 233 37 43 49 
126 283 232 33 41 49 
126 283 233 34 41 48 
127 283 233 33 40 48 
126 282 234 38 43 49 
127 282 234 39 44 49 
127 282 235 39 44 50 
127 283 234 36 41 48 
127 283 235 39 43 49 
125 280 236 37 43 50 
126 280 236 36 42 49 
126 280 237 36 42 49 
127 280 236 35 42 49 
127 280 237 35 42 50 
127 281 236 36 42 49 
127 281 237 34 42 49 
127 280 238 34 41 48 
127 280 239 34 41 48 
127 282 236 37 43 50 
126 284 232 33 41 49 
127 284 232 34 42 49 
127 284 233 34 40 48 
127 285 232 38 44 51 
127 285 233 37 42 49 
127 284 234 35 40 47 
127 286 232 40 45 52 
126 272 240 37 44 51 
126 272 241 39 45 52 
126 273 240 37 44 51 
126 273 241 39 45 52 
126 272 242 40 46 53 
126 272 243 41 48 55 
126 273 242 40 46 52 
126 273 243 41 46 53 
126 274 240 38 44 51 
126 274 241 38 44 51 
126 275 240 38 44 51 
126 275 241 38 44 51 
126 274 242 39 45 52 
126 274 243 40 46 52 
126 275 242 39 45 52 
126 275 243 40 46 53 
126 272 244 42 49 57 
126 272 245 42 50 58 
126 273 244 41 47 55 
126 273 245 42 49 57 
126 272 246 44 51 59 
126 272 247 45 52 60 
126 273 246 43 50 58 
126 273 247 44 51 60 
126 274 244 41 47 54 
126 274 245 40 47 55 
126 275 244 41 47 54 
126 275 245 40 47 55 
127 275 244 40 47 54 
127 275 245 39 47 54 
126 274 246 42 50 58 
126 274 247 42 50 58 
126 275 246 41 48 56 
127 274 247 43 51 59 
127 275 246 41 48 56 
127 275 247 44 51 58 
126 276 240 37 43 50 
126 276 241 38 44 51 
126 277 240 36 42 50 
127 276 241 38 44 51 
127 277 240 36 42 49 
127 277 241 37 43 50 
126 276 242 39 45 51 
127 276 242 39 45 52 
127 276 243 38 45 52 
127 277 242 37 44 51 
127 277 243 37 44 51 
127 278 240 35 42 49 
127 278 241 36 42 49 
127 279 240 35 42 48 
127 279 241 36 42 49 
127 278 242 36 43 50 
127 278 243 36 43 50 
127 279 242 36 42 49 
127 279 243 36 42 50 
127 276 244 39 45 52 
127 276 245 38 46 54 
127 277 244 37 44 51 
127 277 245 36 44 52 
127 276 246 39 46 54 
127 276 247 41 48 56 
127 277 246 38 45 53 
127 277 247 39 46 54 
127 278 244 36 43 51 
127 278 245 37 44 52 
127 279 244 35 43 50 
127 278 246 37 45 52 
126 272 248 43 50 58 
126 272 249 40 47 55 
126 273 248 44 51 60 
126 273 249 41 49 58 
127 273 249 39 48 57 
126 272 250 41 47 54 
126 272 251 41 47 54 
126 273 250 41 48 56 
126 273 251 41 48 55 
127 273 250 39 47 56 
127 273 251 41 48 55 
126 274 248 43 51 60 
127 274 248 42 51 59 
127 274 249 41 50 59 
127 275 248 44 51 59 
127 275 249 40 49 58 
127 274 250 38 47 56 
127 274 251 37 46 55 
127 275 250 39 48 58 
127 275 251 39 48 57 
126 272 252 41 48 55 
126 272 253 39 46 53 
127 272 252 41 47 55 
127 272 253 40 47 54 
127 273 252 40 47 54 
127 273 253 39 46 54 
127 272 254 36 44 52 
127 272 255 37 45 53 
127 273 254 38 45 53 
127 273 255 39 46 54 
127 274 252 41 47 55 
127 274 253 39 46 54 
127 275 252 42 49 56 
127 275 253 41 48 55 
127 274 254 37 45 52 
127 274 255 39 46 54 
127 276 248 42 49 57 
127 276 249 40 48 56 
127 277 248 40 47 55 
127 276 250 38 47 56 
127 276 251 37 47 57 
127 280 240 36 42 48 
127 280 241 36 42 49 
127 280 242 35 42 49 
96 291 223 35 41 47 
97 290 223 35 41 47 
97 291 223 35 41 47 
98 291 222 34 40 46 
98 291 223 35 41 46 
99 290 223 34 40 46 
99 291 222 35 41 47 
99 291 223 34 40 46 
96 293 219 36 41 48 
97 293 219 37 42 48 
96 295 216 39 44 50 
96 295 217 38 44 50 
97 295 216 38 43 49 
97 295 217 38 44 50 
96 294 218 35 41 48 
96 294 219 37 43 49 
96 295 218 36 42 48 
97 294 218 37 43 49 
97 294 219 38 43 50 
97 295 218 38 43 50 
98 293 219 36 42 48 
99 293 219 36 41 47 
98 295 216 38 43 49 
98 295 217 38 43 49 
99 295 217 37 42 48 
98 294 218 38 43 50 
98 294 219 38 43 50 
98 295 218 39 44 50 
99 294 218 38 43 49 
99 294 219 36 42 48 
99 295 218 37 42 48 
96 292 221 35 42 49 
96 293 220 36 42 48 
97 292 221 33 40 46 
97 293 220 36 42 48 
96 292 222 38 44 50 
97 292 222 35 41 48 
98 292 221 34 40 46 
98 293 220 36 41 47 
99 292 221 35 41 47 
99 293 220 36 41 47 
98 292 222 34 40 46 
99 292 222 36 42 48 
100 288 223 33 40 46 
100 289 223 34 40 46 
101 288 223 35 40 46 
101 289 223 35 41 47 
100 290 223 35 40 46 
100 291 222 42 46 51 
100 291 223 36 41 47 
101 290 223 37 42 48 
101 291 223 38 42 48 
102 288 223 35 40 46 
102 289 223 34 40 46 
103 288 223 36 40 45 
103 289 223 34 39 45 
102 290 223 36 41 47 
102 291 222 37 42 47 
102 291 223 35 40 46 
103 290 222 36 41 47 
103 290 223 34 40 46 
103 291 222 34 40 46 
103 291 223 34 40 45 
100 293 219 37 42 48 
100 295 217 38 43 49 
101 295 217 37 42 48 
100 294 218 38 43 49 
100 294 219 37 42 49 
100 295 218 38 43 49 
101 294 219 37 42 49 
101 295 218 38 43 49 
101 295 219 36 42 48 
102 294 219 36 42 49 
102 295 218 38 43 49 
102 295 219 37 43 49 
103 294 219 36 42 49 
103 295 219 38 43 49 
100 292 221 35 40 47 
100 293 220 36 42 48 
100 293 221 36 41 47 
101 292 221 36 42 49 
101 293 220 36 42 49 
101 293 221 35 42 49 
100 292 222 38 43 49 
101 292 222 35 42 48 
101 294 220 36 42 48 
102 293 220 34 41 49 
102 293 221 33 41 49 
103 293 221 34 41 48 
102 292 222 34 41 48 
103 292 222 32 40 47 
102 294 220 36 42 49 
103 294 220 36 42 49 
96 296 215 38 43 49 
96 297 214 38 44 50 
96 297 215 37 43 49 
97 296 215 40 45 51 
97 297 214 39 44 50 
97 297 215 38 43 49 
96 298 213 39 44 51 
96 299 213 38 44 51 
97 298 213 39 44 51 
97 299 213 38 45 51 
96 298 214 39 45 51 
97 298 214 39 45 51 
98 296 215 39 44 50 
98 297 214 39 44 50 
98 297 215 39 44 50 
99 297 215 39 44 50 
98 298 213 39 44 51 
98 299 213 38 44 51 
99 299 213 38 44 50 
98 298 214 39 44 50 
99 298 214 38 43 50 
96 300 212 39 45 53 
96 300 213 38 45 52 
96 301 212 38 45 53 
97 300 213 37 44 52 
97 301 212 38 45 53 
96 302 212 40 46 53 
96 303 212 40 47 54 
97 302 212 39 46 53 
97 303 212 40 47 54 
98 300 213 38 44 52 
98 301 212 37 45 52 
99 300 213 37 44 51 
99 301 212 37 44 52 
98 302 212 39 46 54 
98 303 212 40 47 54 
99 302 212 38 45 53 
99 303 212 41 48 55 
100 297 215 38 43 49 
100 299 213 36 43 50 
100 298 214 37 43 49 
100 298 215 37 42 49 
100 299 214 36 43 50 
101 298 214 35 41 48 
101 298 215 36 42 48 
101 299 214 35 42 48 
102 298 215 36 42 48 
102 299 214 35 41 48 
102 299 215 36 42 48 
103 299 215 36 41 47 
100 300 213 35 43 50 
100 301 212 36 44 51 
100 301 213 35 43 50 
101 300 213 34 42 49 
101 301 212 36 43 51 
101 301 213 35 42 50 
101 300 214 35 42 49 
100 302 212 38 45 52 
100 303 212 40 46 53 
101 302 212 37 44 51 
101 303 212 40 46 52 
102 300 213 36 42 49 
102 301 213 35 42 49 
103 301 213 36 42 48 
102 300 214 35 41 48 
103 300 214 36 41 48 
103 300 215 35 41 47 
103 301 214 35 41 48 
102 302 212 37 43 49 
102 303 212 39 45 51 
103 302 212 36 42 49 
103 302 213 36 42 49 
103 303 212 38 44 50 
96 296 216 38 43 49 
97 296 216 38 43 49 
98 296 216 38 44 50 
99 296 216 39 44 50 
100 296 216 38 43 49 
100 296 217 38 43 48 
100 297 216 38 43 49 
101 296 216 37 43 49 
101 296 217 37 42 48 
101 297 216 37 42 48 
102 296 217 37 42 48 
102 297 216 37 42 48 
103 297 217 38 43 49 
102 296 218 37 42 48 
103 296 218 38 43 49 
103 296 219 38 43 49 
103 297 218 38 43 48 
102 298 216 37 42 48 
103 298 216 36 41 47 
103 298 217 38 43 49 
104 288 222 34 39 44 
104 288 223 35 40 45 
104 289 222 34 39 44 
104 289 223 34 39 44 
105 288 222 33 38 44 
105 289 222 34 39 44 
104 291 221 33 39 45 
105 291 221 35 41 46 
104 290 222 35 40 46 
104 291 222 35 41 47 
105 290 222 35 40 46 
105 291 222 36 41 47 
107 289 221 32 39 45 
106 288 222 33 39 45 
106 289 222 33 39 45 
107 288 222 33 39 45 
107 289 222 32 38 45 
106 290 221 34 39 46 
106 291 221 35 41 47 
107 290 221 33 39 46 
107 291 220 33 40 47 
107 291 221 33 40 46 
106 290 222 34 39 45 
104 295 219 37 42 48 
105 294 219 36 41 47 
105 295 219 36 41 47 
106 294 219 35 42 48 
106 295 219 35 42 48 
107 294 219 35 42 49 
107 295 218 36 42 49 
107 295 219 36 42 49 
104 292 221 35 41 46 
104 293 220 36 41 47 
104 293 221 36 42 48 
105 292 221 35 40 46 
105 293 220 35 41 48 
104 292 222 34 40 46 
104 294 220 37 42 48 
105 294 220 36 42 48 
106 292 220 34 40 47 
106 292 221 34 40 47 
106 293 220 32 40 47 
107 292 220 33 40 47 
107 293 220 32 39 47 
106 294 220 33 40 47 
108 289 221 32 38 45 
109 289 221 32 38 45 
108 288 222 32 38 45 
109 288 222 32 38 45 
108 290 221 33 40 47 
108 291 220 32 39 46 
108 291 221 33 40 47 
109 290 221 34 39 46 
109 291 220 32 39 46 
109 291 221 33 40 46 
110 289 221 35 39 45 
110 288 222 33 39 45 
110 289 222 34 39 45 
111 288 222 34 39 45 
111 288 223 33 39 45 
111 289 222 33 38 44 
111 289 223 32 38 44 
110 290 221 34 39 45 
110 291 220 34 39 45 
110 291 221 33 39 45 
111 290 221 34 38 44 
111 291 220 34 39 44 
111 291 221 34 39 44 
111 290 222 33 38 44 
108 294 219 35 41 48 
108 295 218 35 42 49 
108 295 219 35 41 49 
109 294 219 34 41 48 
109 295 219 35 42 48 
110 294 219 35 41 48 
110 295 219 35 41 48 
108 292 220 32 39 46 
108 293 220 32 40 47 
109 292 220 32 39 46 
109 293 220 32 39 46 
109 294 220 34 40 47 
110 292 220 33 39 46 
110 293 220 33 39 46 
111 292 220 33 39 45 
111 292 221 32 38 44 
111 293 220 35 40 46 
110 294 220 34 40 47 
111 294 220 36 41 47 
111 295 220 36 42 48 
104 299 215 35 40 46 
104 301 213 35 41 47 
104 300 214 34 40 46 
104 300 215 33 39 45 
104 301 214 34 40 47 
104 301 215 32 39 45 
105 300 215 33 39 45 
105 301 214 34 40 47 
105 301 215 33 40 46 
104 302 213 36 42 48 
104 303 212 38 44 50 
104 303 213 38 44 50 
105 302 213 37 43 49 
105 303 213 38 44 50 
105 302 214 35 41 47 
106 301 214 36 42 48 
106 301 215 34 39 46 
107 301 215 32 39 46 
106 303 213 35 41 48 
107 303 213 35 41 48 
106 302 214 33 40 48 
107 302 214 33 41 48 
107 302 215 31 39 46 
107 303 214 35 43 52 
108 303 213 34 41 47 
109 303 213 34 40 47 
108 302 214 35 42 49 
108 302 215 32 40 48 
108 303 214 33 40 47 
109 302 215 34 41 48 
109 303 214 34 40 47 
110 302 215 34 40 47 
110 303 214 37 42 48 
110 303 215 36 42 48 
111 303 214 35 40 46 
111 303 215 36 41 47 
104 297 217 38 43 49 
104 296 219 37 41 47 
104 297 218 39 43 49 
104 297 219 38 43 49 
105 296 219 37 43 48 
105 297 218 37 43 49 
105 297 219 39 44 50 
104 298 216 36 41 47 
104 298 217 37 42 47 
104 299 216 35 41 47 
105 298 216 36 41 47 
105 298 217 37 41 47 
105 299 216 35 41 47 
104 298 218 38 43 49 
105 298 218 37 43 49 
105 298 219 37 43 49 
106 297 217 36 42 49 
107 297 217 36 42 48 
106 296 218 36 42 49 
106 296 219 36 42 49 
106 297 218 37 43 49 
107 296 218 36 42 49 
107 297 218 36 42 49 
106 298 217 35 41 47 
106 299 216 34 40 47 
106 299 217 34 40 47 
107 298 217 34 41 47 
107 299 216 33 40 46 
107 299 217 33 39 46 
106 298 219 36 42 48 
105 300 216 33 39 46 
106 300 216 34 40 46 
107 300 216 32 39 45 
107 300 217 32 38 45 
107 301 216 33 39 46 
108 296 218 35 42 49 
108 297 218 35 42 48 
109 296 218 35 42 49 
109 296 219 36 42 49 
109 297 218 35 41 48 
109 297 219 35 41 48 
108 299 217 33 39 46 
108 298 218 34 41 47 
108 299 218 32 39 46 
109 298 218 34 40 47 
109 298 219 34 40 46 
109 299 218 33 39 46 
109 299 219 33 39 46 
110 296 219 36 42 48 
110 297 219 35 41 47 
110 298 219 33 40 46 
110 299 219 34 40 46 
111 296 220 35 41 48 
111 297 220 35 41 47 
111 298 220 33 39 46 
111 299 220 33 38 45 
108 300 217 31 38 45 
108 301 216 32 39 46 
108 301 217 32 39 46 
109 301 216 32 40 47 
109 301 217 33 39 46 
109 300 218 32 38 45 
109 300 219 33 39 45 
109 301 218 32 38 45 
108 302 216 31 39 47 
109 302 216 32 40 48 
110 301 217 33 40 47 
110 300 219 33 39 45 
110 301 218 34 40 46 
110 301 219 31 37 44 
111 300 219 32 38 44 
111 301 218 34 39 45 
111 301 219 32 38 44 
110 302 216 34 41 48 
110 302 217 32 40 47 
111 302 216 36 41 48 
111 302 217 36 42 48 
111 303 216 35 40 46 
111 302 218 35 40 46 
111 300 220 32 38 44 
96 304 212 41 48 55 
96 305 212 42 49 56 
97 304 212 40 47 54 
97 305 212 41 48 56 
96 306 212 42 50 58 
96 306 213 43 50 58 
96 307 213 43 51 59 
97 306 212 42 50 58 
97 306 213 43 50 59 
97 307 213 42 50 59 
98 304 212 41 48 55 
98 305 212 41 48 56 
99 304 212 42 49 56 
99 305 212 42 48 56 
98 306 212 41 49 57 
98 307 213 41 49 58 
99 306 212 41 48 56 
99 307 212 39 47 55 
99 307 213 40 48 56 
96 308 213 43 51 59 
97 308 213 43 51 59 
96 308 214 44 51 59 
96 309 214 43 51 59 
96 309 215 43 51 59 
97 308 214 43 51 59 
97 309 214 44 51 59 
97 309 215 43 51 59 
96 310 215 43 50 59 
97 310 215 42 50 58 
98 308 213 42 49 58 
99 308 213 41 49 57 
98 309 214 42 50 58 
99 309 214 42 50 58 
98 310 215 40 49 57 
99 310 215 41 49 58 
100 304 212 41 47 54 
100 305 212 42 48 55 
101 304 212 39 46 53 
101 305 212 41 47 54 
100 306 212 41 48 56 
100 307 212 40 47 55 
100 307 213 40 47 55 
101 306 212 42 48 56 
101 307 212 42 48 56 
102 304 212 40 46 52 
102 305 212 40 46 53 
103 304 212 40 46 52 
103 305 212 40 46 53 
102 306 212 41 48 55 
102 307 212 42 49 56 
103 306 212 41 47 54 
103 307 212 43 49 56 
100 308 213 42 49 57 
100 309 213 42 49 57 
101 308 212 42 49 57 
101 308 213 42 49 57 
101 309 213 42 49 57 
100 309 214 43 50 58 
101 309 214 42 49 57 
100 310 214 41 49 57 
100 310 215 41 49 57 
100 311 215 40 48 56 
101 310 214 41 48 56 
101 310 215 40 48 56 
101 311 215 39 47 56 
102 308 212 42 49 56 
102 308 213 42 49 57 
102 309 213 42 49 57 
103 308 212 43 50 57 
103 309 213 43 49 57 
102 309 214 41 49 57 
102 310 214 40 48 56 
102 310 215 39 47 55 
102 311 215 38 46 55 
103 310 214 41 48 56 
103 310 215 40 47 56 
103 311 215 38 46 55 
96 310 216 42 50 58 
96 311 216 40 48 57 
96 311 217 40 47 56 
97 310 216 42 49 57 
97 311 216 40 48 56 
97 311 217 38 46 54 
98 310 216 40 48 56 
98 311 216 39 47 55 
99 311 216 39 47 56 
100 311 216 39 46 55 
101 311 216 38 46 55 
102 311 216 37 45 54 
103 311 216 37 45 54 
97 312 217 39 46 55 
96 312 218 38 46 54 
96 312 219 38 45 53 
96 313 219 37 45 53 
97 312 218 37 45 53 
97 313 219 36 44 52 
98 312 217 38 46 54 
99 312 216 38 47 55 
99 312 217 37 45 53 
98 312 218 35 44 52 
98 313 218 35 44 52 
98 313 219 34 43 52 
99 313 218 35 43 52 
99 313 219 34 43 52 
98 314 219 36 44 52 
99 314 219 36 44 52 
96 313 220 36 44 52 
96 314 220 36 44 52 
96 314 221 36 44 52 
97 314 220 37 44 53 
97 314 221 37 45 53 
97 315 221 36 44 52 
96 314 222 35 44 52 
96 315 222 36 44 52 
96 315 223 37 45 53 
97 315 222 36 44 52 
97 315 223 36 44 52 
98 314 220 37 45 53 
98 314 221 37 45 53 
98 315 221 37 44 52 
99 314 220 37 44 52 
99 315 220 37 45 52 
99 315 221 37 44 52 
98 315 222 37 44 52 
99 315 222 37 44 52 
96 316 223 38 45 52 
97 316 223 36 43 51 
98 316 223 36 43 51 
99 316 222 37 44 51 
99 316 223 36 43 50 
99 317 223 36 42 49 
99 318 223 34 40 47 
99 319 223 33 39 46 
100 312 216 38 46 55 
100 312 217 37 45 54 
100 313 217 36 44 53 
101 312 216 35 45 53 
101 312 217 36 45 53 
101 313 217 36 45 53 
100 313 218 36 44 52 
101 313 218 37 44 52 
100 314 218 34 43 51 
100 314 219 37 44 52 
100 315 219 37 44 52 
101 314 218 37 44 52 
101 314 219 38 45 52 
101 315 219 38 44 51 
102 312 216 35 44 53 
102 312 217 35 44 53 
102 313 217 36 44 52 
103 312 216 36 45 53 
103 312 217 36 45 53 
103 313 217 36 44 52 
103 313 218 37 44 52 
102 314 218 37 44 52 
102 314 219 38 44 52 
102 315 219 37 44 51 
103 314 218 38 45 52 
103 314 219 38 44 52 
103 315 219 37 43 51 
100 315 220 37 44 52 
100 315 221 36 44 51 
101 315 220 37 44 51 
102 315 220 37 43 50 
100 316 221 36 43 50 
101 316 220 37 43 50 
101 316 221 35 42 49 
101 317 221 34 41 48 
100 316 222 36 43 50 
100 317 222 34 41 48 
100 317 223 35 42 49 
101 317 222 34 41 48 
101 318 221 34 41 48 
100 318 222 33 40 47 
100 318 223 34 40 47 
100 319 222 33 39 45 
100 319 223 34 39 46 
101 318 222 33 40 47 
101 319 222 32 38 45 
102 316 220 36 43 50 
102 316 221 36 42 49 
102 317 221 35 41 48 
103 316 220 36 42 49 
103 317 220 35 41 48 
102 318 221 33 40 47 
102 319 221 31 38 45 
103 318 220 32 39 46 
103 318 221 32 39 46 
103 319 220 31 38 45 
103 319 221 32 39 46 
104 305 211 40 46 52 
105 305 211 41 47 53 
104 306 211 40 46 53 
104 307 211 40 46 53 
105 306 211 41 47 53 
105 307 211 41 47 54 
106 305 211 42 47 53 
107 305 211 41 46 52 
106 306 211 41 47 53 
106 307 211 41 47 54 
107 306 211 42 47 54 
107 307 211 41 48 55 
104 304 212 39 44 51 
104 305 212 40 45 52 
105 304 212 39 44 51 
105 305 212 39 45 52 
104 306 212 40 46 53 
104 307 212 42 48 55 
106 304 212 38 44 51 
106 305 212 41 46 53 
107 304 212 39 44 50 
107 304 213 37 43 49 
107 305 212 40 45 51 
105 308 211 41 48 55 
106 308 211 42 48 56 
106 309 211 42 48 56 
107 308 211 41 48 56 
107 309 211 42 49 56 
104 308 212 42 49 56 
104 309 212 43 49 57 
104 309 213 42 49 57 
105 308 212 41 48 55 
105 309 212 41 48 56 
104 310 213 41 48 56 
105 310 213 40 48 56 
104 310 214 40 47 55 
104 310 215 40 47 55 
104 311 215 38 46 54 
105 310 214 38 46 54 
105 311 215 37 45 54 
106 309 212 41 48 56 
107 309 212 41 48 56 
106 310 212 41 48 55 
106 310 213 40 47 55 
107 310 212 41 48 56 
107 310 213 41 48 55 
106 310 214 39 46 54 
106 311 214 40 47 54 
106 311 215 39 46 54 
107 310 214 40 47 54 
107 311 214 40 47 54 
107 311 215 39 46 53 
108 305 211 40 45 51 
109 305 211 39 45 51 
108 306 211 41 46 53 
108 307 211 41 48 55 
109 306 211 40 46 52 
109 307 211 41 47 54 
110 306 211 40 46 52 
110 307 211 42 48 54 
108 304 212 37 43 49 
108 304 213 35 41 48 
108 305 212 39 44 50 
109 304 212 37 42 48 
109 304 213 37 42 48 
109 305 212 39 44 50 
110 304 213 36 41 47 
110 305 212 39 44 50 
111 304 213 38 43 48 
111 305 212 39 44 49 
111 305 213 38 44 50 
110 304 214 35 40 46 
111 304 214 36 42 47 
111 304 215 35 41 48 
110 306 212 40 46 52 
111 306 212 38 44 50 
111 307 212 39 45 52 
108 308 211 42 48 56 
108 309 211 43 50 58 
109 308 211 41 47 55 
109 309 211 41 48 56 
110 308 211 41 48 55 
110 309 211 40 47 55 
108 309 212 42 49 57 
109 309 212 42 49 56 
108 310 212 42 49 56 
108 310 213 42 48 56 
108 311 213 41 48 56 
109 310 212 43 49 57 
109 311 213 42 49 56 
108 311 214 41 47 55 
108 311 215 40 46 54 
109 311 214 40 47 55 
110 309 212 42 49 56 
111 308 212 40 47 54 
111 309 212 41 48 56 
110 310 212 43 50 58 
110 310 213 43 50 57 
110 311 213 41 48 55 
111 310 212 43 50 58 
111 310 213 43 50 57 
111 311 213 41 49 56 
110 311 214 39 46 54 
104 311 216 36 44 53 
105 311 216 37 45 53 
106 311 216 38 45 53 
107 311 216 38 45 52 
108 312 215 39 46 53 
109 312 214 38 45 53 
109 312 215 37 44 52 
110 312 214 37 45 53 
110 312 215 36 44 52 
110 313 215 35 43 51 
111 312 214 37 45 53 
111 312 215 37 44 52 
111 313 215 36 44 51 
111 314 215 35 43 50 
104 312 216 36 44 53 
104 312 217 38 45 54 
104 313 217 38 45 53 
105 312 216 37 45 53 
105 312 217 37 45 53 
104 313 218 37 44 52 
105 313 218 38 45 52 
104 314 218 37 44 52 
104 314 219 37 44 51 
104 315 219 37 43 51 
105 314 219 38 45 52 
105 315 219 37 43 50 
106 312 216 37 44 52 
106 312 217 36 44 52 
107 312 216 37 44 52 
107 312 217 37 44 52 
107 313 217 37 44 52 
106 313 218 38 45 52 
107 313 218 37 44 51 
106 314 219 38 44 51 
106 315 219 37 43 50 
107 314 218 36 43 50 
107 314 219 36 43 50 
107 315 219 36 43 50 
104 315 220 37 44 50 
105 315 220 37 43 50 
105 317 219 37 42 49 
104 319 219 31 38 45 
105 318 219 35 41 47 
105 319 219 34 39 46 
106 316 219 36 42 49 
106 317 219 36 42 48 
107 316 219 35 42 49 
107 317 219 36 42 48 
106 318 219 35 41 47 
106 319 219 34 40 46 
107 318 219 35 41 48 
107 319 218 33 39 45 
107 319 219 33 39 45 
104 316 220 36 42 49 
104 317 220 35 42 49 
105 316 220 37 43 49 
105 317 220 36 42 49 
104 318 220 33 40 47 
104 319 220 31 38 45 
108 312 216 37 45 52 
108 313 216 35 43 51 
108 313 217 36 43 51 
109 312 216 36 44 52 
109 313 216 34 42 50 
109 313 217 34 42 50 
108 313 218 36 43 51 
109 314 217 34 42 50 
108 314 218 36 43 50 
108 315 218 34 41 48 
108 315 219 34 41 48 
109 314 218 35 42 50 
109 315 218 34 41 48 
110 313 216 35 43 51 
110 314 216 35 42 50 
110 314 217 35 42 50 
110 315 217 35 41 49 
111 314 216 36 42 50 
111 315 216 35 42 49 
111 315 217 35 41 48 
110 315 218 34 41 48 
108 316 219 35 41 48 
108 317 218 34 40 46 
108 317 219 34 40 47 
109 316 218 34 41 48 
109 317 218 33 40 46 
108 318 218 34 40 46 
108 318 219 35 41 47 
108 319 218 34 40 46 
109 318 218 34 40 46 
109 319 218 33 39 44 
111 316 217 35 41 47 
111 317 217 35 41 47 
110 316 218 35 41 48 
110 317 218 34 40 46 
111 316 218 35 41 47 
111 317 218 35 41 47 
110 319 217 35 40 45 
111 318 217 35 40 46 
111 319 217 35 40 46 
110 318 218 34 40 46 
110 319 218 35 40 46 
111 318 218 35 40 45 
111 319 218 35 40 46 
112 288 223 33 39 45 
112 289 222 34 39 45 
112 289 223 34 39 46 
113 289 223 34 39 46 
112 291 221 34 39 45 
112 290 222 34 39 45 
112 291 222 34 39 44 
113 290 222 33 39 45 
113 290 223 34 39 45 
113 291 222 33 39 45 
114 289 223 34 40 46 
114 290 223 33 39 45 
114 291 222 34 40 46 
114 291 223 32 38 45 
115 290 223 33 39 46 
115 291 222 33 39 46 
115 291 223 33 39 45 
112 292 221 34 39 45 
112 293 220 37 42 48 
112 293 221 37 42 47 
113 292 221 34 39 46 
113 293 221 37 42 48 
113 292 222 34 40 46 
112 294 220 37 42 47 
112 294 221 37 42 47 
112 295 220 37 42 48 
112 295 221 37 42 48 
113 294 221 37 42 48 
113 295 221 37 42 48 
114 293 221 37 42 48 
114 292 222 35 41 47 
114 293 222 35 41 47 
115 292 222 34 40 46 
115 292 223 34 40 46 
115 293 222 35 41 47 
114 294 221 37 42 48 
114 295 221 37 42 48 
114 294 222 36 42 49 
114 295 222 37 42 48 
115 294 222 36 42 48 
115 295 222 36 40 46 
116 290 223 33 39 44 
116 291 223 34 39 44 
117 290 223 33 39 44 
117 291 223 33 39 45 
118 290 223 34 40 46 
118 291 223 33 40 46 
119 290 223 34 41 47 
119 291 223 34 41 47 
116 292 223 36 41 46 
116 293 222 36 42 47 
116 293 223 37 42 47 
117 292 223 36 41 46 
117 293 223 37 42 47 
116 294 222 37 42 48 
116 294 223 37 42 47 
116 295 223 40 43 47 
117 294 223 37 42 48 
117 295 223 39 43 48 
118 292 223 35 41 47 
118 293 223 36 41 48 
119 292 223 35 41 48 
119 293 223 35 41 48 
118 294 223 37 42 48 
112 296 220 36 42 48 
112 296 221 37 42 48 
112 297 220 36 42 48 
112 297 221 36 41 47 
113 296 221 37 42 47 
113 297 221 38 42 48 
112 298 221 34 39 45 
112 299 220 33 38 44 
112 299 221 33 38 44 
113 298 221 36 40 45 
113 299 221 34 39 44 
114 296 221 37 42 47 
114 296 222 37 41 47 
114 297 222 37 42 47 
115 296 222 38 41 45 
115 296 223 38 41 45 
115 297 222 38 41 45 
115 297 223 38 41 45 
114 298 222 36 40 45 
114 299 222 34 38 43 
115 298 223 35 40 45 
115 299 223 33 38 43 
112 301 219 33 39 45 
113 301 219 35 40 46 
112 302 217 33 39 46 
112 303 216 34 40 46 
112 303 217 35 40 46 
113 303 216 35 40 46 
113 303 217 34 40 46 
112 302 218 35 41 47 
112 302 219 35 41 47 
113 302 218 34 41 48 
113 302 219 35 41 47 
113 303 218 33 39 46 
114 303 217 34 40 47 
114 302 218 32 39 45 
114 302 219 32 39 47 
114 303 218 33 40 46 
114 303 219 33 40 46 
115 303 218 34 40 47 
115 303 219 35 41 47 
112 300 220 33 38 44 
112 300 221 34 38 44 
112 301 220 33 38 44 
113 300 221 35 39 44 
113 301 220 36 40 45 
114 300 221 34 38 43 
114 301 221 34 38 43 
114 300 222 34 38 43 
114 301 222 34 38 43 
115 300 222 34 38 43 
115 300 223 33 38 43 
115 301 222 34 39 44 
115 301 223 33 38 44 
114 302 220 33 40 46 
114 302 221 33 39 45 
115 302 220 33 39 44 
115 302 221 33 40 47 
115 303 220 34 39 46 
115 302 222 35 40 45 
116 296 223 38 42 47 
116 297 223 37 40 45 
117 296 223 38 42 46 
116 298 223 35 39 45 
116 299 223 33 37 43 
116 303 219 40 46 53 
116 300 223 33 38 43 
116 301 223 33 38 44 
117 301 223 33 39 45 
116 303 220 36 42 49 
116 303 221 34 40 46 
117 303 221 33 41 48 
116 302 222 34 39 45 
116 302 223 34 39 45 
116 303 222 34 40 45 
117 302 223 34 40 46 
117 303 222 33 40 47 
117 303 223 34 40 47 
118 303 223 37 41 46 
112 305 213 39 44 50 
113 305 213 39 44 50 
112 304 214 37 42 49 
112 304 215 35 41 48 
112 305 214 38 44 50 
113 304 215 35 41 48 
113 305 214 38 43 50 
113 305 215 37 42 48 
112 306 212 38 44 50 
112 306 213 38 44 50 
112 307 212 38 45 51 
113 306 213 39 44 51 
113 307 212 39 45 52 
113 307 213 40 46 52 
114 304 215 35 41 48 
114 305 214 37 43 49 
114 305 215 37 43 49 
115 305 215 37 43 49 
114 306 213 38 44 50 
114 307 213 39 45 52 
115 307 213 38 44 50 
114 306 214 37 43 50 
115 306 214 37 44 50 
115 306 215 38 43 50 
112 308 212 39 45 52 
112 309 212 40 47 54 
113 308 212 39 45 52 
113 309 212 39 46 53 
113 309 213 40 46 54 
112 310 213 42 49 57 
112 311 213 41 48 56 
113 310 213 41 48 56 
113 311 213 41 48 56 
114 308 212 39 45 52 
114 308 213 39 45 52 
114 309 212 40 46 53 
114 309 213 40 47 54 
115 308 213 40 46 52 
115 309 213 40 46 53 
114 310 213 40 47 55 
114 311 213 41 48 56 
115 310 213 40 47 54 
115 311 213 41 48 56 
116 307 213 39 45 51 
117 307 213 40 45 52 
116 306 214 39 45 52 
116 306 215 39 45 52 
116 307 214 39 44 50 
117 306 215 39 44 51 
117 307 214 39 45 51 
118 306 215 39 44 50 
118 307 214 41 46 53 
118 307 215 41 46 52 
116 308 213 41 46 53 
116 309 212 42 48 54 
116 309 213 41 47 54 
117 308 213 41 47 53 
117 309 212 42 48 54 
117 309 213 41 47 53 
116 310 212 41 47 54 
116 310 213 40 47 54 
116 311 213 41 48 55 
117 310 212 42 48 54 
117 310 213 41 47 54 
117 311 213 40 46 54 
118 308 213 41 46 53 
118 309 213 40 46 52 
119 309 213 41 46 52 
118 308 214 41 46 53 
119 308 214 41 46 52 
119 308 215 41 46 52 
119 309 214 41 46 52 
118 310 213 41 47 53 
118 311 213 41 47 53 
119 310 213 41 47 53 
119 311 213 42 48 54 
113 304 216 34 41 48 
114 304 216 34 41 49 
114 304 217 33 41 49 
114 305 216 35 42 50 
115 304 216 33 41 49 
115 304 217 32 40 49 
115 305 216 35 42 49 
115 304 218 32 40 48 
116 304 217 35 42 49 
116 305 216 37 43 49 
116 305 217 38 43 50 
117 305 216 38 44 50 
117 305 217 38 44 50 
116 304 218 32 40 48 
116 304 219 34 41 49 
117 304 219 36 42 49 
117 305 218 38 43 49 
117 305 219 37 42 48 
116 306 216 38 44 50 
117 306 216 39 45 51 
118 305 218 37 43 50 
118 305 219 36 42 49 
118 306 216 39 44 51 
118 306 217 39 44 51 
118 307 216 41 46 52 
119 306 217 44 47 52 
119 307 216 40 45 52 
119 307 217 40 45 51 
118 306 218 39 44 51 
118 306 219 36 43 50 
119 306 218 42 46 52 
119 306 219 41 46 51 
119 307 218 42 46 52 
117 304 220 36 42 49 
117 304 221 34 42 49 
118 304 220 37 42 48 
118 304 221 37 42 48 
118 305 220 36 42 49 
118 305 221 36 43 50 
119 305 220 39 44 50 
119 305 221 39 44 50 
118 304 222 37 42 48 
118 304 223 33 40 47 
118 305 222 37 42 48 
119 304 223 35 42 49 
119 305 222 39 44 50 
119 305 223 38 44 50 
119 306 220 42 46 51 
119 306 221 40 45 51 
119 308 216 41 46 52 
112 312 214 38 46 54 
112 313 214 36 44 53 
112 313 215 36 44 52 
113 312 214 40 47 55 
113 313 214 38 45 53 
113 313 215 37 45 53 
112 314 215 36 44 51 
113 314 215 37 44 52 
114 312 213 41 48 56 
115 312 213 40 47 55 
114 312 214 40 47 55 
114 313 214 38 45 53 
114 313 215 37 44 52 
115 312 214 38 46 54 
115 313 214 37 44 52 
115 313 215 36 44 52 
114 314 215 35 43 51 
114 315 215 35 42 50 
115 314 215 36 43 51 
115 315 215 36 43 50 
116 312 213 40 47 55 
117 312 213 40 47 55 
116 312 214 38 46 54 
116 313 214 37 44 52 
117 312 214 39 46 54 
117 313 214 37 44 52 
116 314 215 35 43 51 
116 315 215 36 42 50 
117 314 215 35 42 50 
118 312 213 40 47 54 
118 313 213 39 46 54 
119 312 213 41 47 54 
119 313 213 39 46 53 
118 313 214 38 45 53 
118 314 214 37 44 51 
118 314 215 36 43 50 
118 315 215 33 41 49 
119 314 214 37 44 52 
119 314 215 36 42 50 
119 315 215 35 42 49 
112 314 216 35 43 50 
112 315 216 35 42 50 
113 315 216 34 42 50 
114 315 216 35 42 49 
115 315 216 35 42 49 
112 316 216 35 42 49 
112 316 217 36 42 48 
112 317 217 35 40 46 
113 316 216 34 41 49 
113 316 217 35 41 48 
113 317 217 35 41 47 
112 318 217 35 41 47 
112 319 217 36 40 46 
113 318 217 34 40 46 
113 319 217 34 39 45 
114 316 216 35 42 49 
114 316 217 35 41 48 
114 317 217 35 41 47 
115 316 216 35 41 48 
115 316 217 35 41 48 
115 317 217 35 41 48 
114 318 217 34 40 47 
114 319 217 33 39 45 
115 318 217 36 41 48 
115 318 218 35 41 48 
115 319 218 35 40 47 
116 315 216 34 41 48 
117 315 216 33 41 49 
118 315 216 34 41 49 
119 315 216 34 41 48 
116 316 216 34 41 48 
116 316 217 34 41 48 
116 317 217 35 41 48 
117 316 216 35 41 49 
117 316 217 34 41 48 
117 317 217 34 41 47 
117 317 218 35 41 48 
116 318 218 35 41 47 
116 319 218 35 41 47 
116 319 219 35 41 47 
117 318 218 35 41 47 
117 318 219 34 40 47 
117 319 219 35 40 47 
118 316 216 35 41 48 
118 316 217 34 41 47 
118 317 217 35 41 47 
119 316 216 36 42 49 
119 316 217 35 41 48 
119 317 217 35 41 48 
118 317 218 35 41 48 
119 317 218 35 41 47 
118 318 218 35 41 47 
118 318 219 34 40 47 
118 319 219 34 40 46 
119 318 218 33 40 46 
119 318 219 33 40 46 
119 319 219 33 39 46 
118 319 220 34 40 47 
119 319 220 34 40 47 
120 308 215 41 46 52 
120 309 214 40 45 51 
120 309 215 39 45 51 
