ply
format ascii 1.0
comment Created by CloudCompare v2.10.1 (Zephyrus)
comment Created 1/30/20 12:04 PM
obj_info Generated by CloudCompare!
element vertex 2275
property float x
property float y
property float z
property uchar red
property uchar green
property uchar blue
end_header
311 62 173 74 74 76 
311 63 172 58 58 60 
311 63 173 64 64 65 
312 59 175 71 73 78 
312 60 175 73 74 78 
312 61 174 75 75 78 
312 61 175 73 74 77 
312 62 173 74 73 75 
312 63 173 63 62 64 
312 62 174 76 75 78 
312 62 175 77 76 78 
312 63 174 69 68 69 
313 62 175 77 76 77 
313 63 175 73 72 73 
311 48 176 78 82 88 
311 49 176 82 86 94 
311 50 176 81 87 96 
311 51 176 81 87 96 
311 52 176 78 84 92 
311 53 176 75 80 87 
311 54 176 73 78 85 
311 55 176 72 76 83 
311 56 176 69 73 79 
311 57 176 68 72 78 
312 48 176 80 83 89 
312 48 177 81 84 90 
312 49 176 83 88 95 
312 49 177 83 87 94 
312 48 178 80 83 87 
313 48 178 79 81 87 
313 48 179 77 80 85 
313 49 178 82 85 91 
313 49 179 79 83 89 
312 50 176 82 87 95 
312 50 177 80 85 93 
312 51 176 79 85 93 
312 51 177 76 82 89 
313 50 178 80 84 91 
313 50 179 78 82 89 
313 51 178 75 80 88 
313 51 179 73 78 85 
313 48 180 74 76 80 
313 49 180 77 81 87 
313 50 180 76 80 86 
313 51 180 72 77 83 
314 48 180 73 75 79 
314 48 181 71 71 74 
314 49 180 75 78 83 
314 49 181 75 76 80 
314 48 182 71 70 71 
314 48 183 71 68 68 
314 49 182 75 75 77 
314 49 183 74 71 70 
315 48 183 74 70 69 
315 49 183 77 72 70 
314 50 180 73 76 82 
314 50 181 74 76 80 
314 51 180 70 74 80 
314 51 181 70 72 76 
314 50 182 75 75 77 
314 51 182 72 72 75 
315 50 182 75 73 74 
315 50 183 79 74 71 
315 51 182 75 73 73 
315 51 183 81 75 72 
312 52 176 76 82 90 
312 52 177 74 79 87 
312 53 176 74 79 86 
312 53 177 71 76 84 
313 52 178 73 78 85 
313 52 179 70 75 82 
313 53 178 71 75 82 
313 53 179 70 74 81 
312 54 176 72 76 83 
312 54 177 70 74 81 
312 55 176 70 74 81 
312 55 177 69 74 80 
313 55 177 68 72 79 
313 54 178 69 73 80 
313 54 179 68 72 79 
313 55 178 68 72 78 
313 55 179 68 72 78 
314 53 179 68 73 79 
314 54 179 67 71 78 
314 55 179 67 71 77 
314 52 180 66 71 77 
314 52 181 65 67 72 
314 53 180 65 69 74 
314 53 181 61 64 69 
315 53 181 60 62 66 
315 52 182 70 69 69 
315 52 183 84 77 72 
315 53 182 69 67 67 
315 53 183 88 80 74 
314 54 180 64 67 73 
314 54 181 60 62 67 
314 55 180 63 67 72 
315 54 181 60 61 64 
315 55 181 62 63 66 
315 54 182 70 68 68 
315 54 183 90 81 75 
315 55 182 73 70 69 
315 55 183 91 82 76 
315 48 184 82 76 72 
315 48 185 88 80 76 
315 49 184 87 80 75 
315 49 185 90 82 77 
315 48 186 80 74 71 
315 50 184 89 81 76 
315 50 185 90 82 77 
315 51 184 91 82 75 
315 51 185 89 80 75 
315 52 184 92 83 75 
315 53 184 94 83 76 
315 54 184 93 83 75 
315 55 184 93 83 76 
315 55 185 85 77 71 
316 48 186 75 70 67 
316 48 187 63 60 58 
316 49 186 77 71 68 
316 49 187 55 52 52 
316 50 185 88 81 76 
316 51 185 85 78 74 
316 50 186 73 68 65 
316 50 187 47 47 49 
316 51 186 68 64 62 
316 51 187 44 46 49 
316 48 188 54 52 52 
316 48 189 54 52 52 
316 49 188 45 45 47 
316 49 189 48 47 48 
316 48 190 64 59 56 
316 48 191 75 67 61 
316 49 190 58 54 53 
317 49 190 67 62 59 
317 49 191 78 70 66 
316 50 188 43 46 50 
316 50 189 44 45 48 
316 51 188 42 45 50 
316 51 189 42 44 49 
317 50 189 46 47 49 
317 51 189 44 45 49 
316 51 190 49 49 51 
317 50 190 58 56 55 
317 50 191 80 73 68 
317 51 190 58 55 55 
317 51 191 80 73 68 
316 52 185 87 79 74 
316 53 185 84 76 70 
316 52 186 64 60 59 
316 52 187 43 46 51 
316 53 186 61 58 58 
316 53 187 42 46 52 
316 54 185 83 74 68 
316 55 185 78 71 67 
316 54 186 60 58 58 
316 54 187 42 45 51 
316 55 186 59 57 58 
316 55 187 41 45 50 
316 52 188 40 45 51 
316 52 189 43 45 50 
316 53 188 41 45 51 
316 53 189 43 45 49 
316 52 190 56 54 54 
316 52 191 79 72 67 
316 53 190 57 54 53 
316 53 191 81 74 69 
317 52 191 85 77 71 
316 54 188 40 44 50 
316 54 189 43 45 49 
316 55 188 40 44 48 
316 55 189 43 45 49 
316 54 190 57 54 52 
316 54 191 82 75 69 
316 55 190 58 55 53 
316 55 191 82 75 70 
312 56 176 67 72 78 
312 56 177 67 71 77 
312 57 176 66 70 76 
312 57 177 66 70 76 
313 56 177 67 71 77 
313 57 177 66 70 76 
313 56 178 67 71 77 
313 57 178 65 69 75 
312 58 176 66 69 75 
312 59 176 68 71 75 
313 58 177 65 69 75 
313 59 176 67 69 74 
313 59 177 65 68 73 
313 58 178 64 68 74 
313 59 178 64 67 72 
314 56 179 66 70 76 
314 57 179 64 68 74 
314 58 179 62 66 71 
314 59 178 63 67 72 
314 59 179 62 65 70 
314 56 180 63 66 71 
314 57 180 60 63 67 
315 56 181 64 64 66 
315 57 181 64 63 65 
315 56 182 75 71 69 
315 56 183 92 83 77 
315 57 182 75 70 67 
315 57 183 90 81 75 
314 58 180 60 63 67 
314 59 180 61 63 67 
315 58 180 61 63 66 
315 58 181 66 64 65 
315 59 180 62 63 65 
315 59 181 67 66 65 
315 58 182 75 70 66 
315 58 183 89 80 74 
315 59 182 79 73 70 
315 59 183 89 81 77 
312 60 176 70 72 75 
312 61 176 72 73 76 
313 60 176 68 70 74 
313 60 177 67 69 73 
313 61 176 71 72 75 
313 61 177 69 70 73 
313 60 178 66 68 72 
313 62 176 74 73 75 
313 62 177 69 69 72 
313 63 176 72 71 72 
313 63 177 69 68 70 
314 60 178 65 67 71 
314 60 179 63 65 69 
314 61 178 66 68 71 
314 61 179 65 66 68 
314 62 177 68 68 70 
314 63 177 68 68 69 
314 62 178 67 67 69 
314 62 179 65 65 67 
314 63 178 68 67 68 
314 63 179 67 66 68 
315 62 179 65 65 66 
315 63 179 67 66 67 
314 61 180 63 64 66 
315 60 180 63 64 65 
315 60 181 70 67 66 
315 61 180 64 63 64 
315 61 181 72 68 67 
315 60 182 82 76 72 
315 60 183 88 81 77 
315 61 182 83 78 74 
315 61 183 88 81 77 
315 62 180 66 64 65 
315 62 181 75 72 71 
315 63 180 68 66 67 
315 63 181 72 69 69 
315 62 182 83 78 76 
316 60 183 88 81 77 
316 61 183 87 80 77 
316 63 181 72 69 69 
316 62 182 83 78 76 
316 62 183 81 75 73 
316 63 182 75 71 69 
316 63 183 71 66 63 
315 56 184 93 84 77 
315 56 185 83 76 71 
315 57 184 90 82 76 
315 57 185 80 74 69 
315 58 184 90 82 77 
316 56 185 71 66 63 
316 57 185 72 67 65 
316 56 186 56 55 57 
316 56 187 42 45 50 
316 57 186 55 55 57 
316 57 187 43 47 52 
316 58 184 83 77 73 
316 58 185 70 66 65 
316 59 184 83 77 74 
316 59 185 64 62 62 
316 58 186 51 52 55 
316 58 187 43 47 52 
316 59 186 48 50 54 
316 59 187 41 45 50 
316 56 188 42 45 50 
316 56 189 49 50 53 
316 57 188 44 47 52 
316 57 189 53 54 56 
316 56 190 64 61 60 
316 56 191 88 81 77 
316 57 190 69 66 65 
316 57 191 89 83 80 
316 58 188 47 49 53 
316 58 189 57 57 59 
316 59 188 47 48 52 
316 59 189 60 58 59 
317 59 189 68 64 63 
316 58 190 72 68 68 
316 58 191 85 80 78 
317 58 190 77 72 71 
317 58 191 89 84 82 
317 59 190 76 71 70 
317 59 191 88 82 80 
316 60 184 78 73 71 
316 60 185 60 58 59 
316 61 184 75 70 69 
316 61 185 56 55 56 
316 60 186 45 48 52 
316 60 187 41 44 49 
316 61 186 45 46 49 
316 61 187 43 45 48 
316 62 184 65 62 61 
316 62 185 54 53 55 
316 63 184 60 57 57 
316 63 185 54 53 54 
317 63 185 55 54 55 
316 62 186 49 49 52 
316 62 187 45 46 48 
317 62 186 50 50 53 
317 62 187 47 47 48 
317 63 186 53 53 55 
317 63 187 51 50 51 
316 60 188 47 48 51 
316 61 188 48 48 50 
317 60 188 50 49 51 
317 60 189 63 60 60 
317 61 188 51 51 51 
317 61 189 65 62 61 
317 60 190 77 73 70 
317 60 191 84 79 76 
317 61 190 81 76 74 
317 61 191 85 80 78 
317 62 188 52 51 51 
317 62 189 64 61 59 
317 63 188 53 51 51 
317 63 189 60 57 56 
317 62 190 75 70 68 
317 62 191 82 77 75 
317 63 190 67 64 62 
317 63 191 77 73 71 
318 63 190 65 62 60 
318 63 191 71 68 66 
271 13 192 75 69 66 
271 14 192 76 70 67 
271 15 192 74 68 64 
271 22 192 82 70 60 
271 23 192 85 73 65 
267 31 192 65 57 51 
267 31 193 69 60 54 
267 31 194 70 61 55 
267 31 195 72 63 56 
271 24 192 81 71 64 
271 25 192 68 57 49 
271 25 193 65 55 46 
270 26 192 58 51 46 
270 27 192 62 54 48 
270 27 193 65 57 51 
271 26 192 62 52 44 
271 26 193 63 55 48 
271 27 193 63 57 52 
270 27 194 66 58 53 
271 26 194 66 57 51 
271 27 194 66 59 53 
271 27 195 67 60 54 
271 27 196 67 59 54 
271 27 197 66 58 52 
268 29 192 64 57 52 
268 29 193 67 60 55 
269 28 192 62 55 50 
269 28 193 65 57 53 
269 29 192 63 57 51 
269 29 193 67 59 53 
268 29 194 68 60 54 
269 29 194 68 60 54 
269 29 195 71 63 56 
268 30 192 65 58 52 
268 30 193 67 60 55 
268 31 192 63 57 51 
268 31 193 67 60 54 
268 30 194 68 61 55 
268 30 195 71 63 56 
268 31 194 69 61 55 
268 31 195 71 62 55 
269 30 195 72 64 57 
270 28 193 66 59 53 
270 28 194 66 58 53 
270 28 195 67 59 54 
270 29 195 69 61 56 
271 28 195 68 60 54 
268 30 196 74 65 58 
268 31 196 74 65 58 
268 31 197 72 62 55 
269 30 196 72 63 57 
269 30 197 70 60 53 
268 31 198 69 60 52 
268 31 199 68 59 52 
269 30 198 68 59 51 
269 30 199 67 58 50 
269 31 198 68 59 51 
269 31 199 68 59 51 
270 28 196 69 61 55 
270 29 196 70 62 56 
270 29 197 69 60 54 
271 28 196 68 61 55 
271 28 197 67 59 53 
270 29 198 67 59 52 
271 28 198 65 58 52 
271 28 199 65 57 52 
271 29 198 67 58 52 
271 29 199 66 58 51 
270 30 197 70 62 55 
270 30 198 68 59 52 
270 30 199 67 58 51 
269 31 200 67 58 51 
269 31 201 67 59 53 
271 29 200 65 57 51 
271 29 201 64 57 52 
271 29 202 64 56 51 
270 30 200 67 58 52 
270 30 201 66 59 53 
270 31 201 67 59 52 
271 30 200 66 58 52 
271 30 201 65 58 52 
270 30 202 66 59 54 
270 30 203 66 59 54 
270 31 202 67 59 53 
270 31 203 67 59 54 
271 30 202 65 58 53 
271 30 203 65 58 53 
270 31 204 67 59 54 
270 31 205 67 59 52 
271 30 204 65 58 52 
271 30 205 65 58 52 
271 31 204 66 58 53 
271 31 205 66 58 53 
270 31 206 68 59 53 
271 30 206 65 59 54 
271 31 206 66 59 54 
271 31 207 68 60 55 
271 31 208 69 60 53 
274 11 192 75 69 66 
275 11 192 74 68 65 
272 12 192 75 69 66 
272 13 192 75 69 66 
272 13 193 75 69 66 
273 12 192 75 69 66 
273 12 193 75 69 66 
273 13 193 75 69 66 
272 14 192 76 70 67 
272 14 193 76 69 66 
272 15 192 74 68 65 
272 15 193 73 67 64 
273 14 193 75 69 66 
273 15 193 73 67 64 
273 15 194 74 67 64 
274 12 192 75 69 66 
274 12 193 74 68 65 
274 13 193 74 68 65 
275 12 193 74 68 65 
275 13 193 74 68 65 
274 13 194 74 68 65 
275 13 194 74 68 64 
274 14 194 74 68 65 
274 15 194 74 68 65 
275 14 194 74 68 65 
275 15 194 76 69 66 
276 11 192 73 68 65 
277 10 192 73 67 65 
277 11 192 73 67 64 
277 11 193 73 67 64 
279 9 192 70 65 63 
279 9 193 69 64 63 
278 10 192 72 67 64 
278 11 193 72 67 64 
279 10 192 71 66 64 
279 10 193 70 65 63 
279 11 193 71 66 64 
279 10 194 69 64 62 
279 11 194 69 65 63 
279 11 195 68 64 63 
276 12 193 73 68 65 
276 13 193 73 67 63 
277 12 193 74 67 64 
277 13 193 74 67 64 
276 13 194 74 67 64 
277 13 194 75 68 65 
276 14 194 75 69 65 
276 15 194 77 70 66 
276 15 195 78 72 68 
277 14 194 75 69 66 
277 14 195 77 70 67 
277 15 195 79 73 69 
278 12 193 73 67 64 
278 12 194 73 67 64 
278 13 194 75 69 66 
279 12 194 73 68 65 
279 12 195 72 67 65 
279 13 195 75 71 69 
278 14 194 75 69 65 
278 14 195 78 72 70 
278 15 195 79 73 71 
279 14 195 76 71 70 
277 15 196 81 75 72 
279 12 196 66 63 63 
279 13 196 65 62 62 
279 13 197 55 54 55 
279 13 198 48 48 51 
278 14 196 73 70 69 
278 15 196 77 72 71 
278 15 197 66 62 62 
279 14 196 68 65 65 
279 14 197 58 56 57 
278 15 198 57 54 54 
279 14 198 52 52 54 
279 14 199 47 47 50 
279 15 198 52 51 53 
279 15 199 47 47 49 
279 14 200 41 41 43 
279 15 200 42 42 44 
279 15 201 39 39 41 
279 15 202 36 37 39 
279 15 203 35 36 39 
279 15 204 35 37 40 
279 15 205 36 36 38 
279 15 206 36 36 37 
279 15 207 37 36 36 
280 9 192 69 64 63 
280 9 193 68 64 62 
281 8 192 68 63 62 
281 9 192 68 63 62 
281 9 193 66 62 61 
281 9 194 65 61 60 
281 9 195 63 60 59 
280 10 194 67 63 62 
280 10 195 64 61 60 
280 11 195 65 61 60 
281 10 195 62 59 58 
282 8 192 67 62 61 
282 8 193 66 62 61 
282 9 193 65 62 61 
283 8 192 65 62 61 
283 8 193 64 61 60 
282 8 194 64 61 60 
282 9 194 64 60 60 
282 9 195 62 59 58 
283 8 194 62 59 59 
283 8 195 60 57 57 
283 9 195 60 57 57 
280 10 196 61 58 57 
280 11 196 59 57 56 
280 11 197 53 52 52 
281 10 196 60 57 56 
281 10 197 56 54 54 
281 11 197 54 52 53 
280 11 198 51 49 50 
281 10 198 52 51 52 
281 11 198 51 50 51 
281 11 199 48 48 50 
282 9 196 59 57 57 
282 9 197 57 55 55 
283 9 196 58 56 56 
283 9 197 56 55 55 
282 9 198 55 53 54 
283 9 198 54 53 54 
283 9 199 52 51 53 
282 10 197 56 54 55 
282 10 198 53 52 53 
282 10 199 50 49 51 
283 10 199 51 50 52 
280 12 196 61 58 58 
280 12 197 53 52 53 
280 13 197 51 50 52 
280 12 198 48 47 49 
280 12 199 45 45 47 
280 13 198 47 46 48 
280 13 199 43 43 44 
281 12 199 47 47 49 
280 14 199 43 43 45 
284 8 192 65 61 60 
284 8 193 63 60 59 
285 8 192 64 61 60 
285 8 193 63 60 59 
284 8 194 62 59 58 
284 8 195 59 57 57 
285 8 194 60 58 58 
285 8 195 58 56 56 
286 8 192 63 60 59 
286 8 193 61 59 58 
287 8 192 62 59 59 
287 8 193 60 58 58 
286 8 194 59 57 57 
286 8 195 56 54 55 
287 8 194 57 55 56 
287 8 195 55 53 54 
284 8 196 57 55 56 
284 8 197 55 54 55 
284 9 197 55 53 54 
285 8 196 56 55 55 
285 8 197 54 53 54 
284 9 198 53 52 53 
284 9 199 50 50 52 
285 8 198 52 51 53 
285 9 198 52 51 53 
285 9 199 49 49 51 
286 8 196 54 53 54 
286 8 197 52 51 53 
287 8 196 53 52 53 
287 8 197 51 51 52 
286 8 198 51 51 52 
286 9 198 50 50 52 
286 9 199 49 49 51 
287 8 198 50 50 52 
287 9 198 48 49 51 
287 9 199 47 48 50 
281 11 200 46 47 49 
282 10 200 49 49 50 
282 11 200 47 47 50 
282 11 201 44 46 48 
283 10 200 48 48 50 
283 10 201 46 47 50 
283 11 201 46 47 49 
282 11 202 43 45 49 
282 11 203 43 45 49 
283 10 202 45 46 49 
283 11 202 44 46 49 
283 11 203 43 45 49 
283 11 204 42 44 48 
280 13 200 40 41 43 
280 13 201 37 39 42 
281 12 200 44 45 47 
281 12 201 43 44 46 
281 13 201 39 41 44 
280 13 202 37 39 43 
281 12 202 40 42 46 
281 12 203 39 41 45 
281 13 202 37 40 43 
281 13 203 35 39 44 
280 14 200 39 39 42 
280 14 201 37 38 40 
280 14 202 34 37 40 
280 14 203 32 36 40 
282 12 202 42 44 48 
282 12 203 41 43 47 
281 13 204 37 41 46 
281 13 205 35 39 44 
280 14 204 33 37 42 
280 14 205 34 38 42 
280 15 205 35 38 42 
281 14 204 33 38 44 
281 14 205 35 38 43 
280 15 206 35 37 39 
280 15 207 36 36 38 
281 14 206 35 38 41 
281 14 207 37 38 40 
281 15 207 38 38 40 
282 12 204 40 43 46 
282 12 205 39 42 46 
282 13 204 38 41 45 
282 13 205 37 40 44 
283 12 204 41 43 47 
283 12 205 40 43 47 
282 13 206 37 40 43 
282 13 207 38 40 42 
283 12 206 39 42 46 
283 13 206 38 41 45 
283 13 207 39 41 44 
282 14 206 37 39 42 
282 14 207 39 39 41 
284 9 200 48 48 51 
284 9 201 47 48 50 
285 9 200 47 48 50 
285 9 201 46 47 50 
285 9 202 45 46 49 
284 10 200 48 48 51 
284 10 201 46 47 50 
284 10 202 45 46 49 
284 10 203 44 46 49 
284 11 203 43 45 48 
285 10 202 45 46 49 
285 10 203 44 45 49 
286 9 200 47 48 50 
286 9 201 46 47 49 
287 9 200 46 47 50 
287 9 201 45 46 49 
286 9 202 45 46 49 
287 9 202 44 46 49 
287 9 203 44 45 48 
286 10 202 44 46 49 
286 10 203 44 45 48 
287 10 203 43 45 48 
284 11 204 42 44 48 
284 11 205 41 44 48 
285 10 204 43 45 48 
285 10 205 43 44 48 
285 11 205 42 44 48 
284 11 206 41 44 47 
285 11 206 41 44 47 
286 10 204 43 45 48 
286 10 205 43 44 48 
286 11 205 42 44 47 
287 10 204 43 45 48 
287 10 205 43 44 47 
286 11 206 42 44 47 
286 11 207 42 44 47 
287 10 206 42 44 47 
287 11 206 42 44 47 
287 11 207 42 44 47 
284 12 205 41 43 47 
284 12 206 40 43 47 
284 12 207 40 42 45 
284 13 207 40 41 44 
285 12 206 40 42 46 
285 12 207 41 43 46 
286 12 207 42 44 47 
280 15 208 40 38 38 
281 14 208 40 39 39 
281 15 208 42 40 39 
281 15 209 48 44 40 
283 13 208 41 41 43 
282 14 208 42 41 40 
282 14 209 46 42 40 
282 15 208 45 42 40 
282 15 209 49 44 40 
283 14 208 42 41 42 
283 14 209 46 43 41 
282 15 210 55 49 45 
283 14 210 52 48 45 
283 15 210 54 49 46 
283 15 211 59 53 49 
283 15 212 65 57 53 
283 15 213 69 61 56 
283 15 214 70 62 56 
283 15 215 72 62 55 
287 11 208 43 44 47 
287 11 209 44 44 46 
284 13 208 42 43 44 
284 13 209 45 44 45 
285 12 208 42 43 46 
285 12 209 43 44 46 
285 13 209 45 45 46 
284 13 210 48 46 46 
285 13 210 47 46 46 
285 13 211 48 46 46 
284 14 209 48 45 44 
284 14 210 51 47 46 
284 14 211 53 48 45 
284 15 211 56 51 48 
285 14 211 49 46 45 
286 12 208 42 44 46 
286 12 209 44 44 46 
287 12 209 44 44 46 
286 12 210 45 45 46 
286 12 211 47 46 47 
286 13 210 46 45 46 
286 13 211 47 46 46 
287 12 210 46 45 46 
287 12 211 47 46 47 
285 13 212 50 48 47 
285 13 213 53 50 48 
285 13 214 55 51 48 
285 13 215 57 52 49 
284 14 212 57 51 47 
284 14 213 58 52 47 
284 15 212 61 54 50 
284 15 213 64 57 52 
285 14 212 52 49 46 
285 14 213 54 50 48 
284 14 214 60 54 49 
284 14 215 60 54 49 
284 15 214 67 59 54 
284 15 215 65 57 51 
285 14 214 56 51 47 
285 14 215 57 51 47 
286 12 212 49 48 48 
286 12 213 53 50 48 
286 13 212 49 47 47 
286 13 213 53 50 48 
287 12 212 49 48 48 
287 12 213 52 50 48 
286 12 214 55 51 49 
286 12 215 57 52 50 
286 13 214 55 51 49 
286 13 215 58 53 50 
287 12 214 55 51 49 
287 12 215 57 53 50 
283 13 219 72 65 59 
282 15 217 78 69 61 
283 14 217 72 64 59 
283 15 216 72 64 57 
283 15 217 76 67 60 
282 15 218 78 69 63 
282 15 219 78 70 63 
283 14 218 73 65 59 
283 14 219 75 67 60 
283 15 218 77 68 62 
283 13 220 72 64 58 
283 13 221 74 66 60 
283 13 222 75 66 60 
283 13 223 76 67 61 
282 14 221 77 69 62 
282 15 220 78 69 62 
282 15 221 78 69 62 
283 14 220 76 68 62 
283 14 221 76 68 62 
282 14 222 78 69 63 
282 14 223 78 69 62 
282 15 222 78 69 62 
282 15 223 78 68 61 
283 14 222 76 68 61 
283 14 223 77 68 61 
287 11 216 60 55 52 
287 11 217 62 56 52 
287 11 218 64 57 53 
287 11 219 66 59 54 
286 11 220 68 61 55 
286 11 221 70 62 56 
287 11 220 67 60 55 
287 11 221 68 61 55 
286 11 222 70 62 56 
286 11 223 71 63 57 
287 11 222 69 61 56 
287 11 223 70 62 56 
284 13 217 66 58 53 
285 13 216 61 55 51 
285 13 217 65 58 53 
284 13 218 68 61 55 
284 13 219 70 62 57 
285 12 218 66 59 54 
285 12 219 67 60 55 
285 13 218 66 59 54 
285 13 219 68 60 55 
284 14 216 65 58 53 
284 14 217 68 60 54 
286 12 216 60 54 51 
286 12 217 63 57 52 
286 13 216 61 55 51 
287 12 216 59 54 51 
287 12 217 63 57 52 
286 12 218 65 58 53 
286 12 219 66 59 54 
287 12 218 64 58 53 
284 13 220 70 62 57 
284 13 221 72 64 58 
285 12 220 69 62 56 
285 12 221 71 63 57 
284 12 222 73 65 58 
284 12 223 73 64 58 
284 13 222 73 65 59 
284 13 223 74 65 59 
285 12 222 71 63 57 
285 12 223 72 64 57 
286 12 220 68 61 55 
286 12 221 70 62 56 
286 12 222 71 63 57 
272 16 192 77 70 66 
272 16 193 75 69 65 
272 17 192 83 76 71 
272 17 193 82 75 71 
273 16 193 75 69 65 
273 17 193 81 74 70 
273 16 194 74 68 65 
273 17 194 81 73 69 
272 18 192 84 76 70 
272 18 193 84 75 70 
272 19 192 84 74 68 
272 19 193 83 74 68 
273 18 193 83 75 70 
273 18 194 84 76 71 
273 19 194 85 76 70 
273 19 195 86 77 70 
274 16 194 77 70 66 
274 17 194 81 73 69 
274 17 195 82 74 70 
275 16 194 77 70 66 
275 16 195 79 72 68 
275 17 195 81 74 69 
274 18 195 85 76 71 
274 19 195 86 76 70 
275 17 196 83 74 69 
274 18 196 85 76 69 
274 19 196 86 77 70 
274 19 197 87 77 70 
275 18 196 84 75 69 
275 18 197 85 76 69 
275 19 197 86 77 69 
275 19 198 85 76 69 
272 20 192 84 74 66 
272 20 193 83 73 66 
272 21 192 83 71 62 
272 21 193 81 70 61 
272 20 194 83 72 64 
272 21 194 81 70 61 
273 20 194 84 74 66 
273 20 195 85 75 68 
273 21 194 82 70 61 
273 21 195 83 72 63 
272 22 192 81 69 58 
272 22 193 79 67 56 
272 23 192 84 72 64 
272 23 193 82 71 61 
272 22 194 78 66 55 
272 23 194 81 69 59 
273 22 194 79 66 54 
273 22 195 79 66 54 
273 23 194 80 68 58 
273 23 195 81 68 58 
273 20 196 85 74 66 
273 21 196 83 72 63 
273 22 196 79 67 56 
273 23 196 82 69 60 
273 23 197 82 71 63 
274 20 196 85 75 68 
274 20 197 85 75 66 
274 21 196 83 72 63 
274 21 197 82 71 62 
275 20 197 86 76 68 
275 20 198 84 74 67 
275 20 199 83 73 65 
275 21 198 81 70 61 
275 21 199 80 69 60 
274 22 197 79 67 56 
274 23 197 79 67 58 
274 22 198 78 66 56 
274 23 198 77 67 59 
274 23 199 75 66 58 
275 22 198 77 66 57 
275 22 199 77 66 57 
275 23 199 75 65 57 
276 16 195 81 74 70 
276 16 196 82 75 71 
276 17 196 82 74 69 
276 17 197 82 74 70 
277 16 196 82 75 72 
277 16 197 75 70 68 
277 17 197 79 73 69 
277 17 198 67 61 58 
277 17 199 58 51 47 
276 18 197 83 74 69 
276 18 198 82 74 69 
276 18 199 81 73 69 
276 19 198 85 76 70 
276 19 199 85 76 71 
277 18 199 73 66 61 
278 16 197 70 65 64 
278 16 198 55 52 50 
278 16 199 46 45 45 
278 17 199 52 48 45 
276 20 199 84 74 67 
276 21 199 81 71 63 
275 22 200 76 66 57 
275 23 200 74 64 57 
275 23 201 71 61 53 
277 17 200 52 46 42 
277 17 201 53 46 41 
277 17 202 50 43 38 
277 17 203 53 46 41 
276 19 200 82 74 69 
276 19 201 82 73 67 
277 18 200 70 62 57 
277 18 201 65 57 52 
277 19 201 79 71 65 
277 18 202 65 58 52 
277 18 203 65 57 52 
277 19 202 78 69 64 
277 19 203 77 68 63 
278 16 200 43 42 43 
278 16 201 44 42 41 
278 17 200 46 44 43 
278 17 201 48 43 40 
279 16 200 42 42 43 
279 16 201 41 41 42 
278 16 202 43 41 40 
278 16 203 41 38 37 
278 17 202 46 41 38 
278 17 203 49 44 40 
279 16 202 39 38 39 
279 16 203 37 37 38 
277 17 204 53 47 42 
277 18 204 65 58 53 
277 18 205 69 61 56 
277 19 204 79 69 63 
277 19 205 80 70 64 
277 19 206 79 70 63 
277 19 207 79 70 64 
278 16 204 39 37 36 
278 16 205 40 36 33 
278 17 204 48 43 40 
278 17 205 49 43 39 
279 16 204 36 36 37 
279 16 205 37 35 33 
278 16 206 44 37 31 
278 16 207 45 39 33 
278 17 206 49 41 35 
278 17 207 52 44 38 
279 16 206 39 35 33 
279 16 207 41 38 36 
278 18 205 61 54 50 
278 18 206 67 59 54 
278 18 207 71 63 57 
278 19 207 78 70 64 
276 20 200 82 73 66 
276 20 201 81 71 63 
276 21 200 78 68 60 
276 21 201 78 67 59 
277 20 201 81 71 64 
276 20 202 80 69 61 
276 21 202 78 68 59 
276 21 203 76 65 56 
277 20 202 80 70 62 
277 20 203 79 69 61 
277 21 203 77 67 58 
276 22 200 76 65 56 
276 22 201 76 66 57 
276 23 201 75 65 57 
276 22 202 75 65 56 
276 22 203 74 64 56 
276 23 202 72 62 53 
276 23 203 69 59 50 
277 20 204 80 69 60 
277 20 205 80 69 60 
277 21 204 75 65 55 
277 21 205 75 64 54 
277 20 206 80 69 61 
277 20 207 78 69 62 
277 21 206 73 62 52 
277 21 207 71 61 52 
276 22 204 73 63 55 
276 23 204 67 57 48 
276 23 205 62 53 44 
277 22 204 73 62 53 
277 22 205 73 62 54 
277 23 205 67 58 50 
277 22 206 71 62 53 
277 22 207 70 61 54 
277 23 206 63 54 46 
277 23 207 61 52 44 
272 24 192 85 74 67 
272 24 193 78 68 60 
272 25 193 70 59 51 
272 24 194 77 66 58 
272 25 194 68 57 48 
272 25 195 67 56 48 
273 24 195 76 65 57 
273 25 195 68 57 49 
272 26 194 64 55 48 
272 26 195 66 57 50 
273 24 196 76 65 56 
273 24 197 73 63 55 
273 25 196 67 56 48 
273 25 197 64 53 43 
273 25 198 61 50 40 
272 26 196 65 57 50 
272 26 197 64 55 48 
272 27 196 66 58 52 
272 27 197 65 57 50 
273 26 197 62 53 43 
272 26 198 63 54 47 
272 27 198 64 56 49 
272 27 199 63 55 49 
273 26 198 60 51 42 
273 26 199 60 52 45 
274 24 197 77 67 60 
274 24 198 69 60 52 
274 24 199 67 58 50 
274 25 198 62 52 42 
274 25 199 60 51 42 
272 28 198 65 56 50 
272 28 199 64 56 50 
272 27 200 63 56 50 
273 26 200 59 52 46 
273 27 200 62 55 49 
273 27 201 61 55 50 
273 27 202 61 55 49 
273 27 203 63 55 50 
274 24 200 62 53 46 
274 25 200 59 50 43 
274 25 201 59 50 43 
275 24 200 65 56 49 
275 24 201 60 52 44 
275 25 201 58 49 42 
275 24 202 59 50 42 
275 24 203 57 48 40 
275 25 202 57 49 42 
275 25 203 57 49 42 
274 26 200 59 50 43 
274 26 201 60 52 46 
274 27 201 61 53 47 
274 26 202 59 53 48 
274 26 203 60 54 49 
274 27 202 62 54 48 
274 27 203 62 55 50 
275 26 202 60 52 46 
275 26 203 60 53 47 
275 25 204 59 51 44 
274 27 204 61 55 51 
274 27 205 61 55 52 
275 26 204 61 54 48 
275 26 205 61 53 48 
275 27 205 62 55 50 
275 26 206 63 55 50 
275 27 206 63 55 51 
275 27 207 63 55 50 
272 28 200 64 57 52 
272 28 201 63 56 51 
272 29 201 64 56 51 
272 28 202 63 56 51 
272 28 203 63 56 51 
272 29 202 62 56 51 
272 29 203 63 56 50 
273 28 202 62 56 52 
273 28 203 62 56 52 
272 29 204 64 57 52 
272 29 205 64 57 53 
273 28 204 62 56 52 
273 28 205 64 56 51 
273 29 204 61 56 52 
273 29 205 63 56 51 
273 29 206 65 57 52 
272 30 205 64 58 53 
272 30 206 65 58 54 
272 30 207 67 60 54 
272 31 207 67 60 54 
273 30 206 64 57 53 
273 30 207 65 58 53 
274 28 204 62 55 51 
274 28 205 63 56 51 
274 28 206 63 56 52 
274 29 206 65 57 51 
274 29 207 65 57 52 
275 28 206 64 56 51 
275 28 207 63 56 52 
275 29 207 65 58 53 
274 30 207 67 59 52 
276 24 203 59 50 41 
276 24 204 58 48 39 
276 24 205 58 48 39 
276 25 204 58 50 42 
276 25 205 59 50 43 
276 24 206 57 49 41 
276 25 206 59 50 43 
276 25 207 59 52 45 
277 24 206 58 49 41 
277 24 207 58 49 42 
277 25 207 58 51 45 
276 26 205 60 52 46 
276 26 206 61 53 48 
276 26 207 62 54 49 
277 19 208 79 70 64 
278 17 208 55 49 43 
279 16 208 44 40 37 
279 16 209 49 44 40 
279 17 208 54 47 42 
279 17 209 61 54 50 
279 17 210 67 60 56 
278 18 208 72 65 59 
278 18 209 74 66 61 
278 19 208 78 70 64 
278 19 209 78 69 63 
278 19 210 78 69 63 
279 18 210 76 68 62 
279 18 211 77 69 63 
279 19 210 78 69 63 
279 19 211 79 69 62 
277 20 208 77 68 61 
277 21 208 70 61 53 
277 22 208 69 60 53 
277 23 208 60 51 43 
277 23 209 56 47 39 
278 20 208 77 68 60 
278 20 209 75 66 59 
278 21 208 71 62 54 
278 21 209 70 61 54 
278 20 210 74 64 56 
278 20 211 70 60 51 
278 21 210 70 60 53 
278 21 211 69 60 52 
279 20 211 74 64 56 
279 21 211 70 60 52 
278 22 209 68 59 52 
278 23 209 60 52 45 
278 22 210 67 58 51 
278 22 211 66 58 50 
278 23 210 58 50 44 
278 23 211 57 49 42 
279 20 212 71 62 53 
279 21 212 68 59 53 
279 21 213 64 56 51 
278 22 212 62 54 47 
278 23 212 57 49 42 
278 23 213 56 48 42 
279 22 212 63 54 48 
279 22 213 60 52 46 
279 23 212 58 50 43 
279 23 213 56 49 43 
279 22 214 57 50 44 
279 22 215 55 48 42 
279 23 214 56 49 43 
279 23 215 55 49 44 
279 23 216 56 49 44 
279 23 217 56 50 45 
279 23 218 56 50 45 
279 23 219 56 50 45 
279 23 220 55 50 46 
275 27 208 64 56 50 
275 27 209 65 56 49 
272 31 208 68 60 53 
272 31 209 68 59 52 
273 30 208 66 58 52 
273 31 208 66 58 52 
273 31 209 68 59 52 
273 31 210 70 61 53 
274 29 208 68 59 54 
275 28 208 64 57 51 
275 28 209 64 56 51 
275 29 208 66 58 53 
275 29 209 67 59 53 
275 28 210 65 57 50 
275 29 210 67 59 52 
275 29 211 67 58 51 
274 30 208 68 59 53 
274 30 209 68 59 53 
274 31 209 68 60 53 
274 30 210 68 60 53 
274 30 211 71 61 53 
274 31 210 70 60 53 
274 31 211 70 61 54 
275 30 211 69 60 53 
275 29 212 67 58 51 
275 29 213 69 60 52 
275 29 214 68 59 52 
274 30 212 71 61 53 
274 31 212 71 61 54 
274 31 213 71 61 53 
275 30 212 69 60 52 
275 30 213 71 61 52 
274 31 214 72 62 54 
274 31 215 72 62 54 
275 30 214 70 60 52 
275 30 215 70 60 52 
277 24 208 57 49 41 
277 24 209 58 50 43 
277 25 208 59 52 45 
277 25 209 60 53 47 
277 25 210 59 53 48 
277 25 211 60 53 48 
276 26 208 62 55 49 
276 26 209 62 54 49 
276 27 208 64 56 49 
276 27 209 63 55 49 
277 26 209 61 54 48 
276 26 210 63 55 49 
276 26 211 63 55 49 
276 27 210 63 55 49 
276 27 211 63 55 49 
277 26 210 62 54 49 
277 26 211 62 54 49 
278 24 209 57 49 43 
278 24 210 58 51 45 
278 24 211 58 51 46 
278 25 211 60 53 48 
276 27 212 65 57 50 
277 26 212 62 54 49 
277 26 213 62 55 49 
277 27 212 63 55 50 
277 27 213 65 57 50 
277 26 214 64 55 49 
277 26 215 64 56 49 
277 27 214 65 57 50 
277 27 215 66 57 50 
278 24 212 59 52 47 
278 24 213 58 51 45 
278 25 212 60 53 48 
278 25 213 61 54 49 
278 24 214 58 51 45 
278 24 215 59 52 47 
278 25 214 60 53 48 
278 25 215 62 54 49 
279 24 214 56 50 44 
279 24 215 58 51 45 
278 26 212 60 53 48 
278 26 213 60 53 48 
278 26 214 62 54 48 
278 26 215 63 55 49 
276 28 210 61 54 49 
276 28 211 63 55 49 
276 28 212 65 56 50 
276 28 213 66 57 51 
276 29 212 65 57 50 
276 29 213 67 58 51 
276 28 214 66 58 51 
276 28 215 67 59 51 
276 29 214 69 59 51 
276 29 215 68 59 51 
277 28 214 67 58 51 
277 28 215 67 58 51 
275 29 219 69 60 54 
274 31 216 72 62 53 
274 31 217 72 62 53 
275 30 216 70 60 51 
275 30 217 70 61 53 
275 31 217 71 61 53 
274 31 218 72 62 54 
274 31 219 73 63 56 
275 30 218 70 61 55 
275 30 219 71 62 55 
275 31 218 72 62 54 
275 31 219 72 63 56 
275 29 220 70 60 53 
275 29 221 70 61 54 
274 31 220 73 63 56 
274 31 221 72 63 56 
275 30 220 71 62 56 
275 30 221 71 62 55 
274 31 222 72 62 56 
274 31 223 72 62 54 
275 30 222 71 62 54 
275 30 223 71 61 54 
277 26 216 64 56 49 
277 26 217 65 56 50 
277 27 216 66 57 50 
277 27 217 66 57 51 
277 26 218 65 56 49 
277 27 218 66 57 50 
277 27 219 66 57 50 
278 24 216 60 53 48 
278 24 217 60 53 48 
278 25 216 61 54 49 
278 25 217 62 55 49 
279 24 216 58 52 47 
279 24 217 58 52 47 
278 25 218 62 54 48 
278 25 219 61 54 48 
279 24 218 58 52 47 
279 24 219 58 52 47 
279 25 219 62 54 48 
278 26 216 64 56 50 
278 26 217 64 56 50 
278 26 218 64 56 50 
278 26 219 65 56 50 
277 27 220 68 59 51 
277 27 223 67 59 53 
278 25 220 63 55 50 
279 24 220 59 52 48 
279 24 221 59 53 49 
279 25 220 62 54 49 
279 25 221 63 56 50 
279 24 222 59 53 49 
279 24 223 58 52 48 
279 25 222 62 55 50 
279 25 223 62 55 49 
278 26 220 65 57 52 
278 26 221 65 58 52 
278 27 220 68 58 51 
278 27 221 67 58 52 
278 26 222 64 57 52 
278 26 223 65 57 51 
278 27 222 66 58 52 
278 27 223 67 59 53 
276 28 216 67 59 52 
276 28 217 68 59 52 
276 29 216 69 60 52 
276 29 217 69 60 53 
277 28 216 67 58 51 
276 28 218 69 59 52 
276 28 219 68 59 52 
276 29 218 68 60 54 
276 29 219 69 60 53 
277 28 218 66 58 51 
277 28 219 67 58 50 
276 30 216 69 59 51 
276 29 220 69 59 52 
276 29 221 69 60 52 
277 28 220 68 59 51 
277 28 221 68 59 51 
276 29 222 70 60 53 
276 29 223 70 61 54 
277 28 222 68 59 52 
277 28 223 67 59 53 
277 29 222 69 60 53 
277 29 223 68 60 53 
280 16 208 41 39 37 
280 16 209 48 43 40 
281 16 209 51 46 43 
280 16 210 55 49 44 
280 17 210 62 55 49 
280 17 211 74 66 60 
281 16 210 58 51 46 
281 16 211 64 56 51 
281 17 211 75 67 60 
280 18 211 78 69 62 
282 16 210 59 52 47 
282 16 211 66 58 53 
282 17 211 73 65 60 
283 16 211 62 56 51 
280 18 212 78 68 61 
280 19 212 76 66 58 
281 18 212 78 68 61 
281 19 212 74 64 55 
281 19 213 74 63 55 
281 19 214 74 63 54 
281 19 215 73 62 53 
282 16 212 72 64 59 
282 17 212 77 69 63 
282 17 213 78 69 62 
283 16 212 71 63 58 
283 16 213 74 66 60 
283 17 213 77 69 62 
282 17 214 78 69 62 
282 17 215 78 68 61 
283 16 214 75 66 60 
283 16 215 77 67 60 
283 17 214 78 69 62 
283 17 215 78 68 62 
282 18 212 78 69 62 
282 18 213 76 66 58 
282 18 214 76 66 58 
282 18 215 76 66 57 
280 20 212 71 62 53 
280 20 213 71 62 55 
280 21 213 68 59 53 
281 20 213 71 62 53 
280 20 214 70 62 56 
280 20 215 70 61 55 
280 21 214 65 58 52 
280 21 215 64 56 51 
281 20 214 71 62 54 
281 20 215 71 61 54 
280 22 214 58 50 44 
280 22 215 57 49 44 
281 18 217 71 61 53 
281 19 216 71 61 52 
281 19 217 70 61 53 
281 18 218 72 62 54 
281 18 219 73 63 55 
281 19 218 70 61 54 
281 19 219 70 61 54 
282 16 216 79 69 61 
282 16 217 79 69 60 
282 17 216 77 68 61 
282 17 217 77 67 59 
283 16 216 77 67 59 
282 16 218 80 69 61 
282 16 219 81 71 63 
282 17 218 77 67 58 
282 17 219 77 66 57 
282 18 216 72 62 54 
282 18 217 73 63 55 
282 18 218 73 63 55 
282 18 219 73 63 55 
281 19 220 68 59 52 
281 19 221 68 60 53 
282 16 220 79 69 62 
282 16 221 79 69 60 
282 17 220 78 67 59 
282 17 221 77 67 59 
282 16 222 78 68 60 
282 16 223 77 67 59 
282 17 222 76 66 57 
282 17 223 75 64 55 
282 18 220 73 63 55 
282 18 221 74 65 58 
282 19 220 70 61 53 
282 19 221 70 62 55 
282 18 222 73 64 57 
282 18 223 72 63 55 
282 19 222 68 60 54 
282 19 223 68 59 53 
280 21 216 62 54 48 
280 21 217 59 51 44 
281 20 216 69 60 53 
281 20 217 68 60 55 
281 21 217 63 55 50 
280 21 218 56 49 43 
280 21 219 55 48 42 
281 20 218 67 60 54 
281 20 219 65 57 50 
281 21 218 60 53 47 
281 21 219 58 51 45 
280 22 216 56 49 43 
280 22 217 56 48 42 
280 23 217 55 48 43 
280 22 218 54 47 42 
280 22 219 54 47 43 
280 23 218 55 49 44 
280 23 219 54 48 44 
280 21 220 54 47 42 
280 21 221 54 48 44 
281 20 220 62 54 48 
281 20 221 61 53 47 
281 21 220 56 49 44 
281 21 221 55 49 44 
280 21 222 54 48 45 
280 21 223 53 47 43 
281 20 222 60 52 47 
281 20 223 59 52 46 
281 21 222 54 48 43 
281 21 223 54 48 43 
280 22 220 54 48 43 
280 22 221 54 49 45 
280 23 220 55 49 46 
280 23 221 56 51 47 
280 22 222 54 49 46 
280 22 223 54 49 46 
280 23 222 56 50 48 
280 23 223 55 50 47 
280 24 222 57 51 48 
283 13 224 76 67 60 
283 13 225 75 66 59 
283 13 226 75 66 58 
283 13 227 74 65 57 
282 14 224 76 67 60 
282 14 225 76 67 59 
282 15 224 77 67 60 
282 15 225 77 68 60 
283 14 224 76 67 60 
282 14 226 76 66 59 
282 14 227 76 66 58 
282 15 226 78 68 60 
282 15 227 77 67 59 
281 15 228 76 66 57 
281 15 229 75 64 55 
281 15 230 73 62 52 
281 15 231 73 62 52 
283 13 228 74 64 56 
283 13 229 73 63 55 
283 13 230 72 62 54 
283 13 231 72 61 53 
282 14 228 75 65 56 
282 14 229 74 64 55 
282 15 228 76 66 57 
282 15 229 74 64 54 
282 14 230 72 62 53 
282 14 231 72 61 52 
282 15 230 72 62 52 
282 15 231 72 61 51 
285 11 224 72 63 57 
285 11 225 72 63 57 
285 11 226 72 63 56 
285 11 227 72 63 56 
286 11 224 71 63 57 
286 11 225 71 63 56 
287 10 225 71 62 55 
287 11 224 71 62 56 
287 11 225 71 62 56 
286 11 226 72 63 56 
286 11 227 72 63 55 
287 10 226 71 62 55 
287 10 227 71 62 55 
287 11 226 71 62 55 
287 11 227 71 62 55 
285 11 228 72 63 55 
285 11 229 72 62 55 
285 11 230 72 62 54 
285 11 231 71 62 54 
286 11 228 72 62 55 
286 11 229 72 62 55 
287 10 228 71 62 55 
287 10 229 71 62 55 
287 11 228 71 62 55 
286 11 230 71 62 54 
286 11 231 71 62 54 
287 10 230 71 62 54 
287 10 231 71 62 54 
284 12 224 73 65 58 
284 12 225 73 64 58 
284 13 224 74 65 59 
284 13 225 74 65 59 
285 12 224 72 64 57 
285 12 225 72 64 57 
284 12 226 73 64 57 
284 12 227 73 64 57 
284 13 226 74 65 58 
285 12 226 72 64 57 
285 12 227 72 63 56 
284 12 228 73 63 56 
284 12 229 72 63 55 
285 12 228 72 63 56 
285 12 229 72 63 55 
284 12 230 72 62 54 
284 12 231 72 62 54 
285 12 230 72 62 54 
285 12 231 72 62 54 
282 13 232 71 61 51 
282 13 233 71 61 52 
283 12 232 71 61 53 
283 12 233 71 61 52 
283 13 232 71 61 52 
283 13 233 71 61 52 
282 13 234 70 61 52 
282 13 235 70 61 52 
283 12 234 70 61 52 
283 12 235 70 61 53 
283 13 234 70 61 52 
283 13 235 70 61 52 
282 14 232 71 61 51 
282 14 233 71 60 51 
282 15 232 72 61 51 
282 15 233 73 63 53 
282 14 234 71 61 52 
282 14 235 71 62 53 
282 15 234 74 64 56 
282 15 235 73 63 54 
281 13 238 69 60 53 
281 13 239 70 62 56 
281 14 237 70 62 55 
281 15 236 71 62 54 
281 15 237 70 62 55 
281 14 238 70 62 55 
281 14 239 71 62 56 
281 15 238 71 62 56 
281 15 239 70 62 57 
282 13 236 69 60 52 
282 13 237 69 60 53 
283 12 236 70 60 53 
283 12 237 69 60 53 
283 13 236 70 60 52 
282 12 238 69 60 53 
282 12 239 69 60 54 
282 13 238 69 60 53 
282 13 239 69 61 55 
283 12 238 69 60 53 
283 12 239 69 60 54 
282 14 236 70 61 53 
282 14 237 70 61 54 
282 15 236 72 62 54 
285 11 232 71 62 54 
285 11 233 71 61 53 
285 11 234 70 61 53 
285 11 235 70 61 53 
286 11 232 71 62 54 
286 11 233 71 61 54 
287 10 232 71 62 54 
287 10 233 71 61 54 
286 11 234 70 61 54 
286 11 235 70 61 54 
287 10 234 70 61 54 
287 10 235 70 61 54 
284 11 237 69 60 53 
285 11 236 70 61 53 
285 11 237 69 60 53 
284 11 238 69 60 53 
284 11 239 69 60 53 
285 11 238 69 60 53 
285 11 239 69 60 53 
286 10 236 70 61 54 
286 10 237 69 61 53 
286 11 236 70 61 53 
286 11 237 69 61 53 
287 10 236 70 61 54 
287 10 237 69 61 54 
286 10 238 69 60 53 
286 10 239 69 60 53 
286 11 238 69 60 53 
286 11 239 69 60 53 
287 10 238 69 60 53 
287 10 239 69 60 53 
284 12 232 71 61 53 
284 12 233 71 61 53 
285 12 232 71 62 54 
285 12 233 71 61 53 
284 12 234 70 61 53 
284 12 235 70 61 53 
285 12 234 70 61 53 
284 12 236 70 60 53 
284 12 237 69 60 53 
284 12 238 69 60 53 
284 12 239 69 60 54 
281 13 240 70 62 56 
281 14 240 69 61 56 
281 14 241 68 60 54 
281 15 240 66 58 52 
281 15 241 63 55 48 
281 15 242 58 50 42 
282 13 240 69 61 56 
282 13 241 69 61 56 
283 12 240 69 60 54 
283 13 240 69 61 55 
283 13 241 68 61 55 
283 13 242 68 61 56 
282 14 241 67 60 54 
282 14 242 65 57 51 
282 15 242 60 52 45 
282 15 243 56 48 41 
283 14 242 67 60 55 
283 14 243 63 55 48 
283 15 243 60 51 44 
282 15 244 56 48 40 
283 14 244 60 52 44 
283 15 244 58 49 41 
283 15 245 57 49 41 
283 15 246 57 48 41 
285 11 240 69 60 53 
286 11 240 68 60 53 
286 11 241 68 59 53 
287 10 240 68 60 53 
287 10 241 68 59 53 
287 11 241 68 59 53 
286 11 242 67 59 52 
286 11 243 66 58 52 
287 11 242 67 59 53 
287 11 243 66 58 52 
287 11 244 65 57 51 
287 11 245 64 56 50 
287 11 246 64 55 49 
287 11 247 63 55 49 
284 12 240 68 60 54 
284 12 241 68 60 54 
284 13 241 68 60 54 
285 12 240 68 60 53 
285 12 241 68 59 53 
284 13 242 68 60 54 
284 13 243 67 59 53 
285 12 242 67 59 52 
285 12 243 65 57 51 
285 13 242 67 59 53 
285 13 243 66 58 52 
284 14 243 67 59 53 
286 12 241 67 59 53 
286 12 242 67 59 52 
286 12 243 66 58 51 
284 13 244 65 57 51 
285 12 244 65 57 50 
285 12 245 64 55 49 
285 13 244 64 56 50 
285 13 245 64 56 49 
285 12 246 63 55 48 
285 13 246 63 55 48 
285 13 247 61 53 47 
284 14 244 63 54 48 
284 14 245 62 54 48 
284 15 245 58 50 42 
285 14 245 63 55 48 
284 14 246 60 52 46 
284 14 247 60 52 45 
284 15 246 58 50 42 
284 15 247 59 51 44 
285 14 246 62 54 48 
286 12 244 65 57 50 
286 12 245 64 56 49 
286 12 246 63 55 48 
286 12 247 63 54 48 
287 12 247 63 55 48 
283 15 249 59 51 44 
283 15 250 59 51 44 
283 15 251 59 51 44 
281 14 255 61 52 45 
281 15 255 60 52 45 
283 13 255 62 53 46 
282 15 253 60 51 44 
283 14 252 60 52 45 
283 14 253 61 52 45 
283 15 252 60 52 45 
283 15 253 60 52 45 
282 14 254 60 52 45 
282 14 255 61 53 45 
282 15 254 60 52 45 
282 15 255 60 51 44 
283 14 254 61 52 45 
283 14 255 61 53 46 
285 13 248 61 53 46 
285 13 249 61 53 46 
284 13 250 61 52 46 
284 13 251 61 52 45 
285 13 250 61 53 46 
285 13 251 61 53 46 
284 14 248 60 52 45 
284 14 249 60 52 45 
284 15 248 59 51 44 
284 15 249 58 50 43 
284 14 250 60 52 45 
284 14 251 60 52 45 
284 15 250 59 51 44 
286 12 248 62 54 47 
286 12 249 61 53 47 
287 12 248 62 54 48 
287 12 249 62 54 47 
286 12 250 61 53 47 
286 12 251 61 53 46 
286 13 250 61 53 46 
287 12 250 62 53 47 
287 12 251 62 53 47 
284 13 252 61 53 46 
284 13 253 61 53 46 
285 13 252 61 53 46 
285 13 253 61 53 46 
284 13 254 61 53 46 
284 13 255 62 53 46 
285 12 255 62 54 47 
285 13 254 61 53 46 
285 13 255 62 53 46 
284 14 252 61 52 45 
284 14 253 61 53 45 
284 14 254 61 53 46 
286 12 252 61 53 46 
286 12 253 61 53 46 
287 12 252 61 53 46 
287 12 253 61 53 46 
286 12 254 62 53 46 
286 12 255 62 54 47 
287 12 254 62 53 46 
287 12 255 62 54 47 
279 23 224 57 51 47 
279 23 225 56 50 46 
279 22 227 55 50 47 
279 23 226 57 51 47 
279 23 227 56 51 47 
279 22 228 55 50 47 
279 23 228 56 51 47 
279 23 229 56 51 48 
279 23 230 56 51 48 
279 23 231 57 51 48 
279 23 232 57 51 48 
279 23 233 58 52 48 
279 23 234 58 52 48 
279 23 235 58 52 48 
279 21 239 63 55 50 
279 22 237 60 52 47 
279 23 236 59 53 48 
279 23 237 60 53 48 
278 23 238 60 53 48 
278 23 239 60 53 47 
279 22 238 61 54 48 
279 22 239 62 54 49 
279 23 238 60 53 47 
279 23 239 60 53 47 
275 29 226 69 61 54 
275 29 227 70 61 54 
274 31 224 72 62 54 
274 31 225 71 61 54 
275 30 224 71 62 54 
275 30 225 71 61 54 
275 31 224 72 61 53 
275 31 225 71 61 53 
274 31 226 72 62 54 
274 31 227 72 62 54 
275 30 226 70 61 54 
275 30 227 70 61 54 
275 31 226 72 62 54 
275 31 227 71 61 53 
275 29 228 70 61 54 
275 29 229 71 62 53 
275 28 231 70 60 52 
275 29 230 72 62 53 
275 29 231 72 62 53 
274 30 228 71 62 55 
274 30 229 74 63 54 
274 31 228 73 63 54 
274 31 229 74 64 55 
275 30 228 71 61 54 
275 30 229 72 62 53 
274 30 230 74 63 54 
274 30 231 75 64 54 
274 31 230 75 64 54 
274 31 231 76 64 54 
275 30 230 73 63 54 
275 30 231 74 63 54 
277 27 224 68 60 54 
277 27 225 68 60 53 
277 26 227 67 59 52 
277 27 226 69 60 52 
277 27 227 68 60 53 
278 25 224 63 55 50 
278 25 225 63 56 50 
279 24 224 58 52 49 
279 24 225 58 52 47 
279 25 224 61 54 49 
279 25 225 62 54 49 
278 25 226 62 54 49 
278 25 227 61 53 48 
279 24 226 58 52 47 
279 24 227 58 52 48 
279 25 226 61 54 48 
278 26 224 65 57 50 
278 26 225 65 57 50 
278 27 224 67 58 52 
278 27 225 68 59 51 
278 26 226 65 57 51 
278 26 227 64 56 51 
278 27 226 67 59 52 
277 25 230 62 54 48 
277 25 231 61 54 48 
276 27 229 67 59 52 
277 26 228 67 59 52 
277 26 229 66 58 51 
277 27 228 68 59 52 
277 27 229 67 58 51 
276 27 230 68 59 51 
276 27 231 67 58 51 
277 26 230 65 56 50 
277 26 231 64 56 49 
277 27 230 67 58 51 
278 25 228 60 53 48 
278 25 229 61 54 49 
279 24 228 58 52 48 
279 24 229 58 52 48 
278 24 230 58 52 49 
278 24 231 59 53 49 
278 25 230 61 54 48 
278 25 231 60 54 49 
279 24 230 57 52 48 
279 24 231 58 52 48 
278 26 228 64 56 51 
278 26 229 65 57 51 
276 28 224 68 60 53 
276 28 225 69 60 54 
276 29 224 70 61 54 
276 29 225 69 60 53 
277 28 224 68 60 53 
277 28 225 69 61 54 
276 28 226 69 60 54 
276 28 227 70 61 54 
276 29 226 69 60 54 
276 29 227 69 60 54 
277 28 226 68 60 54 
276 28 228 70 61 53 
276 28 229 70 61 53 
276 29 228 72 62 55 
276 29 229 72 62 54 
276 28 230 70 60 52 
276 28 231 69 59 52 
275 28 232 70 60 51 
275 28 233 70 59 51 
275 29 232 72 61 53 
275 29 233 72 61 53 
275 28 234 70 60 52 
275 28 235 71 60 52 
275 29 234 72 62 53 
275 29 235 73 62 54 
274 30 232 76 64 55 
274 30 233 76 64 54 
274 31 232 77 65 55 
274 31 233 77 65 55 
275 30 232 75 64 54 
275 30 233 75 63 54 
274 30 234 76 65 55 
274 30 235 76 64 55 
274 31 234 77 64 54 
274 31 235 77 64 54 
275 30 234 75 63 54 
275 30 235 75 63 53 
275 28 236 71 60 52 
275 28 237 71 60 52 
275 29 236 74 63 54 
275 29 237 74 63 54 
275 28 238 70 60 51 
275 28 239 71 60 52 
275 29 238 73 62 53 
275 29 239 73 62 53 
274 30 236 77 65 55 
274 30 237 77 65 55 
274 31 236 77 65 54 
274 31 237 77 65 55 
275 30 236 75 64 54 
275 30 237 75 64 55 
274 31 238 76 64 54 
274 31 239 76 63 54 
275 30 238 75 63 54 
275 30 239 75 63 54 
275 31 238 76 64 54 
275 31 239 76 64 54 
277 25 232 61 54 49 
277 25 233 59 53 47 
277 25 234 60 53 47 
277 25 235 60 53 48 
276 27 232 66 58 50 
276 27 233 66 57 50 
277 26 232 63 55 48 
277 26 233 63 55 49 
276 26 234 64 55 48 
276 26 235 65 56 49 
276 27 234 66 57 49 
276 27 235 67 57 49 
277 26 234 62 54 48 
277 26 235 63 55 49 
278 24 232 58 53 49 
278 24 233 58 52 48 
278 25 232 59 53 49 
279 24 232 58 52 48 
279 24 233 57 51 47 
278 24 234 58 52 47 
278 24 235 58 52 47 
278 25 234 58 51 47 
278 25 235 58 51 46 
279 24 234 58 52 48 
279 24 235 58 52 48 
277 25 236 58 51 46 
276 26 236 65 56 50 
276 26 237 65 56 49 
276 27 236 67 58 50 
276 27 237 67 57 50 
277 26 236 62 55 49 
277 26 237 62 54 48 
277 27 237 63 55 48 
276 27 238 65 56 49 
276 27 239 65 56 48 
277 26 238 61 53 47 
277 26 239 62 53 46 
277 27 238 64 55 48 
277 27 239 63 54 47 
278 24 236 59 52 47 
278 24 237 60 53 47 
278 25 236 58 51 46 
278 25 237 60 53 47 
279 24 236 59 52 47 
279 24 237 60 53 47 
278 24 238 60 53 47 
278 24 239 60 52 47 
278 25 238 61 53 47 
278 25 239 61 54 47 
276 28 232 69 59 51 
276 28 233 68 59 51 
276 28 234 69 59 51 
276 28 235 69 59 51 
276 28 238 69 59 51 
276 28 239 69 59 50 
281 16 227 76 65 57 
281 17 227 73 62 53 
281 19 224 61 53 46 
281 19 225 62 53 46 
281 18 226 72 63 56 
281 18 227 72 64 57 
281 19 226 63 55 48 
281 19 227 63 55 47 
282 16 224 76 66 58 
282 16 225 77 66 58 
282 17 224 75 65 56 
282 17 225 73 63 54 
282 16 226 76 66 58 
282 16 227 78 67 59 
282 17 226 72 62 53 
282 18 224 72 62 54 
282 18 225 72 63 55 
282 19 224 67 58 51 
282 19 225 66 58 50 
282 18 226 72 63 56 
282 19 226 67 58 51 
281 16 228 76 65 56 
281 16 229 74 63 54 
281 17 228 75 64 55 
281 17 229 76 66 58 
281 16 230 72 62 53 
281 16 231 74 63 55 
281 17 230 74 65 58 
281 17 231 71 62 55 
281 18 228 71 63 56 
281 18 229 70 61 55 
281 19 228 61 53 46 
281 19 229 60 52 46 
281 18 230 67 59 53 
281 18 231 64 56 49 
281 19 230 57 51 46 
281 19 231 56 50 45 
282 19 231 56 49 44 
280 21 224 53 47 43 
280 21 225 54 48 44 
281 20 224 58 51 45 
281 20 225 56 49 43 
281 21 224 55 48 43 
281 21 225 55 48 43 
280 21 226 54 49 45 
280 21 227 56 50 46 
281 20 226 57 49 44 
281 20 227 57 49 44 
281 21 226 54 48 44 
281 21 227 55 49 45 
280 22 224 54 48 45 
280 22 225 55 49 46 
280 23 224 55 49 46 
280 23 225 55 50 46 
280 22 226 55 49 45 
280 22 227 55 50 47 
280 23 226 56 50 47 
280 21 228 55 49 45 
280 21 229 56 50 46 
281 20 228 55 48 42 
281 20 229 56 49 44 
281 21 228 55 49 44 
281 21 229 56 50 45 
280 21 230 57 51 47 
281 20 230 57 51 46 
281 20 231 57 51 47 
281 21 230 57 51 46 
281 21 231 57 52 47 
280 22 228 56 50 47 
280 22 229 55 50 47 
280 22 230 56 51 47 
280 22 231 57 51 48 
281 16 232 75 65 57 
281 16 233 73 63 55 
281 17 232 70 61 54 
281 17 233 67 58 51 
281 16 234 71 61 53 
281 16 235 72 63 54 
281 17 234 63 54 46 
281 17 235 61 52 43 
281 18 232 61 53 46 
281 18 233 58 50 43 
281 19 232 56 49 44 
281 19 233 57 50 45 
281 18 234 56 50 44 
281 18 235 57 50 45 
281 19 234 59 52 47 
281 19 235 60 53 49 
282 18 232 60 52 45 
282 19 232 56 49 43 
281 16 236 70 61 52 
281 16 237 67 59 53 
281 17 236 61 51 42 
281 17 237 61 52 45 
281 16 238 65 57 51 
281 16 239 63 54 48 
281 17 238 60 52 46 
281 17 239 57 49 43 
280 19 237 62 55 49 
281 18 236 57 49 43 
281 18 237 57 49 42 
281 19 236 60 54 49 
281 19 237 60 53 48 
280 18 238 59 51 44 
280 18 239 58 50 44 
280 19 238 62 55 49 
280 19 239 62 55 49 
281 18 238 57 49 42 
281 19 238 61 53 46 
281 20 232 58 52 47 
281 20 233 59 53 48 
281 21 232 58 52 49 
281 21 233 59 53 49 
280 21 234 60 54 49 
280 21 235 60 54 49 
281 20 234 60 53 49 
281 20 235 61 54 49 
281 21 234 60 54 49 
281 21 235 60 54 49 
280 22 232 58 52 48 
280 22 233 58 52 48 
280 22 234 59 53 49 
280 22 235 60 53 48 
280 20 236 62 55 50 
280 20 237 63 56 50 
280 21 236 61 54 49 
280 21 237 62 55 50 
281 20 236 62 55 49 
280 20 238 63 56 50 
280 20 239 64 57 51 
280 21 238 63 56 50 
280 21 239 63 56 50 
280 22 236 60 53 48 
280 22 237 60 53 47 
280 23 236 60 53 48 
277 23 243 64 57 51 
279 20 240 66 58 52 
279 21 240 63 56 50 
279 21 241 65 57 51 
278 21 242 65 57 51 
278 21 243 66 58 51 
279 20 243 67 59 52 
279 21 242 66 58 52 
279 21 243 67 59 52 
278 22 240 62 54 49 
278 22 241 63 55 49 
278 23 240 61 54 48 
278 23 241 62 54 48 
279 22 240 62 55 49 
278 22 242 64 57 51 
278 22 243 65 58 52 
278 23 242 63 56 50 
278 23 243 64 57 51 
277 23 244 64 57 51 
277 23 245 64 57 51 
277 23 246 66 58 52 
277 23 247 66 59 53 
278 21 244 67 59 52 
279 20 244 68 59 52 
279 20 245 68 60 54 
279 21 244 68 59 52 
279 21 245 68 60 54 
279 21 246 68 60 53 
279 21 247 68 60 53 
278 22 244 66 58 52 
278 22 245 66 59 52 
278 23 244 65 57 51 
278 23 245 66 58 52 
278 22 246 68 60 53 
278 22 247 68 60 54 
278 23 246 66 59 53 
278 23 247 67 59 53 
279 22 247 68 60 54 
279 21 248 68 60 53 
278 23 248 67 59 53 
278 23 249 68 60 54 
279 22 248 68 60 54 
279 22 249 68 60 54 
279 23 248 68 60 54 
279 23 249 68 60 54 
279 22 250 68 60 53 
279 23 250 68 60 54 
279 23 251 68 60 53 
279 22 253 67 59 53 
279 23 252 68 60 54 
279 23 253 67 59 53 
279 22 254 67 59 54 
279 22 255 67 60 54 
279 23 254 66 59 53 
279 23 255 67 59 53 
275 29 240 73 61 52 
275 29 241 73 61 53 
275 29 242 72 61 52 
275 29 243 71 60 52 
275 30 240 75 63 54 
275 30 241 74 62 53 
275 31 240 77 63 54 
275 31 241 76 63 54 
275 30 242 74 62 53 
275 30 243 74 62 53 
275 31 242 76 63 54 
275 31 243 76 63 54 
275 29 244 70 60 51 
275 29 245 70 60 51 
275 29 246 69 59 51 
275 29 247 70 60 51 
275 30 244 74 62 53 
275 30 245 73 62 53 
275 31 244 76 64 54 
275 31 245 76 64 55 
275 30 246 74 62 54 
275 30 247 74 62 54 
275 31 246 77 65 56 
275 31 247 77 65 55 
277 24 241 61 53 48 
277 25 240 61 54 48 
277 25 241 61 53 47 
277 24 242 62 54 49 
277 24 243 62 55 49 
277 25 242 61 54 48 
277 25 243 62 54 49 
276 27 240 66 57 48 
276 27 241 67 57 50 
277 26 240 63 54 47 
277 26 241 61 54 47 
277 27 240 64 55 48 
277 27 241 65 56 48 
276 27 243 64 55 49 
277 26 242 62 54 48 
277 26 243 62 54 48 
277 27 242 65 56 50 
277 27 243 64 55 49 
278 24 240 60 53 47 
278 24 241 61 53 48 
278 25 240 61 53 47 
278 24 242 62 54 49 
278 24 243 63 55 49 
277 24 244 63 56 50 
277 24 245 64 57 51 
277 25 244 62 55 49 
277 25 245 63 56 50 
277 24 246 65 57 52 
277 24 247 65 58 52 
277 25 246 64 57 51 
277 25 247 65 57 52 
276 27 244 64 55 48 
276 27 245 64 55 49 
277 26 244 63 55 49 
277 26 245 63 55 50 
277 27 244 62 54 48 
276 26 246 64 56 49 
276 26 247 63 56 49 
276 27 246 63 55 48 
276 27 247 63 55 48 
277 26 246 63 56 50 
277 26 247 63 56 50 
276 28 240 69 59 51 
276 28 241 69 59 51 
276 29 241 72 61 52 
276 28 242 68 58 51 
276 28 243 67 58 50 
276 29 242 71 60 52 
276 29 243 70 60 51 
276 28 244 66 57 49 
276 28 245 66 56 49 
276 28 246 65 56 48 
276 28 247 65 56 48 
