ply
format ascii 1.0
comment Created by CloudCompare v2.10.1 (Zephyrus)
comment Created 1/30/20 12:04 PM
obj_info Generated by CloudCompare!
element vertex 2066
property float x
property float y
property float z
property uchar red
property uchar green
property uchar blue
end_header
272 571 434 144 109 98 
272 571 435 150 113 101 
272 568 437 149 120 111 
272 569 436 149 116 105 
272 569 437 151 117 106 
272 568 438 153 124 117 
272 568 439 160 130 124 
272 569 438 152 116 107 
273 568 439 162 127 120 
273 569 438 158 120 110 
273 569 439 160 121 113 
272 570 436 152 116 103 
272 570 437 155 116 104 
272 571 436 153 115 103 
273 570 437 160 119 108 
273 571 436 158 117 105 
273 571 437 161 119 108 
273 570 438 164 123 113 
274 569 439 172 129 122 
274 571 437 166 122 111 
275 571 437 171 125 115 
274 570 438 169 125 116 
274 570 439 175 130 123 
274 571 438 170 125 115 
275 570 439 178 133 126 
275 571 438 175 128 120 
272 572 433 141 108 98 
272 573 432 143 108 98 
272 573 433 144 109 99 
273 573 433 150 111 102 
272 572 434 146 110 100 
272 572 435 151 113 102 
272 573 434 147 110 100 
273 572 435 155 116 105 
273 573 434 154 114 105 
273 573 435 156 115 106 
273 574 432 152 114 104 
273 574 433 153 113 104 
274 573 434 162 119 110 
274 573 435 163 120 110 
275 573 435 169 124 114 
274 574 433 161 119 108 
274 575 432 159 119 107 
275 574 433 167 123 112 
275 575 432 166 122 111 
275 575 433 167 123 112 
274 574 434 160 119 109 
275 574 434 168 123 113 
275 574 435 170 124 114 
273 572 436 159 118 107 
274 572 436 163 121 110 
274 572 437 167 122 112 
274 573 436 167 123 112 
275 572 436 169 123 112 
275 572 437 173 126 117 
275 573 436 172 125 116 
277 569 439 176 134 130 
276 570 438 179 133 126 
276 570 439 180 134 129 
276 571 438 179 132 124 
277 570 438 178 135 130 
277 570 439 178 135 130 
277 571 438 180 135 129 
278 569 439 152 118 114 
279 568 438 119 98 91 
279 568 439 126 102 96 
279 569 438 126 103 95 
279 569 439 133 107 100 
278 571 437 172 131 126 
279 571 437 153 118 113 
278 570 438 169 129 125 
278 570 439 159 122 118 
278 571 438 173 131 126 
279 570 438 143 112 106 
279 571 438 159 121 117 
276 573 435 175 128 119 
277 573 435 177 130 122 
276 574 433 172 126 116 
276 575 432 171 126 115 
276 575 433 173 127 117 
277 575 432 174 129 118 
277 575 433 175 129 119 
276 574 434 173 127 118 
276 574 435 174 127 118 
277 574 434 176 129 120 
277 574 435 177 130 122 
278 573 435 175 130 124 
279 573 434 162 120 114 
279 573 435 165 124 118 
278 574 433 175 130 122 
278 575 432 175 130 120 
278 575 433 176 131 121 
279 574 433 170 126 119 
279 575 432 171 127 118 
279 575 433 173 129 120 
278 574 434 175 130 122 
278 574 435 175 129 123 
279 574 434 170 127 120 
279 574 435 171 128 121 
276 572 437 177 130 122 
276 573 436 175 128 120 
277 572 437 178 133 126 
277 573 436 177 131 124 
276 572 438 177 130 121 
278 572 436 169 128 123 
278 572 437 176 132 127 
278 573 436 174 130 124 
279 572 436 158 120 115 
279 572 437 162 123 118 
273 568 440 173 136 132 
274 568 440 182 142 138 
274 569 440 178 134 129 
275 568 440 181 137 134 
275 568 441 183 141 140 
275 569 440 180 135 131 
276 568 440 177 134 132 
276 568 441 176 133 132 
276 569 440 180 135 131 
277 568 440 157 122 119 
277 568 441 160 123 122 
277 569 440 172 132 128 
278 568 440 138 109 105 
278 569 440 148 116 112 
280 567 432 96 84 79 
280 567 433 100 87 82 
280 567 434 100 88 83 
280 567 435 104 90 84 
280 567 436 106 91 84 
280 567 437 109 93 86 
280 567 438 112 95 88 
280 568 432 93 82 77 
280 568 433 92 82 77 
281 568 432 87 78 72 
281 568 433 89 80 74 
281 569 432 88 79 72 
281 569 433 88 78 72 
280 568 434 97 87 82 
280 568 435 101 89 83 
281 569 434 94 84 78 
281 569 435 101 89 82 
281 570 432 92 81 74 
281 570 433 90 80 71 
281 571 432 94 82 73 
281 571 433 99 85 75 
280 571 435 120 100 91 
281 570 434 97 85 76 
281 570 435 104 91 82 
281 571 434 107 90 80 
281 571 435 110 94 84 
282 570 432 92 82 75 
282 571 432 94 82 73 
280 568 436 105 91 84 
280 568 437 109 93 85 
280 569 436 106 92 83 
280 569 437 112 95 86 
281 569 436 103 91 82 
280 568 438 114 96 88 
280 569 438 117 98 90 
280 570 436 112 95 86 
280 570 437 122 100 92 
280 571 436 132 105 99 
280 571 437 131 105 98 
280 573 433 145 110 103 
281 572 432 110 92 82 
281 572 433 116 95 86 
281 573 432 126 101 92 
281 573 433 128 102 93 
280 572 435 139 108 101 
280 573 434 145 112 104 
280 573 435 150 114 108 
281 572 434 125 99 91 
281 572 435 121 98 90 
280 574 432 155 115 109 
280 574 433 161 119 112 
280 575 432 159 116 109 
281 574 432 138 106 97 
282 572 432 106 89 80 
282 573 432 113 93 85 
280 572 436 145 112 106 
295 575 395 104 94 87 
293 575 397 106 95 88 
292 575 399 106 95 89 
293 575 398 105 95 89 
293 575 399 103 94 89 
295 573 398 100 93 89 
295 573 399 100 92 89 
294 575 396 106 94 86 
294 575 397 105 94 88 
295 574 397 103 93 88 
295 575 396 104 94 87 
295 575 397 105 94 88 
294 574 398 103 94 89 
294 574 399 102 94 89 
294 575 398 104 94 89 
295 574 398 101 93 89 
298 571 399 94 89 87 
299 571 398 95 89 87 
299 571 399 94 89 86 
296 575 394 102 92 85 
296 575 395 102 93 86 
297 574 394 99 91 85 
297 574 395 100 91 86 
297 575 394 100 91 86 
297 575 395 100 91 86 
298 573 395 97 90 87 
299 573 394 96 89 86 
299 573 395 96 90 86 
298 574 394 98 90 86 
298 574 395 98 90 86 
299 574 394 96 89 85 
297 573 396 98 91 88 
297 573 397 98 91 88 
296 572 399 97 91 88 
296 573 398 99 92 88 
296 573 399 98 91 88 
297 572 398 97 90 87 
297 572 399 96 90 87 
297 573 398 98 91 88 
296 574 396 101 92 87 
296 574 397 100 93 88 
296 575 396 103 93 86 
297 574 396 99 91 87 
297 574 397 99 92 88 
296 574 398 100 92 88 
298 572 397 96 90 87 
298 573 396 97 91 87 
298 573 397 97 90 87 
299 572 396 96 90 87 
299 572 397 96 90 87 
299 573 396 96 90 87 
298 572 398 96 90 87 
298 572 399 95 90 87 
299 572 398 95 89 87 
301 571 395 94 88 86 
302 571 394 93 88 86 
302 571 395 94 88 86 
303 571 394 93 88 86 
303 571 395 93 88 86 
300 571 397 94 89 86 
301 571 396 94 88 86 
301 571 397 94 88 86 
300 570 399 93 88 86 
300 571 398 94 89 86 
300 571 399 93 88 86 
301 570 398 93 88 86 
301 570 399 93 88 86 
301 571 398 94 88 86 
302 569 399 93 88 86 
303 569 399 93 88 85 
302 570 397 93 88 86 
302 571 396 94 88 86 
302 571 397 94 88 86 
303 570 396 94 88 86 
303 570 397 94 88 86 
303 571 396 94 88 86 
302 570 398 93 88 86 
302 570 399 93 88 86 
303 570 398 93 88 86 
303 570 399 93 88 86 
300 572 394 94 89 86 
300 572 395 95 89 86 
300 573 394 95 89 86 
300 573 395 95 89 87 
301 572 394 94 88 86 
301 572 395 94 88 86 
301 573 394 94 88 86 
302 572 394 93 88 86 
303 572 394 93 88 86 
300 572 396 95 89 87 
300 572 397 95 89 87 
301 572 396 94 89 86 
289 571 407 97 90 87 
290 571 406 96 90 87 
290 571 407 96 90 87 
291 570 407 94 89 86 
291 571 406 95 89 87 
291 571 407 95 89 86 
288 575 403 112 99 92 
289 574 403 106 95 90 
289 575 402 109 97 91 
289 575 403 109 97 91 
291 573 403 100 92 88 
290 575 401 106 96 90 
291 575 400 105 95 89 
291 575 401 105 95 89 
290 574 403 104 94 89 
290 575 402 107 96 90 
290 575 403 105 95 90 
291 574 402 103 94 89 
291 574 403 102 93 89 
291 575 402 105 95 89 
288 573 405 104 94 89 
289 573 405 101 93 88 
288 572 406 101 92 88 
288 572 407 101 92 88 
288 573 406 102 93 88 
289 572 406 99 91 87 
289 572 407 98 90 87 
289 573 406 101 92 88 
288 574 404 109 96 90 
288 574 405 106 95 90 
288 575 404 111 98 91 
289 574 404 105 95 89 
289 574 405 104 94 89 
290 572 405 98 91 87 
290 573 404 101 93 88 
290 573 405 99 91 88 
291 572 404 97 91 87 
291 572 405 97 90 87 
291 573 404 99 91 88 
290 572 406 97 90 87 
291 572 406 96 90 87 
290 574 404 103 93 89 
294 571 403 95 89 87 
295 571 402 95 90 87 
295 571 403 94 89 87 
292 571 405 95 89 87 
293 571 404 95 90 87 
293 571 405 94 89 87 
292 570 406 94 89 86 
292 570 407 94 88 86 
292 571 406 94 89 86 
293 570 406 94 89 86 
293 570 407 93 88 86 
293 571 406 94 89 87 
294 569 407 93 88 86 
295 569 406 93 88 86 
295 569 407 93 88 86 
294 570 405 94 89 87 
294 571 404 94 89 87 
294 571 405 94 89 87 
295 570 404 94 89 87 
295 570 405 93 89 87 
295 571 404 94 89 87 
294 570 406 93 88 86 
294 570 407 93 88 86 
295 570 406 93 88 87 
293 573 401 99 92 88 
292 572 403 97 91 88 
292 573 402 100 92 88 
292 573 403 98 91 88 
293 572 403 96 90 88 
293 573 402 99 92 88 
293 573 403 97 91 88 
292 574 401 102 93 89 
292 575 400 104 95 89 
292 575 401 104 94 89 
293 574 400 102 93 89 
293 574 401 100 92 88 
293 575 400 103 94 89 
292 574 402 101 93 88 
294 573 400 100 92 89 
294 573 401 99 92 88 
295 572 400 97 91 88 
295 572 401 96 90 88 
295 573 400 98 92 88 
295 573 401 98 91 88 
294 572 402 97 91 88 
294 572 403 96 90 87 
294 573 402 98 91 88 
295 572 402 95 90 87 
295 572 403 95 90 87 
294 574 400 101 93 89 
292 572 404 96 90 87 
292 572 405 96 90 87 
293 572 404 96 90 87 
288 569 411 95 89 86 
289 569 411 95 89 86 
288 571 408 98 90 87 
288 571 409 97 90 87 
289 570 409 95 89 86 
289 571 408 96 90 87 
289 571 409 96 89 86 
288 570 410 96 89 86 
288 570 411 95 89 86 
288 571 410 96 90 87 
289 570 410 95 89 86 
291 569 409 93 88 86 
290 569 410 94 88 86 
290 569 411 94 88 86 
291 569 410 94 88 86 
291 569 411 93 88 86 
290 570 408 95 89 86 
290 570 409 95 89 86 
290 571 408 95 89 86 
291 570 408 94 89 86 
291 570 409 94 88 86 
290 570 410 95 89 86 
288 568 413 96 90 87 
288 569 412 95 89 86 
288 569 413 95 89 87 
289 568 413 95 89 86 
289 569 412 95 89 86 
289 569 413 95 89 86 
288 568 414 96 90 87 
288 568 415 96 90 87 
289 568 414 95 89 86 
289 568 415 95 89 87 
290 568 413 94 89 86 
290 569 412 94 88 86 
290 569 413 94 88 86 
291 568 413 94 88 86 
291 569 412 94 88 86 
291 569 413 94 88 86 
290 568 414 95 89 86 
290 568 415 95 89 86 
291 568 414 94 88 86 
291 568 415 94 89 86 
288 572 408 99 91 87 
292 569 409 93 88 86 
293 569 408 93 88 86 
293 569 409 93 88 86 
292 569 410 93 88 86 
292 569 411 93 88 85 
293 569 410 93 88 86 
293 569 411 93 88 85 
292 570 408 93 88 86 
292 570 409 93 88 86 
293 570 408 93 88 86 
294 569 408 93 88 86 
294 569 409 93 88 86 
295 569 408 93 88 86 
295 569 409 93 88 86 
294 569 410 93 88 86 
294 569 411 93 88 85 
295 569 410 93 88 86 
295 569 411 93 88 86 
292 568 412 93 88 85 
292 568 413 94 88 85 
292 569 412 93 88 85 
292 569 413 93 88 85 
293 569 412 93 88 85 
293 569 413 93 88 85 
292 568 414 94 88 85 
292 568 415 94 88 86 
292 569 414 94 88 85 
292 569 415 94 88 85 
293 569 414 93 88 85 
293 569 415 93 87 85 
294 569 412 93 88 85 
294 569 413 93 87 85 
295 569 412 92 87 85 
295 569 413 92 87 85 
294 569 414 93 87 85 
294 569 415 92 87 84 
295 569 414 92 87 84 
295 569 415 92 86 84 
295 570 415 91 86 84 
303 567 405 89 84 83 
303 567 406 88 84 82 
303 567 407 87 82 81 
296 571 401 95 90 87 
297 571 400 95 89 87 
297 571 401 95 89 87 
296 570 403 94 89 87 
296 571 402 94 89 87 
296 571 403 94 89 87 
297 570 402 93 89 87 
297 570 403 93 89 87 
297 571 402 94 89 87 
298 569 403 93 88 87 
299 569 402 92 88 86 
299 569 403 92 88 87 
298 570 400 93 88 87 
298 570 401 93 88 87 
298 571 400 94 89 87 
298 571 401 94 89 87 
299 570 400 93 88 86 
299 570 401 93 88 86 
299 571 400 93 88 86 
298 570 402 93 88 87 
298 570 403 93 89 87 
299 570 402 93 88 86 
297 569 404 93 89 87 
297 569 405 93 89 87 
296 569 406 93 88 87 
296 569 407 93 88 86 
297 569 406 93 88 87 
297 569 407 93 88 86 
296 570 404 93 89 87 
296 570 405 93 89 87 
297 570 404 93 89 87 
296 570 406 93 88 87 
298 569 404 93 89 87 
298 569 405 93 89 87 
299 568 405 93 89 88 
299 569 404 93 88 87 
299 569 405 93 89 87 
298 569 406 93 89 87 
298 569 407 93 88 87 
299 568 406 94 89 88 
299 569 406 93 89 88 
299 569 407 94 89 88 
296 572 400 97 91 88 
296 572 401 96 90 87 
297 572 400 96 90 87 
300 569 401 92 88 86 
301 569 400 92 88 86 
301 569 401 92 87 86 
300 569 402 92 88 86 
300 569 403 92 88 86 
301 569 402 92 87 86 
301 569 403 92 88 86 
300 570 400 93 88 86 
300 570 401 92 88 86 
301 570 400 93 88 86 
302 569 400 93 87 85 
302 569 401 92 87 85 
303 569 400 93 87 85 
303 569 401 92 87 85 
302 568 403 91 87 85 
302 569 402 92 87 85 
302 569 403 92 87 86 
303 568 402 91 87 85 
303 568 403 91 86 84 
303 569 402 92 87 85 
300 568 405 93 89 87 
300 569 404 92 88 87 
300 569 405 93 89 87 
301 568 404 92 88 87 
301 568 405 92 88 87 
301 569 404 92 88 86 
300 568 406 94 90 89 
300 568 407 94 90 89 
300 569 407 94 90 88 
301 568 406 92 88 87 
301 568 407 93 89 87 
302 568 404 91 87 86 
302 568 405 90 86 85 
303 568 404 90 86 84 
303 568 405 89 85 83 
302 568 406 89 85 83 
302 568 407 88 84 82 
303 568 406 87 83 82 
303 568 407 87 82 81 
296 569 408 92 88 86 
296 569 409 92 88 86 
297 569 408 92 88 86 
297 569 409 92 88 86 
296 569 410 93 88 86 
296 569 411 92 88 86 
297 569 410 92 88 86 
297 569 411 92 87 85 
297 570 411 92 87 85 
298 569 408 92 88 86 
298 569 409 92 87 86 
299 569 408 93 89 87 
299 569 409 91 87 85 
298 569 410 92 87 86 
299 569 410 91 87 85 
298 570 411 91 87 85 
299 570 410 91 86 85 
299 570 411 91 86 85 
296 569 412 92 87 85 
296 569 413 92 87 85 
296 569 414 91 86 84 
296 570 412 91 87 85 
296 570 413 91 86 84 
297 570 412 91 86 84 
297 570 413 90 86 84 
296 570 414 91 86 84 
296 570 415 90 85 83 
297 570 414 90 85 83 
297 570 415 90 85 83 
297 571 415 89 84 82 
298 570 412 90 86 84 
298 570 413 89 84 82 
299 570 412 89 84 82 
299 570 413 89 84 82 
299 571 413 89 84 82 
298 570 414 89 84 82 
298 571 414 88 83 81 
298 571 415 88 83 80 
299 571 414 90 85 83 
299 571 415 91 86 84 
300 569 408 94 90 89 
300 569 409 91 87 85 
301 568 408 92 87 86 
301 569 408 93 89 87 
301 569 409 91 87 85 
300 569 410 89 84 83 
301 569 410 87 83 81 
300 570 410 88 83 82 
300 570 411 86 82 80 
301 570 410 84 80 78 
301 570 411 82 78 76 
302 568 408 87 83 81 
302 569 408 87 83 81 
302 569 409 86 82 80 
303 568 408 86 81 79 
303 568 409 86 81 79 
303 569 409 86 81 79 
302 569 410 86 81 79 
303 569 410 87 82 79 
302 570 410 85 80 78 
302 570 411 85 80 78 
303 570 410 87 82 79 
303 570 411 89 83 80 
300 570 412 86 81 80 
300 570 413 88 83 82 
300 571 413 87 82 80 
301 570 412 83 79 77 
301 571 413 84 80 78 
300 571 414 90 85 83 
300 571 415 91 86 84 
301 571 414 87 82 80 
301 571 415 89 84 81 
302 570 412 87 81 79 
302 571 413 87 82 79 
303 570 412 91 84 81 
303 570 413 92 86 82 
303 571 413 91 85 82 
302 571 414 88 83 80 
302 571 415 91 84 81 
303 570 414 97 90 86 
303 571 414 94 88 84 
303 571 415 96 88 84 
310 567 399 102 93 88 
311 567 398 105 95 89 
311 567 399 104 95 88 
304 570 395 94 88 86 
304 571 394 93 88 86 
304 571 395 94 88 86 
305 570 394 94 89 86 
305 570 395 94 89 86 
305 571 394 94 88 86 
307 569 395 97 90 87 
306 570 394 94 89 87 
306 570 395 95 89 87 
306 571 394 94 89 86 
307 570 394 96 90 87 
307 570 395 96 90 87 
305 569 397 95 89 86 
304 569 398 94 88 86 
304 569 399 94 88 86 
305 569 398 95 89 86 
305 569 399 94 88 86 
304 570 396 94 88 86 
304 570 397 94 88 86 
305 570 396 95 89 86 
305 570 397 95 89 86 
304 570 398 94 88 86 
306 569 396 96 90 87 
306 569 397 96 90 87 
307 569 396 97 90 87 
307 569 397 97 91 87 
306 568 399 96 89 86 
306 569 398 96 90 86 
306 569 399 96 89 86 
307 568 398 98 91 87 
307 568 399 97 90 86 
307 569 398 97 90 87 
306 570 396 95 89 87 
308 569 394 99 91 88 
308 569 395 98 91 87 
309 569 394 100 92 88 
309 569 395 100 92 88 
308 570 394 97 91 87 
308 570 395 97 90 87 
310 569 394 101 93 88 
310 569 395 102 94 89 
311 568 394 105 95 89 
311 568 395 104 95 89 
311 569 394 103 94 89 
311 569 395 103 94 89 
308 568 397 100 92 88 
308 569 396 99 92 87 
308 569 397 99 92 87 
309 568 396 101 93 88 
309 568 397 102 93 88 
309 569 396 101 93 88 
308 568 398 99 92 87 
308 568 399 99 91 87 
308 569 398 99 91 87 
309 568 398 101 93 88 
309 568 399 101 92 87 
310 568 396 103 94 89 
310 568 397 103 94 88 
311 568 396 105 95 89 
311 568 397 105 95 89 
310 568 398 102 93 88 
310 568 399 102 93 88 
311 568 398 103 94 88 
314 567 395 111 100 92 
315 567 395 113 101 92 
312 567 397 107 96 90 
313 567 396 109 98 91 
313 567 397 108 97 90 
312 567 398 107 96 89 
312 567 399 106 96 89 
313 567 398 108 97 90 
313 567 399 108 97 90 
314 567 396 111 99 91 
314 567 397 110 99 91 
315 567 396 113 101 92 
315 567 397 112 100 92 
314 566 399 109 98 90 
314 567 398 110 98 91 
314 567 399 109 98 90 
315 566 399 111 99 91 
315 567 398 112 100 91 
315 567 399 111 99 91 
316 567 394 115 102 93 
316 567 395 114 102 92 
317 567 394 116 102 93 
317 567 395 115 102 93 
318 567 394 117 104 94 
318 567 395 117 103 93 
319 567 394 119 105 94 
319 567 395 118 104 94 
316 567 396 114 101 92 
316 567 397 113 101 92 
317 566 397 115 102 92 
317 567 396 115 102 92 
317 567 397 115 102 92 
316 566 398 113 100 92 
316 566 399 112 100 91 
316 567 398 113 100 92 
317 566 398 114 101 92 
317 566 399 114 101 92 
318 566 396 117 103 93 
318 566 397 116 103 93 
318 567 396 116 103 93 
319 566 396 118 104 93 
319 566 397 117 103 93 
319 567 396 118 104 93 
318 566 398 116 102 92 
318 566 399 115 102 92 
319 566 398 117 103 93 
319 566 399 116 102 93 
312 568 394 106 96 90 
312 568 395 107 97 90 
313 568 394 108 98 91 
313 568 395 109 98 91 
314 568 394 110 99 91 
314 568 395 110 99 91 
315 568 394 113 101 92 
315 568 395 113 101 92 
312 568 396 107 97 90 
312 568 397 106 96 90 
313 568 396 108 97 90 
316 568 394 114 101 92 
319 568 394 119 105 95 
305 567 403 93 87 84 
306 567 403 94 88 85 
307 567 402 95 89 85 
307 567 403 95 89 85 
304 567 404 90 85 83 
304 567 405 89 84 83 
305 567 404 92 86 84 
305 567 405 90 85 83 
304 567 406 88 83 81 
304 567 407 87 82 81 
305 567 406 89 84 82 
305 567 407 88 83 82 
306 567 404 93 87 84 
306 567 405 92 87 84 
307 567 404 95 88 85 
307 567 405 94 88 85 
306 567 406 91 86 84 
306 567 407 90 85 83 
307 567 406 93 87 85 
307 567 407 93 87 85 
308 567 401 98 90 86 
309 567 400 100 92 87 
309 567 401 100 91 87 
308 567 402 97 90 86 
308 567 403 97 90 86 
309 567 402 99 91 87 
309 567 403 99 91 86 
310 567 400 102 93 87 
310 567 401 101 93 87 
311 566 401 104 94 88 
311 567 400 104 94 88 
311 567 401 103 94 88 
310 566 403 100 92 87 
310 567 402 101 92 87 
310 567 403 100 92 87 
311 566 402 103 94 88 
311 566 403 102 93 87 
311 567 402 102 93 87 
308 566 405 96 89 85 
308 567 404 96 89 85 
308 567 405 96 89 85 
309 566 404 98 91 86 
309 566 405 98 90 86 
309 567 404 98 90 86 
308 566 406 96 89 85 
308 566 407 95 89 85 
308 567 407 94 88 85 
309 566 406 97 90 86 
309 566 407 97 89 85 
310 566 404 100 92 87 
310 566 405 100 91 86 
311 566 404 102 93 87 
311 566 405 101 92 87 
310 566 406 99 91 86 
310 566 407 99 91 86 
311 566 406 101 93 87 
311 566 407 101 92 87 
304 567 408 86 81 80 
305 567 408 88 83 81 
306 567 408 91 86 83 
306 567 409 93 88 85 
307 567 408 93 88 85 
307 567 409 95 89 86 
307 567 410 97 90 87 
307 567 411 99 92 87 
308 567 408 95 88 85 
308 567 409 95 89 85 
309 566 408 96 89 85 
309 566 409 96 89 84 
309 567 409 96 88 84 
308 567 410 97 90 86 
308 567 411 99 92 88 
309 566 410 98 90 85 
309 567 410 97 89 85 
309 567 411 100 92 87 
311 565 408 101 92 86 
311 565 411 104 94 88 
310 566 408 98 90 85 
310 566 409 98 90 85 
311 566 408 100 92 86 
311 566 409 101 92 87 
310 566 410 100 92 86 
310 566 411 103 93 87 
311 566 410 103 93 87 
311 566 411 104 94 88 
308 567 412 102 94 89 
308 567 413 104 95 89 
309 566 412 102 94 88 
309 567 412 103 94 89 
309 567 413 105 95 89 
308 567 414 105 96 89 
308 567 415 106 96 90 
309 567 414 106 96 90 
309 567 415 107 97 91 
311 565 412 106 95 89 
311 565 413 108 97 90 
311 565 414 110 99 91 
311 565 415 110 99 92 
310 566 412 104 94 88 
310 566 413 105 95 89 
311 566 412 105 95 88 
311 566 413 107 97 90 
310 566 414 107 97 91 
310 566 415 108 98 91 
311 566 414 108 98 91 
311 566 415 109 98 91 
304 568 401 93 87 85 
304 569 400 93 88 85 
304 569 401 93 87 85 
305 568 400 94 88 85 
305 568 401 94 88 85 
305 569 400 94 88 85 
305 569 401 93 88 85 
304 568 402 92 87 85 
304 568 403 91 86 84 
305 568 402 93 87 85 
305 568 403 92 87 84 
306 568 400 95 89 86 
306 568 401 95 89 85 
307 568 400 97 90 86 
307 568 401 96 89 86 
306 568 402 94 88 85 
306 568 403 93 88 85 
307 568 402 95 89 85 
304 568 404 91 86 84 
308 568 400 98 91 87 
308 568 401 97 90 86 
309 568 400 100 92 87 
304 568 408 86 82 80 
304 568 409 88 83 80 
305 568 409 91 85 82 
304 568 410 90 84 82 
304 569 410 89 83 80 
304 569 411 92 85 82 
305 568 410 92 86 83 
305 568 411 95 88 85 
305 569 411 94 88 84 
306 568 409 93 87 85 
306 568 410 95 89 86 
306 568 411 98 90 87 
307 568 410 97 90 87 
307 568 411 98 91 87 
304 569 412 94 87 84 
305 569 412 97 90 86 
305 569 413 99 91 87 
305 569 414 100 92 87 
304 570 412 94 87 84 
304 570 413 97 89 86 
304 570 414 100 92 87 
304 570 415 100 92 87 
304 571 415 98 90 85 
305 570 414 100 92 88 
305 570 415 101 93 87 
306 568 412 100 92 87 
306 569 412 99 91 86 
306 569 413 100 91 86 
307 568 412 101 93 87 
307 568 413 102 93 87 
306 569 414 101 92 86 
306 569 415 101 92 86 
307 568 414 104 95 89 
307 568 415 105 96 90 
307 569 414 102 93 86 
307 569 415 102 93 87 
308 568 414 105 95 89 
308 568 415 106 96 89 
312 566 401 105 95 88 
312 567 400 106 96 89 
312 567 401 106 95 89 
313 566 400 107 96 89 
313 566 401 106 96 89 
313 567 400 107 96 89 
312 566 402 105 95 88 
312 566 403 104 94 88 
313 566 402 106 96 89 
313 566 403 106 95 89 
314 565 403 108 97 89 
315 565 402 109 98 90 
315 565 403 109 98 90 
314 566 400 109 98 90 
314 566 401 108 97 90 
315 566 400 110 99 91 
315 566 401 110 98 90 
314 566 402 107 97 89 
314 566 403 107 96 89 
315 566 402 109 98 90 
313 565 405 105 95 88 
312 565 406 103 94 88 
312 565 407 103 93 87 
313 565 406 105 95 88 
313 565 407 104 95 88 
312 566 404 104 94 88 
312 566 405 103 94 88 
313 566 404 105 95 88 
313 566 405 104 94 88 
312 566 406 103 94 88 
314 565 404 107 96 89 
314 565 405 106 96 89 
315 565 404 108 97 90 
315 565 405 108 97 90 
314 565 406 106 96 89 
314 565 407 106 96 89 
315 565 406 108 97 90 
315 565 407 108 97 90 
314 566 404 106 96 89 
317 565 401 113 100 91 
316 565 402 111 99 91 
316 565 403 110 98 90 
317 565 402 112 100 91 
317 565 403 111 99 91 
316 566 400 112 100 91 
316 566 401 111 99 91 
317 566 400 113 101 92 
317 566 401 112 100 91 
316 566 402 111 99 91 
318 565 400 115 102 92 
318 565 401 114 101 92 
319 565 400 116 102 93 
319 565 401 115 102 92 
318 565 402 113 101 92 
318 565 403 113 100 92 
319 564 403 114 102 93 
319 565 402 115 102 92 
319 565 403 114 101 92 
318 566 400 114 101 92 
316 565 404 109 98 90 
316 565 405 109 98 90 
317 564 405 111 99 91 
317 565 404 111 99 91 
317 565 405 110 99 91 
316 564 406 109 98 90 
316 564 407 109 98 90 
316 565 406 109 98 90 
317 564 406 110 99 91 
317 564 407 110 99 91 
318 564 404 112 100 91 
318 564 405 112 100 91 
318 565 404 112 100 91 
319 564 404 114 102 93 
319 564 405 114 101 93 
318 564 406 112 100 92 
318 564 407 112 101 92 
319 564 406 114 102 93 
319 564 407 115 102 94 
312 565 408 102 93 87 
312 565 409 103 93 87 
313 565 408 104 95 88 
313 565 409 105 95 89 
312 565 410 104 94 88 
312 565 411 105 95 88 
313 565 410 106 96 89 
313 565 411 107 97 90 
314 564 409 108 97 90 
314 565 408 107 96 89 
314 565 409 107 96 90 
315 564 408 108 97 90 
315 564 409 109 98 91 
315 565 408 107 97 90 
314 564 410 108 98 91 
314 564 411 109 98 91 
314 565 410 108 97 90 
314 565 411 108 98 90 
315 564 410 109 98 91 
315 564 411 110 99 92 
312 565 412 107 97 90 
312 565 413 109 98 91 
313 565 412 109 98 91 
313 565 413 111 100 92 
312 565 414 110 99 92 
312 565 415 112 101 93 
313 565 414 112 101 94 
313 565 415 114 102 94 
314 564 412 110 99 92 
314 564 413 112 101 93 
314 565 412 110 99 91 
314 565 413 111 100 93 
315 564 412 111 100 93 
315 564 413 114 102 94 
314 564 414 114 102 94 
314 564 415 115 104 96 
314 565 414 114 102 94 
315 564 414 115 103 95 
315 564 415 116 105 96 
319 563 410 117 104 96 
319 563 411 117 105 96 
318 563 413 116 104 96 
319 563 412 116 105 96 
319 563 413 116 104 96 
318 563 414 116 105 97 
318 563 415 117 105 97 
319 563 414 116 104 96 
319 563 415 116 104 96 
316 564 408 109 98 91 
316 564 409 110 99 91 
317 564 408 111 100 92 
317 564 409 112 100 92 
316 564 410 111 100 92 
316 564 411 112 100 93 
317 564 410 113 101 93 
317 564 411 113 102 94 
318 564 408 113 101 93 
318 564 409 113 102 93 
319 564 408 115 103 94 
319 564 409 116 103 95 
318 564 410 114 103 94 
318 564 411 115 103 95 
319 564 410 116 104 96 
319 564 411 116 104 96 
316 564 412 113 101 94 
316 564 413 115 103 95 
317 564 412 114 103 95 
317 564 413 116 104 96 
316 564 414 116 104 96 
316 564 415 117 105 97 
317 564 414 116 104 96 
317 564 415 117 105 97 
318 564 412 116 104 96 
318 564 413 116 104 96 
319 564 412 116 104 96 
318 564 414 116 105 97 
288 568 416 96 90 87 
288 568 417 97 91 88 
289 568 416 96 90 87 
289 568 417 96 90 87 
288 568 418 97 91 88 
288 569 418 97 91 88 
288 569 419 98 92 89 
289 568 418 97 91 88 
289 569 418 96 90 87 
289 569 419 96 90 88 
288 570 419 98 92 89 
289 570 419 96 90 87 
290 568 416 95 89 86 
290 568 417 95 89 87 
290 569 417 95 89 86 
291 568 416 95 89 86 
291 569 416 94 88 86 
291 569 417 95 89 86 
290 569 418 95 89 86 
290 569 419 94 89 86 
291 569 418 94 88 85 
290 570 419 93 87 85 
290 571 419 92 86 84 
291 570 418 93 88 85 
291 570 419 93 87 85 
291 571 419 92 86 84 
288 570 420 97 91 88 
288 570 421 96 90 88 
288 571 420 94 88 85 
288 571 421 94 88 86 
289 570 420 95 89 86 
289 571 420 93 87 84 
289 571 421 91 86 83 
288 571 422 95 88 85 
290 571 420 91 86 83 
290 571 421 90 84 82 
291 571 420 90 85 83 
289 572 421 91 85 82 
288 572 422 94 88 85 
288 572 423 95 89 85 
288 573 423 95 88 84 
289 572 422 92 86 83 
289 573 422 91 85 82 
289 573 423 93 87 83 
290 572 421 90 84 82 
291 572 420 90 85 83 
291 572 421 89 83 81 
291 573 421 88 83 81 
290 572 422 90 84 82 
290 573 422 90 84 81 
291 572 422 89 83 80 
291 573 422 89 83 81 
291 573 423 89 83 80 
290 574 423 91 85 81 
291 574 423 90 84 80 
292 569 416 94 88 85 
292 569 417 93 88 85 
293 569 416 93 87 84 
292 570 417 92 87 84 
293 570 416 92 86 84 
293 570 417 91 86 83 
293 571 417 91 85 83 
292 570 418 92 87 84 
292 571 418 91 86 84 
292 571 419 91 86 83 
293 571 418 91 85 83 
294 570 416 92 86 84 
294 570 417 91 86 83 
294 571 417 90 85 82 
295 570 416 91 85 83 
295 571 416 91 85 83 
295 571 417 90 85 82 
294 571 418 90 84 82 
295 571 418 90 84 82 
292 572 419 91 86 84 
293 572 418 90 84 82 
293 572 419 90 85 82 
294 572 418 90 84 82 
294 572 419 90 84 82 
294 573 419 90 84 81 
295 572 418 90 85 82 
295 572 419 90 84 82 
295 573 419 91 85 82 
292 572 420 90 84 82 
292 572 421 89 84 81 
292 573 421 90 84 82 
293 572 420 90 85 82 
293 573 420 90 85 82 
293 573 421 90 84 82 
292 573 422 90 84 82 
293 573 422 89 84 81 
292 574 423 89 84 81 
293 574 423 90 84 81 
294 573 420 90 84 81 
294 573 421 89 84 81 
295 573 420 90 85 82 
295 573 421 90 85 83 
294 573 422 89 84 81 
295 573 422 90 85 83 
294 574 422 89 84 81 
294 574 423 89 84 81 
295 574 422 90 85 83 
295 574 423 90 85 82 
288 573 424 97 89 84 
289 573 424 95 88 83 
288 574 424 99 90 85 
288 574 425 101 92 86 
289 574 424 95 88 83 
289 574 425 98 90 84 
289 575 425 97 89 84 
288 575 426 104 92 84 
289 575 426 100 90 84 
290 574 424 92 85 82 
290 575 424 92 86 82 
290 575 425 94 86 82 
291 574 424 90 84 81 
291 575 424 90 84 81 
291 575 425 92 85 81 
290 575 426 97 89 83 
292 574 424 89 83 80 
292 575 425 89 83 80 
293 574 424 88 83 80 
293 575 425 88 82 79 
294 574 424 89 84 81 
294 575 425 88 83 80 
295 574 424 90 85 82 
295 574 425 90 85 82 
295 575 424 90 84 81 
295 575 425 91 85 82 
295 575 426 91 85 82 
296 570 416 90 85 83 
296 571 416 90 85 83 
296 571 417 90 85 83 
297 571 416 90 85 82 
297 571 417 91 85 83 
298 571 416 88 83 80 
298 571 417 88 83 80 
299 571 416 92 86 84 
296 572 417 91 86 83 
297 572 417 91 85 83 
296 572 418 91 86 83 
296 572 419 91 86 84 
296 573 419 91 85 83 
297 572 418 90 85 82 
297 572 419 90 84 81 
297 573 419 88 83 80 
298 572 417 89 84 80 
299 572 417 93 87 84 
298 572 418 91 85 81 
298 572 419 91 85 82 
298 573 419 91 85 82 
299 572 418 94 88 84 
299 572 419 95 89 86 
296 573 420 91 85 83 
296 573 421 90 85 83 
297 573 420 89 84 81 
297 573 421 91 85 82 
296 573 422 90 85 83 
297 573 422 89 84 81 
297 573 423 88 83 80 
296 574 423 89 84 82 
297 574 423 88 83 80 
298 572 420 94 87 84 
298 573 420 92 86 83 
298 573 421 93 87 84 
299 572 420 97 90 87 
299 572 421 97 91 87 
299 573 421 97 90 87 
298 573 422 93 87 84 
298 573 423 95 88 85 
299 573 422 98 91 87 
299 573 423 100 93 89 
300 571 416 93 86 84 
301 571 416 91 85 82 
302 571 416 92 84 80 
302 571 417 93 85 80 
303 571 416 97 89 83 
303 571 417 97 88 83 
302 571 418 95 87 81 
302 571 419 96 87 82 
303 571 418 99 90 84 
303 571 419 102 92 87 
303 571 420 105 95 89 
303 571 421 107 97 91 
303 571 422 109 98 92 
303 571 423 117 105 99 
300 572 417 93 87 84 
301 572 417 92 86 82 
300 572 418 95 88 85 
300 572 419 97 90 87 
301 572 418 94 87 84 
301 572 419 97 89 85 
302 572 417 91 83 79 
302 572 418 94 86 81 
302 572 419 96 87 82 
300 572 420 97 90 87 
300 572 421 99 91 88 
301 572 420 98 90 86 
301 572 421 98 91 87 
300 572 422 101 93 89 
300 573 422 101 93 89 
300 573 423 103 95 91 
301 572 422 101 92 88 
301 572 423 105 96 92 
302 572 420 98 89 84 
302 572 421 100 91 85 
303 572 421 105 95 89 
302 572 422 103 93 88 
302 572 423 110 99 94 
303 572 422 108 97 92 
303 572 423 116 103 99 
296 574 424 89 84 82 
296 574 425 90 85 82 
296 575 425 91 85 83 
297 574 424 87 82 79 
297 574 425 89 82 79 
296 575 426 93 86 83 
296 575 427 109 97 92 
297 574 426 93 85 81 
297 574 427 98 89 84 
297 575 426 95 87 82 
297 575 427 97 88 83 
298 573 424 97 90 88 
299 573 424 100 93 90 
299 573 425 103 95 92 
299 573 426 122 106 106 
299 573 427 111 96 95 
298 574 424 93 87 83 
298 574 425 92 86 83 
298 574 426 96 89 86 
298 574 427 101 91 88 
299 574 426 109 97 96 
299 574 427 106 93 91 
296 575 428 103 92 86 
296 575 429 96 87 82 
297 575 428 98 88 82 
297 575 429 96 88 83 
297 575 430 96 89 84 
299 573 428 103 90 89 
298 574 428 98 88 84 
298 574 429 96 87 83 
298 575 429 98 89 84 
299 574 428 99 88 85 
299 574 429 102 93 89 
298 574 430 99 91 86 
298 575 430 98 90 85 
299 574 430 101 93 88 
299 575 430 101 93 88 
299 575 431 101 93 88 
303 571 424 132 116 113 
303 571 425 147 129 126 
303 571 426 153 134 131 
303 571 427 144 127 122 
303 571 428 134 118 112 
300 573 424 105 96 93 
300 573 425 115 103 101 
301 572 424 116 103 101 
301 572 425 128 111 111 
300 573 426 133 113 114 
300 573 427 123 104 104 
301 572 426 134 115 115 
301 572 427 135 115 114 
301 573 426 144 121 123 
301 573 427 137 114 115 
302 572 424 124 109 106 
302 572 425 142 123 122 
303 572 424 128 113 109 
302 572 426 153 130 131 
302 572 427 138 118 115 
303 572 427 138 121 116 
300 573 428 117 103 101 
300 573 429 120 107 103 
301 572 428 128 111 108 
301 573 428 127 110 107 
301 573 429 130 115 110 
301 573 430 132 118 113 
300 574 429 113 102 98 
300 574 430 127 114 110 
300 575 430 117 106 101 
300 575 431 112 101 97 
301 574 430 137 123 119 
301 575 430 145 130 126 
301 575 431 128 114 110 
302 572 428 133 116 111 
302 572 429 132 116 111 
302 573 429 134 118 114 
303 572 428 134 118 112 
303 572 429 136 119 115 
302 573 430 146 130 125 
303 573 430 138 122 116 
302 574 430 139 124 119 
302 575 431 103 92 86 
303 574 430 118 105 98 
303 574 431 101 91 83 
303 575 431 99 90 83 
303 575 432 97 89 84 
308 567 416 107 97 91 
308 567 417 107 97 91 
309 566 416 109 98 91 
309 566 417 110 99 92 
309 567 416 108 97 90 
309 567 417 108 98 91 
308 567 418 108 97 91 
308 567 419 109 98 91 
309 566 418 113 101 93 
309 566 419 114 102 94 
309 567 418 110 99 92 
309 567 419 112 100 93 
311 565 416 113 101 94 
311 565 417 115 103 95 
311 565 418 117 104 96 
311 565 419 118 105 96 
310 566 416 110 99 92 
310 566 417 113 102 94 
311 566 416 112 101 93 
311 566 417 114 102 94 
310 566 418 115 103 95 
310 566 419 117 104 96 
311 566 419 119 106 97 
308 567 420 111 100 93 
309 567 420 114 103 95 
309 567 421 117 105 97 
309 567 422 116 104 96 
309 567 423 116 104 96 
311 565 420 121 108 98 
311 565 421 122 108 99 
310 566 420 119 106 97 
310 566 421 119 106 98 
311 566 420 120 107 98 
311 566 421 122 108 99 
310 566 422 120 107 98 
310 567 422 119 107 98 
310 567 423 120 107 97 
311 566 422 122 108 98 
311 566 423 123 108 99 
311 567 423 121 108 98 
309 567 424 116 104 96 
310 567 424 118 106 96 
310 567 425 118 104 95 
311 567 424 120 106 96 
311 567 425 117 103 93 
304 570 416 100 92 87 
304 570 417 101 92 87 
304 571 417 100 91 85 
305 570 416 102 93 87 
305 570 417 102 93 87 
304 570 418 102 93 88 
304 570 419 105 96 90 
304 571 418 102 93 87 
304 571 419 104 94 89 
305 570 418 103 93 87 
305 570 419 105 95 89 
306 569 416 102 92 86 
306 569 417 102 93 86 
307 568 416 106 96 90 
307 568 417 106 96 90 
307 569 416 103 93 86 
307 569 417 104 94 87 
306 569 418 103 93 87 
306 569 419 103 93 86 
307 568 418 105 96 89 
307 568 419 106 96 89 
307 569 418 104 94 87 
307 569 419 105 95 88 
304 570 420 106 96 90 
304 570 421 108 98 92 
304 571 420 106 96 90 
304 571 421 109 98 92 
305 570 420 105 95 89 
305 570 421 106 96 89 
304 570 422 111 99 93 
304 570 423 118 105 99 
304 571 422 110 99 93 
304 571 423 120 107 102 
305 570 422 108 97 90 
305 570 423 115 103 96 
306 569 420 105 94 87 
306 569 421 106 96 89 
307 568 420 106 97 90 
307 568 421 107 97 90 
307 569 420 106 96 89 
307 569 421 106 96 89 
306 569 422 107 96 89 
306 569 423 111 100 94 
307 568 422 108 98 92 
307 568 423 114 103 96 
307 569 422 108 97 91 
307 569 423 121 108 101 
308 568 416 107 97 91 
308 568 418 106 96 90 
308 568 419 108 97 91 
308 568 420 108 98 91 
308 568 421 108 98 91 
308 568 422 111 100 93 
308 568 423 115 104 96 
309 568 423 115 103 96 
304 570 424 145 128 123 
304 570 425 150 132 127 
304 571 424 141 124 120 
304 571 425 151 133 129 
305 570 424 142 125 120 
305 570 425 134 119 113 
304 570 426 138 122 117 
304 570 427 128 113 107 
304 571 426 147 130 125 
304 571 427 134 118 112 
305 570 426 129 114 107 
305 570 427 123 109 102 
306 569 424 123 109 103 
306 569 425 122 109 102 
307 568 424 118 106 98 
307 569 424 126 112 104 
307 569 425 115 103 96 
306 569 426 119 106 99 
306 569 427 116 104 97 
307 569 426 114 103 96 
307 569 427 112 101 95 
306 570 426 120 107 99 
306 570 427 118 107 99 
304 571 428 130 114 107 
304 571 429 131 115 109 
305 570 428 123 109 101 
305 571 428 124 109 101 
305 571 429 121 107 99 
306 570 428 118 106 98 
306 571 428 115 102 94 
306 571 429 116 102 95 
307 570 428 108 97 89 
307 571 428 103 92 84 
307 571 429 102 92 85 
304 572 429 130 114 108 
305 572 429 118 103 97 
305 573 429 109 97 90 
304 572 430 128 113 107 
304 573 430 115 103 96 
305 573 430 104 94 87 
304 574 430 103 93 86 
304 574 431 101 92 86 
304 575 431 99 90 85 
305 574 430 103 94 88 
305 574 431 101 93 88 
305 575 431 101 92 87 
306 572 429 107 94 88 
307 572 429 102 92 86 
306 573 430 103 93 87 
307 572 430 103 94 88 
307 573 430 103 94 89 
307 573 431 102 93 88 
306 574 430 104 95 89 
306 574 431 102 93 88 
307 574 430 103 94 88 
307 574 431 102 93 88 
308 568 424 114 103 96 
308 568 425 113 102 94 
309 568 424 114 103 95 
309 568 425 114 102 94 
308 568 426 112 101 94 
308 569 426 111 100 94 
308 569 427 108 98 91 
309 568 426 113 101 92 
309 569 427 107 96 89 
310 568 425 117 104 94 
310 568 426 114 101 91 
310 568 427 109 96 87 
310 569 427 105 93 85 
311 568 426 113 99 89 
311 568 427 107 95 85 
308 569 428 106 96 89 
309 569 428 102 91 84 
308 570 428 102 91 84 
308 571 429 101 92 86 
309 570 428 102 92 85 
309 570 429 104 94 87 
309 571 429 104 95 89 
309 571 430 105 95 89 
310 569 428 104 93 85 
311 569 428 105 94 87 
311 569 429 107 96 88 
311 569 430 109 98 90 
310 570 428 103 93 86 
310 570 429 105 95 88 
311 570 429 106 95 88 
310 570 430 106 96 89 
310 571 430 106 96 89 
310 571 431 106 96 90 
311 570 430 108 97 90 
311 571 430 107 96 89 
311 571 431 106 96 89 
308 572 429 103 94 88 
308 572 430 105 96 90 
308 573 430 103 94 89 
308 573 431 103 94 89 
309 572 430 105 96 90 
309 572 431 105 96 90 
309 573 431 104 95 89 
310 572 431 106 96 90 
310 573 431 105 95 90 
315 563 418 119 107 98 
315 563 419 120 108 100 
315 563 420 121 108 100 
312 565 416 114 102 94 
312 565 417 117 104 96 
313 564 416 116 103 95 
313 564 417 118 106 97 
313 565 416 115 103 95 
313 565 417 118 105 97 
312 565 418 119 106 97 
312 565 419 120 107 98 
313 564 418 119 106 97 
313 564 419 120 107 98 
314 564 416 117 105 96 
314 564 417 119 106 98 
315 564 416 117 105 97 
315 564 417 118 106 98 
314 564 418 119 107 98 
314 564 419 120 107 98 
315 564 418 119 106 98 
315 564 419 120 107 99 
312 565 420 121 108 98 
312 565 421 122 108 97 
313 564 420 121 108 98 
313 564 421 123 110 100 
313 565 420 121 107 98 
313 565 421 123 109 99 
312 565 422 123 108 98 
313 565 422 124 110 99 
313 565 423 124 109 98 
312 566 422 123 108 98 
312 566 423 124 109 99 
314 564 420 122 109 100 
314 564 421 124 111 102 
315 564 420 122 109 101 
315 564 421 123 111 102 
314 564 422 125 111 102 
314 564 423 123 110 101 
314 565 422 125 111 101 
314 565 423 121 108 98 
315 564 422 123 110 102 
315 564 423 120 106 97 
316 563 417 118 106 98 
317 563 416 117 105 97 
317 563 417 118 106 98 
316 563 418 119 107 99 
316 563 419 119 107 99 
317 563 418 118 106 98 
317 563 419 119 107 99 
318 563 416 117 105 97 
318 563 417 117 105 97 
319 563 416 116 104 97 
319 563 417 116 104 97 
318 563 418 117 105 97 
318 563 419 117 105 97 
319 563 418 116 104 97 
319 563 419 115 104 97 
316 563 420 120 108 100 
316 563 421 120 108 100 
317 563 420 119 107 99 
317 563 421 118 107 99 
316 563 422 119 107 99 
317 563 422 117 105 97 
317 563 423 115 103 95 
318 563 420 117 105 98 
318 563 421 116 105 97 
319 563 420 115 104 97 
319 563 421 115 104 96 
318 563 422 115 104 96 
318 563 423 114 103 96 
319 563 422 114 103 96 
319 563 423 114 103 96 
316 564 416 117 105 97 
316 564 417 118 106 98 
317 564 416 117 105 97 
316 564 422 121 109 101 
316 564 423 116 104 95 
317 564 423 115 103 94 
312 565 424 123 109 98 
313 565 424 123 108 98 
312 566 424 123 108 98 
312 567 424 121 106 96 
312 567 425 116 102 91 
313 566 424 119 105 94 
313 566 425 116 102 91 
313 567 425 114 100 89 
312 567 426 112 98 88 
313 567 426 112 99 88 
313 567 427 112 99 89 
314 565 424 117 103 92 
314 565 425 114 100 89 
315 564 424 114 101 91 
315 565 424 114 101 90 
315 565 425 114 101 90 
315 565 426 115 102 92 
315 565 427 117 104 94 
314 566 425 114 100 90 
314 566 426 114 100 90 
314 566 427 117 103 94 
314 567 426 113 99 89 
314 567 427 114 101 90 
315 566 426 115 102 92 
315 566 427 116 103 93 
313 567 428 117 104 94 
313 567 429 117 104 95 
315 565 428 119 106 97 
315 565 429 120 107 98 
314 566 428 119 106 96 
314 566 429 120 107 97 
314 567 428 118 105 96 
314 567 429 119 106 97 
315 566 428 119 106 97 
315 566 429 120 107 98 
314 567 430 120 107 98 
315 566 430 120 107 98 
315 566 431 119 106 97 
315 567 430 120 107 99 
315 567 431 118 106 97 
317 563 424 115 104 96 
317 563 425 115 104 96 
318 563 424 114 103 96 
318 563 425 114 103 96 
319 563 424 114 103 95 
319 563 425 113 102 95 
319 563 426 113 102 96 
316 564 424 114 101 92 
316 564 425 116 103 94 
317 564 424 114 103 95 
317 564 425 115 104 96 
316 564 426 117 105 96 
316 565 426 117 104 94 
316 565 427 118 106 97 
317 564 426 116 105 97 
317 564 427 118 106 97 
318 564 425 115 103 96 
318 564 426 115 103 96 
318 564 427 116 105 97 
319 564 426 113 103 96 
319 564 427 114 103 96 
316 565 428 119 107 97 
316 565 429 120 107 98 
317 564 428 119 106 98 
317 564 429 119 107 99 
317 565 428 119 107 98 
317 565 429 120 107 99 
316 565 430 120 107 99 
316 565 431 119 106 98 
317 564 430 119 107 99 
317 565 430 119 107 99 
317 565 431 118 106 98 
316 566 431 118 106 97 
318 564 428 118 106 98 
318 564 429 118 106 99 
319 564 428 115 104 97 
319 564 429 116 105 97 
318 564 430 118 106 98 
318 564 431 118 106 98 
318 565 430 118 106 98 
318 565 431 118 106 98 
319 564 430 116 105 98 
319 564 431 117 105 97 
319 565 431 117 105 98 
312 568 426 111 98 88 
312 568 427 109 97 87 
313 568 427 112 99 90 
312 568 428 110 98 89 
312 568 429 111 99 91 
312 569 428 109 97 89 
312 569 429 110 98 90 
313 568 428 113 100 91 
313 568 429 114 102 93 
312 569 430 110 98 90 
312 569 431 110 99 90 
313 568 430 116 103 95 
313 569 430 114 102 94 
313 569 431 114 102 94 
312 570 430 109 97 89 
312 570 431 108 97 89 
314 568 429 118 106 97 
314 568 430 118 105 97 
314 568 431 118 106 97 
315 568 431 119 107 99 
304 575 432 98 90 85 
305 575 432 100 91 86 
305 575 433 99 91 86 
306 574 432 102 94 88 
306 575 432 101 92 87 
306 575 433 100 92 86 
307 574 432 102 93 87 
307 574 433 101 93 87 
307 575 432 101 92 87 
307 575 433 101 92 87 
306 575 434 100 92 87 
306 575 435 101 93 88 
307 574 434 102 93 88 
307 574 435 104 95 89 
307 575 434 101 92 87 
307 575 435 103 94 88 
306 575 436 101 93 87 
306 575 437 102 93 87 
307 574 436 104 95 90 
307 574 437 105 96 90 
307 575 436 103 94 88 
307 575 437 104 95 89 
306 575 438 103 93 86 
306 575 439 105 95 88 
307 574 438 106 96 90 
307 575 438 105 96 89 
307 575 439 106 96 91 
311 571 432 105 95 89 
311 571 433 104 94 87 
311 571 434 103 94 88 
311 571 435 103 94 88 
308 573 432 104 95 89 
309 573 432 104 95 89 
309 573 433 104 95 89 
308 573 435 103 95 89 
309 573 434 104 95 90 
309 573 435 104 95 90 
308 574 432 102 93 88 
308 574 433 102 93 88 
308 574 434 102 93 88 
308 574 435 104 95 89 
310 572 432 105 96 89 
310 572 433 104 95 89 
310 573 432 104 95 89 
310 573 433 104 95 90 
311 572 432 104 95 89 
311 572 433 104 94 88 
310 572 434 103 94 89 
310 572 435 104 95 90 
310 573 434 104 95 90 
311 572 434 103 94 88 
311 572 435 103 94 89 
308 573 436 104 95 89 
308 573 437 105 95 89 
309 573 436 104 95 89 
309 573 437 105 95 89 
309 573 438 106 96 91 
308 574 436 104 95 90 
308 574 437 106 96 90 
308 574 438 107 98 92 
308 574 439 108 99 93 
308 575 439 109 100 94 
309 574 438 107 98 92 
309 574 439 108 99 93 
310 572 436 103 95 90 
310 572 437 104 95 89 
310 573 436 104 95 89 
310 573 437 103 94 88 
311 572 436 104 95 89 
311 572 437 104 94 89 
310 573 438 104 95 89 
310 573 439 104 95 89 
311 572 438 103 94 89 
311 572 439 104 95 90 
311 573 439 104 95 89 
310 574 439 106 97 91 
307 575 440 108 98 92 
307 575 441 111 102 97 
307 575 442 113 103 98 
307 575 443 112 103 99 
307 575 444 108 100 96 
307 575 445 104 95 90 
307 575 446 98 88 82 
307 575 447 94 83 77 
308 574 440 109 100 95 
308 574 441 114 105 101 
308 575 440 111 101 96 
308 575 441 113 105 100 
309 574 440 109 100 96 
309 574 441 110 102 97 
308 574 442 113 105 101 
308 574 443 110 102 98 
308 575 442 114 106 101 
308 575 443 113 105 101 
309 574 442 109 100 96 
309 574 443 106 97 93 
310 573 440 104 96 91 
310 573 441 106 97 92 
311 572 440 105 96 91 
311 573 440 105 96 90 
311 573 441 106 97 91 
310 573 442 105 96 91 
310 573 443 103 94 89 
311 573 442 106 96 90 
311 573 443 103 94 89 
310 574 440 106 98 93 
310 574 441 106 98 93 
310 574 442 106 97 92 
310 574 443 104 95 90 
308 574 444 105 97 92 
308 574 445 100 91 86 
308 575 444 108 99 95 
308 575 445 102 93 88 
309 574 444 101 92 87 
309 574 445 98 89 84 
308 574 446 96 87 81 
308 575 446 97 88 81 
308 575 447 94 83 77 
309 574 446 94 85 80 
309 574 447 93 83 77 
309 575 447 93 83 77 
310 573 444 99 91 87 
310 573 445 98 90 85 
311 573 444 100 92 87 
311 573 445 99 90 85 
310 573 446 96 87 80 
310 573 447 94 84 76 
311 573 446 98 89 82 
311 573 447 101 90 83 
310 574 444 100 92 87 
310 574 445 97 89 84 
310 574 446 95 86 81 
310 574 447 93 84 77 
315 567 432 119 106 98 
317 565 432 116 104 96 
316 566 432 117 105 96 
316 567 432 118 106 97 
316 567 433 118 106 97 
317 566 432 116 104 96 
317 566 433 114 102 95 
317 567 433 116 104 96 
317 567 434 117 105 97 
318 565 432 116 104 96 
318 565 433 114 102 95 
319 565 432 118 106 98 
319 565 433 116 104 96 
319 565 434 114 103 95 
318 566 433 113 102 94 
318 566 434 113 101 93 
318 567 434 114 103 95 
318 567 435 117 105 98 
319 566 434 114 102 94 
319 566 435 112 100 92 
319 567 435 114 102 94 
313 569 432 112 100 92 
312 570 432 106 95 87 
312 571 432 106 95 88 
312 571 433 105 94 88 
313 570 432 109 97 89 
313 570 433 108 97 90 
312 571 434 104 94 87 
312 571 435 103 93 87 
313 570 434 106 96 89 
313 571 434 105 94 88 
313 571 435 103 93 86 
314 568 432 118 106 97 
314 569 432 115 103 94 
314 569 433 113 100 92 
315 568 432 118 106 98 
315 568 433 118 105 96 
315 569 433 115 102 93 
315 569 434 113 101 93 
314 570 433 111 99 91 
314 570 434 107 96 88 
314 570 435 105 94 87 
314 571 435 104 94 87 
315 570 434 110 98 90 
315 570 435 107 96 88 
312 571 436 103 94 88 
312 571 437 103 94 89 
313 571 436 103 93 86 
313 571 437 104 94 88 
313 571 438 103 94 89 
313 571 439 103 94 88 
314 570 436 104 93 86 
314 571 436 103 93 86 
314 571 437 103 94 88 
315 570 436 104 93 86 
315 570 437 103 93 86 
315 571 437 103 93 87 
314 571 438 104 95 89 
314 571 439 105 95 90 
315 571 438 105 95 89 
315 571 439 105 96 90 
312 572 437 104 95 89 
312 572 438 103 94 89 
312 572 439 104 95 90 
313 572 438 103 94 88 
313 572 439 103 94 88 
316 568 433 117 105 96 
317 568 433 117 105 97 
316 569 434 116 103 95 
317 568 434 118 106 99 
317 569 434 118 106 98 
317 569 435 118 106 98 
316 570 435 111 99 92 
317 570 435 115 103 95 
318 568 435 118 107 99 
318 569 435 119 107 100 
319 568 435 119 107 99 
319 569 435 121 109 101 
318 570 435 118 106 97 
316 570 436 108 96 89 
316 570 437 106 95 88 
317 570 436 113 101 93 
317 570 437 110 99 91 
316 570 438 106 96 89 
316 571 438 106 96 90 
316 571 439 108 97 91 
317 570 438 110 99 91 
317 570 439 112 100 92 
317 571 439 112 101 94 
319 568 436 121 109 101 
319 569 436 122 110 101 
318 570 436 118 105 97 
318 570 437 118 104 95 
319 570 436 124 111 102 
319 570 437 126 111 102 
318 570 438 118 105 96 
318 570 439 121 107 98 
318 571 439 127 112 102 
319 570 438 130 115 106 
319 571 438 135 119 111 
319 571 439 140 123 115 
313 571 440 104 95 90 
314 571 440 105 96 90 
314 571 441 103 94 89 
315 571 440 107 97 92 
315 571 441 105 96 90 
314 571 442 103 94 88 
315 571 442 109 98 92 
312 572 440 106 97 91 
312 572 441 107 97 91 
313 572 440 105 96 90 
313 572 441 105 96 90 
312 572 442 106 96 90 
312 572 443 102 93 87 
313 572 442 104 94 88 
313 572 443 104 94 88 
314 572 442 104 94 88 
314 572 443 111 100 94 
315 572 443 119 108 102 
312 572 444 102 93 87 
312 572 445 103 93 86 
313 572 444 106 96 90 
313 572 445 112 101 95 
312 572 446 111 100 94 
312 572 447 119 108 102 
312 573 446 106 96 90 
312 573 447 114 103 97 
313 572 446 124 113 107 
313 572 447 125 114 109 
314 572 444 120 109 103 
314 572 445 124 113 108 
315 572 444 126 114 108 
315 572 445 124 111 105 
314 572 446 126 115 110 
314 572 447 126 115 109 
315 572 446 128 114 109 
315 572 447 126 114 109 
316 571 440 108 98 92 
316 571 441 111 100 94 
317 571 440 114 103 96 
317 571 441 119 108 101 
316 571 442 116 106 99 
317 571 442 130 117 110 
318 571 440 127 112 104 
318 571 441 132 117 108 
319 571 440 143 124 115 
319 571 441 139 121 111 
316 572 443 122 110 104 
317 572 442 130 116 109 
317 572 443 126 112 104 
318 572 441 138 120 109 
319 572 441 143 121 111 
318 572 442 134 116 106 
318 572 443 134 114 105 
319 572 442 138 116 106 
319 572 443 136 113 103 
319 573 443 135 112 101 
316 572 444 122 108 103 
316 572 445 127 112 108 
317 572 444 127 110 104 
317 572 445 130 114 108 
316 572 446 130 115 111 
316 572 447 130 116 111 
317 572 446 134 118 113 
317 572 447 141 124 119 
318 572 444 133 113 103 
318 572 445 136 118 110 
318 573 444 134 114 104 
318 573 445 135 116 108 
319 573 444 137 112 103 
319 573 445 132 109 101 
318 572 446 137 120 113 
318 573 446 142 124 117 
318 573 447 141 122 116 
319 573 446 130 109 101 
319 573 447 131 111 102 
296 575 462 139 109 100 
296 575 463 143 111 104 
297 575 462 139 109 100 
297 575 463 141 110 102 
298 575 461 138 108 99 
299 575 460 138 110 102 
299 575 461 138 110 102 
298 574 462 149 120 113 
298 574 463 144 115 107 
298 575 462 138 108 100 
298 575 463 141 109 102 
299 574 462 151 124 116 
299 574 463 151 125 118 
299 575 462 138 110 101 
302 575 459 141 112 102 
