ply
format ascii 1.0
comment Created by CloudCompare v2.10.1 (Zephyrus)
comment Created 1/31/20 11:18 AM
obj_info Generated by CloudCompare!
element vertex 1919
property float x
property float y
property float z
property uchar red
property uchar green
property uchar blue
end_header
124 526 237 124 132 145 
124 527 237 117 125 138 
124 526 238 120 128 141 
125 526 238 109 117 131 
125 526 239 109 116 129 
125 527 238 109 116 129 
125 527 239 107 114 126 
126 526 239 105 112 124 
126 527 239 106 112 124 
122 520 240 108 115 127 
123 520 240 109 116 128 
123 521 240 110 117 130 
123 522 240 111 118 131 
124 520 241 111 118 130 
124 521 240 112 119 132 
124 521 241 113 119 131 
125 521 241 113 120 132 
124 520 242 114 120 132 
125 520 242 120 126 137 
125 521 242 116 122 134 
124 522 240 110 117 130 
124 523 240 108 116 128 
125 522 240 110 117 129 
125 522 241 112 119 131 
125 523 240 109 116 128 
125 523 241 116 122 134 
125 522 242 114 121 133 
126 521 242 114 120 132 
126 522 241 115 122 133 
126 523 241 119 125 137 
126 522 242 117 124 136 
126 523 242 123 130 142 
127 523 242 122 129 142 
125 524 240 108 115 127 
125 525 240 108 115 127 
126 524 240 110 116 128 
126 524 241 115 121 133 
126 525 240 107 113 125 
126 525 241 109 115 126 
127 525 241 109 115 127 
127 524 242 118 124 136 
127 525 242 114 120 132 
126 526 240 106 112 124 
126 527 240 107 113 125 
127 526 240 107 113 124 
127 526 241 107 113 125 
127 527 240 107 114 126 
127 527 241 107 114 126 
112 528 224 104 110 121 
112 529 224 103 109 120 
113 528 225 113 120 131 
113 529 224 105 111 122 
113 529 225 111 117 128 
113 529 226 118 124 136 
112 530 224 101 107 117 
113 530 224 102 107 117 
113 530 225 105 111 122 
113 531 224 104 109 119 
113 531 225 105 111 121 
114 528 226 116 123 135 
114 528 227 115 122 134 
114 529 226 115 122 134 
114 529 227 115 122 134 
115 528 227 114 121 133 
115 529 227 112 119 131 
114 530 225 104 111 122 
114 531 225 105 111 122 
114 530 226 109 116 127 
114 531 226 107 113 126 
115 530 227 112 118 130 
115 531 226 109 116 128 
115 531 227 112 118 130 
115 528 228 112 119 131 
115 529 228 112 119 131 
115 530 228 113 120 132 
113 532 224 107 111 121 
113 533 224 108 114 124 
113 534 224 113 119 130 
114 532 225 109 115 125 
114 533 224 111 116 127 
114 533 225 112 117 128 
114 532 226 111 117 129 
115 532 226 113 119 131 
115 532 227 114 120 132 
115 533 226 112 118 129 
115 533 227 114 120 132 
114 534 224 117 123 135 
114 534 225 114 120 132 
114 535 224 126 133 145 
115 534 225 113 120 133 
115 535 225 119 127 140 
115 534 226 110 117 129 
116 531 227 114 121 134 
116 528 229 114 120 132 
116 529 228 113 120 133 
116 529 229 115 122 134 
117 529 229 121 127 139 
117 528 230 113 121 133 
117 528 231 110 118 130 
117 529 230 122 129 142 
116 530 228 116 123 135 
116 530 229 120 127 139 
116 531 228 117 124 137 
117 530 229 128 134 147 
117 531 228 120 128 140 
117 531 229 128 134 147 
117 530 230 131 138 151 
118 528 231 112 119 133 
118 529 231 119 127 140 
119 529 231 118 126 140 
118 530 230 131 138 151 
118 530 231 128 136 150 
118 531 230 132 139 152 
119 530 231 126 134 149 
119 531 231 132 140 154 
116 532 227 115 122 134 
116 533 227 114 120 132 
117 533 227 115 121 133 
116 534 226 111 118 130 
116 534 227 112 118 130 
116 535 226 114 121 134 
117 534 227 112 119 132 
117 535 227 112 120 133 
116 532 228 116 124 136 
117 532 228 121 127 140 
117 532 229 125 132 145 
117 533 228 120 127 139 
117 534 228 118 124 138 
118 532 229 130 137 150 
118 533 229 127 134 148 
118 532 230 132 139 153 
119 532 230 129 137 152 
119 532 231 130 139 154 
119 533 230 123 132 147 
118 534 228 120 127 140 
118 534 229 124 132 146 
118 535 228 112 119 132 
119 534 229 118 127 141 
119 535 229 112 119 133 
119 534 230 121 129 144 
118 528 232 111 118 131 
119 528 232 112 120 133 
119 529 232 116 124 138 
114 536 224 132 139 152 
114 537 224 137 145 159 
115 536 224 133 141 155 
115 536 225 129 137 151 
115 537 224 137 146 160 
115 537 225 135 143 158 
114 538 224 136 143 157 
115 538 224 127 134 149 
115 538 225 130 138 153 
115 539 224 115 123 136 
115 540 224 112 119 132 
116 536 225 128 136 150 
116 537 225 129 137 151 
116 536 226 122 130 143 
116 537 226 124 132 145 
117 536 226 120 127 140 
117 536 227 115 122 134 
117 537 226 120 127 140 
117 537 227 116 122 135 
116 538 225 120 128 142 
116 539 224 114 121 134 
116 539 225 115 122 134 
117 538 225 116 123 135 
117 539 225 114 120 132 
117 538 226 115 122 134 
117 538 227 113 120 132 
117 539 226 113 119 131 
118 536 227 111 117 129 
118 537 227 111 118 130 
118 538 227 111 118 129 
118 539 226 111 118 131 
118 539 227 113 120 132 
119 538 227 113 119 131 
119 539 227 117 124 136 
118 536 228 109 116 128 
118 537 228 110 117 129 
119 536 228 108 115 127 
119 536 229 108 115 128 
119 537 228 110 116 128 
119 538 228 114 121 133 
116 540 224 113 120 132 
116 540 225 114 120 132 
116 541 224 113 119 131 
117 540 225 113 120 132 
117 541 224 114 120 132 
117 541 225 115 121 134 
117 540 226 113 120 133 
116 542 224 112 119 131 
117 542 224 114 121 133 
117 543 224 115 121 133 
118 541 225 117 124 136 
118 540 226 113 120 134 
118 541 226 116 124 137 
119 540 227 120 127 140 
119 541 226 122 130 143 
119 541 227 123 130 144 
118 542 224 116 123 135 
118 542 225 118 124 137 
118 543 224 115 122 134 
118 543 225 117 123 136 
119 542 225 121 128 141 
119 543 225 120 126 138 
119 542 226 123 130 142 
120 531 231 131 139 154 
120 532 231 125 134 150 
120 533 231 120 129 144 
121 533 231 121 130 145 
120 535 229 112 119 133 
120 534 230 117 126 140 
120 534 231 118 127 142 
120 535 230 114 122 135 
121 534 231 119 128 142 
121 535 230 115 123 136 
121 535 231 119 126 139 
122 534 231 123 131 145 
122 535 231 120 127 140 
120 528 233 113 121 134 
120 529 232 116 124 138 
120 529 233 115 123 137 
121 528 233 111 119 132 
121 529 233 114 122 136 
121 528 234 111 118 131 
121 529 234 112 120 134 
120 530 232 126 134 149 
120 530 233 121 129 143 
120 531 232 129 138 152 
121 530 233 121 130 143 
121 531 232 128 137 152 
121 531 233 127 136 150 
122 528 234 110 118 131 
122 528 235 110 118 131 
122 529 234 110 118 131 
122 529 235 108 116 128 
123 529 235 107 115 127 
122 530 233 123 131 144 
122 531 233 125 133 146 
122 530 234 115 123 136 
122 530 235 109 117 130 
122 531 234 118 125 138 
123 530 235 107 115 127 
123 531 234 109 117 129 
123 531 235 107 114 126 
123 528 236 116 124 137 
123 529 236 108 116 129 
120 532 232 124 133 149 
121 532 232 125 135 150 
121 533 232 123 132 148 
122 532 233 123 131 146 
122 533 232 124 133 148 
122 533 233 118 126 140 
123 533 233 109 117 130 
122 532 234 118 125 139 
123 532 234 110 117 130 
123 533 234 109 116 129 
122 534 232 122 130 144 
122 534 233 119 126 140 
122 535 232 119 127 140 
123 534 233 109 116 128 
123 535 232 113 120 133 
123 535 233 110 117 130 
124 530 235 107 114 126 
124 531 235 108 114 126 
124 528 236 117 124 137 
124 528 237 116 123 135 
124 529 236 109 116 129 
125 528 237 112 119 132 
125 529 237 110 117 129 
125 528 238 109 116 128 
125 529 238 110 118 130 
124 530 236 107 114 126 
124 531 236 108 114 126 
125 530 237 109 116 128 
125 531 236 111 117 129 
125 531 237 111 118 130 
126 528 238 108 115 127 
126 528 239 107 114 126 
126 529 238 109 116 129 
126 529 239 109 117 129 
127 529 239 112 119 132 
126 530 237 110 117 129 
126 531 237 112 118 131 
126 530 238 111 119 131 
126 531 238 115 122 135 
127 530 238 117 125 137 
127 530 239 121 128 141 
127 531 238 120 127 140 
127 531 239 123 130 143 
124 532 235 108 114 126 
124 533 234 106 113 125 
124 533 235 105 112 124 
125 533 235 105 112 124 
124 534 233 107 114 126 
124 535 233 109 116 127 
124 534 234 105 112 123 
124 535 234 107 113 125 
125 534 235 104 111 122 
125 535 234 108 115 126 
125 535 235 106 113 125 
126 535 235 104 111 122 
125 532 236 112 118 130 
125 532 237 114 121 132 
125 533 236 108 115 126 
125 534 236 103 110 122 
126 532 237 112 118 131 
126 533 236 107 114 125 
126 533 237 109 115 127 
127 533 237 109 115 127 
127 532 238 119 126 138 
127 532 239 124 131 144 
127 533 238 116 123 135 
126 534 236 103 110 121 
126 534 237 103 110 121 
126 535 236 103 110 121 
127 534 237 105 112 123 
127 535 236 104 110 122 
127 535 237 105 111 122 
127 534 238 107 114 125 
120 536 229 108 115 128 
120 537 228 111 117 129 
120 537 229 109 115 127 
121 537 229 110 117 129 
120 536 230 112 119 132 
121 536 230 114 121 133 
121 537 230 112 119 131 
120 538 228 113 120 131 
120 538 229 111 118 130 
120 539 228 116 123 136 
121 538 229 111 117 130 
121 539 228 113 120 133 
121 539 229 112 119 132 
122 536 231 116 123 136 
122 537 230 113 120 132 
122 537 231 116 123 135 
123 537 231 121 128 141 
122 538 229 111 118 130 
122 539 229 113 120 132 
122 538 230 112 119 131 
122 539 230 112 119 131 
123 538 231 118 125 138 
123 539 230 112 119 132 
123 539 231 112 119 131 
120 540 227 122 129 143 
120 541 227 125 133 147 
121 541 227 121 128 142 
120 542 226 124 130 144 
120 542 227 125 132 145 
120 543 226 118 124 136 
121 542 227 117 124 138 
121 543 226 117 124 137 
121 543 227 117 124 137 
122 543 227 115 122 135 
120 540 228 120 128 141 
121 540 228 115 122 135 
121 541 228 119 126 140 
122 540 228 113 120 133 
122 540 229 114 121 134 
122 541 228 113 120 133 
122 541 229 114 121 134 
123 541 229 113 121 133 
122 540 230 114 121 133 
123 540 230 113 120 133 
123 541 230 111 118 130 
122 542 228 113 120 133 
122 542 229 112 119 131 
122 543 228 112 119 132 
123 542 229 111 119 131 
123 543 228 110 118 130 
123 543 229 111 119 131 
123 542 230 110 117 130 
124 538 231 118 125 138 
124 539 231 110 117 129 
124 540 231 108 115 127 
124 541 230 110 116 128 
124 541 231 108 114 126 
125 540 231 108 114 126 
125 541 231 107 113 125 
124 543 229 109 116 128 
124 542 230 109 116 127 
124 543 230 108 115 127 
125 542 230 108 115 126 
125 542 231 107 113 124 
125 543 230 106 112 124 
125 543 231 104 111 122 
126 543 231 103 109 121 
123 536 232 114 121 134 
123 537 232 119 126 139 
124 536 233 113 119 131 
124 537 232 119 126 139 
124 537 233 120 126 139 
125 536 233 115 122 133 
125 537 233 116 122 134 
125 536 234 112 119 130 
125 537 234 116 122 134 
124 538 232 120 126 139 
124 539 232 107 114 126 
125 538 233 113 119 131 
125 539 232 107 114 126 
125 539 233 107 113 125 
126 536 235 107 114 125 
126 537 234 112 119 130 
126 537 235 110 116 128 
127 537 235 111 118 130 
126 538 233 110 116 128 
126 539 233 107 114 125 
126 538 234 109 116 128 
126 539 234 107 114 126 
127 538 235 110 117 129 
127 539 234 108 115 127 
127 539 235 107 114 127 
126 536 236 104 111 123 
127 536 236 106 113 125 
127 536 237 110 117 128 
127 537 236 115 122 134 
127 538 236 111 119 131 
125 540 232 106 113 124 
125 540 233 106 113 125 
125 541 232 107 113 125 
126 540 233 108 115 127 
126 541 232 108 115 126 
126 541 233 112 119 131 
127 540 233 112 119 130 
127 541 233 116 122 133 
127 540 234 109 116 128 
127 540 235 107 114 127 
127 541 234 114 121 132 
126 542 232 107 113 125 
126 542 233 113 119 131 
126 543 232 106 112 124 
127 542 233 114 120 132 
127 543 232 107 114 125 
127 543 233 111 117 129 
127 528 240 109 117 129 
127 529 240 115 123 136 
127 530 240 122 130 143 
100 544 192 112 118 128 
100 544 193 119 125 137 
100 545 192 109 115 126 
100 545 193 111 117 128 
100 544 194 118 125 137 
100 544 195 116 123 135 
100 545 194 109 115 126 
101 544 195 113 118 130 
101 545 194 108 113 124 
101 545 195 111 115 125 
100 546 192 104 109 120 
100 546 193 105 111 122 
101 546 192 101 106 117 
101 546 193 103 109 119 
101 547 192 100 106 116 
101 547 193 103 109 119 
101 546 194 106 111 121 
101 546 195 106 110 120 
101 547 194 104 109 120 
101 547 195 104 109 118 
102 546 195 105 110 119 
102 547 195 103 108 118 
101 544 196 113 121 133 
101 545 196 107 114 125 
102 544 196 113 120 133 
102 544 197 111 119 132 
102 545 196 109 115 126 
102 545 197 114 120 132 
103 544 197 109 115 127 
103 545 197 106 112 123 
103 544 198 105 110 120 
103 545 198 103 108 119 
102 546 196 106 110 121 
102 547 196 104 109 118 
103 546 196 104 109 119 
103 546 197 105 110 120 
103 547 196 103 109 119 
103 547 197 106 112 123 
101 548 192 103 109 120 
101 548 193 105 110 121 
101 549 192 107 113 125 
101 549 193 106 113 124 
101 548 194 106 111 121 
102 549 192 109 116 128 
102 549 193 108 114 125 
102 548 194 106 111 120 
102 548 195 105 110 119 
102 549 194 108 112 121 
102 549 195 109 113 123 
103 548 195 109 115 126 
103 549 195 111 116 127 
102 550 192 112 119 131 
102 550 193 111 117 128 
102 551 192 115 122 134 
102 551 193 114 120 131 
103 551 193 111 116 127 
102 550 194 107 112 121 
102 550 195 108 112 122 
102 551 194 108 113 123 
103 550 195 106 111 121 
103 551 194 106 111 122 
103 551 195 103 107 117 
102 548 196 104 109 119 
103 548 196 109 115 127 
103 549 196 116 122 134 
103 550 196 106 112 123 
103 551 196 102 106 116 
102 552 192 112 120 132 
103 552 192 113 119 131 
103 552 193 110 116 128 
103 553 192 107 114 125 
103 553 193 106 112 123 
103 552 194 105 110 121 
103 552 195 103 107 116 
103 553 194 102 107 118 
103 553 195 101 106 115 
103 554 192 98 105 117 
103 554 193 100 107 118 
103 555 192 96 103 115 
103 555 193 100 106 117 
103 554 194 100 106 116 
103 554 195 99 104 114 
103 552 196 102 106 115 
103 553 196 101 105 115 
104 544 198 103 108 118 
104 544 199 104 109 119 
104 545 198 106 110 120 
105 544 199 107 112 121 
105 545 199 109 113 123 
104 547 197 110 115 126 
104 546 198 110 114 124 
104 547 198 111 117 127 
105 546 198 110 115 125 
105 546 199 110 114 124 
105 547 198 111 116 126 
105 547 199 110 115 125 
106 545 199 107 111 121 
106 546 199 108 112 122 
106 547 199 106 111 121 
104 548 197 114 120 132 
104 549 197 115 121 133 
104 548 198 114 120 131 
104 549 198 110 115 126 
105 548 198 109 114 125 
105 549 198 105 110 120 
104 550 197 104 110 120 
104 551 197 101 106 116 
104 550 198 103 108 118 
104 551 198 104 108 117 
105 550 198 102 106 116 
105 551 198 102 106 115 
106 548 199 107 111 121 
106 549 199 104 108 118 
106 550 199 102 106 116 
106 551 199 102 106 116 
106 544 200 107 112 122 
106 544 201 107 112 123 
106 545 200 106 111 121 
107 544 201 108 113 123 
107 545 200 105 110 120 
107 545 201 105 110 121 
107 544 202 114 119 130 
106 546 200 105 110 121 
106 547 200 106 112 123 
107 546 200 105 111 122 
107 546 201 108 114 125 
107 547 200 110 116 128 
107 547 201 118 124 136 
106 548 200 111 116 126 
106 549 200 106 111 120 
107 548 200 116 121 133 
107 549 200 107 112 122 
106 550 200 102 106 116 
106 551 200 103 108 117 
107 550 200 102 107 117 
107 551 200 101 106 116 
108 544 202 110 116 127 
108 544 203 112 119 130 
108 545 202 107 113 124 
108 545 203 107 113 124 
108 547 201 120 126 138 
108 546 202 110 115 126 
108 546 203 105 112 123 
108 547 202 112 118 129 
108 547 203 107 112 123 
109 546 203 103 109 120 
109 547 203 102 108 118 
108 544 204 108 114 126 
108 544 205 106 113 125 
108 545 204 105 111 123 
109 544 205 100 107 119 
109 545 204 101 108 119 
109 545 205 98 104 115 
109 544 206 94 100 111 
109 544 207 91 97 108 
109 545 206 93 99 109 
109 545 207 90 96 106 
109 546 204 100 106 117 
109 546 205 95 101 111 
109 547 204 97 103 114 
109 547 205 93 99 109 
109 546 206 91 97 108 
109 546 207 92 98 107 
109 547 206 91 97 107 
109 547 207 94 99 108 
108 548 201 118 123 134 
108 549 201 105 110 121 
108 548 202 107 113 124 
108 548 203 104 109 120 
108 549 202 101 107 118 
109 548 203 100 105 116 
109 549 203 99 106 116 
108 550 201 101 107 117 
108 551 201 101 107 118 
108 550 202 101 107 118 
108 551 202 104 110 122 
109 550 202 101 108 119 
109 550 203 102 108 119 
109 551 202 106 112 124 
109 551 203 107 112 123 
109 548 204 98 104 114 
109 548 205 95 101 111 
109 549 204 102 108 118 
109 549 205 100 106 117 
109 548 206 93 99 109 
109 548 207 95 101 111 
109 549 206 95 102 112 
109 549 207 97 104 115 
109 550 204 103 109 120 
109 550 205 102 109 120 
109 551 204 104 110 122 
109 551 205 102 109 120 
109 550 206 100 107 118 
109 550 207 104 111 123 
109 551 206 107 114 125 
109 551 207 110 117 128 
110 551 206 107 114 125 
110 551 207 111 117 129 
104 555 192 94 100 111 
104 555 193 100 106 116 
104 554 195 100 105 115 
104 555 194 101 107 117 
104 555 195 100 105 115 
104 552 196 101 105 114 
104 552 197 102 106 115 
104 553 196 100 105 115 
104 553 197 102 107 116 
105 552 198 102 106 116 
105 552 199 101 106 115 
105 553 198 102 106 116 
105 553 199 101 106 116 
104 554 196 101 106 116 
104 554 197 103 108 117 
104 555 196 103 108 118 
104 555 197 104 109 119 
105 555 196 105 110 120 
105 555 197 106 111 121 
105 554 198 102 107 117 
105 555 198 105 110 120 
106 552 199 102 106 116 
106 553 199 101 106 116 
106 554 199 103 108 119 
106 555 198 105 111 121 
106 555 199 105 110 121 
107 555 199 106 111 122 
104 556 192 94 100 110 
104 556 193 100 105 116 
104 557 193 99 105 115 
105 557 192 95 101 111 
105 557 193 98 104 115 
104 556 194 102 107 118 
104 556 195 102 108 119 
105 556 195 105 111 121 
105 557 194 101 107 118 
105 557 195 106 112 123 
105 558 192 95 102 112 
105 558 193 98 104 115 
105 559 193 98 104 115 
105 558 194 104 111 122 
105 558 195 116 122 133 
105 559 194 104 110 121 
105 559 195 115 122 133 
106 559 192 99 105 115 
106 559 193 99 105 116 
106 559 194 104 110 121 
106 559 195 114 121 133 
105 556 196 106 111 122 
105 556 197 108 114 124 
105 557 196 110 116 126 
105 557 197 110 116 127 
105 556 198 110 115 125 
105 558 196 118 124 137 
105 558 197 113 120 133 
106 556 198 108 114 124 
106 556 199 109 114 125 
106 557 198 108 115 126 
107 556 199 108 114 125 
107 557 199 109 116 127 
106 558 196 120 127 140 
106 558 197 115 122 135 
106 559 196 119 127 140 
106 559 197 117 125 139 
106 558 198 112 118 130 
106 559 198 116 123 135 
107 558 199 112 118 130 
107 559 199 110 118 131 
106 552 200 102 107 116 
106 553 200 102 107 117 
107 552 200 100 105 115 
107 553 200 102 108 118 
107 554 200 106 112 123 
107 555 200 109 115 126 
107 556 200 110 116 127 
107 557 200 109 115 127 
107 558 200 108 115 127 
107 559 200 109 117 130 
108 552 201 103 109 120 
108 553 201 109 115 126 
108 552 202 110 117 128 
108 553 202 119 124 135 
109 552 202 114 119 131 
109 552 203 115 120 131 
109 553 202 119 124 136 
109 553 203 118 123 133 
108 554 201 110 116 127 
108 555 200 111 117 129 
108 555 201 112 118 130 
108 554 202 115 121 133 
108 555 202 108 114 126 
109 554 202 116 122 134 
109 554 203 113 118 129 
109 555 202 108 115 126 
109 555 203 102 108 119 
109 552 204 106 111 122 
109 552 205 102 109 120 
109 553 204 107 112 122 
109 554 204 104 109 119 
109 555 204 97 102 113 
110 552 205 101 107 119 
110 553 205 101 107 118 
110 552 206 101 108 120 
110 552 207 103 110 122 
110 553 206 97 104 116 
110 553 207 98 105 116 
110 554 205 100 106 116 
110 555 204 97 103 113 
110 555 205 97 103 113 
110 554 206 97 104 115 
110 554 207 98 104 116 
110 555 206 97 103 114 
110 555 207 99 105 116 
108 556 200 111 117 128 
108 556 201 108 115 126 
108 557 200 108 114 125 
108 557 201 105 111 122 
109 556 201 106 112 124 
109 557 201 106 111 122 
108 556 202 106 113 124 
109 556 202 103 109 119 
109 556 203 97 103 113 
109 557 202 102 107 117 
109 557 203 97 102 112 
108 558 200 107 114 126 
108 558 201 106 113 124 
108 559 200 110 117 129 
108 559 201 106 112 123 
109 558 201 104 110 121 
109 558 202 99 104 114 
109 558 203 98 102 112 
109 559 202 97 102 113 
109 559 203 99 104 113 
109 556 204 97 103 113 
109 557 204 98 103 112 
109 558 204 101 106 115 
110 556 205 98 104 114 
110 557 204 100 105 114 
110 557 205 101 106 116 
110 556 206 98 103 114 
110 556 207 102 108 118 
110 557 206 100 106 116 
110 557 207 105 112 122 
110 558 204 103 107 117 
110 558 205 104 110 119 
110 559 204 102 107 117 
110 559 205 107 113 124 
110 558 206 107 113 124 
110 558 207 110 117 128 
110 559 206 112 118 130 
110 559 207 114 121 133 
111 559 207 116 123 135 
109 544 208 90 97 108 
109 544 209 98 104 115 
109 545 208 96 103 113 
109 545 209 106 112 123 
109 544 210 102 109 119 
109 544 211 101 108 119 
109 545 210 105 112 123 
109 545 211 101 108 119 
109 546 208 101 106 116 
109 546 209 111 117 127 
109 547 208 103 108 118 
109 547 209 111 117 127 
109 546 210 109 115 126 
109 547 210 110 116 127 
110 545 211 99 107 118 
110 546 210 108 114 125 
110 546 211 102 109 120 
110 547 210 107 114 125 
110 547 211 102 109 120 
109 544 212 101 107 118 
110 544 212 99 105 116 
110 544 213 100 105 115 
110 545 212 98 104 115 
110 545 213 100 105 115 
110 544 214 104 109 119 
110 544 215 111 116 128 
110 545 214 102 108 118 
110 545 215 101 107 117 
111 545 215 102 108 119 
110 546 212 99 105 115 
110 546 213 101 106 115 
110 547 212 100 105 115 
110 547 213 100 105 114 
110 546 214 102 107 116 
110 546 215 102 108 118 
110 547 214 101 106 116 
111 546 215 103 109 119 
111 547 214 102 107 117 
111 547 215 103 108 118 
109 548 208 100 107 117 
109 548 209 106 112 123 
109 549 208 99 105 116 
110 548 209 101 107 119 
110 549 208 101 108 119 
110 549 209 99 106 117 
110 548 210 101 108 119 
110 548 211 100 106 117 
110 549 210 98 105 116 
110 549 211 99 105 115 
110 550 208 106 113 124 
110 550 209 102 108 119 
110 551 208 111 117 128 
110 551 209 107 112 122 
110 550 210 100 106 116 
110 550 211 100 106 116 
110 551 210 102 107 117 
110 551 211 100 105 115 
110 548 212 100 106 116 
110 548 213 101 106 116 
110 549 212 101 106 116 
110 549 213 102 107 116 
111 548 213 102 107 116 
111 549 213 103 107 117 
111 548 214 102 107 117 
111 548 215 103 109 119 
111 549 214 104 109 119 
111 549 215 107 113 124 
110 550 212 101 106 116 
110 551 212 101 106 116 
111 550 213 103 108 117 
111 551 212 101 106 116 
111 551 213 103 108 118 
111 550 214 105 110 120 
111 550 215 108 114 124 
111 551 214 107 113 124 
111 551 215 111 117 128 
110 544 216 111 117 129 
111 544 216 110 116 127 
111 544 217 108 113 124 
111 545 216 104 110 120 
111 545 217 105 110 121 
111 544 218 107 113 124 
111 546 216 105 110 121 
111 546 217 105 110 120 
111 547 216 103 109 119 
111 548 216 107 112 122 
110 552 208 106 112 123 
110 552 209 104 110 120 
110 553 208 101 107 118 
110 553 209 102 107 117 
110 552 210 102 107 118 
110 552 211 100 106 116 
110 553 210 101 107 117 
111 552 211 100 106 116 
111 553 210 100 105 116 
111 553 211 100 105 115 
110 554 208 99 105 116 
110 554 209 101 106 116 
110 555 208 99 105 116 
110 555 209 103 108 118 
111 555 209 104 109 120 
110 554 210 99 105 115 
111 554 210 100 105 115 
111 554 211 101 106 116 
111 555 210 102 107 117 
111 555 211 103 108 117 
111 552 212 101 107 117 
111 552 213 109 115 125 
111 553 212 108 113 123 
111 553 213 118 124 136 
111 552 214 122 128 140 
111 552 215 116 123 135 
111 553 214 128 134 147 
111 554 212 108 112 122 
111 554 213 115 122 134 
111 555 212 109 115 125 
111 555 213 116 123 136 
111 554 214 121 129 142 
110 556 208 102 108 119 
110 556 209 103 109 120 
110 557 208 105 112 123 
110 557 209 105 112 123 
111 556 209 106 112 123 
111 557 209 108 114 126 
111 556 210 106 112 123 
111 556 211 105 111 122 
111 557 210 108 115 126 
111 557 211 106 112 124 
110 558 208 110 116 128 
111 558 208 109 116 128 
111 558 209 109 115 126 
111 559 208 110 118 130 
111 559 209 106 112 124 
111 558 210 105 112 123 
111 558 211 105 111 122 
111 559 210 104 110 120 
111 559 211 104 109 119 
111 556 212 112 118 130 
111 557 212 114 120 133 
111 558 212 109 115 126 
111 559 212 105 111 121 
106 560 192 103 109 120 
106 560 193 100 107 118 
106 561 192 105 111 122 
106 561 193 100 107 119 
107 561 192 104 111 123 
106 560 194 106 112 123 
106 560 195 115 122 134 
106 561 194 106 113 125 
106 561 195 114 121 134 
107 562 192 101 108 119 
107 562 193 99 106 118 
107 563 192 95 102 113 
107 563 193 95 102 113 
106 562 194 107 114 126 
106 562 195 112 119 131 
107 562 194 106 113 124 
107 562 195 110 116 128 
107 563 194 100 107 118 
107 563 195 102 109 119 
106 560 196 118 126 140 
106 560 197 117 126 140 
106 561 196 112 121 134 
106 561 197 114 122 134 
106 560 198 117 125 138 
106 561 198 111 119 131 
107 560 198 115 122 134 
107 560 199 111 119 131 
107 561 198 107 114 126 
107 561 199 110 116 128 
106 562 196 109 116 128 
107 562 196 107 114 125 
107 562 197 108 115 127 
107 563 196 101 107 118 
107 563 197 106 111 122 
107 562 198 105 111 123 
107 562 199 109 114 125 
107 563 198 104 110 121 
107 563 199 106 111 122 
107 564 193 94 100 111 
107 564 194 98 104 115 
107 564 195 99 105 116 
107 565 195 98 104 115 
107 564 196 98 104 114 
107 564 197 102 107 117 
107 565 196 99 105 115 
107 564 198 105 110 120 
108 563 192 93 99 110 
108 563 199 105 110 119 
108 564 192 96 102 113 
108 564 193 95 102 112 
108 565 192 95 101 111 
108 565 193 96 102 113 
109 565 192 89 95 105 
108 565 194 99 104 115 
108 565 195 100 106 116 
108 566 193 94 101 111 
109 566 192 90 97 107 
109 566 193 96 102 113 
109 567 192 94 101 111 
109 567 193 100 106 116 
108 566 194 99 105 116 
108 566 195 100 107 118 
108 567 194 102 108 119 
108 567 195 102 109 120 
109 567 194 102 108 118 
109 567 195 103 110 121 
110 567 192 93 99 109 
108 565 196 100 106 115 
108 565 197 101 106 116 
108 564 198 104 109 119 
108 564 199 103 107 117 
108 565 198 102 107 117 
108 565 199 103 107 117 
108 566 196 101 107 117 
108 566 197 102 108 118 
108 567 196 102 108 119 
108 567 197 105 110 121 
109 567 197 104 111 122 
108 566 198 104 109 120 
108 566 199 102 108 118 
108 567 198 110 116 126 
109 566 199 103 109 119 
109 567 198 112 116 127 
109 567 199 108 113 124 
107 560 200 115 121 134 
107 561 200 112 118 129 
108 560 200 113 118 129 
108 560 201 102 108 119 
108 561 200 110 116 127 
108 561 201 100 105 115 
109 560 202 98 103 113 
109 560 203 99 104 113 
109 561 202 98 103 113 
109 561 203 99 104 114 
108 562 200 105 110 121 
108 562 201 98 104 114 
108 563 200 102 107 117 
108 563 201 98 103 113 
109 562 201 98 104 114 
109 563 201 99 105 115 
109 562 202 100 105 115 
109 562 203 99 105 115 
109 563 202 100 105 116 
110 560 203 99 104 114 
110 561 203 100 105 115 
110 562 203 99 104 115 
110 563 203 97 103 114 
110 560 204 99 105 115 
110 560 205 107 113 125 
110 561 204 99 105 115 
110 561 205 107 113 125 
111 561 205 109 115 127 
110 560 206 109 116 127 
111 560 206 113 119 131 
111 560 207 117 124 135 
111 561 206 112 118 129 
111 561 207 113 120 131 
110 562 204 98 104 115 
110 562 205 102 109 120 
110 563 204 95 102 113 
110 563 205 96 103 114 
111 562 205 101 107 118 
111 563 205 96 102 113 
111 562 206 100 106 117 
111 562 207 100 106 116 
111 563 206 95 101 111 
111 563 207 97 102 113 
108 564 200 103 107 117 
108 564 201 101 105 115 
108 565 200 104 109 118 
109 564 201 102 107 116 
109 565 200 104 109 119 
109 565 201 104 109 119 
109 564 202 101 106 117 
109 565 202 102 107 118 
109 566 200 106 111 121 
109 566 201 105 110 120 
109 567 200 107 112 123 
109 567 201 100 106 117 
109 567 202 99 105 115 
110 564 202 98 103 114 
110 564 203 95 101 111 
110 565 202 97 102 113 
110 565 203 95 101 112 
110 566 202 101 106 115 
110 566 203 101 106 115 
110 567 202 99 104 114 
110 567 203 100 105 115 
110 564 204 94 101 111 
110 565 204 97 102 112 
111 564 205 95 101 111 
111 565 204 97 102 112 
111 565 205 98 103 112 
111 564 206 97 103 112 
111 564 207 97 103 113 
111 565 206 98 104 113 
111 565 207 97 103 113 
110 566 204 103 108 117 
110 567 204 102 108 118 
111 566 204 103 108 118 
111 566 205 100 105 115 
111 567 204 103 108 118 
111 567 205 99 105 115 
111 566 206 97 103 113 
111 566 207 96 102 112 
111 567 206 98 104 114 
111 567 207 99 104 115 
109 568 193 100 106 116 
109 568 194 100 107 117 
109 568 195 102 109 120 
109 569 194 101 107 118 
109 569 195 100 107 117 
109 570 194 97 104 114 
109 570 195 98 103 114 
109 571 195 97 103 114 
110 568 192 93 99 110 
110 568 193 97 103 113 
110 569 192 95 101 111 
110 569 193 98 105 116 
110 569 194 102 108 119 
110 570 192 89 95 105 
110 570 193 92 99 111 
110 571 192 94 101 112 
110 571 193 94 102 113 
111 570 192 87 93 103 
111 571 192 93 100 110 
110 570 194 95 101 113 
110 571 194 94 101 112 
110 571 195 96 102 113 
109 568 196 101 107 118 
109 568 197 102 108 118 
109 569 196 99 105 116 
109 569 197 99 105 115 
109 568 198 108 113 123 
109 568 199 106 111 121 
109 569 198 100 105 115 
109 569 199 99 104 114 
109 570 196 98 104 115 
109 570 197 99 104 114 
109 571 196 99 105 115 
109 571 197 100 105 115 
109 570 198 100 105 114 
109 570 199 100 104 114 
110 571 196 99 105 115 
110 571 197 100 105 115 
110 570 199 99 104 113 
110 571 198 100 105 114 
110 571 199 99 104 113 
110 572 192 98 104 114 
110 572 193 98 104 114 
110 573 193 97 103 113 
111 572 192 96 102 112 
111 573 192 92 98 109 
111 573 193 96 102 112 
110 572 194 95 101 112 
110 572 195 98 104 115 
110 573 194 97 103 113 
110 573 195 98 105 115 
110 574 193 99 105 115 
111 574 192 93 99 109 
111 574 193 97 103 113 
111 575 192 95 101 111 
111 575 193 97 102 113 
110 574 194 98 104 114 
110 574 195 100 107 117 
110 575 194 98 105 115 
110 575 195 104 111 122 
111 575 194 102 107 118 
111 575 195 109 115 127 
110 572 196 100 106 117 
110 572 197 102 108 118 
110 573 196 104 110 121 
110 573 197 106 112 123 
110 572 198 101 106 116 
110 572 199 101 106 116 
110 573 198 105 110 120 
110 573 199 102 107 117 
111 573 199 104 109 119 
110 574 196 107 114 126 
110 574 197 109 115 127 
110 575 196 113 121 133 
110 575 197 115 122 134 
111 575 196 122 129 142 
111 575 197 118 125 137 
110 574 198 108 114 125 
111 574 198 109 115 126 
111 574 199 107 112 122 
111 575 198 114 120 131 
111 575 199 111 117 127 
109 568 200 104 109 119 
109 568 201 99 105 115 
109 569 200 100 104 114 
109 569 201 100 104 113 
109 570 200 99 104 113 
110 569 201 99 103 112 
110 568 202 98 103 112 
110 568 203 97 102 112 
110 569 202 98 102 111 
110 569 203 98 102 111 
110 570 200 100 104 113 
110 570 201 100 104 112 
110 571 200 99 104 113 
110 571 201 100 104 113 
110 570 202 98 103 112 
110 570 203 98 102 112 
110 571 202 98 103 113 
110 571 203 98 103 114 
111 571 203 98 104 115 
110 568 204 98 103 113 
110 569 204 98 102 111 
111 568 204 97 102 112 
111 568 205 97 103 113 
111 569 204 97 102 111 
111 569 205 98 103 114 
111 568 206 100 106 116 
111 568 207 103 108 118 
111 569 206 102 108 118 
110 570 204 99 104 113 
111 570 204 102 107 117 
111 570 205 103 109 120 
111 571 204 105 110 121 
111 571 205 111 118 130 
111 570 206 106 113 124 
110 572 200 100 105 115 
110 572 201 99 104 113 
110 573 200 100 105 115 
110 573 201 99 104 114 
111 573 200 102 108 118 
111 573 201 101 106 116 
110 572 202 99 106 116 
110 572 203 98 105 116 
111 572 203 99 106 117 
111 573 202 102 108 118 
111 573 203 102 108 120 
111 574 200 104 110 121 
111 574 201 102 108 118 
111 575 200 106 113 124 
111 575 201 105 111 122 
111 574 202 101 107 118 
111 574 203 102 108 118 
111 575 202 101 107 118 
111 575 203 98 104 114 
111 572 204 105 112 124 
111 572 205 113 120 132 
111 573 204 103 109 121 
111 573 205 110 117 129 
111 574 204 100 106 116 
111 560 208 111 118 130 
111 560 209 104 111 122 
111 561 208 104 111 122 
111 561 209 101 108 119 
111 560 210 103 108 119 
111 560 211 104 109 119 
111 561 210 103 108 118 
111 562 208 99 104 115 
111 562 209 99 105 116 
111 563 208 98 104 114 
111 564 208 99 104 114 
112 550 215 110 116 127 
112 551 215 111 118 130 
112 545 217 106 111 121 
112 544 218 106 112 122 
112 544 219 107 113 124 
112 545 218 106 111 122 
112 545 219 106 111 122 
113 544 219 109 116 127 
113 545 219 106 112 123 
112 546 217 105 110 120 
112 547 216 104 109 120 
112 547 217 106 111 122 
112 546 218 104 110 121 
112 547 218 107 112 123 
113 546 218 105 111 122 
113 546 219 106 112 123 
113 547 218 107 113 125 
113 547 219 108 114 126 
114 546 219 107 113 125 
114 547 219 109 116 128 
113 544 220 112 118 130 
114 544 220 116 123 135 
114 544 221 114 121 133 
114 545 220 108 114 126 
115 544 221 112 119 131 
115 545 221 110 116 128 
115 544 222 113 119 131 
115 545 222 111 117 129 
114 546 220 108 115 127 
115 546 220 110 116 128 
115 546 221 113 120 132 
115 547 220 114 122 135 
115 547 221 124 131 144 
112 548 216 110 115 126 
112 548 217 110 115 126 
112 549 216 113 119 130 
113 548 217 111 117 128 
113 549 217 113 119 131 
113 548 218 110 116 127 
113 549 218 113 119 131 
112 550 216 113 120 132 
112 551 216 113 121 133 
113 550 217 115 121 134 
113 551 216 113 121 134 
113 551 217 116 123 136 
114 548 218 111 118 130 
114 548 219 114 121 134 
114 549 218 116 123 135 
114 549 219 119 126 139 
115 548 219 122 129 142 
115 549 219 125 132 146 
114 551 217 117 124 137 
114 550 218 118 125 137 
114 551 218 117 124 137 
115 550 218 120 127 140 
115 550 219 122 130 143 
115 551 218 117 124 137 
115 551 219 116 123 136 
115 548 220 125 133 146 
115 549 220 126 134 149 
116 544 222 112 119 132 
116 544 223 115 122 134 
116 545 222 113 121 133 
117 544 223 115 121 134 
117 545 222 115 122 135 
117 545 223 115 122 135 
116 546 221 120 127 141 
116 547 221 130 137 151 
116 546 222 118 125 138 
117 546 222 120 127 141 
117 546 223 115 123 136 
117 547 222 129 136 150 
118 544 223 115 122 134 
118 545 223 114 121 133 
118 546 223 114 121 134 
118 547 222 124 131 144 
118 547 223 117 124 136 
119 546 223 109 116 128 
119 547 223 108 116 128 
116 551 219 113 121 134 
116 548 220 128 137 151 
116 548 221 131 139 153 
116 549 220 125 133 147 
117 548 221 128 136 149 
117 549 221 120 128 141 
117 548 222 131 139 152 
116 550 220 120 128 142 
116 551 220 113 121 134 
117 550 220 111 119 133 
117 550 221 112 119 132 
117 551 220 107 115 128 
118 549 221 112 119 132 
118 548 222 119 126 138 
118 548 223 115 121 134 
118 549 222 110 117 129 
119 548 222 109 116 128 
119 548 223 109 116 128 
119 549 222 109 116 127 
118 550 221 108 116 128 
118 551 220 105 113 125 
118 551 221 106 114 126 
119 551 221 106 112 124 
118 550 222 110 116 128 
119 550 222 110 116 127 
119 551 222 108 114 126 
112 552 215 123 130 143 
112 553 214 124 131 145 
112 553 215 128 136 149 
112 555 213 121 128 142 
112 554 214 119 127 140 
112 554 215 130 137 150 
112 555 214 124 131 144 
112 555 215 129 136 149 
113 554 215 130 138 151 
113 555 215 124 133 146 
112 556 213 119 127 140 
112 557 213 121 128 141 
112 556 214 122 129 142 
112 556 215 123 130 143 
112 557 214 120 127 140 
113 556 215 117 125 138 
113 557 215 115 122 135 
112 558 212 114 119 130 
112 558 213 115 122 133 
112 559 212 106 111 122 
112 559 213 106 112 123 
113 559 213 105 111 122 
112 558 214 116 123 135 
113 558 214 109 117 130 
113 558 215 109 116 129 
113 559 214 108 115 127 
114 557 215 113 122 136 
114 558 215 108 116 129 
114 559 214 110 117 128 
114 559 215 109 116 128 
115 558 215 111 118 131 
115 559 215 108 115 128 
116 559 215 105 112 125 
112 552 216 120 127 140 
113 552 216 120 128 142 
113 552 217 117 126 140 
113 553 216 127 135 149 
113 554 216 132 140 153 
113 555 216 124 133 147 
114 552 217 119 127 141 
114 553 217 125 134 149 
115 553 217 127 135 150 
115 552 218 118 125 139 
115 552 219 115 122 135 
115 553 218 122 130 144 
114 554 216 127 135 150 
114 554 217 127 136 150 
114 555 216 119 129 144 
115 554 217 124 133 147 
115 555 217 119 128 142 
115 554 218 126 134 149 
114 556 216 116 125 140 
114 557 216 116 125 139 
115 556 216 121 130 144 
115 556 217 119 127 140 
115 557 216 121 128 140 
115 557 217 119 126 139 
115 558 216 116 123 135 
116 552 219 111 119 132 
116 553 218 120 128 142 
116 553 219 113 121 135 
117 552 219 108 116 128 
117 553 219 109 117 129 
116 555 217 116 124 137 
116 554 218 116 125 139 
116 554 219 112 120 133 
116 555 218 111 119 133 
117 554 219 108 116 128 
117 555 218 108 115 128 
117 555 219 108 115 127 
118 554 219 108 114 126 
118 555 219 107 114 126 
119 555 219 107 113 125 
117 552 220 107 114 127 
117 553 220 108 115 128 
118 552 220 104 112 124 
118 553 220 107 113 125 
119 552 220 105 112 124 
119 552 221 105 112 124 
119 553 220 106 113 125 
119 553 221 107 113 125 
118 554 220 107 114 126 
119 554 220 106 112 124 
119 555 220 106 113 124 
116 556 217 114 121 133 
116 557 217 113 120 132 
117 557 217 108 115 127 
116 556 218 108 116 129 
117 556 218 107 114 126 
117 557 218 108 115 127 
116 558 216 110 117 129 
116 558 217 110 117 128 
116 559 216 106 113 125 
117 558 216 107 114 125 
117 558 217 108 115 127 
117 559 216 106 113 124 
118 556 218 108 114 126 
118 556 219 108 115 127 
118 557 218 109 115 127 
119 556 219 107 113 124 
119 557 218 109 115 126 
119 557 219 106 112 124 
118 558 217 108 115 126 
118 559 216 107 113 124 
118 559 217 107 113 125 
119 558 217 108 114 125 
119 559 217 105 111 123 
118 558 218 109 115 127 
119 558 218 108 114 125 
120 548 223 108 114 126 
120 549 222 109 115 127 
120 549 223 108 115 126 
121 548 223 107 114 126 
121 549 223 108 115 126 
120 551 221 107 114 126 
120 550 222 109 115 127 
120 550 223 109 115 127 
120 551 222 108 114 126 
121 550 223 108 115 127 
121 551 222 110 117 129 
121 551 223 109 116 128 
122 550 223 109 116 128 
122 551 222 118 125 138 
122 551 223 116 124 137 
123 551 223 123 131 145 
120 552 221 109 116 127 
120 553 221 108 114 126 
121 552 221 112 119 132 
121 553 221 114 122 134 
121 552 222 115 122 135 
120 554 220 106 113 125 
120 554 221 106 113 124 
120 555 220 106 113 124 
121 554 220 108 115 127 
121 554 221 110 118 130 
121 555 220 107 114 126 
122 553 221 118 126 140 
122 552 222 124 132 145 
122 552 223 127 136 150 
122 553 222 122 131 145 
123 552 223 130 139 153 
123 553 222 131 139 153 
123 553 223 132 141 155 
122 554 221 119 127 140 
122 555 221 117 124 136 
123 555 221 114 120 132 
122 554 222 124 132 145 
123 554 222 130 137 150 
123 554 223 132 139 152 
123 555 222 122 128 141 
120 556 219 105 111 122 
120 557 219 105 110 121 
121 557 219 103 109 120 
120 559 217 101 107 118 
120 558 218 104 110 120 
120 558 219 104 109 120 
120 559 218 101 107 118 
121 558 218 101 107 118 
121 558 219 101 107 119 
121 559 218 101 107 118 
122 558 219 102 109 120 
122 559 219 111 118 129 
120 556 220 105 111 122 
121 556 220 104 111 122 
121 557 220 103 109 121 
122 556 220 106 113 124 
122 556 221 109 115 126 
122 557 220 103 109 121 
122 557 221 106 111 122 
123 556 221 110 116 127 
123 557 221 109 114 125 
123 556 222 110 116 128 
122 558 220 105 112 123 
123 558 220 110 116 127 
123 558 221 108 114 125 
123 559 220 120 125 136 
124 553 223 130 139 153 
124 554 223 121 129 143 
124 555 222 112 119 132 
124 555 223 115 122 134 
125 555 223 105 112 124 
124 557 221 108 113 124 
124 556 222 110 116 128 
124 556 223 108 114 125 
124 557 222 108 114 124 
125 556 223 103 109 120 
125 557 223 103 108 119 
124 558 221 106 112 123 
124 559 221 107 113 124 
125 559 221 102 108 119 
124 558 222 105 111 121 
125 558 222 102 108 119 
125 558 223 100 106 116 
125 559 222 100 106 117 
125 559 223 99 105 116 
126 558 223 100 105 116 
126 559 223 99 105 116 
112 565 207 98 104 114 
112 566 207 97 103 113 
112 567 207 101 106 117 
112 568 207 105 110 120 
112 569 206 104 110 120 
112 569 207 106 112 122 
112 571 205 117 124 136 
112 570 206 109 116 127 
112 570 207 108 113 124 
112 571 206 114 120 132 
112 571 207 107 113 124 
113 570 207 106 111 122 
113 571 207 105 110 121 
112 575 203 96 101 111 
112 572 205 113 120 132 
112 573 204 105 112 123 
112 573 205 103 110 121 
112 572 206 110 116 128 
112 573 206 100 107 118 
113 572 206 100 107 118 
113 572 207 100 106 117 
113 573 206 97 103 114 
113 573 207 98 104 115 
112 574 204 97 102 113 
112 574 205 93 99 109 
112 575 204 95 100 110 
112 575 205 92 98 107 
113 575 205 93 98 107 
113 574 206 96 102 111 
113 574 207 99 104 115 
113 575 206 97 102 111 
114 573 207 105 111 121 
114 574 207 105 111 121 
114 575 206 102 107 117 
114 575 207 104 110 120 
115 574 207 109 114 125 
115 575 207 110 116 127 
116 575 207 119 126 139 
112 561 210 104 109 119 
112 561 211 105 110 121 
112 562 209 100 106 117 
112 563 208 99 104 114 
112 563 209 101 106 116 
112 562 210 102 108 119 
112 562 211 103 109 119 
112 563 210 104 110 120 
113 562 211 109 114 125 
113 563 211 113 119 130 
112 560 212 105 110 121 
112 560 213 108 113 124 
112 561 212 105 110 121 
113 560 213 110 115 126 
113 561 212 109 114 125 
113 561 213 111 116 127 
113 560 214 111 117 128 
112 562 212 104 109 120 
113 562 212 111 117 128 
114 561 213 115 121 133 
115 561 213 114 121 133 
114 560 214 112 118 130 
114 561 214 112 118 130 
115 560 214 109 115 127 
115 560 215 106 113 125 
115 561 214 109 116 128 
114 562 212 116 122 134 
114 562 213 116 123 135 
114 563 212 116 123 135 
115 562 213 113 120 132 
115 563 213 109 116 128 
115 562 214 109 116 128 
112 564 208 99 104 114 
112 564 209 102 107 117 
112 565 208 100 105 115 
112 565 209 102 107 117 
112 564 210 106 111 122 
113 564 210 110 116 126 
113 564 211 117 123 134 
113 565 210 110 115 126 
113 565 211 117 123 134 
112 566 208 101 106 116 
112 566 209 104 109 120 
112 567 208 103 109 119 
113 566 209 107 112 123 
113 567 209 106 111 121 
113 566 210 113 118 128 
113 567 210 108 113 124 
114 564 211 122 128 140 
114 565 211 124 130 142 
114 566 210 113 118 129 
114 566 211 118 124 136 
114 567 210 110 116 127 
114 567 211 110 116 128 
115 566 211 116 124 137 
115 567 211 112 119 132 
114 564 212 119 126 138 
114 565 212 122 128 141 
115 564 212 113 120 132 
115 564 213 108 114 126 
115 565 212 114 121 133 
115 565 213 109 115 127 
115 566 212 109 117 129 
115 567 212 109 117 129 
116 560 215 105 112 124 
116 561 214 105 111 123 
116 561 215 104 112 124 
117 560 215 110 117 129 
117 561 215 112 119 131 
116 563 213 104 110 121 
116 562 214 106 112 123 
116 563 214 104 110 121 
117 562 214 102 109 120 
117 562 215 105 112 124 
117 563 214 102 108 119 
118 561 215 118 123 135 
118 562 215 106 112 123 
118 563 214 101 107 118 
118 563 215 101 107 118 
119 562 215 101 108 119 
119 563 215 99 105 116 
116 564 213 103 109 121 
116 565 213 103 110 121 
117 565 213 100 106 117 
116 564 214 102 109 120 
117 564 214 102 108 119 
117 565 214 101 108 119 
116 566 212 105 112 124 
116 566 213 102 109 120 
116 567 212 106 113 125 
117 566 213 100 106 117 
117 567 212 103 109 120 
117 567 213 102 107 118 
118 564 214 101 107 118 
118 564 215 101 107 118 
118 565 214 100 106 117 
119 564 214 99 105 116 
119 564 215 99 105 115 
119 565 214 100 105 116 
119 565 215 99 105 116 
118 566 213 100 106 116 
118 567 213 100 106 116 
119 567 213 102 107 117 
118 566 214 101 106 117 
119 566 214 103 108 119 
119 567 214 106 111 122 
117 560 216 110 116 128 
118 560 216 111 117 129 
118 561 216 117 123 134 
119 560 217 105 111 123 
119 561 216 110 116 128 
119 561 217 104 111 122 
118 562 216 109 115 126 
119 562 216 100 107 118 
119 563 216 99 105 116 
112 568 208 106 111 122 
112 569 208 106 112 122 
113 568 208 104 110 120 
113 568 209 108 114 124 
113 569 208 106 111 122 
113 569 209 109 114 125 
113 570 208 105 110 120 
113 571 208 102 107 117 
114 569 209 117 122 133 
114 568 210 114 120 131 
114 569 210 120 125 137 
115 568 210 116 122 134 
115 568 211 110 117 129 
115 569 210 121 127 139 
115 569 211 113 120 132 
114 570 209 109 114 125 
114 571 208 102 108 118 
114 571 209 103 109 120 
115 570 209 112 118 130 
115 571 209 106 112 123 
115 570 210 114 121 132 
114 572 208 103 109 120 
114 573 208 105 111 122 
115 572 208 106 112 123 
115 572 209 105 111 122 
115 573 208 109 114 125 
115 574 208 112 117 128 
115 575 208 113 119 131 
116 568 211 107 114 126 
116 569 210 116 123 135 
116 569 211 109 116 128 
117 569 211 102 109 120 
116 571 209 106 112 124 
116 570 210 112 118 130 
116 570 211 108 115 126 
116 571 210 106 113 125 
117 570 211 104 110 121 
117 571 210 102 109 121 
117 571 211 101 108 120 
118 570 211 100 106 117 
118 571 211 99 106 117 
119 571 211 102 109 120 
116 568 212 105 112 124 
117 568 212 102 108 119 
117 569 212 101 107 118 
118 568 212 100 106 117 
118 568 213 100 106 116 
118 569 212 100 106 117 
119 568 213 102 109 120 
119 569 212 107 114 125 
119 569 213 114 121 133 
118 570 212 100 106 117 
119 570 212 111 117 129 
119 571 212 110 116 128 
116 572 209 106 112 123 
116 573 208 112 117 129 
116 573 209 110 116 127 
117 573 209 107 113 125 
116 572 210 103 110 122 
117 572 210 102 108 120 
117 573 210 104 110 121 
116 574 208 113 120 132 
116 574 209 112 118 130 
116 575 208 118 125 137 
117 574 209 110 117 128 
117 575 208 117 124 137 
117 575 209 112 119 131 
118 572 210 99 106 118 
118 572 211 98 105 117 
118 573 210 102 108 119 
119 572 210 100 107 118 
119 572 211 104 111 122 
119 573 210 100 107 118 
119 573 211 102 109 120 
118 574 209 106 113 124 
118 575 209 110 117 129 
119 575 209 103 109 121 
118 574 210 103 109 121 
119 574 210 102 108 120 
119 575 210 101 108 119 
120 564 215 98 104 115 
120 565 215 99 105 116 
121 565 215 100 106 116 
120 566 214 106 113 124 
120 566 215 105 112 123 
120 567 214 109 116 128 
121 566 215 105 111 123 
121 567 214 109 116 128 
121 567 215 107 114 126 
122 566 215 105 111 121 
122 567 215 108 114 126 
120 560 217 100 106 118 
120 561 216 99 106 118 
120 561 217 100 106 118 
121 561 217 98 104 115 
121 560 218 100 106 117 
121 561 218 98 104 115 
120 562 216 97 104 116 
120 562 217 98 105 116 
120 563 216 97 104 115 
121 562 217 97 104 115 
121 563 216 97 103 114 
121 563 217 97 104 114 
122 560 218 106 113 124 
122 560 219 114 120 131 
122 561 218 101 107 118 
123 560 219 116 121 132 
123 561 219 103 109 120 
122 562 217 98 104 115 
122 563 217 99 105 115 
122 562 218 98 104 115 
123 562 218 101 106 117 
123 562 219 102 108 118 
123 563 218 101 107 118 
123 560 220 114 120 131 
120 564 216 98 104 114 
121 564 216 98 103 114 
121 565 216 98 104 114 
122 564 216 99 104 115 
122 564 217 100 105 115 
122 565 216 101 106 117 
122 565 217 102 107 117 
123 564 217 102 107 117 
123 565 217 106 112 122 
123 564 218 102 108 119 
123 565 218 109 115 126 
122 566 216 105 110 121 
122 567 216 107 113 124 
123 566 216 106 112 122 
123 566 217 110 115 126 
123 567 216 108 114 125 
124 561 219 103 108 119 
124 562 219 105 110 121 
124 563 218 103 109 120 
124 563 219 110 116 127 
125 563 219 119 125 137 
124 560 220 107 113 124 
124 560 221 103 110 121 
124 561 220 103 108 119 
125 560 221 102 108 120 
125 561 221 105 111 122 
125 560 222 102 107 118 
125 561 222 105 110 121 
124 562 220 105 111 121 
125 562 220 106 112 123 
125 562 221 110 116 127 
125 563 220 118 125 137 
126 560 222 103 108 119 
126 560 223 100 106 117 
126 561 222 107 112 122 
126 561 223 104 110 120 
127 560 223 99 106 116 
127 561 223 103 109 119 
126 562 221 111 117 128 
126 563 221 115 122 134 
126 562 222 109 115 126 
126 562 223 108 113 124 
126 563 222 108 115 127 
127 562 223 106 111 122 
127 563 222 106 113 124 
127 563 223 102 109 120 
124 564 218 104 111 122 
124 564 219 116 123 135 
124 565 218 116 122 134 
124 565 219 119 126 138 
125 564 219 124 131 143 
125 565 219 123 129 141 
124 566 217 116 121 132 
124 567 216 110 116 127 
124 567 217 109 116 127 
124 566 218 119 124 136 
124 567 218 111 118 129 
125 566 218 117 123 135 
125 566 219 115 122 134 
125 567 218 110 117 128 
125 567 219 108 114 126 
126 566 219 105 112 123 
126 567 219 101 108 118 
125 564 220 127 134 146 
125 565 220 127 134 147 
126 564 220 128 135 148 
126 564 221 117 124 137 
126 565 220 119 126 138 
126 565 221 111 118 130 
127 565 221 103 110 121 
127 564 222 104 111 122 
127 564 223 100 106 117 
127 565 222 100 106 117 
127 565 223 98 104 115 
126 566 220 102 109 120 
126 566 221 100 106 118 
126 567 220 97 103 114 
127 566 221 98 104 115 
127 567 221 97 103 114 
127 566 222 100 105 115 
127 567 222 98 103 113 
120 568 213 111 118 131 
120 569 213 122 129 142 
121 568 213 115 122 136 
121 569 213 121 129 142 
120 568 214 108 116 128 
121 568 214 110 118 131 
120 570 212 122 129 142 
120 570 213 127 134 147 
120 571 212 117 123 136 
121 570 213 124 132 146 
121 571 212 119 127 140 
121 571 213 121 129 142 
122 569 213 120 128 142 
122 568 214 111 118 131 
122 568 215 109 117 128 
122 569 214 116 123 136 
123 568 215 110 117 129 
123 569 214 119 126 139 
123 569 215 113 120 132 
122 570 213 123 131 145 
122 571 213 123 131 145 
122 570 214 120 128 142 
