ply
format ascii 1.0
comment Created by CloudCompare v2.10.1 (Zephyrus)
comment Created 1/31/20 11:07 AM
obj_info Generated by CloudCompare!
element vertex 1912
property float x
property float y
property float z
property uchar red
property uchar green
property uchar blue
end_header
344 824 217 152 162 180 
344 825 216 153 163 180 
344 825 217 152 162 179 
345 824 216 152 163 181 
345 824 217 154 164 182 
344 824 218 150 160 177 
344 824 219 149 156 172 
344 825 218 150 159 176 
345 824 218 151 161 178 
345 824 219 151 159 175 
346 824 216 156 166 185 
346 824 217 157 167 185 
346 824 218 153 163 180 
346 824 219 151 160 177 
344 824 220 155 162 177 
344 824 221 162 169 184 
345 824 220 155 162 177 
345 824 221 163 169 184 
344 824 222 165 173 189 
344 824 223 164 173 190 
345 824 222 174 180 195 
346 824 220 155 162 178 
346 824 221 160 167 183 
323 831 239 149 152 168 
326 831 235 150 158 174 
327 831 234 166 172 187 
327 831 235 156 164 179 
325 831 236 145 152 167 
325 831 237 144 150 166 
324 831 238 146 151 165 
324 831 239 150 154 167 
325 830 239 153 159 172 
325 831 238 147 153 167 
325 831 239 154 158 171 
327 829 239 138 145 160 
326 830 237 147 153 167 
326 831 236 147 154 170 
326 831 237 146 153 167 
327 830 237 141 149 164 
327 831 236 146 154 170 
327 831 237 144 151 167 
326 830 238 147 153 166 
326 830 239 149 155 169 
327 830 238 142 149 164 
327 830 239 143 149 163 
330 831 231 145 153 170 
331 831 230 145 154 170 
331 831 231 146 153 171 
332 831 224 161 171 188 
332 831 225 166 176 194 
333 830 224 167 176 192 
333 830 225 178 186 204 
333 831 224 170 178 195 
333 831 225 175 184 202 
332 831 226 166 175 193 
332 831 227 163 171 189 
333 830 226 172 183 201 
333 830 227 167 177 195 
333 831 226 173 182 201 
333 831 227 166 175 193 
335 829 224 139 148 164 
335 829 225 154 163 179 
335 829 226 162 173 191 
335 829 227 157 170 190 
334 830 224 153 162 179 
334 830 225 172 180 198 
334 830 226 171 181 200 
334 830 227 164 176 195 
335 830 226 163 176 195 
335 830 227 160 173 193 
332 831 228 150 159 176 
332 831 229 145 153 170 
333 830 228 152 161 178 
333 830 229 144 152 169 
333 831 228 151 161 177 
333 831 229 145 153 170 
332 830 231 144 151 168 
332 831 230 144 152 168 
332 831 231 144 152 169 
333 830 230 141 149 166 
333 830 231 140 148 163 
333 831 230 144 151 168 
335 829 228 150 162 182 
335 829 229 139 149 168 
334 829 231 140 146 163 
335 829 230 136 143 161 
335 829 231 141 146 163 
334 830 228 153 163 181 
334 830 229 141 150 167 
335 830 228 153 164 184 
335 830 229 143 154 172 
334 830 230 139 146 164 
334 830 231 139 145 162 
331 827 239 150 159 176 
329 831 232 139 146 163 
329 831 233 136 143 160 
328 831 234 155 161 175 
328 831 235 150 157 173 
329 830 234 134 139 157 
329 830 235 137 144 162 
329 831 234 139 145 161 
329 831 235 141 148 165 
331 829 235 153 160 177 
330 831 232 136 145 162 
330 831 233 129 136 154 
331 830 233 129 135 155 
331 831 232 137 146 163 
331 831 233 129 137 156 
330 830 234 133 139 156 
330 830 235 141 148 165 
330 831 234 131 136 154 
331 830 234 135 142 159 
331 830 235 142 151 166 
329 829 237 131 136 152 
328 829 238 132 140 155 
328 829 239 132 140 154 
329 828 238 129 133 152 
329 828 239 127 134 150 
329 829 238 131 136 153 
329 829 239 129 135 151 
328 830 236 138 146 163 
328 830 237 134 141 158 
328 831 236 144 153 169 
329 830 236 133 140 158 
329 830 237 131 138 154 
328 830 238 134 142 157 
330 829 236 149 157 173 
330 829 237 132 139 156 
331 828 237 135 146 164 
331 829 236 163 172 189 
331 829 237 143 154 172 
330 828 238 130 137 154 
330 828 239 130 139 155 
330 829 238 131 135 153 
331 828 238 136 146 163 
331 828 239 140 150 166 
330 830 236 145 152 168 
335 827 235 163 171 188 
333 827 237 158 172 193 
332 827 238 149 160 180 
332 827 239 161 171 189 
333 826 239 160 172 192 
333 827 238 152 167 189 
333 827 239 156 170 190 
335 825 239 171 180 197 
334 827 236 162 172 190 
334 827 237 166 177 197 
335 826 237 161 171 189 
335 827 236 159 168 186 
335 827 237 161 170 187 
334 826 238 163 176 196 
334 826 239 164 176 195 
334 827 238 159 172 193 
335 826 238 167 178 197 
335 826 239 172 181 199 
333 829 233 142 145 167 
332 829 234 144 150 168 
332 829 235 160 169 186 
333 828 235 160 171 190 
333 829 234 151 157 177 
333 829 235 156 165 183 
332 830 232 141 149 166 
332 830 233 135 140 160 
333 830 232 142 148 165 
333 830 233 141 144 165 
332 830 234 136 141 160 
334 829 232 143 148 164 
334 829 233 149 153 170 
335 828 233 153 158 173 
335 829 232 145 150 166 
335 829 233 148 153 168 
334 828 234 161 169 186 
334 828 235 164 174 192 
334 829 234 157 162 181 
335 828 234 156 163 178 
335 828 235 163 172 189 
334 830 232 142 148 164 
332 828 236 155 167 187 
332 828 237 150 164 184 
332 829 236 160 171 189 
333 828 236 158 171 191 
333 828 237 160 173 194 
332 828 238 141 153 172 
334 828 236 162 173 191 
321 831 242 137 144 159 
322 831 241 142 148 162 
323 831 240 153 158 173 
323 831 241 153 159 173 
322 831 242 141 147 160 
323 830 242 151 156 170 
323 831 242 148 153 167 
325 829 241 146 154 169 
325 829 242 137 145 160 
324 830 241 156 163 178 
324 831 240 163 168 182 
324 831 241 160 166 181 
325 830 240 161 166 180 
325 830 241 157 164 179 
324 830 242 149 156 170 
326 829 240 144 152 166 
326 829 241 140 148 162 
327 828 241 126 134 148 
327 829 240 135 143 158 
327 829 241 131 139 153 
326 828 242 128 135 149 
326 829 242 129 137 152 
327 828 242 123 130 143 
326 830 240 150 157 171 
329 827 241 124 129 146 
328 827 242 122 126 140 
329 827 242 126 130 145 
330 827 240 136 145 162 
330 827 241 130 137 153 
331 826 241 142 149 165 
331 827 240 157 165 181 
331 827 241 150 158 173 
330 826 242 131 136 151 
330 827 242 129 133 149 
331 826 242 136 142 157 
328 828 240 126 134 149 
328 828 241 122 129 144 
328 829 240 129 137 152 
329 828 240 126 133 148 
329 828 241 122 128 144 
328 828 242 121 127 140 
330 828 240 128 137 153 
333 825 241 155 161 175 
332 825 242 146 151 167 
333 825 242 146 152 169 
332 826 240 165 174 191 
332 826 241 158 164 179 
332 827 240 167 175 192 
333 826 240 162 171 188 
333 826 241 160 166 181 
332 826 242 145 151 166 
334 825 240 161 171 189 
334 825 241 154 162 178 
335 824 241 147 155 173 
335 825 240 164 173 191 
335 825 241 153 161 179 
334 824 242 146 153 170 
334 825 242 147 154 170 
335 824 242 147 156 173 
334 826 240 162 172 191 
351 815 239 152 165 185 
350 815 241 174 184 203 
351 815 240 160 172 191 
351 815 241 173 182 200 
350 815 242 153 163 181 
351 814 242 154 164 181 
351 815 242 153 165 184 
343 823 226 143 149 166 
343 823 227 145 149 165 
343 823 228 147 151 168 
343 823 229 149 155 172 
343 823 230 152 160 177 
343 823 231 156 165 182 
339 823 238 139 145 162 
339 823 239 142 149 163 
341 823 235 138 145 159 
343 823 232 145 155 173 
343 823 233 139 148 165 
342 823 234 142 149 164 
342 823 235 140 146 161 
343 822 234 143 150 166 
343 822 235 146 151 166 
343 823 234 141 148 164 
343 823 235 144 150 165 
340 823 237 138 143 160 
341 823 236 138 144 159 
341 823 237 141 146 162 
340 822 239 139 146 161 
340 823 238 139 146 162 
340 823 239 141 149 164 
341 822 238 141 148 164 
341 822 239 142 149 164 
341 823 238 140 147 163 
343 821 237 156 164 179 
342 821 239 144 152 167 
343 820 239 146 153 169 
343 821 238 145 154 170 
343 821 239 146 154 169 
342 822 237 146 152 168 
342 823 236 140 146 161 
342 823 237 142 148 164 
343 822 236 157 163 178 
343 822 237 162 169 184 
342 822 238 145 152 168 
342 822 239 143 150 165 
343 822 238 147 155 171 
338 827 224 147 156 173 
338 827 225 147 155 171 
339 826 224 157 165 181 
339 826 225 153 162 179 
339 827 224 149 157 174 
339 827 225 150 158 175 
338 827 226 144 151 166 
338 827 227 144 150 165 
339 826 226 144 151 169 
339 826 227 143 150 165 
339 827 226 144 152 168 
339 827 227 144 149 164 
337 827 230 143 150 167 
337 827 231 148 155 172 
338 827 228 143 149 165 
338 827 229 144 150 167 
339 826 228 145 152 167 
339 826 229 150 157 173 
339 827 228 145 151 166 
339 827 229 146 153 169 
338 827 230 147 154 170 
338 827 231 155 162 178 
339 826 230 157 166 182 
339 826 231 156 165 181 
339 827 230 151 158 173 
336 828 224 143 150 167 
336 828 225 143 150 165 
336 829 224 138 146 162 
336 829 225 142 150 166 
337 828 224 146 154 170 
337 828 225 144 152 167 
336 828 226 144 151 167 
336 828 227 145 153 169 
336 829 226 151 159 176 
336 829 227 149 161 179 
337 828 226 144 150 165 
337 828 227 141 148 164 
336 828 228 142 150 168 
336 828 229 136 145 164 
336 829 228 143 156 175 
336 829 229 138 147 167 
337 828 228 141 147 164 
337 828 229 140 147 164 
336 828 230 136 142 161 
336 828 231 142 148 164 
336 829 230 134 141 160 
336 829 231 142 148 164 
337 828 230 139 146 164 
337 828 231 143 150 167 
340 825 224 172 181 198 
340 825 225 165 174 192 
341 825 224 169 178 195 
341 825 225 165 175 192 
340 825 226 147 156 174 
340 825 227 143 150 168 
341 825 226 149 159 176 
341 825 227 144 152 169 
340 826 224 168 177 193 
340 826 225 161 170 187 
340 826 226 144 153 170 
340 826 227 143 149 167 
342 824 224 155 164 182 
342 824 225 152 162 179 
342 825 224 159 168 185 
342 825 225 157 167 184 
343 824 224 154 163 180 
343 824 225 145 153 170 
342 824 226 146 154 172 
342 824 227 142 150 168 
343 824 226 143 149 167 
343 824 227 142 147 165 
340 825 228 147 153 170 
340 825 229 155 162 177 
341 825 228 148 155 171 
341 825 229 149 156 172 
340 825 230 167 175 191 
340 825 231 158 167 184 
341 824 231 157 164 180 
341 825 230 161 168 184 
341 825 231 160 168 184 
340 826 228 146 152 169 
340 826 229 155 162 178 
340 826 230 163 171 187 
342 824 228 147 153 171 
342 824 229 150 157 174 
343 824 228 145 150 169 
343 824 229 150 157 174 
342 824 230 153 161 178 
342 824 231 153 161 178 
343 824 230 153 161 178 
343 824 231 152 162 179 
336 827 233 145 152 167 
337 827 232 146 153 169 
337 827 233 145 152 167 
336 826 235 145 151 166 
336 827 234 150 156 170 
336 827 235 151 157 172 
337 826 234 143 150 164 
337 826 235 143 150 165 
337 827 234 146 153 167 
339 825 232 153 161 176 
339 825 233 150 158 173 
338 825 235 142 150 166 
339 825 234 147 155 170 
339 825 235 141 149 166 
338 826 232 156 163 179 
338 826 233 147 155 171 
338 827 232 158 165 180 
338 827 233 150 158 173 
339 826 232 158 165 180 
339 826 233 149 157 172 
338 826 234 142 150 165 
338 826 235 141 149 164 
339 826 234 146 155 170 
336 825 237 147 154 172 
337 825 236 145 151 167 
337 825 237 142 149 166 
336 825 238 148 157 174 
336 825 239 155 164 181 
337 824 239 142 150 166 
337 825 238 144 151 167 
337 825 239 143 151 168 
336 826 236 148 154 170 
336 826 237 151 158 175 
336 827 236 154 160 176 
337 826 236 145 151 167 
337 826 237 143 149 166 
336 826 238 160 169 187 
338 824 237 140 146 162 
338 825 236 142 150 166 
338 825 237 141 148 163 
339 824 236 137 144 161 
339 824 237 137 143 160 
339 825 236 139 147 163 
338 824 238 143 149 164 
338 824 239 143 149 164 
339 824 238 141 147 162 
339 824 239 143 149 163 
336 828 232 144 151 166 
336 828 233 148 154 169 
336 828 234 150 156 171 
340 825 232 149 157 173 
340 825 233 147 154 170 
341 824 232 146 154 170 
341 824 233 146 154 169 
341 825 232 148 156 172 
340 824 234 144 152 167 
340 824 235 140 148 164 
340 825 234 146 153 169 
341 824 234 144 152 168 
341 824 235 141 148 163 
342 824 232 141 150 166 
342 824 233 140 148 164 
343 824 232 140 150 167 
342 824 234 143 151 166 
340 824 236 138 144 160 
340 824 237 138 143 160 
341 824 236 139 145 160 
344 823 224 160 168 185 
344 823 225 147 155 172 
345 823 224 161 169 186 
345 823 225 150 158 174 
344 823 226 143 149 166 
344 823 227 148 153 168 
345 822 226 146 153 169 
345 822 227 149 155 170 
345 823 226 145 151 167 
345 823 227 147 153 169 
347 821 227 148 154 176 
346 822 224 160 167 183 
346 822 225 153 161 178 
346 823 224 162 168 184 
346 823 225 152 160 177 
347 822 224 154 162 179 
347 822 225 153 161 178 
346 822 226 146 153 170 
346 822 227 148 155 172 
347 822 226 144 153 173 
347 822 227 146 152 172 
344 823 228 150 155 171 
344 823 229 149 155 171 
345 822 228 150 157 172 
345 822 229 152 159 174 
345 823 228 150 156 171 
344 822 231 161 169 184 
344 823 230 152 158 174 
344 823 231 160 168 184 
345 822 230 150 157 173 
345 822 231 158 165 180 
346 821 229 151 159 174 
347 821 228 148 155 173 
347 821 229 151 158 174 
346 821 230 148 156 172 
346 821 231 148 155 171 
347 821 230 151 158 174 
347 821 231 146 152 169 
346 822 228 151 158 174 
346 822 229 152 160 175 
346 822 230 149 157 173 
346 822 231 153 160 175 
351 819 229 171 179 195 
350 819 230 172 181 198 
350 819 231 154 164 182 
351 819 230 167 176 193 
351 819 231 151 162 180 
349 821 224 146 152 169 
349 821 225 151 156 175 
348 821 226 146 155 176 
348 821 227 155 163 184 
349 821 226 159 166 185 
349 821 227 168 176 194 
348 822 224 150 157 174 
348 822 225 149 158 176 
349 822 224 148 154 171 
348 822 226 145 155 174 
350 821 224 144 151 167 
350 821 225 150 155 172 
351 820 224 143 149 168 
351 820 225 147 153 169 
351 821 224 143 149 167 
350 820 226 161 168 184 
350 820 227 179 187 203 
350 821 226 163 170 187 
350 821 227 181 188 205 
351 820 226 153 160 175 
351 820 227 165 173 189 
348 821 228 159 167 187 
348 821 229 158 167 185 
349 820 228 173 182 200 
349 820 229 173 182 201 
349 821 228 173 182 201 
348 820 230 165 172 189 
348 820 231 154 161 177 
348 821 230 161 168 184 
349 820 230 169 178 196 
349 820 231 158 166 183 
350 820 228 181 188 205 
350 820 229 177 186 203 
351 820 228 174 181 198 
351 820 229 176 183 199 
350 820 230 173 183 200 
345 819 239 143 148 165 
346 819 237 157 166 184 
347 819 236 145 151 167 
347 819 237 155 163 179 
346 818 239 144 152 168 
346 819 238 147 156 174 
346 819 239 141 148 165 
347 818 238 156 165 181 
347 818 239 146 156 173 
347 819 238 159 168 184 
344 821 235 147 152 167 
345 821 234 144 151 167 
345 821 235 145 152 167 
344 822 232 156 165 181 
344 822 233 145 155 172 
344 823 232 158 166 184 
345 822 232 153 161 176 
345 822 233 143 152 168 
344 822 234 143 151 167 
344 822 235 146 152 168 
345 822 234 143 151 167 
346 821 232 147 153 169 
346 821 233 141 147 163 
347 820 232 144 150 166 
347 820 233 142 147 162 
347 821 232 144 150 166 
347 821 233 142 148 163 
346 820 234 141 148 162 
346 820 235 142 149 165 
346 821 234 141 147 163 
346 821 235 142 148 165 
347 820 234 142 148 161 
347 820 235 144 150 165 
346 822 232 153 160 175 
344 821 236 152 158 173 
344 821 237 156 163 179 
345 820 237 148 155 171 
345 821 236 149 155 169 
345 821 237 151 157 171 
344 820 238 142 150 167 
344 820 239 145 151 167 
344 821 238 143 152 168 
345 820 238 141 148 165 
345 820 239 145 149 166 
344 822 236 151 156 173 
346 820 236 142 150 167 
346 820 237 150 159 176 
347 820 236 144 151 167 
346 820 238 145 153 171 
349 819 232 146 152 169 
349 819 233 143 148 163 
348 819 234 143 148 161 
348 819 235 145 149 164 
349 818 235 142 149 164 
349 819 234 141 147 162 
349 819 235 143 149 164 
351 817 234 144 150 166 
351 817 235 145 151 166 
350 818 233 141 148 165 
350 819 232 142 152 169 
350 819 233 143 150 164 
351 818 232 137 148 166 
351 818 233 137 145 162 
351 819 232 140 151 169 
350 818 234 144 150 165 
350 818 235 143 150 165 
350 819 234 144 150 164 
351 818 234 142 147 164 
349 817 238 155 167 188 
349 817 239 154 168 189 
348 818 237 158 166 183 
348 819 236 146 150 166 
348 819 237 150 157 173 
349 818 236 141 149 165 
349 818 237 152 161 179 
349 819 236 141 148 164 
348 818 238 158 168 186 
348 818 239 148 160 179 
349 818 238 154 166 185 
350 817 236 148 153 167 
350 817 237 161 168 184 
351 816 237 157 163 177 
351 817 236 144 150 164 
351 817 237 157 163 177 
350 816 238 165 175 194 
350 816 239 157 172 194 
350 817 238 161 171 191 
350 817 239 157 171 193 
351 816 238 163 171 188 
351 816 239 157 170 190 
350 818 236 145 151 167 
350 818 237 153 162 179 
348 820 232 144 150 165 
348 820 233 142 148 163 
349 820 232 145 151 166 
349 820 233 141 146 161 
348 820 234 142 147 160 
344 824 224 161 169 186 
337 823 241 142 150 167 
336 823 242 146 152 169 
337 823 242 143 150 167 
338 823 240 139 146 161 
338 823 241 138 146 163 
339 822 241 141 145 163 
339 823 240 142 148 163 
339 823 241 140 145 162 
338 822 242 141 149 167 
338 823 242 141 149 166 
339 822 242 145 150 169 
343 819 242 137 143 157 
340 821 241 146 150 165 
341 821 240 141 147 161 
341 821 241 140 146 160 
340 821 242 154 158 174 
341 821 242 151 156 170 
340 822 240 140 147 161 
340 822 241 143 147 162 
341 822 240 141 148 162 
341 822 241 139 145 159 
340 822 242 152 155 172 
342 820 241 138 145 159 
342 821 240 142 149 163 
342 821 241 141 147 162 
343 820 240 144 151 166 
343 820 241 142 149 164 
343 821 240 144 151 165 
343 821 241 142 149 163 
342 820 242 139 146 160 
343 820 242 136 144 158 
336 824 240 150 157 174 
336 824 241 149 157 174 
336 825 240 156 164 181 
336 825 241 155 164 181 
337 824 240 143 151 168 
337 824 241 145 153 170 
336 824 242 146 154 171 
338 824 240 140 148 164 
344 819 241 140 148 162 
345 818 241 140 148 164 
345 819 240 140 146 162 
345 819 241 138 146 161 
344 819 242 138 145 160 
345 818 242 138 146 162 
345 819 242 138 145 160 
347 817 241 164 172 188 
346 817 242 158 166 182 
347 817 242 161 169 185 
346 818 240 145 153 169 
346 818 241 154 162 177 
346 819 240 140 147 162 
347 818 240 149 159 176 
347 818 241 159 167 183 
346 818 242 151 159 174 
344 820 240 142 149 163 
344 820 241 141 148 163 
348 817 240 148 160 180 
348 817 241 163 172 189 
349 816 241 158 167 185 
349 817 240 151 165 185 
349 817 241 157 167 185 
348 816 242 157 164 179 
348 817 242 161 169 184 
349 816 242 155 162 178 
348 818 240 143 155 175 
350 816 240 158 172 193 
350 816 241 164 175 193 
350 817 240 153 168 189 
351 816 240 157 171 192 
350 816 242 156 165 182 
356 781 192 107 115 126 
357 781 192 107 114 125 
357 781 193 103 110 120 
356 782 192 108 115 126 
356 783 192 107 113 124 
357 782 192 107 114 125 
357 782 193 101 108 119 
357 783 192 108 114 125 
357 783 193 105 111 122 
355 788 192 107 114 125 
355 789 192 95 103 114 
355 790 192 95 103 115 
355 791 192 101 109 120 
356 784 192 99 105 116 
356 785 192 95 101 112 
357 784 193 101 107 117 
357 785 193 93 99 109 
357 784 194 97 104 114 
357 785 194 93 99 110 
356 786 192 94 101 112 
356 786 193 92 98 109 
356 787 192 97 104 115 
356 787 193 92 98 109 
357 786 193 91 98 109 
357 787 193 93 100 111 
357 786 194 92 98 109 
357 787 194 93 100 111 
358 787 194 94 100 110 
358 787 195 94 100 110 
356 788 192 99 106 117 
356 788 193 94 101 112 
356 789 192 94 102 113 
356 789 193 95 102 113 
357 788 193 100 106 117 
357 789 193 101 107 119 
357 788 194 104 110 121 
357 789 194 104 110 121 
356 790 192 96 104 115 
356 790 193 96 103 114 
356 791 192 99 106 117 
356 791 193 96 103 115 
357 790 193 93 100 112 
357 791 193 97 104 115 
357 790 194 93 101 112 
357 791 194 95 102 114 
358 788 194 100 106 117 
358 788 195 96 102 112 
358 789 194 102 108 119 
358 789 195 94 100 111 
358 790 195 90 98 109 
358 791 195 92 99 110 
358 791 196 93 101 112 
355 792 192 111 118 129 
355 793 192 119 126 138 
354 794 192 118 125 137 
354 795 192 105 112 124 
355 794 192 119 126 138 
355 794 193 114 121 133 
355 795 192 109 117 129 
355 795 193 105 112 124 
353 796 192 98 106 118 
353 797 192 95 103 116 
352 798 192 105 112 124 
352 799 192 105 112 124 
352 799 193 105 113 125 
353 798 192 98 106 119 
353 798 193 105 113 126 
353 799 193 105 113 127 
353 799 194 113 122 136 
354 796 192 99 107 119 
354 796 193 99 107 119 
354 797 192 95 103 116 
354 797 193 101 109 121 
355 796 193 100 107 119 
354 797 194 112 119 131 
355 796 194 100 107 119 
355 797 194 113 120 131 
354 798 193 106 114 127 
354 798 194 120 128 140 
354 799 194 122 130 144 
354 799 195 134 141 154 
355 798 194 127 134 146 
355 798 195 125 131 143 
355 799 195 128 135 147 
355 799 196 124 130 143 
356 792 193 112 119 130 
356 793 193 122 129 141 
356 793 194 116 123 135 
357 792 194 108 115 126 
357 793 194 106 114 126 
356 794 193 108 116 128 
356 795 193 99 106 119 
356 794 194 103 111 123 
356 795 194 99 106 118 
356 795 195 107 114 125 
357 794 194 101 110 122 
357 794 195 98 107 119 
357 795 195 109 116 127 
358 792 195 92 100 112 
358 793 195 91 99 111 
358 794 195 97 104 116 
358 795 195 108 115 126 
358 792 196 93 100 111 
358 793 196 90 97 109 
359 792 196 95 102 113 
359 792 197 96 102 113 
359 793 196 92 99 110 
359 793 197 93 99 109 
358 794 196 97 104 114 
358 795 196 106 111 122 
359 794 196 92 98 109 
359 794 197 95 100 110 
359 795 197 95 100 110 
359 795 198 90 96 105 
356 796 194 105 112 123 
356 796 195 112 118 129 
356 797 195 117 122 133 
357 796 195 116 121 132 
356 798 195 120 127 139 
356 797 196 113 119 130 
357 796 196 113 118 129 
357 797 196 109 115 126 
357 797 197 100 107 118 
356 798 196 114 120 132 
356 799 196 113 120 133 
356 799 197 110 117 130 
357 798 196 109 115 126 
357 798 197 106 112 124 
357 799 197 112 118 130 
357 799 198 110 116 128 
358 796 196 110 115 126 
358 796 197 98 104 114 
358 797 196 106 112 122 
358 797 197 94 101 111 
359 796 197 90 96 106 
358 797 198 93 100 112 
359 796 198 87 93 103 
359 797 198 89 96 107 
358 798 197 99 106 118 
358 798 198 100 107 119 
358 799 198 104 111 123 
358 799 199 102 109 121 
359 798 198 96 104 115 
359 798 199 98 106 117 
359 799 199 97 105 117 
359 799 200 97 105 118 
360 798 199 103 110 122 
360 798 200 109 116 128 
360 799 200 102 110 122 
360 799 201 105 112 124 
352 800 192 105 112 124 
352 800 193 106 114 126 
352 801 193 105 113 126 
353 800 193 107 116 129 
352 801 194 114 123 136 
353 800 194 122 130 144 
353 801 194 130 138 152 
353 801 195 138 146 160 
352 802 194 122 129 142 
352 802 195 136 143 156 
352 803 194 123 130 143 
352 803 195 128 134 147 
353 802 195 139 146 159 
353 803 195 133 139 152 
354 800 194 131 139 152 
354 800 195 139 146 159 
354 801 195 138 145 159 
355 800 195 135 142 154 
353 802 196 134 141 153 
353 803 196 122 129 142 
354 801 196 135 142 155 
355 800 196 127 134 146 
355 801 196 130 137 150 
355 801 197 120 127 140 
354 802 196 131 138 151 
354 802 197 115 123 136 
354 803 197 101 109 122 
355 802 197 104 112 125 
354 803 198 99 107 120 
355 802 198 101 110 122 
355 803 198 103 110 123 
355 803 199 107 115 128 
352 804 195 113 120 133 
352 804 196 104 111 123 
352 805 196 101 109 121 
352 805 197 104 112 125 
353 804 196 101 108 121 
353 804 197 98 105 118 
353 805 197 104 111 124 
353 804 198 104 111 124 
353 805 198 114 121 134 
352 806 197 110 118 132 
352 806 198 118 125 139 
352 807 198 129 136 150 
353 806 198 125 132 145 
353 806 199 131 138 151 
353 807 198 130 138 151 
353 807 199 130 137 151 
354 804 197 97 105 118 
354 804 198 107 114 127 
354 805 198 118 126 139 
354 805 199 127 134 148 
355 804 198 113 120 133 
355 804 199 118 125 138 
355 805 199 128 136 149 
354 806 199 130 137 151 
356 800 196 113 120 133 
356 800 197 106 113 126 
356 801 197 105 112 125 
357 800 197 105 112 125 
356 801 198 100 107 120 
357 800 198 103 109 122 
357 801 198 97 104 117 
357 801 199 103 111 124 
356 802 198 101 109 121 
356 802 199 105 113 126 
356 803 199 111 119 132 
357 802 199 108 115 128 
357 803 199 113 120 134 
358 800 198 105 112 124 
358 800 199 104 111 124 
358 801 199 108 116 129 
359 800 199 103 111 124 
356 804 199 121 128 141 
355 805 200 131 138 151 
354 806 200 128 136 149 
354 807 200 128 135 149 
354 807 201 128 135 149 
355 806 200 128 135 149 
355 806 201 129 136 149 
355 807 201 129 136 150 
357 802 200 117 125 138 
357 803 200 121 129 142 
357 803 201 125 132 146 
358 801 200 119 128 142 
359 800 200 103 111 124 
359 801 200 113 121 135 
359 801 201 123 131 145 
358 802 200 124 133 146 
358 802 201 132 140 154 
358 803 201 128 136 150 
359 802 201 135 142 156 
358 803 202 130 138 152 
359 802 202 131 139 153 
359 803 202 133 140 154 
356 804 200 129 136 149 
356 805 200 133 140 154 
356 805 201 133 140 153 
357 804 200 128 135 148 
357 804 201 128 135 148 
357 805 201 133 140 153 
357 805 202 133 140 154 
356 806 201 131 138 151 
356 806 202 131 138 152 
356 807 202 130 137 151 
357 806 202 133 140 154 
357 806 203 132 140 154 
357 807 202 130 137 151 
357 807 203 131 138 152 
358 804 202 127 136 150 
358 805 202 133 140 154 
358 805 203 131 139 153 
359 804 202 133 141 154 
359 804 203 136 143 157 
359 805 203 131 139 153 
358 806 203 131 139 153 
357 807 204 133 140 154 
359 805 204 131 139 154 
359 805 205 140 148 162 
358 806 204 131 139 154 
358 807 204 132 140 155 
358 807 205 136 144 159 
359 806 204 132 141 156 
359 806 205 141 149 164 
359 807 205 140 149 164 
358 807 206 142 151 166 
359 806 206 144 152 167 
359 807 206 143 152 168 
359 807 207 143 151 166 
352 808 198 137 144 159 
352 808 199 134 143 158 
352 809 199 141 150 166 
353 808 199 129 138 153 
352 809 200 141 150 167 
353 808 200 130 139 154 
353 808 201 137 145 161 
353 809 200 138 148 164 
353 809 201 146 155 171 
352 810 200 147 156 172 
352 810 201 151 160 176 
352 811 201 150 159 174 
353 810 201 152 161 176 
352 811 202 149 158 173 
353 810 202 151 159 175 
353 811 202 145 153 169 
353 811 203 137 146 162 
354 808 200 128 136 151 
354 808 201 133 141 155 
354 809 201 143 151 166 
355 808 201 131 138 152 
354 808 202 135 143 157 
354 809 202 140 149 164 
355 808 202 130 138 152 
355 809 202 131 139 154 
355 809 203 130 138 153 
354 810 202 142 151 166 
354 810 203 135 144 159 
354 811 203 135 145 160 
355 810 203 131 140 156 
354 811 204 133 143 159 
355 810 204 132 142 158 
355 810 205 137 146 162 
355 811 204 133 143 159 
355 811 205 142 152 168 
355 811 206 149 158 175 
355 811 207 148 157 174 
352 812 202 146 154 169 
352 812 203 140 149 164 
352 813 203 141 151 166 
353 812 203 136 145 161 
352 813 204 140 149 164 
352 813 205 139 148 164 
353 812 204 135 144 160 
353 812 205 137 147 163 
353 813 204 138 147 162 
353 813 205 139 148 164 
353 813 206 140 150 166 
352 814 205 143 152 168 
352 814 206 146 155 171 
352 815 206 149 159 175 
352 815 207 154 163 180 
353 814 206 144 153 169 
353 814 207 147 156 172 
354 812 204 133 143 159 
354 812 205 136 145 162 
354 813 205 138 147 164 
355 812 205 139 149 166 
354 812 206 138 148 165 
354 812 207 139 149 166 
354 813 206 139 149 165 
354 813 207 143 153 169 
355 812 206 141 152 168 
355 812 207 140 150 166 
354 814 207 145 154 171 
356 808 202 129 137 150 
356 808 203 130 137 151 
356 809 203 129 137 152 
357 808 203 132 139 153 
356 808 204 131 139 154 
356 809 204 131 140 155 
356 809 205 137 147 163 
357 808 204 133 141 156 
357 808 205 135 144 159 
357 809 205 138 147 163 
357 809 206 144 153 169 
356 810 205 143 153 169 
356 810 206 156 165 182 
356 811 206 157 166 182 
356 811 207 154 163 179 
357 810 206 151 161 177 
357 810 207 154 163 179 
358 808 205 135 143 158 
358 808 206 139 148 163 
358 808 207 144 152 168 
358 809 206 141 150 166 
358 809 207 145 154 170 
359 808 206 143 151 167 
359 808 207 143 151 167 
360 800 200 99 107 120 
360 800 201 102 110 123 
360 801 201 117 125 139 
360 800 202 101 109 122 
360 801 202 112 121 134 
360 802 202 124 132 147 
360 802 203 120 128 142 
360 803 202 130 138 151 
360 803 203 132 139 153 
360 803 204 129 137 150 
360 804 203 137 144 158 
360 804 204 132 140 154 
360 804 205 128 136 150 
360 805 204 131 139 153 
360 805 205 138 146 160 
361 804 205 124 132 146 
360 805 206 139 147 162 
360 805 207 134 143 158 
361 804 206 124 132 146 
361 804 207 119 128 143 
361 805 206 131 140 156 
361 805 207 125 134 149 
360 806 206 142 151 167 
360 806 207 140 148 164 
360 807 207 142 151 166 
352 815 208 157 166 183 
352 815 209 150 160 177 
353 814 208 147 156 172 
353 814 209 145 154 171 
353 815 208 151 160 176 
353 815 209 146 156 173 
353 815 210 148 158 175 
354 813 208 147 156 172 
355 812 208 142 152 168 
355 813 208 145 154 170 
355 813 209 147 157 173 
355 813 210 147 157 174 
354 814 208 146 155 171 
354 814 209 145 155 172 
355 814 209 146 155 172 
354 814 210 146 156 173 
354 815 210 148 158 175 
354 815 211 145 155 172 
355 814 210 146 156 173 
355 814 211 145 156 173 
354 815 212 143 153 171 
355 814 212 145 156 174 
355 815 212 142 152 170 
355 815 213 145 155 173 
355 815 214 147 157 175 
356 811 208 143 153 169 
357 810 208 147 155 171 
357 811 208 146 154 171 
357 811 209 144 154 170 
357 811 210 151 160 176 
358 809 208 140 149 164 
358 809 209 136 145 160 
359 808 208 139 147 162 
359 808 209 134 143 158 
359 809 208 137 145 161 
359 809 209 134 143 159 
359 808 210 135 143 159 
359 809 210 137 145 160 
359 809 211 137 146 161 
358 810 208 140 149 165 
358 810 209 140 148 164 
358 810 210 141 150 165 
358 810 211 143 152 168 
358 811 210 145 154 170 
358 811 211 147 156 172 
359 810 210 140 149 164 
359 810 211 139 148 164 
358 811 212 144 153 170 
358 811 213 140 149 166 
359 810 212 140 149 165 
359 810 213 144 153 169 
359 811 212 142 151 167 
359 811 213 142 152 168 
359 811 214 142 151 167 
359 811 215 142 150 165 
356 812 208 141 151 167 
356 812 209 146 155 172 
356 812 210 153 162 178 
356 812 211 161 169 185 
356 813 210 151 161 178 
356 813 211 158 168 184 
357 812 210 158 167 183 
357 812 211 158 167 183 
356 813 212 161 171 188 
356 813 213 158 168 186 
357 812 212 157 167 184 
357 812 213 151 161 178 
357 813 212 163 172 190 
357 813 213 152 162 180 
357 813 214 145 156 173 
357 813 215 142 152 169 
356 814 212 153 164 182 
356 814 213 150 161 178 
356 814 214 149 160 177 
356 814 215 145 155 173 
356 815 214 149 159 176 
356 815 215 146 156 173 
357 814 214 148 158 176 
357 814 215 142 152 170 
358 812 212 148 158 174 
358 812 213 142 152 169 
358 812 214 140 149 165 
358 812 215 139 148 164 
358 813 214 141 151 167 
358 813 215 140 150 166 
359 812 215 138 147 163 
356 815 216 143 153 170 
356 815 217 144 153 170 
357 814 216 141 151 167 
357 814 217 143 152 169 
357 815 216 142 152 169 
357 815 217 143 152 168 
357 815 218 141 150 165 
357 815 219 137 145 161 
358 813 216 142 151 167 
358 813 217 147 154 170 
359 812 216 140 148 164 
359 812 217 144 152 168 
359 813 217 146 153 169 
359 812 218 146 153 168 
359 813 218 146 152 168 
359 813 219 142 148 163 
358 814 216 143 152 168 
358 814 217 144 153 169 
358 814 218 143 150 166 
358 814 219 138 145 160 
358 815 218 139 147 163 
358 815 219 136 144 160 
359 814 219 140 146 161 
357 815 220 135 143 158 
359 813 220 143 149 163 
358 815 220 135 142 157 
358 815 221 133 140 154 
359 814 220 139 146 160 
359 814 221 138 144 159 
358 815 222 135 141 155 
358 815 223 143 148 162 
359 814 222 134 140 155 
359 814 223 134 140 155 
359 815 222 133 139 153 
359 815 223 141 146 160 
361 805 208 125 134 148 
361 805 209 125 134 148 
360 806 208 138 146 161 
360 807 208 138 147 162 
360 807 209 134 142 157 
361 806 208 135 143 158 
361 806 209 129 138 153 
361 807 209 130 139 154 
360 807 210 132 141 156 
361 806 210 123 132 147 
361 807 210 129 138 153 
361 807 211 130 138 153 
361 807 212 130 139 154 
360 808 208 135 143 158 
360 808 209 134 143 158 
360 808 210 136 144 159 
360 808 211 137 145 160 
360 809 211 136 145 160 
361 808 211 136 144 159 
360 808 212 137 146 161 
360 809 212 139 148 163 
360 809 213 148 157 173 
361 808 212 136 145 160 
361 808 213 141 149 164 
361 809 213 150 158 174 
361 808 214 140 149 164 
361 809 214 147 156 171 
361 809 215 143 151 166 
360 810 212 146 154 170 
360 810 213 148 157 172 
360 810 214 149 158 173 
360 811 214 144 153 168 
360 811 215 145 153 168 
361 810 214 151 159 174 
361 810 215 145 154 169 
362 809 215 136 144 159 
360 811 216 142 150 165 
360 811 217 144 152 167 
361 810 216 141 150 165 
361 810 217 142 150 165 
361 811 216 144 152 167 
361 811 217 147 154 169 
360 811 218 148 155 171 
361 811 218 148 156 171 
361 811 219 147 155 170 
362 809 216 129 138 152 
362 809 217 126 135 149 
362 809 218 124 133 147 
362 810 217 137 145 160 
362 810 218 137 144 159 
362 810 219 131 139 154 
362 811 218 145 152 167 
362 811 219 141 149 164 
361 811 220 144 151 166 
362 810 220 131 140 155 
362 810 221 131 139 154 
362 811 220 141 149 163 
362 811 221 141 149 163 
362 811 222 138 146 160 
362 811 223 139 147 161 
360 812 216 138 146 162 
360 812 217 144 152 168 
360 812 218 145 153 169 
360 812 219 144 151 167 
360 813 219 142 149 163 
361 812 218 147 155 170 
361 812 219 145 152 167 
360 812 220 142 149 163 
360 813 220 143 149 163 
360 813 221 145 151 164 
361 812 220 142 150 165 
361 812 221 142 149 163 
360 813 222 144 150 163 
361 812 222 142 149 163 
361 812 223 141 147 162 
361 813 222 144 150 163 
361 813 223 139 146 160 
360 814 222 139 145 159 
360 814 223 138 144 159 
362 812 222 141 148 162 
362 812 223 144 151 165 
352 816 208 157 167 184 
352 816 209 153 163 181 
353 816 209 147 157 174 
352 816 210 149 159 176 
352 817 210 149 159 176 
352 817 211 146 157 174 
353 816 210 148 158 175 
353 816 211 147 157 174 
354 816 211 147 157 174 
352 817 212 148 157 174 
353 816 212 145 155 171 
353 817 212 145 155 172 
353 817 213 147 157 174 
353 817 214 150 160 177 
352 818 212 149 159 175 
352 818 213 149 159 176 
352 818 214 150 160 177 
352 818 215 151 161 179 
352 819 214 150 160 178 
352 819 215 151 161 180 
353 818 214 150 160 178 
353 818 215 156 166 184 
354 816 212 144 154 171 
354 816 213 145 155 172 
354 817 213 147 157 174 
355 816 213 145 155 173 
354 816 214 150 160 178 
354 816 215 155 165 183 
354 817 214 151 161 178 
354 817 215 159 169 187 
355 816 214 148 158 175 
355 816 215 151 161 178 
352 819 216 164 175 194 
352 819 217 174 185 204 
353 818 216 170 181 199 
353 818 217 171 182 201 
353 819 216 174 185 204 
353 819 217 173 184 204 
352 819 218 160 173 193 
352 819 219 155 167 186 
353 819 218 165 177 197 
353 819 219 159 171 191 
354 817 216 162 172 190 
354 817 217 166 176 193 
355 816 216 152 162 180 
355 816 217 150 160 178 
355 817 216 156 166 183 
355 817 217 155 166 183 
354 817 218 167 177 195 
355 817 218 153 164 182 
355 817 219 159 169 187 
354 818 216 172 182 200 
354 818 217 170 181 199 
354 818 218 169 180 199 
354 818 219 169 179 198 
354 819 219 161 173 193 
355 818 219 168 178 196 
353 819 220 155 166 186 
353 819 221 154 164 185 
353 819 222 150 160 180 
353 819 223 145 155 174 
355 817 220 166 175 192 
355 817 221 162 171 189 
354 818 220 167 177 196 
354 818 221 155 167 187 
354 819 220 158 170 189 
354 819 221 150 162 182 
355 818 220 173 182 200 
355 818 221 163 173 191 
354 818 222 146 156 177 
354 818 223 145 153 172 
354 819 222 145 154 175 
354 819 223 145 154 173 
355 818 222 149 159 177 
355 818 223 146 154 173 
352 820 217 171 182 201 
352 820 218 161 173 193 
352 820 219 154 165 184 
352 820 220 157 167 187 
352 820 221 159 168 189 
352 820 222 154 164 184 
352 820 223 147 156 176 
353 820 223 144 154 173 
356 816 216 145 156 173 
356 816 217 145 155 172 
356 816 218 143 154 171 
356 816 219 142 152 170 
356 817 219 148 159 176 
357 816 218 141 150 167 
357 816 219 139 148 164 
356 817 220 153 162 179 
356 817 221 152 161 177 
357 816 220 138 147 163 
357 816 221 137 145 161 
356 817 222 146 154 171 
356 817 223 145 154 170 
357 816 222 139 146 161 
357 816 223 143 149 164 
357 817 222 142 150 165 
357 817 223 144 150 166 
358 816 223 145 151 165 
358 815 224 149 155 170 
359 815 224 149 155 169 
359 815 225 154 161 175 
359 815 226 155 162 177 
359 815 227 150 157 173 
357 815 230 146 155 173 
357 815 231 146 154 174 
358 815 228 153 161 177 
358 815 229 153 161 177 
359 815 228 150 157 173 
359 815 229 150 157 173 
358 814 231 142 151 169 
358 815 230 146 155 171 
358 815 231 142 151 170 
359 814 230 145 151 167 
359 814 231 146 153 169 
359 815 230 146 153 169 
354 815 235 157 167 186 
355 815 234 156 165 186 
355 815 235 162 172 191 
353 815 237 148 155 170 
352 815 238 147 155 171 
352 815 239 145 156 175 
353 814 239 145 151 169 
353 815 238 146 152 168 
353 815 239 145 151 170 
355 813 238 150 155 173 
355 813 239 148 156 172 
354 814 237 147 153 171 
354 815 236 148 157 176 
354 815 237 147 154 171 
355 814 236 151 160 178 
355 814 237 147 153 172 
355 815 236 149 158 178 
354 814 238 143 150 166 
354 814 239 145 152 168 
354 815 238 144 150 166 
355 814 238 146 152 170 
359 811 237 148 154 169 
358 811 238 152 158 176 
358 811 239 153 161 177 
359 811 238 153 159 175 
359 811 239 165 173 190 
357 813 235 151 156 170 
356 815 232 162 171 190 
356 815 233 164 173 191 
357 814 233 135 142 163 
357 815 232 143 150 172 
357 815 233 140 148 168 
356 814 234 150 155 175 
356 814 235 152 158 176 
356 815 234 152 160 179 
356 815 235 156 163 183 
357 814 234 142 148 167 
357 814 235 150 154 170 
357 815 234 140 148 167 
359 813 233 165 172 188 
358 813 234 139 147 165 
358 813 235 151 157 172 
359 812 235 150 158 174 
359 813 234 146 155 173 
359 813 235 148 155 171 
358 814 232 142 152 171 
358 814 233 139 148 167 
358 815 232 141 150 170 
359 814 232 155 164 180 
359 814 233 156 165 182 
358 814 234 135 145 163 
356 813 237 146 153 170 
357 812 237 155 160 176 
357 813 236 151 156 170 
357 813 237 151 157 173 
356 812 239 160 165 181 
356 813 238 151 157 174 
356 813 239 156 162 178 
357 812 238 152 158 174 
357 812 239 156 162 178 
357 813 238 150 156 173 
356 814 236 151 158 174 
356 814 237 146 153 170 
357 814 236 151 156 172 
358 812 236 151 156 172 
358 812 237 149 154 170 
358 813 236 151 156 171 
359 812 236 152 158 174 
359 812 237 149 155 170 
358 812 238 151 157 174 
358 812 239 152 159 175 
361 813 224 144 152 167 
361 813 225 150 158 174 
361 813 226 148 156 172 
361 813 227 143 150 166 
360 814 224 148 154 168 
360 814 225 158 163 177 
361 814 224 148 155 170 
361 814 225 156 162 176 
360 814 226 157 163 177 
360 814 227 151 158 172 
360 815 226 157 164 178 
360 815 227 152 159 174 
361 814 226 154 161 176 
361 814 227 146 153 167 
362 812 224 147 153 169 
362 812 225 144 152 168 
362 813 225 147 155 172 
362 812 226 144 153 170 
362 812 227 143 150 169 
362 813 226 144 153 170 
362 813 227 143 149 167 
361 813 228 144 148 165 
361 813 229 145 150 166 
360 813 231 152 157 170 
361 813 230 145 151 165 
361 813 231 145 151 165 
360 814 228 147 154 169 
360 814 229 148 155 170 
360 815 228 148 155 170 
361 814 228 145 151 165 
361 814 229 146 152 168 
360 814 230 146 152 167 
360 814 231 149 154 168 
361 814 230 147 153 167 
362 812 228 147 151 171 
362 812 229 147 150 170 
362 813 228 145 149 168 
362 813 229 147 148 167 
362 812 230 149 155 170 
362 812 231 142 150 165 
362 813 230 146 150 166 
361 811 234 136 142 158 
361 811 235 143 148 162 
362 811 233 135 144 159 
362 810 235 141 146 160 
362 811 234 133 139 155 
362 811 235 140 145 159 
361 809 239 143 151 168 
360 811 236 147 153 167 
360 811 237 145 151 167 
361 810 237 139 144 159 
361 811 236 146 151 165 
361 811 237 141 147 162 
360 810 238 149 153 169 
360 810 239 154 162 178 
360 811 238 149 155 171 
360 811 239 158 166 181 
361 810 238 139 144 161 
361 810 239 147 154 170 
362 809 237 135 141 157 
362 809 238 134 139 157 
362 809 239 144 150 168 
362 810 236 142 148 162 
362 810 237 141 147 161 
362 810 238 137 142 159 
360 813 232 168 173 187 
360 813 233 167 174 190 
361 812 232 143 151 166 
361 812 233 141 148 165 
361 813 232 153 159 173 
361 813 233 156 163 178 
360 812 234 148 156 173 
360 812 235 148 156 173 
360 813 234 154 163 179 
361 812 234 139 146 163 
361 812 235 144 151 166 
360 814 232 161 167 181 
362 812 232 139 148 164 
362 812 233 139 148 163 
360 812 236 148 155 171 
353 813 241 149 156 171 
353 813 242 146 152 169 
352 814 241 159 166 183 
352 815 240 150 159 179 
352 815 241 165 173 189 
353 814 240 146 152 170 
353 814 241 150 156 172 
352 814 242 153 161 177 
353 814 242 150 157 173 
354 813 240 152 159 175 
354 813 241 151 157 172 
355 812 241 152 158 174 
355 813 240 151 158 175 
355 813 241 154 160 176 
354 812 242 145 151 165 
354 813 242 146 152 167 
355 812 242 148 155 169 
354 814 240 148 155 171 
354 814 241 149 155 170 
357 811 240 153 160 175 
357 811 241 151 159 174 
356 811 242 148 155 171 
357 810 242 142 150 165 
357 811 242 145 152 167 
359 809 242 141 149 165 
358 810 241 146 154 170 
358 811 240 152 160 176 
358 811 241 146 154 170 
359 810 240 158 169 188 
359 810 241 145 154 171 
359 811 240 161 170 187 
358 810 242 141 148 163 
359 810 242 141 149 165 
356 812 240 154 161 177 
356 812 241 152 159 175 
356 813 240 153 161 177 
357 812 240 157 163 178 
357 812 241 155 162 176 
356 812 242 148 156 171 
360 809 241 136 145 163 
361 808 241 134 139 158 
361 809 240 143 152 170 
361 809 241 137 144 163 
360 809 242 136 144 161 
361 808 242 138 143 161 
361 809 242 137 143 160 
360 810 240 151 162 180 
360 810 241 142 153 171 
361 810 240 145 155 172 
362 809 240 149 159 178 
353 819 224 143 151 169 
353 819 225 146 151 168 
352 819 227 154 160 175 
353 819 226 147 152 167 
353 819 227 150 155 170 
354 818 224 148 155 173 
354 818 225 146 154 172 
354 819 224 144 152 170 
354 819 225 145 152 170 
355 818 224 150 158 175 
355 818 225 151 160 177 
354 818 226 145 152 169 
354 818 227 145 150 166 
354 819 226 145 151 166 
354 819 227 146 151 165 
355 818 226 147 155 172 
355 818 227 145 152 168 
352 819 228 160 167 184 
352 819 229 159 167 183 
353 818 229 150 158 174 
353 819 228 154 161 176 
353 819 229 152 160 175 
352 818 230 150 160 177 
352 818 231 145 156 174 
352 819 230 154 163 180 
353 818 230 150 158 175 
353 818 231 145 153 173 
355 817 228 149 155 170 
355 817 229 152 158 174 
354 817 230 152 159 178 
354 817 231 152 160 178 
355 816 231 173 182 200 
355 817 230 157 164 181 
355 817 231 167 175 193 
354 818 228 150 155 171 
354 818 229 151 158 175 
354 819 228 151 156 171 
355 818 228 148 153 170 
355 818 229 151 156 172 
354 818 230 150 156 175 
354 818 231 147 154 174 
352 820 224 143 150 169 
352 820 225 146 151 168 
352 820 226 149 154 169 
352 820 227 158 165 180 
356 817 224 153 160 176 
356 817 225 163 171 186 
357 816 224 147 153 167 
357 816 225 156 162 178 
357 817 224 151 158 173 
357 817 225 161 168 183 
356 817 226 163 172 188 
356 817 227 153 161 177 
357 816 226 166 173 189 
357 816 227 168 176 194 
357 817 226 172 180 197 
357 817 227 170 178 195 
356 818 224 156 163 179 
356 818 225 160 168 184 
356 818 226 159 167 184 
358 816 224 147 154 168 
358 816 225 149 156 171 
358 816 226 154 162 177 
358 816 227 156 164 180 
356 817 228 148 156 171 
356 817 229 153 159 174 
357 816 228 161 169 187 
357 816 229 153 161 177 
357 817 228 157 164 181 
357 817 229 151 158 175 
356 816 230 158 166 182 
356 816 231 162 172 189 
356 817 230 159 166 182 
357 816 230 151 159 176 
357 816 231 149 156 176 
358 816 228 156 165 181 
358 816 229 153 162 178 
352 817 233 137 142 163 
353 817 232 138 146 167 
353 817 233 136 144 165 
352 816 235 147 154 169 
352 817 234 141 147 165 
352 817 235 146 154 169 
353 816 234 148 156 172 
353 816 235 148 155 170 
353 817 234 140 148 167 
352 818 232 138 146 166 
352 818 233 136 142 162 
353 818 232 140 147 167 
354 816 232 161 170 189 
354 816 233 155 165 184 
354 817 232 147 156 175 
354 817 233 141 151 172 
355 816 232 170 179 197 
355 816 233 167 177 195 
354 816 234 152 162 181 
354 816 235 150 159 176 
355 816 234 156 167 187 
352 816 236 147 154 168 
352 816 237 149 155 169 
352 817 236 146 153 168 
353 816 236 145 153 168 
353 816 237 150 156 170 
352 816 238 154 162 177 
354 816 236 141 150 167 
356 816 232 168 177 195 
320 832 199 144 153 169 
320 832 200 143 152 168 
320 832 201 140 149 165 
320 833 201 139 149 165 
321 832 200 141 150 166 
321 832 201 139 148 163 
321 833 201 138 147 163 
320 833 202 140 149 165 
321 832 202 139 148 164 
321 833 202 139 148 164 
321 833 203 141 150 166 
320 834 202 143 151 167 
320 834 203 146 154 170 
321 834 203 143 152 168 
322 832 201 141 150 166 
322 832 202 140 149 165 
322 832 203 140 149 166 
322 833 203 141 149 166 
323 832 202 144 153 170 
323 832 203 143 152 169 
321 833 204 143 151 167 
320 834 204 148 157 174 
320 835 204 150 160 176 
320 835 205 147 157 174 
321 834 204 145 153 169 
321 834 205 145 154 170 
321 835 205 145 155 171 
320 835 206 145 154 172 
321 835 206 143 153 170 
321 835 207 145 154 171 
322 833 204 143 151 168 
322 833 205 144 153 169 
323 832 204 143 152 169 
323 833 204 142 151 168 
323 833 205 145 154 172 
322 834 205 144 154 171 
323 834 205 146 156 174 
322 834 206 147 156 174 
322 835 206 145 155 172 
322 835 207 149 159 176 
323 834 206 153 164 181 
323 834 207 158 169 186 
323 835 207 155 165 183 
320 836 206 145 154 172 
320 836 207 142 152 169 
321 836 207 144 154 170 
324 832 203 148 157 174 
324 832 204 145 155 172 
324 832 205 146 156 174 
324 833 205 149 159 176 
325 832 204 149 158 174 
325 832 205 153 162 179 
325 833 205 156 165 183 
324 833 206 162 172 189 
325 832 206 159 168 185 
325 833 206 165 174 192 
325 833 207 168 178 196 
324 834 206 162 172 190 
324 834 207 169 179 197 
325 834 207 173 183 201 
326 832 205 149 158 174 
327 832 205 146 155 171 
326 832 206 151 161 178 
326 832 207 151 161 179 
326 833 207 157 167 185 
327 832 206 145 155 172 
327 832 207 148 158 176 
328 832 206 144 154 171 
328 832 207 146 156 174 
329 832 207 149 159 177 
322 835 208 150 160 176 
323 835 208 156 166 183 
323 835 209 154 164 182 
320 836 208 145 154 171 
320 837 208 144 153 170 
320 837 209 146 156 172 
321 836 208 147 156 172 
321 836 209 147 156 172 
321 837 209 147 156 173 
320 837 210 149 158 175 
321 837 210 151 161 178 
321 837 211 158 168 184 
320 838 210 150 160 177 
320 838 211 158 168 185 
321 838 211 162 171 189 
322 836 208 149 158 174 
322 836 209 149 159 175 
323 836 209 152 162 179 
322 836 210 150 159 176 
322 837 210 152 161 178 
322 837 211 154 164 181 
323 836 210 151 161 178 
323 836 211 151 161 179 
323 837 211 153 163 180 
320 838 212 168 178 195 
320 839 212 169 179 196 
320 839 213 164 175 193 
321 838 212 168 177 195 
321 838 213 166 176 194 
321 839 213 163 174 193 
320 839 214 155 167 187 
320 839 215 152 165 185 
321 838 214 164 175 194 
321 839 214 160 172 191 
321 839 215 158 170 190 
322 837 212 161 170 188 
323 837 212 157 167 184 
323 837 213 158 169 187 
323 837 214 158 169 187 
323 837 215 161 172 190 
322 838 212 165 175 193 
322 838 213 167 177 195 
322 838 214 164 174 193 
322 838 215 163 174 192 
323 838 214 160 171 189 
323 838 215 162 173 191 
325 833 208 164 174 192 
324 834 208 166 176 194 
324 835 208 162 172 190 
324 835 209 161 171 188 
325 834 208 166 176 194 
325 834 209 165 174 191 
325 835 209 165 174 192 
324 835 210 154 164 182 
325 834 210 160 169 186 
325 835 210 157 167 184 
325 835 211 153 163 181 
326 833 208 156 166 184 
326 833 209 155 165 183 
327 832 208 150 160 178 
327 833 208 151 161 179 
327 833 209 152 162 179 
327 833 210 153 162 180 
326 834 209 158 168 185 
326 834 210 156 165 182 
326 834 211 153 163 180 
326 835 211 155 164 182 
327 834 210 153 163 180 
327 834 211 152 162 179 
325 835 212 151 161 179 
325 835 213 150 160 178 
326 834 212 153 163 180 
326 835 212 153 163 180 
326 835 213 155 164 181 
327 834 212 152 162 179 
327 834 213 153 163 179 
327 835 213 154 164 180 
326 835 214 154 164 181 
326 835 215 154 163 180 
327 834 214 150 160 177 
327 834 215 148 158 175 
327 835 214 153 162 179 
327 835 215 151 161 178 
324 836 210 152 162 180 
324 836 211 151 161 179 
325 836 211 150 160 179 
324 836 212 149 159 178 
324 836 213 148 159 177 
324 837 212 151 161 179 
324 837 213 151 162 181 
325 836 212 148 158 176 
325 836 213 148 158 177 
324 837 214 152 163 181 
324 837 215 157 167 186 
325 836 214 149 159 177 
325 836 215 152 162 180 
326 836 215 153 162 180 
321 839 216 162 173 192 
321 839 217 163 174 193 
321 839 218 160 171 189 
321 839 219 153 163 181 
323 837 216 164 175 194 
322 838 216 162 173 192 
322 838 217 166 177 196 
322 839 216 161 173 192 
322 839 217 163 175 194 
323 838 216 167 178 197 
323 838 217 166 177 196 
322 838 218 158 169 188 
322 838 219 150 160 179 
322 839 218 159 170 188 
322 839 219 150 161 180 
323 838 218 155 166 184 
323 838 219 150 160 178 
321 839 220 151 161 180 
321 839 221 151 160 178 
320 839 223 158 167 184 
321 839 222 152 161 178 
321 839 223 153 162 178 
322 838 220 148 158 176 
322 838 221 148 156 174 
322 839 220 148 158 176 
