ply
format ascii 1.0
comment Created by CloudCompare v2.10.1 (Zephyrus)
comment Created 1/30/20 12:04 PM
obj_info Generated by CloudCompare!
element vertex 2053
property float x
property float y
property float z
property uchar red
property uchar green
property uchar blue
end_header
208 885 305 127 111 99 
209 884 304 122 107 96 
209 884 305 125 108 97 
209 885 304 124 108 97 
209 885 305 126 110 98 
208 885 306 130 112 99 
208 885 307 130 112 98 
209 884 306 127 110 98 
209 884 307 128 111 98 
209 885 306 129 111 99 
209 885 307 130 112 99 
208 886 304 126 110 99 
208 886 305 128 111 99 
208 887 304 127 111 100 
208 887 305 129 112 100 
208 886 306 130 112 100 
208 886 307 131 112 98 
208 887 306 131 113 100 
208 887 307 132 113 99 
208 884 308 130 112 99 
208 884 309 131 114 100 
208 885 308 131 113 99 
208 885 309 133 114 100 
209 884 308 129 112 98 
209 885 308 130 112 99 
208 884 310 132 114 100 
208 884 311 133 114 100 
208 885 310 134 115 101 
208 885 311 134 115 101 
208 886 308 132 114 100 
208 886 309 134 115 101 
208 887 308 133 113 99 
208 887 309 134 115 101 
208 886 310 135 115 101 
208 880 312 130 112 99 
208 880 313 130 112 98 
208 881 312 131 112 98 
208 881 313 131 113 98 
208 882 312 132 113 99 
208 882 313 132 113 98 
208 883 312 133 114 99 
208 883 313 133 114 99 
208 884 312 133 114 100 
224 832 295 110 99 97 
224 833 294 115 99 92 
224 833 295 111 95 90 
225 832 295 113 97 91 
225 833 294 122 102 91 
225 833 295 117 99 90 
224 834 293 122 104 95 
224 835 293 126 108 97 
225 834 293 127 108 96 
225 835 293 131 111 97 
224 834 294 118 102 95 
225 834 294 125 106 95 
226 832 295 118 100 90 
226 833 294 126 106 94 
226 833 295 123 104 92 
227 832 295 121 101 87 
227 833 294 129 108 94 
227 833 295 126 106 93 
226 834 293 130 110 97 
226 835 293 134 112 97 
226 834 294 131 109 95 
227 834 294 132 110 96 
227 835 294 134 111 96 
224 836 293 133 115 102 
224 837 292 140 118 104 
224 837 293 141 119 104 
225 836 293 136 114 98 
225 837 293 141 118 100 
225 837 294 141 116 97 
224 838 292 144 119 103 
224 838 293 144 119 102 
224 839 292 145 119 102 
224 839 293 145 119 101 
225 838 293 144 118 99 
225 839 293 144 119 100 
225 838 294 141 116 96 
225 839 294 143 117 98 
226 836 293 137 114 97 
226 837 293 138 114 95 
226 836 294 137 114 97 
226 837 294 138 114 94 
227 836 294 136 113 95 
227 837 294 137 112 93 
227 837 295 136 112 92 
226 838 294 139 114 94 
226 839 294 141 115 95 
226 839 295 138 113 93 
227 838 295 137 112 92 
227 839 295 137 113 92 
228 832 295 124 104 89 
228 833 294 131 109 93 
228 833 295 129 108 94 
229 832 295 128 107 91 
229 833 295 131 108 92 
228 834 294 132 109 93 
228 835 294 134 111 93 
229 834 294 133 110 93 
229 834 295 132 109 91 
229 835 294 133 110 92 
229 835 295 132 109 90 
230 832 295 128 106 90 
230 833 295 129 106 90 
231 833 295 128 105 88 
230 834 295 130 107 88 
230 835 295 130 108 88 
228 836 294 135 111 93 
228 836 295 134 111 93 
228 837 294 135 111 92 
228 837 295 134 111 91 
229 836 295 132 110 90 
229 837 295 133 110 90 
228 838 295 135 112 91 
227 839 296 136 112 91 
231 832 296 127 105 89 
231 833 296 127 104 86 
230 835 296 129 107 87 
231 834 296 128 105 86 
231 835 296 127 105 86 
231 835 297 126 105 85 
229 836 296 131 109 89 
229 837 296 132 110 90 
229 837 297 131 108 88 
228 838 296 135 111 91 
228 839 296 134 111 90 
229 838 296 133 110 90 
229 838 297 132 109 88 
229 839 297 133 111 90 
229 839 298 132 110 90 
230 836 296 130 108 88 
230 836 297 128 106 86 
230 837 296 130 108 87 
230 837 297 129 107 86 
231 836 297 126 105 85 
230 837 298 128 107 87 
231 836 298 124 103 84 
231 837 298 126 105 86 
231 837 299 124 104 85 
230 838 297 130 108 88 
230 838 298 129 108 88 
230 839 298 129 108 88 
231 838 298 127 107 87 
231 838 299 124 104 85 
231 839 299 125 104 85 
231 839 300 122 102 84 
224 840 293 147 120 101 
224 841 293 148 121 101 
225 840 293 145 119 99 
225 841 293 146 120 99 
225 840 294 144 118 98 
225 841 294 143 118 97 
224 842 293 148 122 101 
224 843 293 148 123 101 
224 843 294 147 122 100 
225 842 294 145 119 97 
225 843 294 145 120 98 
226 840 295 139 115 94 
226 841 295 141 116 94 
227 840 295 137 113 92 
227 841 295 137 113 92 
226 842 295 142 117 96 
226 843 295 143 119 98 
224 844 293 149 123 101 
224 845 293 149 123 101 
224 844 294 148 122 101 
224 845 294 148 123 101 
225 844 294 146 122 100 
225 844 295 145 120 99 
225 845 294 147 122 100 
225 845 295 146 121 100 
224 846 293 150 124 102 
224 846 294 148 122 101 
224 847 294 149 122 101 
224 847 295 147 121 100 
225 846 295 146 121 99 
225 847 295 145 120 99 
226 844 295 144 120 99 
227 840 296 136 112 91 
227 841 296 137 114 92 
226 843 296 141 118 97 
227 842 296 138 115 94 
227 843 296 140 117 96 
227 843 297 140 117 96 
225 846 296 144 119 98 
225 847 296 143 117 97 
226 844 296 142 119 98 
226 845 296 142 118 98 
226 845 297 140 116 95 
227 844 296 141 118 97 
227 844 297 139 116 96 
227 845 297 138 114 94 
227 845 298 135 112 92 
226 846 296 141 117 97 
226 846 297 137 113 93 
226 847 297 137 112 92 
227 846 297 136 112 92 
227 846 298 134 110 90 
227 847 298 133 109 89 
228 840 296 134 111 90 
228 840 297 134 111 90 
228 841 296 136 113 91 
228 841 297 135 112 92 
229 840 297 133 111 91 
229 841 297 134 111 91 
229 840 298 132 110 90 
229 841 298 132 110 90 
228 842 297 136 113 92 
228 843 297 137 115 94 
229 842 297 134 112 91 
228 842 298 134 112 91 
228 843 298 135 113 92 
229 842 298 132 110 90 
229 843 298 133 111 91 
229 843 299 131 110 90 
230 840 298 130 108 88 
230 840 299 127 106 86 
230 841 298 130 108 88 
230 841 299 128 107 88 
231 840 299 125 104 85 
231 841 299 126 106 87 
230 842 299 129 108 89 
230 843 299 130 108 89 
231 840 300 124 103 85 
231 841 300 124 104 85 
230 842 300 127 107 88 
230 843 300 127 106 87 
231 842 300 125 105 86 
231 842 301 123 103 85 
231 843 300 126 105 86 
231 843 301 123 103 84 
228 844 297 139 116 95 
228 844 298 134 112 91 
228 845 298 133 110 90 
228 845 299 130 108 88 
229 844 298 133 111 91 
229 844 299 131 109 89 
229 845 299 130 107 88 
228 846 298 132 109 89 
228 846 299 130 108 88 
228 847 299 129 107 87 
229 846 299 129 107 88 
230 844 299 130 108 88 
229 845 300 128 107 88 
228 847 300 127 105 86 
229 846 300 127 106 86 
229 846 301 125 104 85 
229 847 300 126 104 85 
229 847 301 122 102 83 
230 844 300 127 106 86 
230 844 301 125 104 85 
230 845 300 127 106 87 
230 845 301 125 104 85 
231 844 301 124 104 85 
231 845 301 123 103 84 
231 844 302 122 102 84 
231 845 302 121 102 84 
231 845 303 119 100 83 
230 846 301 124 103 84 
230 847 301 121 101 82 
230 846 302 120 100 82 
230 847 302 119 99 81 
230 847 303 116 98 80 
231 846 302 120 100 82 
231 846 303 117 98 81 
231 847 303 116 98 81 
232 832 296 126 104 86 
232 833 296 125 103 85 
232 833 297 124 102 84 
233 832 297 123 102 84 
233 833 297 123 102 83 
233 833 298 122 102 83 
232 834 296 126 104 85 
232 834 297 124 103 84 
232 835 297 124 103 84 
232 834 298 123 102 84 
232 835 298 123 102 83 
233 834 298 122 102 83 
233 834 299 121 101 83 
233 835 298 122 102 84 
233 835 299 121 101 83 
234 832 297 121 101 82 
234 832 298 121 101 82 
234 833 298 121 101 82 
235 832 298 121 101 82 
235 833 298 121 101 82 
235 833 299 120 101 82 
234 834 298 121 101 82 
234 834 299 121 101 83 
233 835 300 120 101 83 
235 833 300 120 100 83 
235 833 301 119 100 82 
234 834 300 120 101 83 
234 835 300 119 100 83 
234 835 301 118 99 82 
235 834 300 119 100 82 
235 834 301 118 99 82 
235 835 301 116 98 81 
235 835 302 115 97 80 
232 836 298 123 102 83 
232 836 299 122 101 83 
232 837 299 122 102 83 
233 836 299 121 101 83 
232 837 300 120 100 82 
233 836 300 120 100 82 
233 836 301 118 99 82 
233 837 300 119 100 82 
233 837 301 117 99 82 
232 838 300 120 101 83 
232 839 300 121 101 83 
232 839 301 119 100 82 
233 838 301 117 98 81 
233 839 301 117 98 82 
233 839 302 116 98 82 
234 836 301 117 99 82 
234 837 301 115 97 81 
234 836 302 115 96 80 
234 837 302 115 97 81 
235 836 302 114 96 80 
235 836 303 113 95 79 
235 837 302 114 96 80 
235 837 303 113 95 79 
234 838 302 115 97 81 
234 838 303 114 96 80 
234 839 302 116 98 82 
234 839 303 115 97 81 
235 838 303 114 96 80 
235 839 303 114 96 80 
236 832 298 120 101 82 
236 832 299 121 101 84 
236 833 299 120 101 82 
236 832 300 121 102 84 
236 833 300 119 100 82 
236 833 301 118 100 83 
237 832 300 120 101 84 
237 832 301 118 100 83 
237 833 301 117 99 83 
236 833 302 115 98 82 
237 832 302 116 98 82 
237 833 302 115 98 81 
237 833 303 113 95 79 
236 834 301 117 99 82 
236 834 302 115 97 81 
236 834 303 113 95 79 
236 835 302 114 96 79 
236 835 303 112 95 78 
237 834 303 112 94 78 
238 832 301 117 100 83 
238 832 302 116 98 82 
238 832 303 114 96 81 
238 833 303 113 95 79 
239 832 302 115 98 82 
239 832 303 112 95 80 
236 836 303 112 94 78 
232 840 300 122 102 84 
232 840 301 119 101 83 
232 841 301 121 102 84 
233 840 301 118 100 83 
233 841 301 119 100 83 
232 841 302 120 101 84 
233 840 302 117 98 82 
233 841 302 119 100 83 
233 841 303 119 100 83 
232 842 301 122 102 84 
232 843 301 122 102 84 
232 842 302 121 102 85 
232 843 302 122 102 85 
232 843 303 121 102 84 
233 842 302 120 101 84 
233 842 303 120 101 84 
233 843 303 120 101 84 
234 840 302 117 99 82 
234 840 303 116 98 82 
234 841 303 119 100 83 
232 844 302 121 102 84 
232 844 303 120 101 83 
232 845 303 119 100 82 
231 846 304 115 97 81 
231 847 304 114 96 80 
231 847 305 110 94 78 
235 838 304 113 95 79 
235 839 304 114 96 81 
235 839 305 113 95 79 
237 833 304 110 93 77 
236 835 304 110 93 76 
237 834 304 110 93 76 
237 835 304 109 92 75 
237 835 305 108 91 75 
238 833 304 110 93 77 
239 832 304 109 93 79 
239 833 304 110 93 78 
239 833 305 108 91 76 
238 834 304 109 91 75 
238 834 305 108 90 74 
238 835 305 106 88 72 
239 834 305 107 90 74 
238 835 306 108 90 73 
239 834 306 110 93 76 
239 835 306 110 92 75 
239 835 307 116 98 80 
236 836 304 111 93 76 
236 837 304 111 93 77 
236 837 305 110 92 76 
237 836 304 110 92 75 
237 836 305 108 90 74 
237 837 305 109 91 75 
237 837 306 110 92 76 
236 838 304 112 95 79 
236 838 305 111 93 77 
236 839 305 111 94 78 
237 838 305 110 92 76 
237 838 306 111 93 77 
237 839 306 111 93 77 
237 839 307 112 94 78 
238 836 305 107 89 73 
238 836 306 109 91 74 
238 837 306 110 92 76 
238 837 307 114 96 80 
239 836 306 113 94 78 
239 836 307 118 99 82 
239 837 307 118 100 83 
238 838 306 111 94 77 
238 838 307 115 96 80 
238 839 307 114 95 78 
239 837 308 124 105 88 
238 838 308 117 98 81 
238 839 308 115 97 80 
239 838 308 123 103 86 
239 838 309 124 104 87 
239 839 308 118 99 82 
239 839 309 121 102 85 
233 842 304 119 101 84 
233 843 304 119 101 84 
233 843 305 118 100 84 
234 840 304 116 98 82 
234 841 304 117 99 83 
234 841 305 116 98 81 
235 840 304 115 97 81 
235 840 305 114 96 80 
235 841 305 114 96 80 
235 841 306 112 95 79 
234 842 304 118 100 83 
234 842 305 116 98 82 
234 843 305 116 98 83 
235 842 305 114 97 81 
234 843 306 113 96 81 
235 842 306 112 95 79 
235 842 307 110 93 78 
235 843 306 112 95 80 
235 843 307 109 93 78 
232 844 304 118 99 82 
232 845 304 117 98 82 
232 845 305 114 97 81 
233 844 304 118 100 84 
233 844 305 116 98 82 
233 845 305 112 95 80 
233 845 306 109 93 78 
233 845 307 106 90 77 
232 846 304 115 97 81 
232 846 305 111 95 80 
232 847 305 110 93 78 
232 846 306 108 92 77 
232 847 306 105 90 76 
232 847 307 102 87 75 
233 846 306 107 91 77 
233 846 307 104 89 75 
234 844 305 115 98 83 
234 844 306 111 94 80 
234 844 307 107 91 78 
234 845 306 109 93 78 
234 845 307 105 90 77 
235 844 307 108 92 78 
232 847 308 99 85 73 
232 847 309 94 82 71 
233 846 308 100 86 74 
233 846 309 97 83 72 
233 847 308 98 84 72 
233 847 309 94 81 71 
232 847 310 92 80 70 
233 847 310 91 79 69 
233 847 311 88 77 68 
234 845 308 103 88 75 
234 845 309 101 87 75 
235 844 308 105 90 76 
235 844 309 102 88 75 
235 845 308 103 88 76 
235 845 309 99 85 74 
235 845 310 96 83 72 
234 846 308 101 87 74 
234 846 309 97 84 73 
234 846 310 93 81 71 
234 846 311 89 78 68 
234 847 310 92 80 71 
234 847 311 89 77 68 
235 846 310 94 82 71 
235 846 311 92 80 70 
236 840 305 112 94 78 
236 841 305 113 95 79 
236 840 306 111 94 78 
236 841 306 112 94 79 
236 841 307 111 94 79 
237 840 306 111 94 77 
237 840 307 112 94 78 
237 841 307 111 94 78 
236 842 307 110 93 79 
237 840 308 112 95 78 
237 841 308 110 93 78 
237 841 309 109 92 77 
236 842 308 109 93 78 
236 843 308 107 91 77 
236 843 309 105 89 76 
237 842 308 109 92 78 
237 842 309 107 91 77 
237 843 309 105 90 76 
237 843 310 104 89 77 
238 840 308 114 95 79 
238 840 309 115 97 80 
238 841 308 111 94 78 
238 841 309 110 93 78 
239 840 309 116 98 82 
239 841 309 113 95 80 
238 841 310 110 93 78 
239 840 310 118 99 83 
239 841 310 113 96 80 
239 841 311 111 94 80 
238 842 309 107 91 77 
238 842 310 107 92 78 
238 843 310 105 90 76 
238 843 311 105 90 77 
239 842 310 108 92 78 
239 842 311 108 92 78 
236 844 309 102 87 75 
236 844 310 100 86 74 
236 844 311 98 84 73 
236 845 310 97 84 72 
236 845 311 95 82 72 
237 844 310 101 87 75 
237 844 311 101 87 75 
233 847 312 87 77 68 
233 847 313 87 77 69 
234 847 312 87 77 68 
234 847 313 87 77 69 
235 846 312 89 79 69 
235 846 313 89 78 70 
235 847 313 87 77 69 
234 847 314 86 76 69 
234 847 315 86 76 70 
235 846 314 89 78 71 
235 846 315 88 78 71 
235 847 314 87 77 70 
235 847 315 86 77 70 
234 847 316 85 76 70 
234 847 317 85 76 70 
235 847 316 86 76 70 
235 847 317 84 76 70 
234 847 318 85 76 71 
235 847 318 85 76 70 
235 847 319 85 77 71 
238 843 312 103 89 77 
239 842 312 108 92 79 
239 843 312 104 89 77 
239 843 313 102 88 77 
236 845 312 95 82 73 
236 845 313 93 81 71 
237 844 312 99 86 75 
237 845 312 98 85 75 
237 845 313 96 83 73 
236 845 314 92 81 71 
237 845 314 93 82 73 
237 845 315 91 80 72 
236 846 312 92 80 71 
236 846 313 91 79 71 
236 846 314 91 80 72 
236 846 315 90 79 72 
238 844 312 101 87 77 
238 844 313 98 85 75 
239 844 313 100 87 76 
238 844 314 97 85 75 
238 845 314 95 84 74 
238 845 315 93 82 73 
239 844 314 98 86 76 
239 844 315 96 84 75 
239 845 315 94 83 74 
237 845 316 90 79 71 
236 846 316 87 78 71 
236 846 317 86 77 70 
236 847 317 85 76 70 
237 846 316 89 78 71 
237 846 317 87 78 71 
236 846 318 85 76 70 
236 847 318 84 76 70 
236 847 319 85 77 71 
237 846 318 85 77 71 
237 846 319 87 79 73 
237 847 319 87 78 72 
238 845 316 90 79 71 
239 845 316 91 81 73 
239 845 317 90 80 73 
238 846 316 88 78 71 
238 846 317 87 78 71 
239 846 317 88 79 72 
238 846 318 86 77 71 
238 846 319 87 79 73 
238 847 319 88 79 74 
239 846 318 89 80 73 
239 846 319 90 81 75 
239 847 319 91 82 76 
224 848 294 149 121 102 
224 848 295 145 119 99 
224 849 294 147 119 99 
224 849 295 143 117 96 
225 848 295 145 119 99 
224 850 294 145 117 97 
224 850 295 142 114 94 
224 851 294 144 116 96 
224 851 295 141 114 93 
224 852 294 144 117 97 
224 852 295 141 114 94 
224 853 294 143 115 96 
224 853 295 139 112 92 
224 854 295 138 110 91 
224 855 295 135 107 88 
225 848 296 141 115 94 
225 848 297 137 112 91 
225 849 296 139 112 91 
225 849 297 136 111 90 
225 850 296 138 111 91 
225 850 297 136 110 89 
225 851 296 137 110 90 
225 851 297 134 108 88 
226 848 297 136 110 90 
226 849 297 135 110 90 
226 848 298 134 109 89 
226 849 298 133 108 88 
227 848 298 131 108 88 
227 848 299 128 105 86 
227 849 298 130 106 86 
227 849 299 126 104 84 
226 850 297 134 109 89 
226 851 297 132 106 87 
226 850 298 132 107 87 
226 851 298 128 104 85 
227 850 298 128 105 85 
227 850 299 125 102 83 
227 851 298 125 102 83 
227 851 299 122 100 81 
227 850 300 121 99 81 
227 851 300 118 97 79 
227 851 301 114 94 77 
224 853 296 135 109 90 
225 852 296 135 109 89 
225 852 297 132 106 87 
225 853 296 134 108 89 
225 853 297 130 106 87 
225 853 298 127 103 84 
224 854 296 134 107 88 
224 855 296 132 104 86 
224 855 297 128 102 83 
225 854 296 133 107 88 
225 854 297 129 105 86 
225 855 297 127 103 84 
224 855 298 122 99 81 
225 854 298 125 102 83 
225 854 299 119 97 79 
225 855 298 124 100 82 
225 855 299 119 97 79 
226 852 297 130 105 85 
226 852 298 125 101 82 
226 852 299 121 99 80 
226 853 298 125 101 83 
226 853 299 119 97 79 
227 852 299 119 98 79 
226 854 298 123 100 81 
226 854 299 119 97 79 
225 855 300 114 94 77 
225 855 301 110 90 75 
225 855 302 106 89 74 
225 855 303 104 88 73 
226 853 300 116 95 77 
226 853 301 112 92 76 
227 852 300 116 95 78 
227 852 301 112 92 75 
227 853 300 115 95 77 
227 853 301 111 91 75 
227 852 302 109 90 74 
227 852 303 108 90 74 
227 853 302 108 90 74 
227 853 303 106 89 74 
226 854 300 115 95 77 
226 854 301 110 91 74 
226 855 301 108 89 73 
226 854 302 106 88 72 
226 854 303 105 88 73 
226 855 302 106 88 72 
226 855 303 104 87 72 
228 848 299 128 105 86 
228 849 299 126 104 85 
228 848 300 125 103 84 
228 848 301 121 100 81 
228 849 300 123 101 82 
228 849 301 118 97 79 
229 848 301 120 99 81 
229 849 301 116 96 78 
229 848 302 116 96 78 
229 848 303 112 94 77 
229 849 302 113 93 76 
229 849 303 110 92 75 
228 850 300 120 98 80 
228 850 301 115 94 77 
228 851 300 118 97 79 
228 851 301 113 93 75 
228 850 302 110 90 73 
228 850 303 109 90 73 
228 851 302 110 90 73 
228 851 303 107 89 73 
229 850 302 110 91 74 
229 850 303 109 90 73 
230 848 302 116 97 80 
230 848 303 114 95 78 
228 852 302 109 90 74 
228 852 303 108 90 74 
224 856 296 129 102 83 
224 856 297 125 100 82 
224 857 297 124 99 81 
224 856 298 121 98 79 
224 856 299 117 96 78 
224 857 298 119 97 79 
224 857 299 115 95 77 
224 858 299 114 94 76 
224 856 300 113 94 77 
224 856 301 107 90 74 
224 857 300 111 93 76 
224 857 301 107 90 75 
225 856 301 108 90 74 
224 856 302 105 89 75 
224 856 303 104 89 75 
224 857 302 105 89 76 
224 857 303 103 88 76 
225 856 302 106 89 74 
225 856 303 104 88 74 
224 858 300 110 92 76 
224 858 301 106 89 75 
224 858 302 104 89 76 
227 851 306 102 86 72 
227 851 307 99 84 71 
227 851 308 98 83 70 
225 855 304 102 86 73 
225 855 305 101 86 74 
224 855 306 99 86 75 
224 855 307 99 86 74 
225 854 306 99 85 72 
225 854 307 99 85 72 
225 855 306 99 85 73 
225 855 307 99 85 72 
226 853 305 102 86 72 
227 852 304 105 89 73 
227 852 305 103 87 72 
227 853 304 104 88 73 
227 853 305 102 86 72 
226 852 307 98 83 69 
226 853 306 100 85 71 
226 853 307 99 84 70 
227 852 306 100 85 71 
227 852 307 98 83 70 
226 854 304 103 87 73 
226 854 305 101 86 72 
226 855 304 102 86 72 
226 854 306 100 85 71 
226 854 307 99 84 71 
225 853 309 96 82 71 
225 853 310 94 81 69 
225 853 311 92 80 70 
224 854 309 94 82 72 
224 855 308 97 85 74 
224 855 309 96 84 74 
225 854 308 98 84 72 
225 854 309 96 83 72 
225 855 308 98 84 72 
224 854 310 94 81 72 
224 854 311 91 80 72 
224 855 310 93 82 73 
224 855 311 92 81 73 
225 854 310 94 81 71 
225 854 311 92 80 71 
226 852 308 97 83 70 
226 852 309 96 82 70 
226 853 308 98 83 70 
226 853 309 95 82 70 
227 852 308 98 83 70 
227 852 309 95 82 69 
226 852 310 94 80 69 
226 853 310 94 80 69 
226 853 311 92 79 69 
227 852 310 93 80 69 
227 852 311 91 79 69 
229 849 304 109 91 75 
229 849 305 106 89 75 
229 849 306 102 87 73 
229 849 307 100 85 72 
228 851 304 107 89 74 
228 851 305 105 88 74 
229 850 304 107 90 74 
229 850 305 105 88 73 
228 851 306 102 87 73 
228 851 307 100 85 71 
229 850 306 102 86 73 
229 850 307 100 85 72 
230 848 304 111 93 77 
230 848 305 108 91 76 
230 849 304 109 91 75 
230 849 305 106 90 75 
231 848 304 112 94 79 
231 848 305 108 91 77 
230 849 306 103 88 74 
230 849 307 100 85 72 
231 848 306 104 88 74 
231 848 307 101 86 73 
228 851 308 98 83 71 
228 851 309 95 82 70 
229 850 308 98 84 71 
229 850 309 95 82 70 
229 851 309 94 81 70 
228 851 310 93 80 69 
228 851 311 91 79 68 
229 850 310 93 80 70 
229 850 311 91 79 69 
229 851 310 92 80 70 
229 851 311 90 79 69 
230 849 308 98 84 72 
230 849 309 95 82 71 
231 848 308 98 84 72 
231 848 309 94 82 71 
231 849 308 97 83 72 
231 849 309 94 82 71 
230 849 310 92 80 71 
230 849 311 89 78 69 
231 849 310 91 80 70 
231 849 311 90 79 70 
230 850 310 93 81 71 
230 850 311 90 78 69 
228 852 304 106 89 73 
228 852 310 92 79 69 
228 852 311 91 79 68 
225 851 319 83 74 67 
226 851 317 84 75 68 
227 851 316 85 76 69 
227 851 317 85 76 69 
226 851 318 85 75 69 
226 851 319 84 75 68 
227 851 318 85 76 69 
227 851 319 84 75 69 
225 853 312 90 78 68 
225 853 313 88 77 68 
224 853 314 87 78 71 
224 853 315 87 78 72 
225 853 314 86 76 68 
225 853 315 86 77 70 
224 854 312 90 80 72 
224 854 313 88 78 71 
224 855 312 91 80 73 
225 854 312 89 79 70 
225 854 313 88 77 69 
224 854 314 87 78 72 
224 854 315 87 78 72 
226 853 312 90 78 68 
226 853 313 88 77 69 
227 852 312 89 77 67 
227 852 313 87 76 67 
227 853 312 89 77 68 
226 852 314 87 76 68 
226 852 315 87 77 70 
226 853 314 87 76 68 
226 853 315 87 77 69 
227 852 314 87 76 68 
227 852 315 86 77 69 
224 852 317 86 77 71 
224 853 316 86 78 71 
224 853 317 86 77 70 
225 852 316 86 76 69 
225 852 317 85 76 70 
225 853 316 86 76 69 
224 852 318 85 76 70 
224 852 319 84 76 70 
224 853 318 86 78 72 
225 852 318 84 75 69 
225 852 319 83 75 68 
226 852 316 86 76 69 
226 852 317 85 76 69 
227 852 316 85 76 69 
226 852 318 84 75 68 
228 851 312 89 77 68 
228 851 313 87 77 68 
229 850 312 90 79 70 
229 850 313 89 78 70 
229 851 312 89 78 70 
229 851 313 88 78 69 
228 851 314 87 77 68 
228 851 315 86 76 69 
229 850 314 87 77 69 
229 850 315 86 76 68 
229 851 314 87 77 69 
229 851 315 86 76 69 
231 849 312 88 78 70 
231 849 313 87 77 69 
230 849 314 86 76 68 
230 849 315 86 76 69 
231 849 314 86 76 69 
231 849 315 85 76 68 
230 850 312 89 78 70 
230 850 313 88 77 70 
230 850 314 86 76 69 
230 850 315 85 75 68 
229 849 319 83 74 68 
228 850 317 85 76 69 
228 851 316 86 76 69 
228 851 317 85 76 69 
229 850 316 85 76 68 
229 850 317 85 75 68 
229 851 316 86 76 69 
228 850 318 85 76 70 
228 850 319 84 75 69 
228 851 318 85 76 69 
229 850 318 84 75 69 
229 850 319 83 74 68 
230 849 316 85 76 69 
230 849 317 84 75 68 
231 849 316 85 75 68 
231 849 317 84 75 68 
230 849 318 84 75 69 
230 849 319 84 75 69 
231 849 318 83 75 69 
231 849 319 83 74 68 
230 850 316 85 76 68 
228 852 312 89 77 67 
228 852 313 87 76 68 
228 852 314 87 76 68 
228 852 315 86 76 68 
224 856 304 102 88 75 
224 856 305 100 86 75 
224 857 304 101 87 76 
224 857 305 99 86 75 
225 856 304 102 87 74 
225 856 305 101 86 74 
224 856 306 99 86 76 
224 856 307 98 86 75 
232 848 307 101 87 74 
232 848 308 98 85 73 
232 848 309 94 82 71 
232 848 310 91 80 70 
232 848 311 89 78 69 
232 848 312 88 77 69 
232 848 313 87 77 70 
232 849 312 88 77 69 
232 849 313 87 77 69 
233 848 312 87 77 69 
233 848 313 86 76 69 
232 848 314 86 77 69 
232 848 315 85 76 69 
232 849 314 86 76 69 
232 849 315 85 76 69 
233 848 314 86 76 69 
233 848 315 85 76 69 
232 848 316 84 75 68 
232 848 317 84 76 69 
232 849 316 84 75 68 
232 849 317 84 75 69 
233 848 316 85 76 69 
233 848 317 84 76 69 
232 848 318 84 76 70 
232 848 319 83 75 69 
232 849 318 83 75 69 
232 849 319 83 75 69 
233 848 318 84 76 69 
233 848 319 84 76 70 
234 848 316 85 76 70 
234 848 317 85 76 70 
234 848 318 84 76 70 
234 848 319 85 76 71 
240 832 303 110 93 78 
241 832 303 109 92 77 
245 832 303 117 101 87 
246 832 303 120 103 90 
247 832 303 123 107 93 
248 832 302 127 110 96 
248 832 303 127 110 96 
249 832 302 130 113 99 
249 832 303 129 112 98 
249 833 303 130 113 99 
250 832 301 138 119 105 
251 832 301 140 121 106 
250 832 302 135 117 103 
250 832 303 133 116 101 
250 833 303 134 116 102 
251 832 302 139 121 106 
251 833 302 140 121 106 
251 833 303 139 120 105 
251 834 303 138 119 104 
254 832 299 143 121 102 
255 832 299 143 121 101 
255 833 299 142 120 100 
252 832 301 141 122 105 
252 833 301 142 122 105 
253 832 300 142 122 104 
253 832 301 142 122 104 
253 833 301 142 122 104 
252 833 302 141 122 105 
252 833 303 140 121 105 
253 833 302 143 122 104 
252 834 303 138 119 103 
252 835 303 137 118 102 
253 834 302 142 121 104 
253 834 303 139 120 103 
253 835 303 138 119 102 
254 832 300 142 121 102 
254 833 300 142 120 101 
254 833 301 142 121 102 
255 833 300 142 120 101 
254 834 301 142 121 103 
255 834 300 142 120 101 
255 834 301 141 120 101 
255 835 301 140 119 99 
254 834 302 143 122 104 
254 835 302 141 120 102 
254 835 303 139 118 100 
255 835 302 140 119 100 
253 836 303 137 117 99 
254 836 302 139 117 98 
254 836 303 137 116 97 
254 837 303 135 115 95 
255 836 302 139 118 98 
255 837 302 138 116 96 
255 837 303 136 114 94 
240 832 304 109 92 78 
240 833 305 110 93 79 
241 832 304 110 93 79 
241 832 305 112 96 81 
241 833 305 115 98 83 
241 833 306 119 102 86 
240 834 305 110 93 78 
240 834 306 114 96 80 
240 835 307 122 103 86 
241 834 306 119 101 84 
241 834 307 123 105 88 
241 835 307 128 108 91 
242 832 304 112 95 81 
242 832 305 116 99 85 
242 833 305 119 101 87 
243 832 304 115 99 85 
243 832 305 119 102 88 
243 833 305 123 105 91 
242 833 306 122 104 89 
243 833 306 125 106 91 
242 834 306 124 105 89 
242 834 307 128 109 92 
242 835 307 130 111 94 
243 834 306 127 108 92 
243 834 307 129 110 93 
243 835 307 131 112 95 
242 835 308 132 113 96 
243 835 308 133 114 97 
240 836 307 126 107 90 
240 836 308 128 109 92 
240 837 308 128 109 92 
240 837 309 130 110 92 
241 836 308 131 112 94 
241 837 308 133 113 95 
241 837 309 132 112 94 
240 838 309 127 107 90 
240 839 309 125 105 88 
241 838 309 131 111 93 
240 839 310 123 103 86 
241 838 310 130 110 92 
241 839 310 126 106 89 
242 836 308 134 114 97 
242 837 308 134 114 96 
242 837 309 135 115 98 
243 836 308 135 116 98 
243 837 309 137 117 100 
242 838 309 134 114 96 
243 838 309 135 115 98 
242 838 310 131 111 94 
242 839 310 128 108 90 
243 838 310 134 114 96 
243 839 310 130 110 93 
244 832 304 118 102 88 
244 832 305 121 104 90 
244 833 305 125 108 93 
245 832 304 120 104 90 
245 833 305 126 109 94 
244 834 306 128 110 94 
244 834 307 131 112 96 
244 835 307 132 112 96 
245 834 306 129 111 95 
245 834 307 130 111 95 
245 835 307 129 110 95 
246 832 304 123 107 93 
246 833 304 125 109 96 
246 833 305 126 110 96 
247 832 304 126 109 96 
247 833 304 127 110 97 
247 833 305 127 110 96 
246 834 305 127 110 96 
247 834 305 127 110 95 
246 834 306 128 110 95 
246 835 307 127 110 94 
247 834 306 127 110 96 
247 835 306 127 109 95 
247 835 307 126 109 94 
244 835 308 132 113 96 
247 836 307 127 110 96 
244 836 308 133 114 98 
244 837 309 136 117 100 
245 836 308 130 112 96 
245 837 308 132 113 98 
245 837 309 135 116 100 
244 838 309 137 117 100 
245 838 309 138 118 102 
244 838 310 136 116 99 
244 839 310 134 114 98 
245 838 310 138 118 102 
245 839 310 138 118 101 
246 836 308 129 111 97 
246 837 308 131 113 98 
246 837 309 134 116 101 
247 836 308 128 111 96 
247 837 308 129 112 98 
247 837 309 133 115 101 
246 838 309 139 120 105 
247 838 309 138 120 105 
246 838 310 141 122 106 
246 839 310 141 121 105 
247 839 310 142 122 106 
240 840 310 118 100 83 
240 841 310 115 97 81 
240 841 311 113 96 80 
241 840 310 123 103 86 
241 840 311 120 101 84 
241 841 311 116 98 82 
242 840 311 124 104 87 
242 841 311 118 99 84 
243 840 311 126 107 90 
243 841 311 122 103 87 
244 840 311 130 110 93 
244 841 311 127 108 92 
245 840 311 133 113 96 
245 841 311 130 110 94 
246 840 310 140 120 103 
246 840 311 137 118 100 
246 841 311 132 113 95 
247 840 310 142 121 104 
247 840 311 141 121 104 
247 841 311 136 116 98 
241 841 312 113 96 81 
240 842 312 109 93 79 
240 843 312 106 91 78 
240 843 313 102 88 77 
241 842 312 108 92 78 
241 843 313 104 89 77 
242 841 312 114 96 81 
243 841 312 117 99 84 
242 842 312 109 93 78 
242 843 313 104 90 78 
243 842 312 111 95 80 
243 843 313 106 91 80 
240 844 314 99 87 76 
240 844 315 96 84 75 
240 845 315 95 83 74 
241 844 314 100 87 77 
241 844 315 97 85 76 
241 845 315 96 84 75 
242 844 314 101 88 78 
242 844 315 99 87 78 
242 845 315 98 86 77 
243 844 314 104 90 80 
243 844 315 102 90 80 
243 845 315 101 89 79 
240 845 316 93 82 74 
240 845 317 91 81 74 
241 845 316 94 84 75 
241 845 317 94 84 77 
240 846 317 93 83 76 
241 846 317 96 86 78 
240 846 318 93 84 77 
240 846 319 94 85 78 
240 847 319 96 86 80 
241 846 318 96 86 79 
241 846 319 98 88 81 
241 847 319 99 89 82 
242 845 316 97 86 77 
242 845 317 97 87 79 
243 845 316 101 89 80 
242 846 317 99 88 80 
243 846 317 103 91 82 
242 846 318 100 89 81 
242 846 319 101 89 81 
242 847 319 102 91 82 
243 846 318 104 92 83 
243 846 319 104 92 84 
243 847 319 105 93 84 
244 841 312 121 104 88 
245 841 312 124 106 89 
244 842 312 115 98 84 
244 843 313 110 95 82 
245 842 312 118 101 85 
245 843 313 113 97 83 
246 841 312 127 109 92 
246 842 312 123 105 90 
246 843 312 122 104 90 
246 843 313 117 100 86 
247 842 312 128 109 94 
247 843 312 126 108 93 
247 843 313 121 104 90 
244 844 314 108 94 83 
244 844 315 106 93 82 
244 845 315 105 92 82 
245 844 314 110 96 84 
245 845 315 108 94 83 
246 844 313 116 100 86 
247 844 313 118 101 88 
246 844 314 112 97 85 
246 845 315 111 96 85 
247 844 314 115 99 86 
247 845 314 115 99 86 
247 845 315 114 99 87 
244 845 316 106 93 83 
245 845 316 108 95 85 
244 846 316 106 93 83 
244 846 317 107 94 84 
245 846 316 109 96 86 
245 846 317 110 97 86 
244 846 318 108 96 85 
244 847 319 109 96 86 
245 846 318 111 97 86 
245 847 318 111 98 87 
245 847 319 111 98 87 
246 845 316 111 97 87 
246 846 316 111 98 87 
246 846 317 111 98 86 
246 847 317 112 98 86 
247 846 316 113 99 88 
247 846 317 113 99 87 
247 847 317 112 98 86 
246 847 318 112 98 86 
246 847 319 112 98 86 
247 847 318 113 98 86 
248 832 304 127 111 97 
248 833 304 128 112 98 
248 833 305 128 111 97 
249 833 304 130 112 98 
248 834 305 127 110 96 
249 834 305 129 111 97 
248 834 306 127 110 95 
248 835 306 126 109 94 
248 835 307 125 108 94 
249 835 306 127 110 95 
250 833 304 132 114 100 
250 834 304 134 116 101 
250 834 305 131 113 99 
250 835 305 130 112 97 
251 834 304 136 118 103 
251 835 304 133 114 99 
251 835 305 132 114 98 
250 835 306 128 110 95 
248 836 307 126 108 94 
249 836 307 126 109 95 
251 836 305 131 112 96 
250 836 306 128 109 94 
250 836 307 126 109 94 
250 837 307 127 109 94 
251 836 306 130 111 95 
251 837 306 129 110 93 
251 837 307 128 109 93 
251 838 307 129 110 94 
248 837 308 129 111 97 
248 837 309 131 113 99 
249 837 308 127 110 95 
248 838 309 134 116 100 
248 839 309 139 120 104 
249 838 309 131 113 97 
249 839 309 136 116 100 
248 839 310 141 122 105 
249 839 310 139 120 103 
250 837 308 125 107 92 
250 838 308 125 107 91 
250 838 309 129 110 93 
250 839 309 133 113 96 
251 838 308 125 107 91 
251 839 308 127 108 92 
251 839 309 129 110 93 
252 835 304 135 117 100 
252 836 304 133 114 97 
252 836 305 132 113 96 
252 837 305 131 111 94 
253 836 304 134 114 96 
253 837 304 133 112 94 
253 837 305 132 111 93 
252 837 306 130 111 94 
253 838 305 132 112 94 
252 838 307 129 110 93 
252 839 307 129 109 92 
253 838 306 130 110 92 
253 839 306 129 109 90 
253 839 307 129 109 91 
254 837 304 133 112 93 
254 838 304 133 111 91 
254 838 305 132 111 92 
254 839 305 133 112 93 
255 838 304 134 112 92 
255 839 304 134 112 92 
255 839 305 133 112 92 
254 839 306 131 110 91 
254 839 307 130 109 89 
252 839 308 129 110 93 
253 839 308 131 111 93 
248 840 310 143 123 106 
248 841 311 139 118 100 
249 840 310 143 123 106 
249 841 310 143 122 104 
249 841 311 141 120 101 
248 842 311 132 113 95 
249 842 311 136 116 97 
250 840 309 135 115 98 
251 840 309 133 114 97 
251 841 309 137 117 99 
250 840 310 140 119 101 
250 841 310 143 121 102 
250 841 311 141 120 100 
251 841 310 142 121 102 
250 842 311 138 117 98 
250 843 311 135 114 95 
251 842 310 142 120 101 
251 842 311 140 118 98 
251 843 311 134 112 92 
251 844 311 131 110 90 
255 840 305 133 112 92 
254 840 306 133 112 93 
254 840 307 132 110 91 
254 841 307 133 112 93 
255 840 306 134 113 93 
255 841 306 134 113 93 
255 841 307 133 112 93 
255 842 307 133 112 93 
252 840 308 129 110 93 
252 840 309 129 110 93 
252 841 309 134 113 95 
253 840 308 131 111 93 
253 841 308 133 112 93 
253 841 309 132 111 92 
252 841 310 139 119 100 
253 842 309 136 115 96 
252 842 310 141 119 99 
252 843 310 139 117 96 
252 843 311 137 115 94 
253 842 310 139 117 98 
253 843 310 138 116 95 
254 841 308 134 113 94 
254 841 309 132 111 92 
255 841 308 133 112 93 
254 842 308 133 112 92 
254 842 309 134 113 93 
254 843 309 134 112 92 
255 842 308 133 111 92 
255 843 308 132 110 90 
254 843 310 135 113 93 
252 844 311 132 111 92 
253 844 310 135 113 93 
253 844 311 131 110 91 
253 845 311 129 108 89 
253 846 311 130 110 91 
254 844 309 134 113 94 
255 844 308 134 112 93 
255 844 309 135 113 94 
255 845 309 136 114 94 
254 844 310 134 113 93 
254 845 310 134 113 93 
254 845 311 130 109 89 
255 846 309 136 114 92 
254 846 310 131 109 90 
254 846 311 131 110 90 
254 847 311 133 111 90 
255 846 310 134 112 92 
255 847 310 135 112 91 
255 847 311 134 112 90 
248 842 312 130 111 95 
248 843 312 127 108 92 
248 843 313 123 105 90 
249 842 312 133 113 95 
249 843 312 128 109 92 
250 843 312 131 111 94 
248 844 313 120 102 87 
249 844 312 124 105 88 
249 844 313 121 103 87 
248 844 314 118 102 88 
248 845 314 117 101 88 
248 845 315 116 100 88 
249 845 314 119 103 89 
249 845 315 118 103 89 
248 846 315 116 101 88 
249 846 315 118 103 89 
250 844 312 127 107 90 
250 844 313 123 104 87 
250 845 313 121 103 86 
251 844 312 127 107 89 
251 845 312 123 103 85 
251 845 313 120 102 84 
250 845 314 122 104 90 
251 846 313 121 103 86 
250 846 314 123 105 90 
250 846 315 120 104 90 
250 847 315 122 104 90 
251 846 314 122 104 88 
251 847 314 123 105 89 
251 847 315 123 105 89 
248 846 316 115 100 88 
248 847 316 114 99 87 
248 847 317 113 98 86 
249 846 316 118 102 90 
249 847 316 117 102 89 
249 847 317 115 100 87 
250 847 316 120 104 90 
252 844 312 129 108 90 
252 845 312 125 105 87 
253 845 312 128 109 91 
252 846 312 122 102 84 
252 846 313 122 103 85 
252 847 313 126 107 90 
253 846 312 128 107 89 
253 847 312 130 109 90 
253 847 313 130 110 92 
252 847 314 124 105 88 
254 847 312 132 111 91 
246 848 319 112 98 86 
247 848 318 113 99 87 
247 848 319 115 100 89 
247 849 319 116 101 91 
255 848 311 134 111 89 
255 849 311 133 110 88 
251 848 315 122 104 88 
249 848 317 115 99 86 
248 848 318 114 100 88 
248 848 319 116 101 90 
248 849 319 116 101 90 
249 848 318 115 100 87 
249 849 318 117 101 89 
249 849 319 117 102 90 
249 850 319 116 101 89 
250 848 316 119 102 88 
250 848 317 117 100 87 
250 849 317 118 102 88 
251 848 316 120 103 88 
251 849 316 120 102 87 
251 849 317 118 101 87 
250 849 318 118 102 89 
251 850 316 119 102 88 
251 850 317 118 102 87 
250 850 318 117 101 88 
250 850 319 116 101 88 
250 851 319 114 99 87 
251 850 318 117 101 87 
251 851 318 116 100 87 
251 851 319 113 98 85 
251 852 319 111 96 84 
253 848 312 133 112 92 
253 848 313 130 110 91 
252 848 314 126 107 90 
252 848 315 124 105 89 
252 849 315 125 106 90 
253 848 314 128 108 91 
253 849 314 127 107 89 
253 849 315 125 106 89 
253 850 315 124 105 90 
254 848 312 133 111 90 
254 848 313 131 110 91 
254 849 312 131 109 89 
254 849 313 129 108 89 
255 848 312 133 111 89 
255 849 312 131 109 88 
254 849 314 128 108 89 
254 850 313 128 108 90 
255 850 312 130 108 87 
255 850 313 129 108 89 
255 851 313 126 106 88 
254 850 314 126 107 89 
254 850 315 123 105 88 
254 851 315 119 101 86 
255 850 314 126 107 89 
255 851 314 122 103 86 
255 851 315 117 100 84 
252 849 316 122 105 90 
252 850 316 120 103 88 
252 850 317 118 101 87 
252 851 317 116 100 86 
253 850 316 121 104 88 
253 851 316 117 100 86 
253 851 317 115 98 85 
252 851 318 114 98 85 
254 851 316 116 99 85 
255 852 315 115 98 83 
253 852 317 113 98 84 
252 852 318 112 97 84 
252 852 319 111 96 83 
253 852 318 112 97 84 
253 852 319 111 96 83 
253 853 319 109 94 82 
254 852 316 113 97 83 
254 852 317 112 97 83 
255 852 316 112 96 82 
255 852 317 111 96 82 
255 853 317 112 96 84 
254 852 318 111 95 82 
254 853 318 110 95 82 
254 853 319 110 95 82 
255 853 318 112 96 84 
254 854 319 110 95 83 
255 854 318 111 97 84 
255 854 319 110 95 83 
224 880 256 108 101 115 
224 880 257 98 84 99 
225 880 256 97 87 102 
225 880 257 89 76 90 
224 880 258 90 77 90 
224 880 259 85 73 81 
225 880 258 81 69 80 
225 880 259 83 72 77 
225 881 259 77 69 72 
226 881 256 83 75 87 
226 881 257 74 68 77 
227 881 256 75 71 81 
227 881 257 71 68 75 
226 881 258 70 65 71 
226 881 259 73 67 70 
227 881 258 67 64 69 
227 881 259 70 66 71 
227 882 258 64 61 66 
227 882 259 67 64 67 
227 883 259 62 59 64 
224 880 260 88 75 76 
224 880 261 94 81 78 
225 880 260 87 76 75 
225 880 261 88 76 74 
225 881 260 83 74 73 
225 881 261 86 75 73 
224 880 262 99 83 77 
224 880 263 106 89 80 
224 881 262 99 83 77 
224 881 263 105 89 80 
225 881 262 93 79 75 
225 882 261 85 74 72 
224 882 263 104 89 80 
224 883 263 106 91 84 
225 882 262 94 81 76 
225 883 262 92 81 78 
225 883 263 102 88 82 
226 881 260 78 71 71 
226 882 260 75 70 70 
226 882 261 81 73 72 
226 883 260 72 67 69 
226 883 261 78 72 71 
227 882 260 70 66 68 
227 883 260 66 63 66 
224 884 263 105 91 84 
225 884 262 91 81 77 
225 884 263 102 89 82 
225 885 262 91 81 78 
225 885 263 101 88 83 
225 886 262 90 81 78 
225 886 263 100 88 83 
225 887 262 91 82 80 
225 887 263 97 86 82 
226 884 261 74 69 69 
226 885 261 72 67 68 
227 884 260 63 61 64 
227 885 260 62 61 63 
226 884 262 84 76 74 
226 885 262 82 75 73 
226 886 261 72 67 68 
226 887 261 74 68 69 
227 886 260 65 62 65 
227 886 261 69 65 67 
227 887 260 64 62 64 
227 887 261 68 64 67 
226 886 262 81 74 73 
226 887 262 82 75 75 
228 882 256 63 62 70 
228 882 257 60 59 65 
229 882 256 58 57 64 
229 882 257 58 56 63 
229 883 256 55 53 61 
229 883 257 55 54 61 
228 882 258 61 58 64 
228 882 259 62 59 65 
228 883 258 56 54 61 
228 883 259 57 56 62 
229 883 258 53 53 60 
230 883 256 51 51 59 
230 883 257 50 52 59 
229 884 257 50 53 59 
228 884 259 55 56 60 
228 885 259 56 56 61 
229 884 258 53 54 60 
229 885 258 53 54 60 
229 885 259 55 55 60 
228 886 259 57 57 61 
228 887 259 60 59 63 
229 886 258 53 54 59 
229 886 259 55 55 60 
229 887 258 53 54 59 
229 887 259 56 57 61 
230 884 256 49 52 58 
230 884 257 50 52 58 
230 885 257 52 54 60 
231 884 256 50 53 59 
231 885 256 52 54 60 
230 886 257 52 54 60 
230 887 257 51 53 59 
231 886 256 52 54 60 
231 887 256 51 53 59 
231 887 257 50 52 59 
230 887 258 52 53 59 
228 886 260 60 59 62 
228 887 260 62 61 64 
224 881 264 112 94 84 
224 881 265 116 97 87 
224 882 264 111 94 84 
224 882 265 117 98 87 
224 883 264 111 94 85 
224 883 265 117 99 88 
224 883 266 122 103 91 
224 884 264 111 95 87 
224 884 265 117 100 90 
224 885 264 110 95 87 
224 885 265 117 100 91 
224 884 266 123 105 94 
224 885 266 124 105 94 
224 885 267 127 107 95 
224 886 264 110 95 87 
224 886 265 115 99 91 
224 887 265 116 100 92 
225 886 264 107 93 86 
225 887 264 105 92 86 
225 887 265 112 97 90 
224 886 266 123 105 94 
224 886 267 128 108 97 
224 887 266 122 104 94 
224 887 267 128 108 97 
225 887 266 119 102 93 
224 887 268 130 110 99 
224 887 269 131 110 99 
225 888 263 94 84 80 
226 888 261 73 68 70 
227 888 260 63 61 63 
227 888 261 69 65 67 
227 889 260 62 60 62 
227 889 261 68 65 67 
226 888 262 79 73 73 
226 888 263 89 80 77 
226 889 262 77 71 72 
226 889 263 86 78 76 
227 889 262 73 68 71 
227 890 261 66 64 67 
227 891 261 62 60 64 
226 890 262 77 71 71 
226 890 263 80 73 72 
226 891 263 70 65 66 
227 890 262 71 67 69 
227 891 262 65 62 65 
227 891 263 70 66 66 
227 892 261 59 58 62 
227 892 262 61 60 63 
227 892 263 65 62 64 
227 893 262 59 59 63 
227 893 263 62 60 63 
227 894 262 57 57 62 
227 894 263 60 59 62 
227 895 262 56 56 61 
227 895 263 59 59 63 
228 888 259 57 56 60 
228 889 259 57 56 60 
229 888 258 51 53 58 
229 888 259 53 53 58 
229 889 258 49 52 57 
229 889 259 53 54 58 
228 890 259 56 56 61 
228 891 259 57 57 61 
229 890 258 50 53 58 
229 890 259 52 53 58 
229 891 259 55 56 61 
230 888 257 50 52 58 
230 889 257 49 51 57 
231 888 256 49 52 58 
231 888 257 49 52 58 
231 889 256 48 51 57 
231 889 257 48 51 57 
230 888 258 51 53 59 
230 889 258 49 52 57 
230 890 257 50 53 58 
230 891 257 50 53 59 
231 890 256 47 50 56 
231 890 257 47 50 56 
231 891 256 47 50 56 
231 891 257 49 52 58 
230 890 258 50 53 58 
230 891 258 52 54 60 
228 888 260 61 59 62 
228 889 260 59 57 60 
228 890 260 59 59 63 
228 890 261 63 61 65 
228 891 260 57 58 62 
228 891 261 59 59 63 
229 892 259 55 57 62 
229 893 259 54 57 61 
229 894 259 54 56 61 
229 895 259 53 55 60 
230 892 257 50 53 59 
230 893 257 50 53 58 
231 892 256 49 52 58 
231 892 257 50 53 59 
231 893 256 48 52 58 
231 893 257 49 52 58 
230 892 258 53 56 61 
230 893 258 53 56 61 
230 894 257 50 53 58 
231 894 256 46 50 56 
231 894 257 48 52 57 
231 895 256 45 50 56 
231 895 257 48 52 58 
230 894 258 53 56 61 
230 895 258 53 57 62 
230 895 259 54 57 62 
228 892 260 55 56 60 
228 892 261 57 57 60 
228 893 260 54 56 60 
228 893 261 56 57 61 
228 894 260 53 55 60 
228 894 261 54 55 60 
228 895 260 52 54 59 
228 895 261 52 54 59 
229 894 260 53 55 60 
229 895 260 52 55 59 
228 895 262 54 56 60 
225 888 264 99 87 82 
225 888 265 108 94 87 
225 889 264 97 86 81 
225 889 265 103 90 84 
224 888 267 125 106 95 
225 888 266 117 100 92 
225 888 267 122 103 93 
225 889 266 112 96 89 
225 889 267 122 103 94 
225 890 266 105 90 83 
225 890 267 115 98 90 
225 891 266 99 86 80 
225 891 267 107 92 85 
226 889 264 92 82 78 
226 890 264 85 76 74 
226 890 265 94 81 78 
226 891 264 75 69 68 
226 891 265 82 73 71 
226 890 266 93 80 76 
226 891 266 89 77 74 
224 888 268 129 109 98 
224 888 269 132 111 100 
224 889 268 128 108 97 
224 889 269 131 111 100 
225 889 268 123 104 95 
224 889 270 133 111 100 
224 890 268 126 106 96 
224 890 269 126 106 96 
224 891 269 125 106 95 
225 890 268 120 102 93 
225 891 268 115 98 90 
225 891 269 119 102 92 
224 890 270 131 110 99 
224 891 270 127 107 96 
225 892 266 91 80 75 
225 892 267 99 86 80 
225 893 266 85 75 72 
225 893 267 96 84 78 
225 894 266 84 75 71 
225 894 267 94 82 77 
225 895 266 86 77 72 
225 895 267 93 82 76 
226 892 264 68 64 65 
226 892 265 74 67 68 
226 893 264 65 62 65 
226 893 265 69 64 66 
226 892 266 82 73 71 
226 893 266 77 69 68 
226 894 264 63 61 64 
226 894 265 67 63 65 
226 895 264 63 61 64 
226 895 265 68 64 65 
227 895 264 62 61 64 
226 894 266 75 68 67 
226 895 266 77 71 68 
224 892 269 121 103 93 
224 893 269 117 100 90 
225 892 268 110 95 87 
225 892 269 116 100 91 
225 893 268 106 93 85 
225 893 269 113 98 90 
224 892 270 121 102 92 
224 893 270 117 99 89 
224 894 269 111 96 86 
224 895 269 109 93 85 
225 894 268 103 90 83 
225 894 269 111 96 88 
225 895 268 101 88 80 
224 894 270 114 96 87 
224 895 270 111 95 85 
232 886 256 52 54 61 
232 887 256 51 53 59 
232 888 256 48 51 57 
232 889 256 47 51 57 
232 890 256 46 49 55 
232 891 256 46 50 56 
232 892 256 47 50 57 
232 893 256 47 51 57 
232 894 256 46 50 56 
232 895 256 45 49 55 
215 855 333 99 89 83 
215 855 334 99 88 81 
215 855 335 101 90 83 
215 859 321 100 92 88 
214 859 323 105 96 90 
215 858 322 100 93 89 
215 858 323 101 93 89 
215 859 322 101 93 88 
215 859 323 103 95 90 
215 857 325 100 93 89 
215 857 326 103 95 92 
215 857 327 105 97 92 
214 859 324 106 97 91 
214 859 325 108 99 93 
215 858 324 102 94 89 
215 858 325 104 95 91 
215 859 324 105 96 91 
214 858 326 109 100 95 
214 858 327 112 101 96 
214 859 326 111 101 95 
214 859 327 115 104 98 
215 858 326 106 97 93 
215 858 327 108 99 94 
213 861 323 112 101 92 
213 862 320 109 97 90 
213 862 321 110 98 91 
213 863 320 111 100 91 
213 863 321 113 101 92 
213 862 322 111 99 91 
213 862 323 113 101 93 
213 863 322 114 101 92 
213 863 323 117 104 93 
214 860 321 104 95 90 
214 861 320 104 94 89 
214 861 321 105 96 89 
215 860 320 100 93 88 
215 860 321 102 94 89 
215 861 320 102 94 89 
214 860 322 105 96 90 
214 860 323 107 97 90 
214 861 322 107 97 90 
214 861 323 110 99 91 
215 860 322 103 94 89 
214 862 320 106 96 90 
214 862 321 107 97 91 
214 862 322 109 98 90 
213 861 324 114 102 93 
213 861 325 116 103 95 
213 860 326 116 104 97 
213 860 327 119 107 99 
213 861 326 119 106 97 
213 861 327 122 109 99 
213 862 324 117 104 94 
213 862 325 119 106 96 
213 863 324 120 106 96 
213 863 325 122 108 97 
212 862 327 127 112 101 
212 863 327 128 112 100 
213 862 326 122 108 98 
213 862 327 125 111 100 
213 863 326 125 109 98 
213 863 327 126 111 99 
214 860 324 109 99 92 
214 860 325 112 101 94 
214 861 324 112 100 92 
214 860 326 114 103 96 
211 863 329 134 116 102 
211 862 330 136 118 105 
211 862 331 136 117 103 
211 863 330 136 118 103 
211 863 331 138 118 103 
211 862 332 136 117 102 
211 862 333 136 115 100 
211 863 332 139 118 102 
211 863 333 140 118 100 
211 862 334 137 114 98 
211 862 335 138 115 98 
211 863 334 141 117 99 
211 863 335 143 117 99 
213 859 328 120 107 99 
213 859 329 122 109 100 
213 858 331 120 107 98 
213 859 330 122 110 100 
213 859 331 122 108 97 
215 856 329 105 96 92 
215 857 328 107 98 94 
215 857 329 109 99 94 
214 857 330 112 101 94 
214 857 331 112 101 93 
215 856 330 106 97 92 
215 856 331 105 95 89 
215 857 330 109 99 93 
215 857 331 109 98 91 
214 858 328 114 103 97 
214 858 329 115 105 98 
214 859 328 116 105 97 
214 859 329 120 108 99 
215 858 328 110 101 96 
215 858 329 112 102 96 
214 858 330 116 105 98 
214 858 331 115 103 95 
213 857 335 111 97 86 
213 858 332 116 103 93 
213 858 333 114 100 88 
213 859 332 120 106 94 
213 859 333 118 103 91 
212 859 334 119 103 89 
212 859 335 123 105 90 
213 858 334 114 99 87 
213 858 335 116 100 86 
213 859 334 117 101 88 
213 859 335 120 103 88 
214 856 333 105 93 85 
214 857 332 109 97 90 
214 857 333 109 97 88 
215 856 332 104 93 87 
215 856 333 104 93 85 
214 856 334 105 92 83 
214 856 335 106 93 83 
214 857 334 108 95 85 
214 857 335 109 96 85 
215 856 334 102 91 82 
214 858 332 114 101 92 
214 858 333 114 101 91 
212 861 329 128 113 102 
213 860 328 121 108 99 
213 860 329 123 109 99 
213 861 328 124 110 100 
213 861 329 126 111 101 
212 860 330 126 111 100 
212 860 331 126 111 99 
212 861 330 128 113 101 
212 861 331 130 113 100 
213 860 330 125 110 100 
213 860 331 124 110 99 
212 862 328 128 113 102 
212 862 329 131 115 103 
212 863 328 131 114 102 
212 863 329 133 116 103 
213 862 328 126 112 101 
212 862 330 133 117 104 
212 862 331 133 116 103 
212 863 330 135 118 105 
212 860 332 124 108 95 
212 860 333 123 106 94 
212 861 332 128 111 98 
212 861 333 129 111 97 
213 860 332 124 108 97 
212 860 334 123 106 92 
212 860 335 127 108 93 
212 861 334 130 110 95 
212 861 335 132 112 95 
212 862 332 133 115 101 
217 855 323 95 89 87 
218 855 320 93 88 86 
218 855 321 93 88 86 
219 854 320 93 87 85 
219 854 321 93 87 85 
219 855 320 93 88 86 
219 855 321 93 87 86 
218 854 323 93 87 85 
218 855 322 94 89 87 
218 855 323 94 88 86 
219 854 322 93 87 85 
219 854 323 92 87 85 
217 855 324 95 89 86 
217 855 325 96 89 86 
216 855 327 99 91 88 
217 855 326 96 89 86 
217 855 327 96 89 86 
219 853 325 93 86 84 
219 853 326 92 86 83 
219 853 327 92 85 82 
218 854 324 94 88 86 
218 854 325 94 88 85 
218 855 324 94 88 85 
218 855 325 95 89 86 
219 854 324 93 87 84 
219 854 325 94 88 86 
218 854 326 94 87 85 
218 854 327 94 87 84 
218 855 326 95 88 85 
219 854 326 93 86 84 
223 851 323 82 74 68 
221 851 327 81 73 68 
222 851 325 85 78 73 
223 851 324 84 76 71 
223 851 325 83 76 71 
222 851 326 82 74 70 
222 851 327 82 74 69 
223 850 327 83 76 71 
223 851 326 82 74 70 
223 851 327 82 75 70 
220 853 321 92 87 85 
221 853 320 92 86 84 
221 853 321 89 82 79 
220 853 322 92 86 84 
220 853 323 90 84 82 
221 852 323 85 78 74 
221 853 322 89 82 79 
221 853 323 89 83 80 
220 854 320 92 86 84 
220 854 321 92 86 84 
220 854 322 91 85 83 
220 854 323 92 87 85 
222 852 320 85 78 73 
222 852 321 86 78 73 
222 853 320 88 82 78 
222 853 321 88 81 78 
223 852 320 86 78 73 
223 852 321 86 78 73 
222 852 322 86 79 75 
222 852 323 85 78 73 
223 852 322 85 77 72 
223 852 323 84 76 70 
220 853 324 91 85 83 
220 853 325 91 85 82 
221 852 324 87 80 76 
221 852 325 89 82 79 
221 853 324 90 84 80 
221 853 325 92 85 83 
220 852 327 89 83 78 
220 853 326 90 83 80 
220 853 327 90 83 80 
221 852 326 87 80 76 
221 852 327 85 78 74 
222 852 324 85 78 74 
222 852 325 87 80 76 
222 852 326 85 77 73 
216 855 328 101 93 89 
216 855 329 101 93 89 
217 854 329 94 87 83 
