ply
format ascii 1.0
comment Created by CloudCompare v2.10.1 (Zephyrus)
comment Created 2/3/20 1:14 PM
obj_info Generated by CloudCompare!
element vertex 2053
property float x
property float y
property float z
property uchar red
property uchar green
property uchar blue
end_header
149 606 146 91 101 114 
149 606 147 94 104 118 
149 607 146 95 104 116 
149 607 147 98 107 120 
150 604 144 93 101 113 
150 604 145 92 100 113 
150 605 144 95 102 114 
150 605 145 91 100 113 
150 604 146 91 100 112 
150 604 147 90 99 112 
150 605 146 90 99 113 
150 605 147 90 100 114 
151 604 147 90 99 112 
150 606 144 95 102 113 
150 607 144 95 102 113 
150 607 145 97 104 115 
149 607 148 100 110 124 
150 604 148 90 99 113 
150 605 148 93 103 117 
150 605 149 98 108 122 
151 604 148 89 98 111 
151 604 149 90 100 114 
150 605 150 101 111 125 
151 604 150 95 105 118 
151 604 151 95 105 119 
151 605 150 98 108 122 
151 605 151 96 107 120 
150 606 148 99 109 123 
150 606 149 100 110 124 
150 607 149 99 109 123 
150 606 150 99 109 123 
150 606 151 98 107 121 
150 607 150 97 107 121 
150 607 151 96 105 119 
151 603 152 96 105 117 
151 603 153 96 104 117 
151 604 152 95 105 118 
151 604 153 95 105 117 
151 605 152 94 103 117 
151 605 153 94 103 116 
151 604 154 96 105 117 
151 605 154 96 104 117 
151 605 155 96 105 118 
150 606 152 95 104 118 
150 607 152 96 105 118 
150 607 153 98 107 119 
151 606 154 96 104 117 
151 606 155 97 106 118 
151 607 155 97 106 119 
151 606 156 97 106 119 
151 606 157 97 106 118 
151 607 156 97 106 119 
151 607 157 96 105 118 
151 607 158 96 106 119 
152 593 144 89 97 109 
153 592 145 91 99 110 
153 592 146 91 99 111 
153 592 147 91 99 111 
152 594 144 88 97 109 
152 594 145 89 98 110 
152 595 144 88 97 109 
152 595 145 88 96 109 
152 594 146 90 99 111 
152 595 146 89 98 110 
152 595 147 89 98 110 
153 592 148 92 100 111 
153 593 148 91 99 111 
153 593 149 92 100 111 
153 594 149 91 99 111 
153 594 150 91 99 111 
153 594 151 92 100 112 
153 595 151 92 100 112 
154 592 151 94 102 113 
152 596 144 90 99 112 
152 596 145 90 99 112 
152 597 144 94 103 115 
152 597 145 91 99 112 
152 596 146 89 98 110 
152 596 147 89 97 109 
152 597 146 89 98 110 
152 597 147 88 96 108 
152 598 144 94 103 115 
152 598 145 89 98 111 
152 598 146 88 97 109 
152 598 147 87 96 108 
152 599 147 88 96 108 
152 596 148 89 97 109 
152 597 148 88 97 108 
152 597 149 89 98 109 
152 597 150 90 98 110 
152 598 148 88 96 108 
152 598 149 90 98 109 
152 599 149 89 97 109 
152 598 150 90 99 111 
152 598 151 91 99 112 
152 599 150 89 98 110 
152 599 151 91 99 112 
153 595 152 92 100 112 
154 592 152 94 102 114 
154 592 153 97 105 117 
155 592 156 100 108 119 
155 592 157 102 109 120 
155 593 156 100 107 119 
155 593 157 101 108 119 
155 592 158 103 110 122 
155 593 158 102 109 121 
155 593 159 104 111 122 
154 594 156 98 106 118 
154 595 156 98 105 117 
154 595 157 99 106 118 
155 594 157 100 107 119 
155 594 158 101 108 120 
153 596 152 92 101 113 
152 599 152 92 101 113 
152 600 150 89 98 110 
152 600 151 91 99 112 
152 600 152 92 101 113 
152 600 153 93 102 114 
152 601 152 92 101 113 
152 600 154 94 103 115 
152 601 154 94 103 115 
152 601 155 95 104 116 
152 602 155 96 104 117 
152 602 156 96 105 117 
152 603 158 97 106 118 
155 594 160 105 112 123 
154 600 164 103 111 122 
154 601 165 103 110 122 
154 602 166 103 110 122 
154 603 166 102 110 122 
154 603 167 102 110 122 
151 608 141 99 105 116 
151 609 141 98 104 114 
150 608 143 97 104 114 
151 608 142 98 105 115 
151 608 143 97 104 115 
151 609 142 98 104 114 
151 609 143 97 103 114 
151 610 141 97 103 113 
151 610 142 97 103 113 
151 610 143 96 102 113 
151 611 142 94 100 111 
151 611 143 95 101 112 
151 612 142 94 101 111 
151 612 143 96 102 112 
151 613 143 96 102 113 
159 608 131 83 89 98 
159 610 131 84 90 99 
159 611 131 85 91 101 
156 608 135 92 99 109 
157 608 134 88 95 105 
157 608 135 91 98 108 
157 609 134 87 93 103 
157 609 135 89 95 105 
157 610 134 86 93 103 
157 610 135 87 94 104 
157 611 135 90 96 106 
158 608 133 86 92 101 
158 609 133 86 92 102 
159 608 132 84 90 99 
159 609 132 83 89 98 
159 609 133 86 92 101 
158 608 134 88 94 104 
158 609 134 86 93 102 
158 610 133 87 93 103 
158 611 133 88 94 103 
159 610 132 84 91 100 
159 610 133 86 93 102 
159 611 132 86 92 102 
159 611 133 87 93 103 
158 610 134 87 94 103 
158 611 134 89 95 104 
159 612 131 90 97 106 
159 613 131 93 99 109 
157 612 134 90 96 105 
157 612 135 92 98 107 
157 613 134 89 94 104 
157 613 135 89 95 104 
158 612 133 89 95 105 
158 613 133 89 95 104 
159 612 132 90 96 106 
159 612 133 90 96 105 
159 613 132 91 97 107 
159 613 133 90 96 105 
158 612 134 89 95 104 
158 613 134 87 93 102 
152 608 139 93 99 110 
153 608 138 93 99 109 
153 608 139 93 100 110 
153 609 139 92 98 108 
153 610 139 91 97 107 
153 611 139 90 96 106 
154 608 137 97 103 113 
155 608 136 98 105 115 
155 608 137 98 104 115 
155 609 137 92 98 108 
154 608 138 94 100 110 
154 609 138 90 97 107 
154 609 139 90 96 106 
155 610 137 91 97 107 
155 611 137 92 98 107 
154 610 138 89 96 106 
154 610 139 90 96 106 
154 611 138 89 95 105 
154 611 139 89 95 105 
155 610 138 90 96 106 
155 611 138 91 97 107 
152 608 140 95 102 112 
152 608 141 98 104 115 
152 609 140 94 100 111 
152 609 141 96 102 112 
153 609 140 92 99 109 
152 610 140 93 100 110 
152 610 141 95 101 111 
152 611 140 92 98 108 
152 611 141 93 99 109 
153 610 140 92 99 109 
153 611 140 91 98 108 
152 611 142 93 99 110 
153 612 139 89 95 104 
155 612 137 91 97 107 
154 612 138 89 95 104 
154 612 139 88 94 103 
154 613 139 89 95 105 
155 612 138 91 97 106 
155 613 138 90 96 106 
152 612 141 92 98 108 
152 613 141 96 102 113 
153 612 140 90 96 106 
153 613 140 89 96 107 
153 613 141 93 100 111 
152 612 142 94 100 111 
152 613 142 97 103 113 
152 613 143 96 102 113 
156 608 136 95 101 112 
156 609 136 90 97 108 
156 609 137 90 97 107 
156 610 136 89 95 106 
156 610 137 90 97 107 
156 611 136 92 98 108 
156 611 137 93 99 109 
157 610 136 88 95 105 
157 611 136 91 97 107 
156 612 136 91 98 107 
156 612 137 92 98 107 
156 613 136 89 95 105 
156 613 137 90 96 106 
157 612 136 93 99 109 
149 608 145 97 104 115 
149 609 145 97 104 115 
149 608 146 96 104 116 
149 608 147 97 106 118 
149 609 146 98 105 116 
149 609 147 96 104 117 
149 610 146 99 106 117 
149 610 147 98 106 117 
149 611 146 102 109 120 
149 611 147 104 110 121 
150 608 144 96 103 114 
150 608 145 97 104 115 
150 609 144 98 104 115 
150 609 145 98 104 115 
151 609 144 97 104 114 
150 610 144 98 105 116 
150 610 145 99 106 117 
150 611 144 98 105 116 
150 611 145 101 107 118 
151 610 144 97 104 115 
151 611 144 97 104 115 
150 610 146 100 106 118 
150 611 146 102 108 119 
149 608 148 97 106 120 
149 608 149 96 106 120 
149 609 148 95 104 117 
149 609 149 98 107 121 
149 609 150 99 109 123 
149 609 151 101 110 124 
149 610 148 99 108 121 
149 610 149 103 112 125 
149 611 148 103 111 123 
149 611 149 106 115 128 
149 610 150 104 113 126 
149 610 151 103 112 125 
149 611 150 104 114 127 
149 611 151 103 113 126 
150 608 150 94 104 118 
150 608 151 95 105 118 
149 612 147 107 113 124 
150 612 145 101 108 118 
150 613 145 100 106 117 
151 612 144 100 106 116 
151 612 145 101 107 118 
151 613 144 99 105 115 
151 613 145 99 106 116 
150 612 146 104 110 121 
150 612 147 106 112 124 
150 613 146 102 108 119 
150 613 147 103 110 121 
149 612 148 104 112 124 
149 612 149 107 115 128 
149 613 148 102 110 121 
149 613 149 101 110 122 
149 612 150 105 114 127 
149 612 151 99 109 122 
149 613 150 99 109 121 
149 613 151 95 105 118 
150 613 148 104 111 122 
149 610 152 103 111 124 
149 611 152 100 109 122 
149 611 153 95 104 117 
150 608 152 98 107 120 
150 608 153 101 109 121 
150 609 153 101 109 122 
150 608 154 100 109 121 
150 609 154 101 109 121 
150 609 155 98 107 120 
150 610 155 95 104 118 
150 609 156 96 105 118 
151 608 157 96 105 118 
151 608 158 96 105 118 
151 608 159 97 106 119 
151 609 159 97 106 120 
150 610 156 96 105 119 
150 610 157 96 106 119 
150 611 157 98 108 122 
150 611 158 96 106 120 
149 612 152 94 104 116 
149 612 153 93 101 114 
149 613 152 93 102 114 
149 613 153 92 100 112 
149 612 154 92 102 114 
149 612 155 93 103 117 
149 613 154 92 101 113 
149 613 155 93 102 115 
149 613 156 96 105 118 
150 612 158 98 108 122 
150 612 159 97 107 120 
150 613 159 94 105 119 
151 609 160 97 107 120 
151 609 161 97 107 120 
150 612 160 95 105 118 
150 613 160 93 104 118 
150 613 161 94 104 117 
160 592 128 98 105 116 
160 593 128 103 110 122 
160 594 128 106 113 124 
160 594 129 106 113 124 
160 595 129 99 106 117 
161 594 128 102 109 120 
161 595 128 96 103 114 
161 595 129 96 103 115 
162 595 128 97 104 114 
160 596 129 91 98 108 
160 597 129 88 95 105 
161 596 128 90 97 108 
161 596 129 90 98 108 
161 597 128 86 94 104 
161 597 129 87 94 104 
160 596 130 88 95 106 
160 597 130 88 95 105 
160 598 129 87 94 104 
161 598 129 88 94 104 
161 599 129 89 95 104 
160 598 130 89 96 106 
160 599 130 92 98 108 
162 596 128 90 97 108 
162 597 128 86 94 104 
162 598 128 88 94 103 
162 599 128 86 92 102 
161 600 128 84 91 100 
161 600 129 87 93 103 
161 601 128 85 91 100 
161 601 129 88 95 105 
160 600 130 93 100 110 
160 601 130 92 99 109 
160 601 131 96 103 114 
161 602 128 84 90 100 
161 602 129 88 94 104 
161 603 128 85 90 100 
161 603 129 85 91 101 
160 602 130 91 97 107 
160 602 131 96 103 114 
160 603 130 87 94 104 
160 603 131 94 101 111 
162 600 128 85 91 100 
162 601 128 83 89 99 
162 602 128 83 89 98 
162 603 128 84 90 99 
161 604 129 83 89 98 
161 605 129 83 89 98 
160 604 130 85 92 102 
160 604 131 88 95 105 
160 605 130 84 90 100 
160 605 131 85 91 101 
161 604 130 84 90 100 
161 605 130 84 90 99 
161 606 129 83 90 99 
161 607 129 87 93 102 
160 606 130 87 93 102 
160 606 131 87 93 103 
160 607 130 90 96 105 
160 607 131 89 94 104 
161 606 130 85 91 101 
161 607 130 88 94 103 
162 604 128 84 89 98 
162 605 128 84 89 98 
162 606 128 84 90 99 
162 607 128 84 91 100 
161 608 128 84 91 100 
161 608 129 87 93 102 
161 609 128 84 90 100 
161 609 129 83 89 98 
160 608 130 88 93 103 
160 608 131 86 91 100 
160 609 130 84 90 99 
160 609 131 83 89 98 
161 608 130 90 96 105 
161 609 130 84 89 99 
161 610 128 85 91 100 
161 610 129 84 91 100 
161 611 128 85 91 101 
161 611 129 86 92 101 
160 610 130 84 90 99 
160 610 131 84 90 99 
160 611 130 85 92 101 
160 611 131 85 92 101 
161 610 130 83 89 98 
162 608 128 84 91 100 
162 609 128 83 89 98 
162 610 128 84 90 99 
162 611 128 84 91 101 
160 608 132 82 88 97 
160 613 129 92 98 108 
161 612 128 85 92 102 
161 612 129 87 94 103 
161 613 128 88 95 105 
161 613 129 91 97 107 
160 612 130 89 95 105 
160 612 131 88 95 105 
160 613 130 93 99 109 
162 612 128 84 91 101 
162 613 128 86 93 103 
182 520 101 81 87 97 
182 521 101 81 88 97 
183 520 101 80 87 96 
183 521 101 81 87 96 
182 522 101 82 89 98 
182 523 101 83 90 100 
183 522 101 81 88 97 
183 523 101 83 90 99 
182 524 101 84 92 102 
182 525 101 84 91 102 
183 524 101 85 92 101 
183 525 101 86 92 102 
182 524 102 87 94 104 
182 525 102 86 94 104 
182 526 101 84 90 100 
183 526 101 86 92 102 
183 527 101 87 93 103 
182 526 102 83 90 100 
182 527 102 85 92 102 
183 527 102 87 93 103 
184 520 100 79 86 95 
184 520 101 79 85 94 
184 521 101 79 85 95 
185 520 100 78 84 94 
185 521 100 79 86 95 
184 522 101 81 88 97 
184 523 101 84 91 101 
185 522 101 84 90 100 
185 523 101 89 96 106 
186 520 100 78 85 94 
186 521 100 81 87 97 
187 520 100 81 87 96 
187 521 100 83 89 99 
186 522 100 87 94 104 
186 523 100 99 106 116 
186 523 101 97 104 114 
187 522 100 89 96 106 
187 523 100 100 106 117 
184 524 101 87 94 104 
184 525 101 89 96 106 
185 524 101 93 101 111 
185 525 101 97 104 115 
184 526 101 89 95 105 
184 527 101 87 94 104 
185 526 101 94 101 111 
185 527 101 87 95 105 
186 524 100 104 112 123 
186 524 101 102 110 121 
186 525 100 106 113 125 
186 525 101 105 112 123 
187 524 100 103 110 122 
187 525 100 104 111 123 
186 526 101 100 108 119 
186 527 101 90 97 108 
187 526 100 101 109 120 
187 526 101 97 105 117 
187 527 101 88 96 108 
189 520 99 81 87 97 
189 521 99 83 89 98 
190 520 99 82 89 98 
190 521 99 84 90 99 
191 520 99 82 89 99 
191 521 99 84 90 99 
190 522 99 83 89 98 
191 522 99 83 89 98 
191 523 99 81 87 97 
188 520 100 81 88 97 
188 521 100 84 90 100 
189 520 100 81 88 97 
189 521 100 84 90 100 
188 522 100 89 96 106 
188 523 100 96 103 114 
189 522 100 88 94 104 
189 523 100 89 96 107 
190 521 100 84 90 100 
190 522 100 84 90 100 
190 523 100 81 87 97 
191 523 100 79 86 96 
191 524 99 80 87 97 
188 524 100 98 106 117 
188 525 100 100 107 119 
189 524 100 89 97 108 
189 525 100 93 100 111 
188 526 100 98 105 117 
188 527 100 87 96 106 
189 526 100 94 101 112 
189 527 100 86 94 104 
190 524 100 81 88 98 
190 525 100 83 90 101 
191 524 100 79 86 96 
191 525 100 81 88 98 
190 526 100 86 92 102 
190 527 100 84 91 101 
191 526 100 83 90 99 
191 527 100 84 91 101 
182 528 102 89 95 106 
182 529 102 91 98 108 
183 528 102 88 95 106 
183 529 102 90 97 108 
182 530 102 96 103 113 
182 530 103 96 102 112 
182 531 103 96 103 113 
183 530 102 95 101 111 
183 531 102 94 101 111 
183 531 103 98 104 114 
182 532 103 91 97 107 
182 533 103 82 89 99 
183 532 102 92 99 109 
183 532 103 92 99 109 
183 533 103 84 91 102 
182 534 103 84 91 100 
182 535 103 89 95 105 
183 534 103 83 91 101 
183 535 103 89 95 106 
182 536 103 91 98 108 
182 537 103 92 99 109 
183 536 103 93 99 110 
183 537 103 93 100 110 
183 538 103 88 95 105 
182 537 104 90 97 108 
182 538 104 87 94 105 
182 539 104 86 94 106 
183 538 104 85 93 103 
183 539 104 84 91 102 
182 540 104 88 96 107 
182 541 104 89 97 108 
182 541 105 92 99 111 
183 540 104 85 93 104 
183 541 104 87 95 105 
182 542 105 93 100 111 
182 543 105 94 101 111 
183 542 104 87 94 105 
183 542 105 90 97 108 
183 543 105 87 94 104 
184 528 101 86 93 103 
185 528 101 86 92 103 
184 528 102 87 93 104 
184 529 102 88 95 105 
185 529 102 86 93 103 
184 530 102 90 97 107 
184 531 102 91 98 108 
185 530 102 87 94 104 
185 531 102 88 95 105 
186 528 101 86 93 103 
186 529 101 86 93 103 
187 528 101 86 94 105 
187 529 101 86 93 104 
186 529 102 86 93 103 
186 530 101 87 94 104 
186 531 101 89 95 105 
187 530 101 88 94 104 
187 531 101 89 94 104 
186 530 102 88 94 104 
186 531 102 89 95 104 
184 532 102 88 95 105 
184 533 102 82 90 100 
184 533 103 82 89 100 
185 532 102 86 92 102 
185 533 102 81 89 99 
184 534 102 81 89 100 
184 534 103 83 91 101 
184 535 103 91 99 109 
185 534 102 84 91 102 
185 535 102 92 99 109 
185 535 103 95 102 112 
187 532 101 85 92 101 
187 533 101 82 88 98 
186 532 102 85 91 101 
186 533 102 81 88 98 
187 533 102 80 87 96 
186 534 102 83 90 100 
186 535 102 87 94 104 
187 534 102 80 87 97 
187 535 102 81 88 98 
188 528 100 86 93 104 
188 528 101 86 94 104 
188 529 101 85 92 103 
189 528 100 85 92 103 
189 529 100 86 93 103 
189 529 101 86 93 103 
188 530 101 86 93 103 
188 531 101 86 93 102 
189 530 101 86 93 103 
189 531 101 85 92 101 
190 528 100 86 92 103 
190 529 100 89 96 106 
191 528 100 86 93 103 
191 529 100 92 99 109 
190 530 100 96 102 112 
190 530 101 92 98 108 
190 531 101 87 94 104 
191 530 100 98 105 115 
191 531 100 89 96 107 
191 531 101 86 93 104 
188 532 101 85 91 100 
188 533 101 82 88 97 
189 532 101 85 91 100 
189 533 101 83 89 99 
188 534 101 81 88 97 
189 534 101 84 90 99 
189 535 101 87 94 103 
188 534 102 81 88 97 
188 535 102 81 88 98 
189 535 102 86 93 103 
190 532 101 84 91 100 
190 533 101 84 90 100 
191 532 101 83 90 100 
191 533 101 83 89 99 
190 534 101 88 94 104 
190 535 101 97 102 112 
191 534 101 90 96 106 
191 535 101 102 108 118 
190 535 102 96 102 112 
184 536 103 97 104 115 
184 537 103 95 102 112 
185 536 103 96 103 114 
185 537 103 94 101 111 
184 538 103 88 95 106 
184 539 103 84 92 102 
185 538 103 91 98 108 
185 539 103 85 92 103 
186 536 102 87 94 104 
186 536 103 92 99 110 
186 537 102 84 92 102 
186 537 103 89 96 106 
187 536 102 81 88 98 
187 537 102 85 92 102 
186 538 103 91 97 108 
186 539 103 88 94 105 
187 538 102 91 98 108 
187 538 103 92 98 108 
187 539 103 89 95 105 
185 540 103 84 91 101 
186 540 103 85 92 102 
186 541 103 87 94 103 
187 540 103 84 91 101 
187 541 103 88 95 105 
186 542 103 91 98 109 
187 542 103 96 103 114 
187 543 103 99 107 119 
188 536 102 80 87 97 
188 537 102 87 93 104 
189 536 102 86 93 103 
189 537 102 86 94 104 
188 538 102 92 98 108 
188 539 102 90 97 107 
189 538 102 91 98 108 
189 539 102 92 98 109 
190 536 102 95 102 113 
190 537 102 90 97 108 
191 536 102 99 106 116 
191 537 102 92 99 109 
190 538 102 91 98 109 
190 539 102 93 100 110 
191 538 102 92 99 109 
191 539 102 95 101 111 
188 540 102 87 94 104 
188 540 103 85 92 103 
188 541 103 88 96 106 
189 540 102 87 94 104 
189 541 102 85 93 104 
189 541 103 87 95 106 
188 542 103 99 107 119 
188 543 103 102 110 122 
189 542 102 91 99 111 
189 542 103 97 105 116 
189 543 103 101 109 121 
190 540 102 87 94 104 
190 541 102 83 91 102 
191 540 102 88 95 105 
191 541 102 81 88 98 
190 542 102 89 97 108 
190 543 102 91 98 109 
190 543 103 95 103 114 
191 542 102 82 90 100 
191 543 102 87 94 104 
184 539 104 84 91 102 
184 540 104 85 92 103 
184 541 104 85 93 103 
185 540 104 85 92 102 
185 541 104 87 93 104 
184 542 104 85 92 103 
184 543 104 83 91 101 
185 542 104 86 93 104 
185 543 104 84 91 101 
186 541 104 87 94 104 
186 542 104 89 96 106 
186 543 104 89 97 107 
182 544 105 86 93 104 
182 545 105 80 88 98 
183 544 105 82 89 100 
183 545 105 80 87 97 
182 546 105 81 87 97 
182 547 105 82 89 98 
183 546 105 81 88 98 
183 547 105 84 90 99 
182 548 105 85 91 100 
182 549 105 84 90 99 
183 548 104 86 92 102 
183 548 105 87 93 102 
183 549 105 88 94 103 
182 550 105 81 88 97 
182 551 105 82 88 98 
183 550 105 88 94 103 
183 551 105 86 93 102 
182 551 106 82 88 98 
183 552 105 82 89 98 
183 553 105 81 88 98 
182 552 106 81 88 97 
182 553 106 81 87 97 
183 553 106 81 87 97 
183 554 105 81 88 98 
182 554 106 81 88 98 
182 555 106 84 90 101 
183 554 106 81 88 98 
183 555 106 83 90 101 
182 556 106 88 95 106 
182 557 106 95 101 112 
183 556 106 86 93 104 
183 557 106 91 98 109 
182 558 106 99 105 116 
182 559 106 97 105 116 
183 558 106 91 98 109 
183 559 106 90 98 109 
187 544 103 103 111 122 
187 545 103 92 100 111 
187 546 103 84 92 102 
187 547 103 81 89 99 
188 544 103 102 110 122 
188 545 103 94 102 114 
189 544 103 101 109 121 
189 545 103 94 102 113 
188 546 103 86 93 104 
188 547 103 83 90 100 
189 546 103 85 92 102 
189 547 103 83 90 100 
190 544 103 97 104 115 
190 545 103 92 99 109 
191 544 102 89 96 106 
191 544 103 91 98 108 
191 545 103 88 94 105 
190 546 103 86 93 102 
190 547 103 84 90 99 
191 546 103 85 91 101 
191 547 103 83 90 99 
188 548 103 83 90 99 
189 548 103 83 89 98 
190 548 103 84 90 99 
190 549 103 83 89 98 
191 548 103 86 92 102 
191 549 103 85 92 101 
191 550 103 81 88 97 
191 551 103 81 87 96 
184 544 104 81 88 98 
184 545 104 81 88 98 
185 544 104 82 89 99 
185 545 104 83 89 99 
184 546 104 81 88 98 
184 547 104 83 90 100 
185 546 104 80 88 98 
185 547 104 81 88 98 
186 544 104 89 96 106 
186 545 104 84 91 102 
187 544 104 100 107 118 
187 545 104 89 97 108 
186 546 104 79 87 97 
186 547 104 79 87 97 
187 546 104 82 89 100 
187 547 104 80 88 98 
184 548 104 86 93 103 
184 549 104 91 98 108 
184 549 105 92 98 108 
185 548 104 85 92 102 
185 549 104 92 98 108 
184 550 104 94 101 111 
184 550 105 93 100 110 
184 551 105 91 98 108 
185 550 104 94 100 111 
185 551 104 93 100 110 
185 551 105 91 98 108 
186 548 104 82 89 99 
186 549 104 88 94 104 
187 548 104 82 88 98 
187 549 104 83 89 99 
186 550 104 89 96 106 
186 551 104 88 95 105 
186 551 105 88 95 105 
187 550 104 84 90 100 
187 551 104 84 91 101 
188 548 104 82 88 98 
188 549 104 80 87 97 
189 548 104 81 88 97 
189 549 104 81 88 97 
188 550 104 81 88 98 
188 551 104 83 90 99 
189 550 104 80 87 97 
189 551 104 81 87 97 
190 549 104 82 89 98 
190 550 104 81 88 97 
190 551 104 80 87 97 
191 550 104 81 87 96 
191 551 104 81 87 96 
184 552 105 85 92 102 
184 553 105 83 90 100 
185 552 105 85 93 103 
185 553 105 85 92 102 
184 554 105 82 89 99 
184 555 105 83 90 100 
185 554 105 85 92 102 
185 555 105 86 93 103 
184 555 106 84 91 101 
186 552 104 85 92 103 
186 552 105 85 92 103 
186 553 105 85 93 104 
187 552 104 85 92 102 
187 553 104 88 96 106 
186 554 105 91 98 108 
186 555 105 93 100 110 
187 554 104 95 102 112 
187 554 105 97 104 114 
187 555 104 94 100 111 
187 555 105 95 102 112 
185 556 105 84 91 101 
185 557 105 83 90 101 
184 556 106 84 91 101 
184 557 106 85 93 103 
185 558 105 83 90 100 
185 559 105 83 90 100 
184 558 106 87 94 105 
184 559 106 86 94 105 
185 558 106 83 91 101 
185 559 106 83 91 101 
186 556 105 89 96 106 
186 557 105 86 93 102 
187 556 104 88 95 106 
187 556 105 90 97 107 
187 557 105 86 92 102 
186 558 105 82 89 99 
186 559 105 82 88 98 
187 558 105 82 89 99 
187 559 105 81 88 97 
188 552 104 84 91 101 
188 553 104 89 95 105 
189 552 104 82 88 98 
189 553 104 83 90 100 
188 554 104 92 98 109 
188 555 104 89 97 107 
189 554 104 84 91 101 
189 555 104 83 90 100 
190 552 104 80 86 96 
190 553 104 80 87 97 
191 552 104 80 87 96 
191 553 104 82 89 99 
190 554 104 83 90 100 
190 555 104 82 89 99 
191 554 104 87 94 104 
191 555 104 89 96 106 
188 556 104 85 92 102 
188 557 104 82 89 99 
188 557 105 83 90 100 
189 556 104 81 88 98 
189 557 104 81 87 97 
188 558 105 82 89 99 
188 559 105 82 89 99 
189 558 104 81 88 98 
189 558 105 82 89 99 
189 559 105 84 91 102 
190 556 104 81 88 98 
190 557 104 80 87 97 
191 556 104 83 91 101 
191 557 104 81 88 98 
190 558 104 82 89 99 
190 559 104 85 92 103 
190 559 105 87 95 106 
191 558 104 83 90 100 
191 559 104 89 97 107 
182 560 106 97 104 115 
182 561 106 96 103 114 
182 561 107 95 103 113 
183 560 106 94 101 112 
183 561 106 94 102 113 
182 562 107 92 100 111 
182 563 107 85 93 104 
183 562 106 93 101 111 
183 562 107 92 99 110 
183 563 106 89 97 107 
183 563 107 87 94 105 
182 564 107 82 89 100 
182 565 107 80 87 97 
183 564 107 83 90 100 
183 565 107 81 88 98 
182 566 107 83 90 99 
182 567 107 86 92 101 
183 566 107 83 89 99 
183 567 107 83 90 99 
182 568 107 86 92 101 
183 568 107 83 90 100 
183 569 107 83 90 100 
183 570 107 85 92 102 
182 568 108 86 92 102 
182 569 108 84 91 101 
183 569 108 84 90 100 
182 570 108 85 92 102 
182 571 108 86 92 102 
183 570 108 84 91 101 
183 571 108 85 92 102 
182 572 108 85 92 101 
182 572 109 85 91 101 
182 573 109 85 91 101 
183 572 108 85 91 101 
183 573 108 84 91 101 
182 574 109 86 92 102 
182 575 109 88 95 105 
183 574 108 85 92 102 
183 574 109 86 92 103 
183 575 109 89 96 107 
184 560 106 89 97 108 
184 561 106 92 99 109 
185 560 106 86 93 104 
185 561 106 89 96 106 
184 562 106 90 98 108 
184 563 106 86 93 103 
185 562 106 88 95 105 
185 563 106 84 91 102 
186 560 105 83 89 99 
187 560 105 83 90 99 
187 561 105 86 92 102 
186 560 106 84 91 101 
186 561 106 85 92 102 
187 561 106 86 92 102 
186 562 106 86 92 102 
186 563 106 84 91 101 
187 562 106 87 94 104 
187 563 106 86 93 103 
184 564 106 83 90 100 
184 564 107 82 89 99 
184 565 107 82 88 98 
185 564 106 83 89 99 
185 565 106 82 89 98 
185 565 107 82 89 98 
184 566 107 83 89 99 
184 567 107 86 92 102 
185 566 107 84 90 101 
185 567 107 87 94 104 
186 564 106 83 90 100 
186 565 106 82 89 100 
186 565 107 83 90 101 
187 564 106 84 91 102 
187 565 106 84 91 102 
186 566 107 86 93 103 
186 567 107 89 96 106 
187 566 106 86 93 104 
187 566 107 87 94 105 
187 567 106 94 101 112 
187 567 107 91 98 109 
188 560 105 85 92 102 
188 561 105 90 97 107 
189 560 105 88 96 107 
189 561 105 97 104 115 
188 562 105 91 98 109 
189 562 105 101 108 120 
188 562 106 92 99 109 
188 563 106 92 99 109 
189 562 106 98 105 116 
189 563 106 99 107 118 
190 560 105 94 102 113 
190 561 105 103 110 122 
191 560 105 96 104 115 
191 561 105 102 110 121 
190 562 105 105 113 124 
190 563 105 102 109 121 
191 562 105 104 112 123 
191 563 105 102 109 121 
190 563 106 99 107 119 
191 563 106 100 108 119 
188 564 106 88 96 106 
188 565 106 86 93 103 
189 564 106 93 101 112 
189 565 106 87 94 105 
188 566 106 88 95 106 
188 567 106 93 99 110 
188 567 107 93 99 110 
189 566 106 87 94 105 
189 567 106 90 96 106 
189 567 107 90 97 107 
190 564 106 95 103 114 
190 565 106 89 96 107 
191 564 106 95 102 113 
191 565 106 87 94 105 
190 566 106 86 93 103 
190 567 106 87 93 104 
190 567 107 86 93 103 
191 566 106 85 92 102 
191 567 106 85 92 102 
191 567 107 85 92 102 
184 568 107 86 93 103 
184 569 107 86 93 103 
185 568 107 90 97 108 
185 569 107 93 100 110 
184 570 107 86 93 103 
185 570 107 91 98 108 
185 571 107 87 94 105 
186 568 107 95 101 112 
186 569 107 99 106 116 
187 568 107 95 102 113 
187 569 107 98 105 116 
186 570 107 96 103 113 
186 571 107 89 96 106 
187 570 107 96 103 114 
187 571 107 89 96 106 
184 571 108 85 92 102 
185 571 108 86 93 103 
186 572 107 86 93 103 
187 572 107 86 94 104 
184 572 108 85 91 102 
184 573 108 85 92 102 
185 572 108 85 92 102 
185 573 108 86 93 103 
184 574 108 86 93 103 
184 574 109 86 93 104 
184 575 109 91 98 109 
185 574 108 87 94 105 
185 575 108 92 99 110 
185 575 109 93 100 111 
186 572 108 86 93 103 
186 573 108 86 93 104 
187 572 108 89 96 107 
187 573 108 90 97 108 
186 574 108 88 95 105 
186 575 108 92 99 110 
186 575 109 95 103 114 
187 574 108 92 99 109 
187 575 108 94 101 112 
187 575 109 94 102 113 
188 568 107 95 102 112 
188 569 107 95 102 113 
189 568 106 93 99 109 
189 568 107 93 100 110 
189 569 107 92 99 109 
188 570 107 92 99 110 
188 571 107 88 95 106 
189 570 107 88 95 105 
189 571 107 86 94 105 
190 568 107 89 96 105 
190 569 107 88 95 105 
191 568 107 86 92 102 
191 569 107 86 92 103 
190 570 107 86 93 103 
190 571 107 87 95 105 
191 570 107 85 92 103 
191 571 107 88 95 106 
188 572 107 89 96 107 
189 572 107 90 97 108 
190 572 107 91 98 109 
191 572 107 92 99 109 
188 572 108 95 101 112 
188 573 108 96 102 113 
189 572 108 96 102 113 
189 573 108 98 105 116 
188 574 108 97 103 114 
188 575 108 96 103 113 
188 575 109 94 101 112 
189 574 108 95 103 114 
189 575 108 94 101 112 
189 575 109 94 101 112 
190 572 108 94 101 112 
190 573 108 94 101 113 
191 572 108 92 99 110 
191 573 108 91 98 109 
190 574 108 91 99 110 
190 575 109 90 98 109 
191 574 108 90 97 108 
191 574 109 90 97 107 
191 575 109 90 97 108 
182 576 109 98 105 116 
182 577 109 101 108 120 
183 576 109 102 108 120 
183 577 109 106 113 126 
182 578 109 101 109 121 
182 579 109 105 112 124 
183 578 109 103 111 124 
183 579 109 102 111 123 
182 578 110 103 111 122 
182 579 110 103 110 122 
183 578 110 101 111 124 
183 580 109 99 108 121 
182 580 110 96 104 116 
182 581 110 93 102 114 
183 580 110 98 107 119 
183 581 110 95 104 116 
182 582 110 93 101 112 
182 583 111 91 98 108 
183 582 110 91 99 110 
183 583 110 89 97 108 
183 583 111 88 96 107 
182 584 111 89 96 107 
182 585 111 92 99 110 
183 584 111 90 97 107 
183 585 111 94 101 112 
182 586 111 96 103 114 
183 586 111 97 103 114 
182 588 111 92 99 110 
184 576 109 100 108 120 
184 577 109 103 112 124 
185 576 109 96 104 116 
185 577 109 97 105 118 
184 578 109 102 111 124 
184 579 109 99 108 121 
185 578 109 98 107 120 
185 579 109 98 107 120 
186 576 109 95 103 115 
186 577 109 94 103 115 
187 576 109 95 103 114 
187 577 109 95 102 114 
186 578 109 96 104 117 
186 579 109 97 106 118 
187 578 109 96 103 115 
187 579 109 96 104 116 
184 580 109 100 109 122 
184 581 109 100 109 121 
185 580 109 100 108 121 
185 581 109 102 110 122 
184 580 110 99 109 121 
184 581 110 98 106 118 
185 581 110 101 109 121 
184 582 110 91 99 110 
184 583 110 89 97 108 
184 583 111 90 97 108 
185 582 110 93 101 112 
185 583 110 90 97 108 
185 583 111 90 97 108 
186 580 109 98 107 119 
186 581 109 99 107 119 
187 580 109 95 103 114 
186 581 110 97 105 117 
187 581 110 94 102 113 
186 582 110 93 101 112 
186 583 110 90 98 109 
186 583 111 91 97 108 
187 582 110 92 99 111 
187 583 110 91 98 109 
188 576 109 93 100 111 
188 577 109 94 102 112 
189 576 109 93 100 111 
189 577 109 94 101 112 
188 578 109 96 103 115 
188 579 109 96 103 115 
189 578 109 95 102 113 
188 579 110 96 103 115 
189 578 110 94 101 113 
189 579 110 96 103 115 
190 576 109 91 98 109 
190 577 109 92 99 111 
191 576 109 91 98 109 
191 577 109 92 100 111 
190 578 109 93 101 112 
190 579 109 95 103 115 
191 578 109 94 101 113 
191 579 109 99 107 118 
190 578 110 94 101 113 
190 579 110 98 105 117 
191 579 110 104 112 124 
188 580 109 94 101 113 
188 580 110 93 101 112 
188 581 110 92 100 111 
189 580 110 95 103 114 
189 581 110 93 100 112 
188 582 110 92 99 110 
188 583 110 92 98 109 
188 583 111 93 100 110 
189 582 110 92 100 111 
189 583 110 93 100 111 
189 583 111 93 100 111 
190 580 110 101 109 121 
190 581 110 99 107 119 
191 580 110 106 114 126 
191 581 110 107 115 127 
190 582 110 97 105 117 
190 582 111 96 104 116 
190 583 111 93 101 112 
191 582 110 105 113 125 
191 582 111 100 108 120 
191 583 111 96 103 115 
184 584 111 91 98 109 
184 585 111 96 102 113 
185 584 111 91 98 109 
185 585 111 93 100 111 
184 586 111 96 103 114 
185 586 111 93 100 111 
186 584 110 92 99 110 
186 584 111 93 100 111 
186 585 111 94 101 112 
187 584 110 93 100 110 
187 584 111 94 101 111 
187 585 111 95 101 112 
186 586 111 95 102 113 
187 586 111 97 104 115 
187 587 111 99 106 116 
188 584 111 94 100 111 
188 585 111 95 101 112 
189 584 111 94 101 111 
189 585 111 95 102 112 
188 586 111 96 103 114 
188 587 111 99 106 118 
189 586 111 96 103 114 
189 587 111 99 107 118 
190 584 111 93 100 112 
190 585 111 95 102 113 
191 584 111 92 100 111 
191 585 111 93 101 112 
190 586 111 95 103 114 
190 587 111 96 104 115 
191 586 111 94 101 113 
191 587 111 94 101 113 
188 588 111 103 110 121 
189 588 111 103 109 121 
182 586 112 99 106 117 
182 587 112 99 106 117 
183 586 112 98 105 115 
183 587 112 96 103 114 
182 588 112 92 100 111 
182 589 112 89 97 108 
183 588 112 92 99 110 
183 589 112 92 99 110 
182 590 112 91 98 109 
182 591 113 91 98 109 
183 590 112 93 100 110 
183 591 113 92 99 110 
184 587 112 94 101 112 
185 587 112 93 100 111 
186 587 112 94 101 112 
187 587 112 100 106 117 
184 588 112 92 99 110 
184 589 112 93 100 111 
185 588 112 92 99 110 
185 589 112 92 99 110 
184 590 112 94 100 111 
184 591 113 93 100 110 
185 590 112 92 99 109 
185 590 113 93 100 110 
185 591 112 93 100 111 
185 591 113 93 100 110 
186 588 112 94 101 112 
186 589 112 92 99 110 
187 588 112 100 107 118 
187 589 112 94 101 112 
186 590 112 90 98 109 
186 591 112 92 99 110 
186 591 113 93 100 111 
187 590 112 91 99 110 
187 591 112 93 100 111 
190 587 112 98 105 117 
191 587 112 93 101 112 
188 588 112 103 110 121 
188 589 112 98 105 117 
189 588 112 101 109 120 
189 589 112 98 105 116 
188 590 112 94 101 112 
188 591 112 94 101 112 
188 591 113 94 101 112 
189 590 112 95 102 113 
189 591 112 96 103 114 
189 591 113 95 103 114 
190 588 112 99 106 118 
190 589 112 96 103 115 
191 588 112 93 101 112 
191 589 112 93 101 112 
190 590 112 94 102 114 
190 591 113 100 108 120 
191 590 112 94 102 114 
191 590 113 101 108 120 
191 591 113 105 112 124 
182 592 113 91 98 109 
182 593 113 93 100 111 
183 592 113 90 98 108 
183 593 113 92 100 111 
182 594 113 93 100 112 
182 595 113 91 99 111 
183 594 113 93 101 112 
183 595 113 93 101 113 
182 595 114 91 99 110 
183 595 114 95 103 115 
182 596 114 94 102 114 
182 597 114 103 111 122 
183 596 114 97 105 118 
183 597 114 104 112 125 
183 597 115 106 114 127 
182 598 115 106 113 125 
182 599 115 103 110 121 
183 598 115 103 111 124 
183 599 115 101 109 121 
182 600 115 99 106 118 
183 600 115 101 108 120 
182 600 116 97 104 116 
182 601 116 95 102 113 
183 600 116 101 108 120 
183 601 116 98 105 116 
182 602 116 95 101 113 
182 602 117 95 102 113 
182 603 117 96 103 114 
183 602 116 95 103 114 
183 602 117 95 102 113 
183 603 117 96 103 114 
182 604 117 97 104 115 
182 605 117 96 103 114 
183 604 116 98 105 116 
183 604 117 98 105 116 
183 605 117 102 109 120 
182 606 117 95 102 114 
183 606 117 98 105 117 
182 606 118 95 102 113 
182 607 118 94 101 112 
183 607 118 95 102 114 
184 592 113 92 99 110 
184 593 113 94 101 113 
185 592 113 93 100 111 
185 593 113 95 102 113 
184 594 113 99 107 119 
184 595 113 99 107 119 
185 594 113 103 110 122 
184 595 114 103 111 123 
185 595 114 109 116 129 
186 592 113 93 101 112 
186 593 113 94 102 113 
187 592 113 93 101 112 
187 593 113 95 102 114 
186 594 113 100 108 120 
187 594 113 98 106 118 
186 594 114 103 111 124 
186 595 114 107 115 128 
187 594 114 100 108 120 
187 595 114 102 110 123 
184 596 114 103 112 125 
184 597 114 108 117 130 
184 597 115 108 117 130 
185 596 114 109 117 130 
185 597 114 110 119 132 
185 597 115 108 117 130 
184 598 115 101 110 123 
184 599 115 97 106 119 
185 598 115 102 111 124 
185 599 115 97 106 119 
186 596 114 108 117 130 
186 597 115 106 115 128 
187 596 114 106 114 127 
187 597 115 106 114 127 
186 598 115 103 112 125 
186 599 115 102 110 122 
187 598 115 106 114 126 
187 599 115 106 113 125 
188 592 113 94 102 113 
188 593 113 97 104 116 
189 592 113 97 104 116 
189 593 113 97 105 116 
188 594 113 98 106 117 
189 594 113 98 106 118 
188 594 114 98 106 118 
188 595 114 98 107 119 
189 594 114 98 106 118 
189 595 114 97 105 117 
190 592 113 102 110 122 
190 593 113 101 109 121 
191 592 113 105 112 124 
191 593 113 102 109 121 
190 594 113 100 108 120 
191 594 113 100 107 119 
190 594 114 98 106 117 
190 595 114 96 104 116 
191 594 114 96 104 115 
191 595 114 95 102 114 
188 596 114 99 108 120 
188 596 115 100 109 121 
188 597 115 100 109 122 
189 596 114 97 106 118 
189 596 115 98 106 119 
189 597 115 97 105 118 
188 598 115 101 109 121 
188 599 115 103 111 122 
189 598 115 97 105 117 
189 599 115 97 105 116 
190 596 114 96 104 115 
190 597 115 96 104 115 
191 596 114 94 101 112 
191 597 114 92 99 110 
191 597 115 92 99 111 
190 598 115 94 102 113 
190 599 115 90 98 109 
191 598 115 92 99 110 
191 599 115 89 96 106 
184 600 115 97 106 119 
184 601 115 95 103 115 
185 600 115 95 103 116 
185 601 115 93 101 113 
186 600 115 97 105 117 
187 600 115 102 109 121 
184 600 116 99 106 118 
184 601 116 97 104 116 
185 601 116 91 99 111 
184 602 116 95 102 114 
184 603 116 93 101 112 
185 602 116 91 99 110 
185 603 116 92 99 110 
186 601 116 91 100 111 
187 600 116 98 106 117 
187 601 116 92 99 110 
186 602 116 93 100 111 
186 603 116 94 101 112 
187 602 116 94 101 112 
187 603 116 94 100 111 
184 604 116 95 103 114 
184 605 117 101 108 120 
185 604 116 93 100 112 
185 604 117 95 103 114 
185 605 117 95 103 115 
184 606 117 96 104 115 
185 606 117 92 100 111 
184 607 118 93 101 112 
185 607 118 92 100 111 
186 604 116 95 102 113 
186 604 117 94 102 113 
186 605 117 93 100 111 
187 604 117 94 101 112 
187 605 117 92 99 109 
186 606 117 91 98 109 
187 606 117 91 97 108 
187 607 117 90 96 107 
186 607 118 90 97 108 
187 607 118 89 96 107 
188 600 115 101 108 120 
189 600 115 96 103 115 
190 600 115 88 95 106 
191 600 115 88 94 105 
191 601 115 87 94 104 
188 600 116 97 104 116 
188 601 116 89 97 108 
189 600 116 93 101 112 
189 601 116 88 96 106 
188 602 116 91 98 109 
188 603 116 91 98 108 
189 602 116 89 95 106 
189 603 116 91 97 108 
190 600 116 88 95 106 
190 601 116 87 94 104 
191 601 116 87 94 105 
190 602 116 87 94 104 
190 603 116 89 95 106 
191 602 116 87 94 105 
191 603 116 88 95 105 
188 604 117 91 98 108 
188 605 117 90 97 107 
189 604 117 91 98 108 
189 605 117 90 97 108 
188 606 117 89 96 107 
188 607 117 88 95 106 
189 606 117 90 97 107 
189 607 117 89 95 105 
188 607 118 88 95 105 
190 604 116 91 98 108 
190 604 117 91 98 108 
190 605 117 96 102 113 
191 604 116 92 99 109 
191 605 116 93 100 111 
191 605 117 95 102 113 
190 606 117 95 102 113 
190 607 117 93 100 110 
191 606 117 96 103 114 
191 607 117 94 101 112 
182 608 118 95 102 113 
182 609 118 93 100 111 
183 608 118 95 102 113 
183 609 118 94 101 112 
182 610 119 93 100 111 
182 611 119 93 100 112 
183 610 118 93 100 111 
183 610 119 93 100 111 
183 611 119 92 99 110 
182 612 119 91 99 111 
182 613 119 90 98 109 
183 612 119 91 98 109 
183 613 119 90 98 109 
184 608 118 93 100 111 
184 609 118 92 99 110 
185 608 118 92 98 109 
185 609 118 91 98 108 
184 610 118 92 99 110 
184 611 118 92 99 109 
184 611 119 91 98 109 
185 610 118 92 98 109 
185 611 118 92 98 109 
185 611 119 91 98 109 
186 608 118 90 97 107 
186 609 118 90 97 107 
187 608 118 89 96 106 
187 609 118 89 96 106 
186 610 118 91 98 108 
186 611 118 92 99 110 
187 610 118 90 98 108 
187 611 118 89 97 108 
184 612 119 91 98 108 
184 613 119 91 98 109 
185 612 118 91 98 109 
185 612 119 89 96 107 
185 613 119 89 97 108 
186 612 118 91 99 110 
186 612 119 92 99 111 
186 613 119 95 103 114 
187 612 118 92 100 111 
187 613 118 98 105 117 
187 613 119 101 109 121 
189 608 117 90 97 107 
188 608 118 88 95 106 
188 609 118 88 96 106 
189 608 118 90 97 107 
189 609 118 90 97 108 
188 610 118 90 97 108 
188 611 118 90 98 109 
189 610 118 90 98 108 
189 611 118 91 99 110 
190 608 117 92 99 109 
190 609 117 90 97 107 
191 608 117 91 98 108 
191 609 117 88 95 106 
190 609 118 90 97 107 
190 610 117 89 96 107 
190 611 117 88 96 107 
191 610 117 88 96 106 
191 611 117 88 96 107 
190 610 118 90 97 108 
190 611 118 90 98 109 
188 612 118 91 100 111 
188 613 118 99 107 119 
189 612 118 91 99 110 
189 613 118 95 102 114 
191 612 117 85 93 105 
190 612 118 92 99 110 
190 613 118 90 98 109 
191 612 118 87 94 106 
191 613 118 86 93 104 
192 520 99 83 90 100 
192 521 99 83 89 99 
193 520 99 84 91 101 
193 521 99 84 90 100 
192 522 99 82 88 97 
192 523 99 81 88 97 
193 522 99 82 88 98 
193 523 99 83 89 98 
194 520 98 84 92 102 
194 520 99 87 94 104 
194 521 99 91 97 107 
195 520 98 90 97 108 
195 521 98 97 104 114 
195 521 99 96 102 113 
194 522 99 84 91 100 
194 523 99 82 89 98 
195 522 99 88 95 106 
195 523 99 83 91 101 
192 524 99 81 87 97 
192 525 99 83 89 98 
193 524 99 83 89 99 
193 525 99 85 91 100 
193 526 99 85 91 101 
194 524 99 84 90 100 
194 525 99 87 92 102 
195 524 99 85 92 102 
195 525 99 86 92 101 
194 526 99 86 92 102 
195 526 99 86 93 102 
195 527 99 85 92 102 
192 525 100 82 89 98 
192 526 100 83 90 99 
192 527 100 83 90 100 
193 526 100 84 90 100 
193 527 100 82 89 98 
194 527 100 84 90 100 
195 527 100 84 91 101 
196 520 98 95 102 113 
196 521 98 96 103 114 
197 520 98 96 104 115 
197 521 98 95 103 115 
196 522 99 94 102 113 
196 523 99 90 98 109 
197 522 98 94 103 115 
197 522 99 95 104 116 
197 523 99 96 104 116 
198 520 98 97 105 117 
198 521 98 93 102 114 
199 520 98 100 108 120 
199 521 98 94 103 115 
198 522 98 90 99 111 
198 522 99 91 100 113 
198 523 99 95 103 115 
199 522 98 89 98 110 
199 523 99 89 98 109 
196 524 99 89 96 107 
196 525 99 86 93 104 
197 524 99 95 102 113 
197 525 99 89 97 107 
196 526 99 86 93 103 
196 527 99 87 94 104 
197 526 99 85 92 102 
197 527 99 89 96 106 
198 524 99 97 104 115 
198 525 99 91 98 109 
199 524 99 88 96 107 
199 525 99 86 93 104 
198 526 99 85 92 102 
198 527 99 90 97 107 
199 526 99 83 90 101 
199 527 99 85 92 102 
200 520 98 95 103 116 
200 521 98 93 102 114 
201 520 98 94 102 114 
201 521 98 95 103 115 
200 522 98 90 99 111 
200 523 98 87 95 107 
200 523 99 85 93 104 
201 522 98 97 104 116 
201 523 98 90 98 109 
201 523 99 85 93 103 
202 520 98 92 100 111 
202 521 98 95 102 113 
203 520 98 89 96 107 
203 521 98 91 99 109 
202 522 98 98 105 116 
202 523 98 92 99 110 
202 523 99 86 94 104 
203 522 98 91 98 108 
203 523 98 88 95 105 
203 523 99 87 94 104 
200 524 99 84 91 102 
200 525 99 84 91 101 
201 524 99 86 93 102 
201 525 99 86 92 102 
200 526 99 84 90 100 
200 527 99 85 91 101 
201 526 99 86 92 101 
201 527 99 86 92 101 
202 524 99 88 94 104 
202 525 99 87 94 103 
203 524 98 88 94 104 
203 524 99 88 95 105 
203 525 98 90 95 105 
203 525 99 89 95 104 
202 526 99 86 92 102 
202 527 99 85 92 102 
203 526 99 87 93 104 
203 527 99 86 94 104 
204 520 98 88 95 105 
204 521 98 89 95 105 
205 520 98 88 94 104 
205 521 98 86 93 103 
204 522 98 85 92 102 
204 523 98 86 92 103 
205 522 98 84 91 102 
205 523 98 87 94 104 
206 520 97 87 93 104 
207 520 97 89 96 106 
206 520 98 87 94 104 
206 521 98 86 93 104 
207 520 98 89 97 108 
207 521 98 93 102 114 
206 522 98 87 95 106 
206 523 98 93 100 111 
207 522 98 101 109 121 
207 523 98 106 113 125 
204 524 98 88 94 104 
204 525 98 89 95 105 
205 524 98 90 96 106 
205 525 98 89 95 105 
204 526 98 88 94 104 
204 526 99 87 93 103 
204 527 99 88 95 105 
205 526 98 87 93 103 
205 527 98 85 92 102 
205 527 99 86 93 103 
206 524 98 90 97 109 
206 525 98 86 93 104 
207 524 98 95 103 115 
207 525 98 85 93 105 
206 526 98 84 91 101 
206 527 98 83 90 100 
206 527 99 83 90 101 
207 526 98 82 89 100 
207 527 98 82 88 97 
192 528 100 84 91 101 
192 529 100 89 96 106 
193 528 100 83 90 99 
193 529 100 86 93 103 
192 530 100 94 101 111 
192 531 100 87 94 105 
193 530 100 89 95 105 
193 531 100 86 93 103 
194 528 100 82 89 99 
194 529 100 83 90 100 
195 528 100 85 92 102 
195 529 100 86 93 103 
194 530 100 85 91 101 
194 531 100 83 90 100 
195 530 100 84 91 101 
195 531 100 82 89 99 
192 532 100 82 90 100 
192 532 101 82 89 99 
192 533 101 83 90 100 
193 532 100 82 89 100 
193 533 100 82 89 99 
193 533 101 82 90 100 
192 534 101 88 95 105 
192 535 101 98 105 116 
193 534 100 84 91 101 
193 534 101 85 92 102 
193 535 101 93 100 110 
194 532 100 82 89 99 
194 533 100 84 91 100 
195 532 100 83 89 99 
195 533 100 85 91 100 
194 534 100 85 92 102 
194 534 101 87 93 103 
194 535 101 89 96 106 
195 534 100 86 92 101 
195 535 100 85 91 101 
195 535 101 86 93 103 
196 528 99 92 98 108 
196 529 99 97 103 113 
197 528 99 98 104 114 
197 529 99 100 106 117 
198 528 99 97 104 114 
198 529 99 98 104 114 
199 528 99 89 96 106 
199 529 99 92 98 109 
198 530 99 90 97 107 
199 530 99 87 94 104 
199 531 99 84 91 101 
196 528 100 90 97 107 
196 529 100 93 99 109 
197 529 100 97 104 114 
196 530 100 87 94 104 
196 531 100 83 90 101 
197 530 100 88 96 106 
197 531 100 83 90 100 
198 530 100 86 93 103 
198 531 100 83 90 101 
199 531 100 84 90 100 
199 532 99 84 91 100 
196 532 100 83 89 99 
196 533 100 84 91 100 
197 532 100 82 89 99 
197 533 100 84 90 100 
196 534 100 86 91 101 
196 535 100 85 91 100 
197 534 100 85 91 100 
197 535 100 84 90 100 
198 532 100 83 90 100 
198 533 100 85 91 101 
199 532 100 85 91 101 
199 533 100 86 92 102 
198 534 100 85 91 101 
198 535 100 84 90 99 
199 534 100 86 92 102 
199 535 100 85 91 102 
192 536 101 96 103 114 
193 536 101 93 99 110 
193 537 101 89 97 107 
192 536 102 95 102 113 
192 537 102 91 98 109 
193 537 102 90 97 107 
193 538 101 89 96 106 
192 538 102 91 98 109 
192 539 102 93 99 109 
193 538 102 90 97 107 
193 539 102 89 96 106 
194 536 101 89 97 107 
194 537 101 86 93 104 
195 536 100 82 89 99 
195 536 101 83 90 100 
195 537 101 81 88 99 
194 538 101 88 95 105 
194 539 101 89 95 106 
195 538 101 85 92 103 
195 539 101 88 95 106 
192 540 102 86 93 103 
192 541 102 79 86 96 
193 540 102 83 90 101 
193 541 102 78 85 94 
192 542 102 79 86 96 
192 543 102 82 88 98 
193 542 102 77 84 93 
193 543 102 78 85 94 
194 540 101 85 92 102 
194 541 101 79 86 96 
195 540 101 89 95 105 
195 541 101 82 89 98 
195 542 101 80 87 96 
194 542 102 78 85 94 
194 543 102 78 85 94 
195 542 102 80 86 95 
195 543 102 79 85 94 
196 536 100 81 88 97 
196 537 100 79 86 95 
196 537 101 80 87 96 
197 536 100 82 88 97 
197 537 100 80 87 96 
196 538 101 85 92 102 
196 539 101 92 99 109 
197 538 101 88 95 105 
197 539 101 101 108 119 
198 536 100 81 88 98 
198 537 100 81 88 99 
199 536 100 82 90 100 
199 537 100 84 92 103 
198 538 101 91 99 109 
198 539 101 104 112 123 
199 538 100 92 100 111 
199 538 101 95 103 115 
199 539 101 103 111 122 
196 540 101 99 105 115 
196 541 101 92 99 109 
197 540 101 107 114 125 
197 541 101 101 108 119 
196 542 101 82 89 99 
197 542 101 88 95 104 
196 542 102 80 87 97 
196 543 102 79 86 95 
197 543 102 83 89 99 
198 540 101 107 114 126 
198 541 101 102 110 120 
199 540 101 106 114 126 
199 541 101 99 107 119 
198 542 101 93 100 110 
198 543 101 89 95 106 
199 542 101 92 99 110 
199 543 101 89 96 106 
198 543 102 85 92 102 
199 543 102 87 94 104 
200 528 99 86 93 102 
200 529 99 87 94 104 
201 528 99 86 92 102 
201 529 99 86 93 103 
200 530 99 85 92 102 
200 531 99 84 90 100 
201 530 99 85 92 102 
201 531 99 84 91 101 
202 528 99 84 91 101 
202 529 99 85 92 102 
203 528 99 87 95 105 
203 529 99 88 96 107 
202 530 99 85 92 102 
202 531 99 84 91 100 
203 530 99 87 94 105 
203 531 99 84 91 101 
200 532 99 85 92 101 
200 533 99 84 91 101 
201 532 99 85 92 102 
201 533 99 84 91 101 
201 534 99 83 90 100 
202 532 99 85 91 101 
202 533 99 84 91 100 
203 532 99 83 90 100 
203 533 99 82 89 98 
202 534 99 83 90 100 
203 534 99 83 90 100 
203 535 99 83 90 99 
200 532 100 85 92 101 
200 533 100 85 92 101 
200 534 100 84 91 101 
200 535 100 84 91 101 
201 534 100 84 90 100 
201 535 100 84 91 101 
202 535 100 85 92 102 
203 535 100 84 91 101 
204 528 99 94 101 112 
204 529 99 98 105 116 
205 528 99 91 98 109 
205 529 99 97 103 114 
204 530 99 95 101 112 
204 531 99 86 92 102 
205 530 99 95 102 112 
205 531 99 86 93 103 
206 528 99 85 92 102 
206 529 99 91 98 108 
207 528 98 82 88 97 
207 528 99 83 89 99 
207 529 99 82 89 99 
206 530 99 89 96 106 
206 531 99 83 90 100 
207 530 99 83 90 100 
207 531 99 83 90 100 
204 532 99 83 89 99 
204 533 99 82 89 98 
205 532 99 85 91 101 
205 533 99 86 93 103 
204 534 99 84 91 101 
204 535 99 84 91 101 
205 534 99 86 94 104 
205 535 99 85 92 103 
206 532 99 88 95 105 
206 533 99 94 101 112 
207 532 99 91 97 107 
207 533 99 99 105 115 
206 534 99 94 101 112 
206 535 99 89 96 106 
207 534 99 95 102 112 
207 535 99 87 94 105 
204 535 100 83 90 100 
205 535 100 85 91 101 
200 536 100 84 92 102 
200 537 100 92 100 111 
201 536 100 89 96 106 
201 537 100 98 105 116 
200 538 100 95 103 115 
200 539 100 101 109 121 
200 539 101 103 111 123 
201 538 100 95 104 116 
201 539 100 99 108 120 
201 539 101 102 110 122 
202 536 100 90 97 107 
202 537 100 95 103 113 
203 536 100 86 93 103 
203 537 100 88 95 106 
202 538 100 94 103 115 
202 539 100 98 106 119 
203 538 100 90 98 109 
203 539 100 94 102 114 
200 540 101 103 111 123 
200 541 101 96 104 116 
201 540 101 101 110 122 
201 541 101 96 104 116 
200 542 101 88 97 108 
200 543 101 86 93 104 
201 542 101 86 94 106 
201 543 101 82 90 100 
202 540 100 99 107 119 
202 540 101 100 108 120 
202 541 101 97 105 117 
203 540 100 97 105 116 
203 540 101 99 107 118 
203 541 100 100 107 118 
203 541 101 101 107 119 
202 542 101 86 94 105 
202 543 101 81 89 99 
203 542 101 89 97 107 
203 543 101 83 90 100 
207 536 99 86 93 103 
204 536 100 82 89 99 
204 537 100 83 90 100 
205 536 100 84 90 100 
205 537 100 82 89 99 
204 538 100 85 93 103 
204 539 100 88 95 106 
205 538 100 83 90 99 
205 539 100 84 91 101 
206 536 100 85 92 102 
206 537 100 81 88 98 
207 536 100 84 91 101 
207 537 100 80 88 97 
206 538 100 81 88 98 
206 539 100 83 90 100 
207 538 100 81 88 98 
207 539 100 83 89 99 
204 540 100 93 100 111 
204 541 100 95 102 112 
204 541 101 95 102 112 
205 540 100 90 96 107 
205 541 100 91 97 107 
204 542 101 87 94 105 
204 543 101 83 90 99 
205 542 100 85 92 102 
205 542 101 84 91 101 
205 543 101 83 89 99 
206 540 100 87 94 104 
206 541 100 88 95 105 
207 540 100 85 92 102 
207 541 100 85 92 102 
206 542 100 85 92 102 
206 543 100 84 91 101 
206 543 101 84 90 100 
207 542 100 87 94 104 
207 543 100 86 93 103 
208 520 97 96 103 114 
209 520 97 98 105 116 
209 521 97 111 118 130 
208 520 98 98 106 118 
208 521 98 106 114 126 
209 521 98 111 119 131 
208 522 98 112 120 132 
208 523 98 114 122 134 
209 522 98 113 121 134 
209 523 98 113 121 134 
210 520 97 96 103 115 
210 521 97 107 114 126 
211 520 97 92 99 110 
211 521 97 96 104 116 
210 521 98 110 117 129 
211 521 98 97 105 117 
210 522 98 111 119 131 
210 523 98 111 119 131 
211 522 98 99 107 119 
211 523 98 101 109 121 
208 524 98 105 112 124 
208 525 98 89 97 108 
209 524 98 103 111 124 
209 525 98 91 99 111 
208 526 98 82 89 100 
208 527 98 80 87 96 
209 526 98 84 91 101 
209 527 98 81 87 96 
210 524 98 100 109 121 
210 525 98 90 99 110 
211 524 98 97 105 117 
211 525 98 88 96 107 
210 526 98 84 91 101 
210 527 98 81 87 97 
