ply
format ascii 1.0
comment Created by CloudCompare v2.10.1 (Zephyrus)
comment Created 1/30/20 12:05 PM
obj_info Generated by CloudCompare!
element vertex 1962
property float x
property float y
property float z
property uchar red
property uchar green
property uchar blue
end_header
156 593 443 162 132 115 
156 594 440 176 133 120 
156 594 441 175 133 122 
156 595 440 184 138 125 
156 595 441 185 139 127 
156 594 442 176 137 125 
156 594 443 177 139 126 
156 595 442 186 142 129 
156 595 443 187 143 130 
156 593 444 166 135 119 
156 594 444 178 140 126 
152 600 443 185 138 127 
152 600 444 188 141 128 
152 600 445 191 142 130 
153 600 444 190 142 129 
153 600 445 192 143 130 
152 600 446 192 144 130 
152 600 447 193 144 130 
152 601 446 191 143 129 
152 601 447 193 143 129 
153 600 446 194 144 130 
153 600 447 194 144 131 
160 578 415 103 93 86 
160 579 414 98 87 79 
160 579 415 101 90 83 
161 579 415 97 87 80 
160 580 413 91 80 71 
160 581 413 91 79 69 
161 581 413 90 79 70 
160 580 414 93 83 74 
161 580 414 91 80 71 
161 580 415 92 81 73 
161 581 414 89 77 68 
160 582 413 97 81 69 
160 583 413 109 88 74 
161 582 413 96 81 69 
161 583 413 103 84 70 
161 582 414 94 79 67 
161 583 414 105 82 69 
162 580 415 89 79 71 
162 581 414 89 77 68 
162 581 415 89 77 69 
163 580 415 89 77 70 
163 581 415 90 76 67 
162 582 414 91 76 65 
162 583 414 98 77 64 
162 583 415 103 79 65 
163 582 415 93 77 64 
163 583 415 105 85 71 
164 581 415 92 76 65 
164 582 415 97 80 67 
164 583 415 107 88 73 
160 584 413 128 98 87 
160 584 414 131 99 88 
160 585 414 146 111 101 
161 584 414 124 93 82 
161 584 415 135 104 93 
161 585 414 141 107 97 
161 585 415 158 123 113 
160 586 414 160 121 112 
160 586 415 168 128 118 
160 587 415 172 131 120 
161 586 415 170 132 122 
162 584 414 110 84 71 
162 584 415 127 99 86 
162 585 415 158 125 114 
163 584 415 124 99 85 
160 577 417 104 95 89 
160 576 419 106 98 93 
160 577 418 105 96 91 
160 577 419 105 97 92 
161 577 418 104 96 91 
161 577 419 105 97 92 
160 578 416 103 94 87 
160 578 417 104 94 88 
161 578 416 102 92 86 
161 578 417 103 94 88 
161 579 416 100 90 84 
161 578 418 104 95 89 
162 577 419 104 96 91 
163 577 419 104 96 92 
162 578 417 102 93 87 
162 579 416 98 88 82 
162 579 417 101 91 85 
163 579 416 95 85 78 
163 579 417 99 88 82 
162 578 418 103 94 89 
162 578 419 104 95 90 
163 578 418 103 93 88 
163 578 419 104 95 90 
163 579 418 102 92 86 
160 576 420 106 98 93 
160 576 421 105 98 94 
161 576 420 105 97 93 
161 576 421 104 97 94 
161 577 420 105 97 93 
160 576 422 104 97 93 
160 576 423 101 95 91 
161 576 422 104 97 93 
161 576 423 102 96 93 
162 576 421 105 97 94 
162 577 420 105 97 93 
162 577 421 105 97 94 
163 576 421 105 98 94 
163 577 420 105 97 93 
163 577 421 105 98 94 
162 576 422 105 98 95 
162 576 423 105 98 96 
163 576 422 106 99 95 
163 576 423 107 100 97 
162 580 416 94 84 77 
163 580 416 91 79 71 
164 577 419 105 96 91 
164 578 418 103 93 87 
164 578 419 104 95 89 
164 579 418 101 91 83 
165 578 419 105 94 88 
165 579 418 103 90 82 
165 579 419 104 92 85 
166 578 419 107 95 87 
166 579 419 106 92 83 
167 579 419 109 93 83 
164 577 420 105 97 93 
164 577 421 106 98 95 
165 577 420 106 97 92 
165 577 421 107 99 94 
164 576 422 107 99 96 
164 576 423 108 101 97 
164 577 422 107 99 96 
165 576 422 108 100 96 
165 576 423 109 101 97 
165 577 422 108 100 95 
165 578 420 106 95 89 
166 577 421 108 99 94 
167 577 421 110 99 93 
166 576 423 110 101 97 
166 577 422 109 100 96 
166 577 423 110 101 97 
167 576 423 111 102 97 
167 577 422 110 100 95 
167 577 423 111 101 96 
166 578 420 107 96 90 
167 578 420 109 96 88 
167 578 421 109 98 91 
164 580 416 92 79 69 
164 580 417 95 82 73 
164 581 416 95 78 67 
164 581 417 98 81 69 
165 580 417 100 83 71 
165 581 417 104 85 74 
165 580 418 100 85 74 
164 582 416 103 83 70 
164 583 416 116 95 81 
165 582 417 112 91 78 
165 583 416 125 102 89 
165 583 417 126 101 89 
166 580 418 104 88 76 
166 581 418 110 89 76 
167 580 419 109 91 78 
167 581 418 115 92 79 
167 581 419 118 94 81 
166 582 417 120 95 83 
166 583 417 130 103 89 
166 582 418 123 96 84 
166 583 418 132 102 88 
167 582 418 125 97 85 
167 582 419 129 99 88 
167 583 418 133 102 88 
167 583 419 136 103 90 
160 576 424 99 93 89 
160 576 425 102 95 91 
161 576 424 103 97 94 
161 576 425 105 98 95 
160 576 426 110 101 96 
160 577 426 118 107 101 
160 577 427 123 111 104 
161 576 426 111 102 98 
161 577 426 117 107 102 
161 577 427 122 110 104 
162 576 424 107 100 98 
162 576 425 109 102 99 
163 576 424 109 102 99 
163 576 425 110 103 100 
162 576 426 113 105 102 
162 577 426 117 109 105 
162 577 427 120 110 103 
163 576 426 113 106 102 
163 577 426 115 107 103 
163 577 427 118 107 102 
160 578 428 130 116 107 
160 579 428 129 113 104 
161 578 428 126 113 105 
161 579 428 126 112 103 
162 578 428 122 109 101 
162 579 428 122 107 98 
163 578 428 120 108 100 
163 579 428 119 105 95 
160 580 428 129 113 103 
160 580 429 132 115 104 
160 581 429 134 113 102 
161 580 428 127 111 101 
161 580 429 129 111 100 
161 581 429 128 104 93 
160 582 429 136 107 97 
160 583 429 148 111 102 
161 582 429 141 110 98 
161 583 428 189 150 144 
161 583 429 171 136 126 
162 580 428 123 105 94 
162 581 428 131 106 93 
162 581 429 127 101 88 
163 580 428 123 104 93 
163 581 428 139 113 101 
162 582 428 164 132 123 
162 582 429 147 116 104 
162 583 428 184 144 138 
163 582 428 169 136 128 
163 583 428 181 135 132 
164 576 424 110 102 99 
164 576 425 111 104 101 
165 576 424 110 103 99 
165 576 425 112 104 100 
164 576 426 114 106 102 
164 577 426 114 106 102 
164 577 427 116 107 101 
165 576 426 114 105 101 
165 577 427 115 105 100 
166 576 424 111 102 98 
166 576 425 113 104 99 
167 576 424 112 103 98 
167 576 425 114 104 99 
166 576 426 114 105 100 
166 576 427 115 106 100 
166 577 427 115 105 100 
167 576 426 115 105 100 
167 576 427 115 106 100 
167 577 427 116 106 100 
165 577 428 117 106 100 
164 578 428 120 108 101 
164 579 428 121 107 98 
165 578 428 121 109 101 
165 579 428 125 111 103 
166 577 428 117 106 100 
167 577 428 119 107 101 
166 578 428 122 110 102 
166 579 428 126 112 103 
166 579 429 129 115 105 
167 578 428 122 109 101 
167 578 429 124 111 103 
167 579 429 131 116 107 
164 583 427 185 131 130 
165 583 427 192 141 139 
166 583 427 201 151 148 
167 583 427 210 161 156 
164 580 428 128 109 98 
164 581 428 151 122 111 
165 580 428 134 115 104 
165 580 429 139 119 108 
165 581 428 162 132 122 
165 581 429 158 129 118 
164 582 428 174 137 130 
164 583 428 181 131 130 
165 582 428 180 141 134 
165 583 428 186 138 135 
166 580 429 142 121 110 
166 581 429 168 136 127 
167 580 429 146 123 112 
167 581 429 173 138 130 
166 582 428 188 146 140 
166 583 428 195 147 143 
167 582 428 192 148 143 
167 582 429 189 147 142 
167 583 428 201 152 147 
160 587 416 178 138 127 
160 587 417 180 138 127 
161 586 416 172 134 123 
161 586 417 174 134 124 
161 587 416 175 135 125 
161 587 417 177 135 125 
161 587 418 180 136 126 
161 587 419 181 136 126 
162 585 416 164 128 118 
163 584 416 135 109 95 
163 585 416 158 124 113 
163 585 417 167 127 118 
162 586 416 169 131 120 
162 586 417 173 132 123 
163 586 417 171 130 121 
162 586 418 178 135 127 
162 587 418 179 135 127 
162 587 419 181 136 126 
163 586 418 176 133 125 
163 586 419 180 136 127 
163 587 419 182 137 127 
161 587 420 186 140 127 
161 587 421 193 144 130 
161 587 422 197 146 133 
161 587 423 202 151 139 
162 587 420 185 139 127 
162 587 421 190 142 128 
163 587 420 184 138 127 
163 587 421 189 140 127 
162 587 422 195 145 132 
162 587 423 202 151 138 
163 586 423 203 153 140 
163 587 422 193 143 129 
163 587 423 200 149 136 
160 588 416 181 140 129 
160 588 417 182 138 127 
160 588 418 181 137 126 
160 588 419 182 138 124 
161 588 419 182 137 124 
160 588 420 187 141 127 
160 588 421 192 143 130 
161 588 420 187 142 128 
161 588 421 192 144 130 
160 588 422 195 144 131 
160 588 423 199 149 135 
161 588 422 196 146 133 
161 588 423 200 149 136 
164 584 416 138 111 98 
164 584 417 153 119 107 
164 585 417 162 124 114 
165 584 416 135 108 95 
165 584 417 141 109 98 
165 585 417 156 119 108 
164 585 418 168 126 118 
165 585 418 163 124 114 
165 585 419 174 133 123 
164 586 418 172 129 121 
164 586 419 180 137 128 
165 586 419 180 136 126 
166 584 418 145 109 97 
166 585 418 160 121 111 
166 585 419 172 132 121 
167 584 418 144 108 95 
167 584 419 157 118 106 
167 585 419 172 133 120 
164 586 420 184 137 128 
164 586 421 187 138 127 
164 587 420 185 137 126 
164 587 421 187 138 127 
165 586 420 184 138 128 
165 586 421 187 138 127 
164 586 422 192 141 128 
164 586 423 200 149 136 
164 587 422 193 142 129 
165 586 422 191 142 130 
165 586 423 198 148 135 
166 585 420 184 141 130 
167 585 420 184 143 130 
167 585 421 188 142 130 
166 585 423 198 147 134 
167 585 422 189 138 125 
167 585 423 194 143 130 
166 586 420 186 141 130 
166 586 421 188 140 129 
166 586 422 191 140 129 
166 586 423 195 145 132 
167 586 422 188 138 126 
161 585 426 193 139 136 
161 585 427 188 133 132 
160 587 424 203 154 144 
160 587 425 201 152 144 
161 586 425 205 155 146 
161 587 424 205 156 145 
161 587 425 203 154 145 
160 586 426 195 144 140 
160 586 427 192 142 137 
160 587 426 196 146 141 
161 586 426 198 146 142 
161 586 427 192 140 137 
162 584 427 186 130 129 
162 585 426 197 143 139 
162 585 427 190 135 133 
163 584 427 188 133 131 
163 585 426 202 151 145 
162 586 424 208 157 148 
162 586 425 207 156 148 
162 587 424 206 155 145 
163 586 424 207 157 146 
163 586 425 208 157 148 
162 586 426 202 151 144 
160 584 428 188 142 138 
160 584 429 179 139 133 
160 585 428 184 133 129 
160 585 429 185 138 133 
161 584 428 188 140 137 
161 585 428 185 132 129 
160 586 428 186 134 130 
162 584 428 184 132 130 
163 584 428 182 127 127 
160 588 424 201 153 141 
164 585 425 209 159 150 
165 585 424 205 154 143 
165 585 425 209 159 151 
164 584 427 193 140 138 
164 585 426 207 157 150 
165 584 426 209 159 155 
165 584 427 198 148 145 
165 585 426 211 162 155 
164 586 424 207 156 146 
164 586 425 209 159 150 
165 586 424 205 154 143 
166 585 424 204 153 141 
166 585 425 209 159 149 
167 584 425 209 158 148 
167 585 424 202 152 139 
167 585 425 208 157 147 
166 584 426 213 164 158 
166 584 427 208 158 154 
166 585 426 213 163 156 
167 584 426 214 164 157 
167 584 427 212 163 158 
168 579 419 111 94 82 
168 577 421 112 100 94 
169 577 421 113 100 93 
168 576 423 112 102 97 
168 577 422 112 101 95 
168 577 423 112 102 96 
169 576 423 113 102 97 
169 577 422 113 101 95 
169 577 423 112 102 96 
168 578 420 111 96 87 
168 578 421 112 98 91 
168 579 420 112 96 84 
169 578 420 113 97 88 
169 578 421 113 98 90 
169 579 420 114 96 84 
170 577 421 114 99 91 
171 577 421 115 98 89 
170 576 423 114 102 96 
170 577 422 114 101 93 
170 577 423 114 102 96 
171 576 423 115 102 96 
171 577 422 115 99 91 
171 577 423 115 101 94 
170 578 421 114 97 87 
170 579 420 115 95 84 
170 579 421 115 96 85 
171 578 421 115 97 87 
171 579 421 116 95 84 
171 578 422 115 97 87 
168 580 419 113 94 79 
168 581 419 122 99 84 
168 582 419 132 102 89 
168 583 419 143 108 96 
168 580 420 114 95 81 
169 580 420 116 96 82 
169 581 420 126 101 88 
168 582 420 140 106 94 
168 583 420 151 115 101 
169 582 420 140 106 94 
169 583 420 156 119 105 
169 583 421 158 120 106 
170 580 420 118 96 84 
170 580 421 118 95 83 
170 581 420 127 100 89 
170 581 421 128 100 89 
171 580 421 116 94 82 
171 581 421 126 98 86 
171 581 422 133 100 89 
170 582 421 144 108 96 
170 583 421 164 124 110 
171 582 421 143 107 94 
171 583 421 160 120 106 
170 583 422 176 134 120 
171 582 422 148 110 97 
171 583 422 167 127 113 
171 583 423 181 136 124 
172 577 422 115 98 90 
172 577 423 116 100 92 
173 577 423 117 99 91 
172 578 422 115 96 86 
172 579 422 115 93 83 
173 578 422 116 94 85 
173 578 423 116 95 86 
173 579 422 115 92 82 
173 579 423 115 93 83 
174 577 423 118 97 90 
174 578 423 117 95 87 
174 579 423 116 91 83 
172 580 422 116 91 79 
172 581 422 127 97 84 
173 580 422 116 90 79 
173 580 423 119 91 80 
173 581 422 125 94 82 
173 581 423 130 97 85 
172 582 422 145 108 95 
172 582 423 153 113 100 
172 583 422 165 125 113 
172 583 423 175 133 120 
173 582 423 148 110 96 
173 583 423 169 128 114 
174 580 423 117 89 80 
174 581 423 129 97 85 
174 582 423 140 104 92 
168 576 424 113 103 98 
168 576 425 115 104 99 
169 576 424 114 103 98 
169 576 425 115 105 99 
168 576 426 116 105 100 
168 576 427 116 106 100 
169 576 426 116 105 100 
169 576 427 117 106 100 
170 576 424 115 104 97 
170 576 425 116 105 99 
171 576 424 116 103 97 
171 576 425 117 105 99 
170 576 426 117 106 99 
170 576 427 118 106 100 
171 576 426 118 106 99 
171 576 427 119 106 100 
168 576 428 117 107 101 
168 577 428 118 108 101 
168 577 429 121 109 102 
169 576 428 118 107 101 
169 576 429 119 108 102 
169 577 428 119 108 102 
169 577 429 123 111 103 
168 578 429 126 112 103 
168 579 429 135 118 108 
169 578 429 128 114 105 
168 579 430 139 121 111 
169 578 430 133 118 108 
169 579 430 142 122 112 
170 576 428 118 107 101 
170 576 429 119 108 102 
170 577 429 122 110 103 
171 576 428 119 107 101 
171 576 429 120 108 102 
171 577 429 122 110 103 
170 577 430 126 113 105 
171 577 430 126 113 106 
170 578 430 132 117 108 
170 579 430 144 124 114 
171 578 430 135 120 111 
171 579 430 144 125 116 
171 579 431 153 129 122 
168 583 427 216 167 161 
169 583 426 212 160 149 
169 583 427 217 167 158 
170 583 426 209 155 144 
170 583 427 214 162 152 
171 583 426 199 146 134 
171 583 427 207 154 143 
168 580 429 155 129 119 
168 581 429 182 143 136 
169 581 429 190 150 144 
168 580 430 152 128 118 
169 580 430 162 133 124 
169 581 430 187 148 142 
168 582 428 201 155 150 
168 582 429 194 151 146 
168 583 428 213 164 158 
169 582 428 214 166 160 
169 582 429 208 160 155 
169 583 428 220 170 163 
170 581 429 201 156 152 
170 580 430 169 136 129 
170 581 430 191 149 145 
171 580 430 174 138 133 
171 580 431 167 135 130 
171 581 430 198 154 151 
170 582 428 220 170 164 
170 582 429 212 164 159 
170 583 428 219 169 161 
171 582 429 214 165 159 
171 583 428 214 162 154 
172 576 424 117 103 96 
172 576 425 119 105 99 
173 576 424 119 103 96 
173 576 425 120 106 99 
173 577 424 118 101 94 
172 576 426 120 106 99 
173 576 426 121 106 99 
174 576 424 120 103 95 
174 576 425 122 106 99 
174 577 424 119 99 92 
175 576 424 121 102 95 
175 576 425 125 106 99 
175 577 424 122 100 93 
174 576 426 123 107 100 
175 576 426 126 108 101 
175 578 424 119 95 87 
175 579 424 117 91 83 
172 576 428 120 108 101 
172 576 429 121 109 102 
173 576 429 122 110 103 
172 576 430 123 110 103 
172 577 430 127 114 107 
172 577 431 133 119 111 
173 576 430 123 111 104 
173 577 430 127 114 106 
173 577 431 132 118 110 
172 578 431 139 123 115 
172 579 431 152 129 122 
173 578 431 143 125 118 
173 579 431 156 131 126 
174 576 430 124 111 104 
174 576 431 126 113 106 
174 577 431 134 120 112 
175 576 430 123 110 103 
175 576 431 126 113 104 
175 577 431 133 119 111 
174 578 431 144 126 119 
174 579 431 163 135 131 
172 583 424 183 138 124 
172 583 425 185 137 123 
173 583 424 174 132 119 
173 583 425 181 134 122 
172 583 426 191 137 124 
172 583 427 200 146 134 
173 583 426 185 133 121 
173 583 427 195 141 129 
174 581 424 128 96 86 
175 580 424 118 88 80 
175 581 424 128 94 85 
174 582 424 148 110 99 
174 583 424 170 128 116 
174 583 425 174 130 119 
175 582 424 147 108 99 
175 582 425 160 119 111 
175 583 425 171 127 117 
174 583 426 180 129 118 
174 583 427 190 136 125 
175 583 426 176 126 116 
175 583 427 182 129 118 
172 580 430 185 146 144 
172 580 431 175 139 136 
172 581 430 204 154 154 
173 580 431 182 145 142 
173 581 430 207 158 158 
172 582 429 213 163 158 
172 583 428 208 155 146 
173 582 429 213 163 157 
173 583 428 204 151 141 
174 580 431 191 148 148 
174 581 430 213 163 162 
174 581 431 206 158 158 
175 580 431 193 150 151 
175 581 430 216 165 164 
175 581 431 210 160 162 
174 582 429 213 162 154 
174 583 428 201 147 137 
175 582 428 196 141 132 
175 582 429 210 158 151 
175 583 428 195 140 131 
174 582 430 216 166 163 
175 582 430 217 167 163 
168 584 419 155 117 103 
168 584 420 169 130 116 
168 584 421 183 140 127 
168 585 420 179 139 125 
168 585 421 187 142 130 
169 584 421 179 137 125 
168 585 422 188 140 127 
168 585 423 192 142 129 
169 584 422 187 142 129 
169 584 423 191 142 129 
169 585 422 188 140 128 
169 585 423 192 142 129 
170 584 422 185 141 128 
170 584 423 189 141 128 
171 584 422 180 137 124 
171 584 423 185 139 126 
168 584 424 199 149 137 
168 584 425 204 152 141 
168 585 424 199 148 136 
168 585 425 205 153 142 
169 584 424 195 146 132 
169 584 425 200 149 137 
168 584 426 211 160 151 
169 584 426 208 156 145 
170 584 424 192 143 129 
170 584 425 196 145 132 
171 584 424 187 139 126 
171 584 425 191 140 127 
170 584 426 204 151 139 
171 584 426 196 143 131 
172 584 425 187 138 124 
175 577 432 138 122 114 
174 578 432 146 126 120 
174 579 432 155 130 125 
175 578 432 149 127 121 
175 579 432 163 134 130 
175 580 432 180 142 142 
176 576 425 127 106 99 
176 577 424 124 100 93 
176 577 425 126 103 96 
177 576 425 130 106 99 
177 577 424 125 100 93 
177 577 425 128 103 96 
176 576 426 129 108 101 
177 576 426 131 109 102 
176 578 424 122 97 89 
176 579 424 119 92 84 
177 578 424 124 98 91 
177 578 425 126 99 92 
177 579 424 121 92 84 
178 576 425 132 107 100 
178 577 425 130 104 97 
179 576 425 136 109 103 
179 577 425 136 107 101 
178 576 426 132 109 103 
179 576 426 137 111 105 
178 578 425 129 101 94 
178 579 425 125 95 88 
179 578 425 135 105 98 
179 579 425 135 102 96 
176 576 431 126 113 104 
177 576 431 126 111 102 
176 580 424 119 89 81 
176 581 424 128 93 85 
176 581 425 129 94 85 
177 580 424 119 88 80 
177 580 425 120 87 78 
177 581 425 130 94 84 
176 582 425 148 110 101 
177 582 425 139 103 93 
176 582 426 167 121 111 
176 583 426 175 125 115 
176 583 427 179 126 116 
177 582 426 163 118 108 
177 582 427 180 127 117 
178 580 425 125 91 81 
178 581 425 130 94 81 
179 580 425 136 101 93 
178 581 426 144 104 93 
179 580 426 140 103 94 
179 581 426 154 112 102 
178 582 426 167 120 110 
178 582 427 181 130 120 
179 582 426 170 123 113 
179 582 427 181 131 122 
176 581 430 221 169 168 
176 581 431 216 165 166 
177 580 431 214 163 166 
177 581 430 222 171 169 
177 581 431 220 169 170 
176 582 428 189 133 124 
176 582 429 206 152 145 
176 583 428 186 131 121 
177 582 428 184 129 119 
177 582 429 203 147 140 
176 582 430 219 167 163 
177 582 430 221 168 164 
178 581 430 225 172 167 
178 581 431 223 172 173 
179 581 431 229 175 174 
178 582 428 188 135 125 
178 582 429 202 146 137 
179 582 428 192 139 130 
179 582 429 203 148 139 
178 582 430 220 166 160 
179 582 430 222 167 161 
180 577 425 143 112 107 
181 577 425 147 115 110 
180 576 426 143 114 109 
181 576 426 147 117 112 
181 577 426 148 117 112 
180 578 425 143 110 104 
180 579 425 142 106 101 
181 578 425 147 113 108 
180 579 426 145 107 102 
181 578 426 151 116 111 
181 579 426 149 111 107 
182 577 425 153 118 114 
182 576 426 154 123 118 
182 577 426 156 123 118 
183 576 426 161 129 124 
183 577 426 163 130 126 
182 578 426 157 121 117 
182 579 426 158 118 115 
183 578 426 164 129 125 
183 579 426 166 128 125 
180 580 426 148 109 101 
180 581 426 160 117 108 
180 581 427 173 127 118 
181 580 426 155 113 107 
181 580 427 163 119 113 
181 581 427 176 129 121 
180 582 427 186 136 127 
182 580 426 160 116 112 
182 580 427 165 117 114 
182 581 427 179 128 124 
183 580 426 168 124 121 
183 580 427 168 122 119 
183 581 427 176 124 122 
180 581 431 231 176 174 
181 581 430 225 170 164 
181 581 431 231 176 174 
180 582 428 195 142 133 
180 582 429 204 150 142 
181 582 428 196 144 136 
181 582 429 206 152 144 
180 582 430 223 169 162 
181 582 430 219 164 157 
182 581 428 194 143 137 
183 581 428 194 142 139 
182 581 431 229 174 174 
183 581 430 222 168 167 
183 581 431 228 171 174 
182 582 428 199 147 141 
182 582 429 208 154 149 
183 582 429 209 157 154 
182 582 430 220 165 160 
183 582 430 218 165 163 
184 576 426 165 134 129 
184 577 426 169 136 132 
185 576 426 170 138 133 
185 577 426 172 140 135 
184 578 426 171 137 133 
184 579 426 173 138 134 
185 578 426 175 143 138 
185 579 426 181 148 143 
186 576 426 173 141 136 
186 577 426 176 144 139 
187 576 426 175 143 138 
187 576 427 172 140 136 
187 577 426 179 147 142 
186 578 426 180 147 142 
186 579 426 187 154 149 
187 578 426 184 151 146 
187 579 426 191 158 153 
184 576 431 144 122 114 
185 576 431 148 124 117 
186 576 431 152 126 120 
186 577 431 156 126 122 
187 576 430 161 131 126 
187 576 431 159 129 125 
187 577 431 160 128 124 
186 579 431 203 151 153 
187 578 431 178 133 133 
187 579 431 198 147 149 
184 580 427 178 134 132 
185 580 427 190 151 148 
186 580 427 199 162 158 
187 580 427 206 169 165 
184 581 428 190 139 138 
184 581 429 205 154 153 
185 580 428 198 152 151 
185 581 428 197 148 147 
185 581 429 207 156 157 
184 580 431 226 169 175 
184 581 430 218 166 167 
184 581 431 226 172 176 
185 580 431 223 167 173 
185 581 430 216 165 167 
185 581 431 225 172 177 
184 582 429 208 156 155 
184 582 430 212 160 159 
186 580 428 202 159 157 
186 581 428 205 159 159 
186 581 429 208 160 160 
187 580 428 211 169 167 
187 581 428 210 165 164 
187 581 429 209 163 163 
186 580 431 217 162 167 
186 581 430 214 164 166 
187 580 431 211 159 163 
187 581 430 212 163 164 
188 576 426 178 145 140 
188 576 427 173 142 137 
188 577 426 182 148 144 
189 576 427 177 144 140 
189 577 426 182 148 144 
189 577 427 184 149 146 
188 578 426 187 153 149 
188 579 426 194 160 155 
188 579 427 199 163 159 
189 578 426 187 152 148 
189 578 427 190 155 151 
189 579 427 195 158 155 
190 577 427 186 150 147 
190 578 427 190 153 150 
190 579 427 195 157 154 
188 576 428 170 140 135 
188 576 429 168 137 133 
189 576 428 175 142 138 
189 576 429 173 140 136 
189 577 428 181 146 143 
189 577 429 179 144 141 
188 576 430 166 135 130 
188 577 430 170 134 132 
188 577 431 165 132 129 
189 577 430 174 139 136 
189 578 429 185 146 144 
189 579 428 199 160 157 
188 578 431 177 135 134 
188 579 431 196 147 149 
189 578 430 184 144 143 
189 579 430 196 153 152 
189 579 431 192 147 148 
190 577 428 186 149 146 
190 578 428 190 153 150 
190 578 429 189 151 148 
190 579 428 196 157 154 
190 579 429 196 156 154 
188 580 427 209 172 168 
189 580 427 202 163 160 
188 580 428 212 170 169 
188 580 429 208 164 163 
189 580 428 204 164 162 
189 580 429 204 161 160 
188 580 430 207 159 160 
188 580 431 205 155 157 
189 580 430 202 158 158 
176 576 432 132 117 109 
176 577 432 141 124 117 
177 576 432 133 116 108 
177 577 432 145 125 120 
176 578 432 153 129 124 
176 579 432 167 136 134 
177 578 432 156 130 127 
177 579 432 172 139 137 
178 576 432 131 114 106 
178 577 432 150 126 123 
179 576 432 129 111 103 
179 577 432 144 121 116 
179 577 433 155 128 125 
178 578 432 163 133 131 
178 579 432 180 143 143 
179 578 433 169 137 135 
179 579 432 186 146 148 
176 580 432 190 149 150 
177 580 432 194 152 154 
178 580 432 206 159 161 
179 580 432 212 162 165 
180 576 432 132 111 105 
180 577 432 144 118 115 
180 577 433 154 125 124 
181 576 432 138 114 109 
181 577 432 153 123 121 
180 578 433 170 136 136 
180 579 432 191 146 150 
181 578 432 181 139 142 
181 578 433 169 133 134 
181 579 432 195 147 151 
182 576 432 142 117 112 
182 577 432 154 123 121 
183 576 432 145 121 115 
183 577 432 156 123 121 
182 578 432 176 134 137 
182 578 433 167 131 132 
182 579 432 199 148 153 
183 578 432 174 131 133 
183 579 432 200 147 152 
180 580 432 213 160 165 
180 581 432 225 170 173 
181 580 432 218 163 168 
181 581 432 228 170 174 
182 580 432 219 163 168 
182 581 432 228 171 175 
183 580 432 217 161 167 
184 576 432 148 124 117 
184 577 432 157 124 121 
185 576 432 150 125 118 
185 577 432 160 126 123 
184 578 432 175 130 132 
184 579 432 199 145 149 
185 578 432 177 133 134 
185 579 432 201 147 151 
186 577 432 160 127 124 
186 578 432 175 132 131 
186 579 432 197 145 147 
187 578 432 169 129 127 
187 579 432 192 142 143 
184 580 432 218 161 167 
185 580 432 214 158 164 
128 584 448 98 94 93 
128 584 449 98 94 93 
129 584 448 97 94 94 
129 584 449 97 94 93 
128 584 450 99 94 93 
128 584 451 99 95 93 
129 584 450 98 94 93 
129 584 451 98 94 93 
130 584 448 98 95 95 
130 584 449 98 94 94 
131 584 448 99 96 96 
131 584 449 99 96 96 
130 584 450 98 95 95 
130 584 451 99 96 95 
131 584 450 100 97 97 
131 584 451 101 97 97 
128 584 452 101 96 93 
128 585 453 104 98 95 
129 584 452 99 95 93 
129 585 453 102 96 94 
128 585 454 106 100 97 
128 585 455 106 100 96 
129 585 454 104 98 95 
129 585 455 105 99 95 
128 586 455 106 99 96 
130 584 452 100 96 95 
130 585 453 102 97 96 
131 584 452 102 98 97 
131 585 452 102 98 98 
131 585 453 103 99 98 
130 585 454 104 99 97 
130 585 455 106 100 98 
131 585 454 105 100 99 
131 585 455 108 102 101 
132 584 448 99 96 97 
132 584 449 100 97 97 
133 584 448 100 97 97 
133 584 449 100 97 98 
132 584 450 100 97 97 
132 584 451 101 97 97 
132 585 451 101 98 98 
133 584 450 100 97 98 
133 585 450 100 97 98 
133 585 451 101 98 98 
134 584 448 100 97 97 
134 584 449 100 98 98 
134 585 448 100 98 98 
134 585 449 101 98 98 
135 584 448 100 97 97 
135 585 448 100 97 97 
135 585 449 101 98 98 
134 585 450 101 98 99 
134 585 451 102 98 98 
135 585 450 101 98 98 
135 585 451 102 99 98 
132 585 452 103 99 98 
132 585 453 104 100 100 
133 585 452 103 99 99 
133 585 453 105 101 101 
132 585 454 106 101 100 
132 585 455 107 102 101 
133 585 454 107 102 102 
133 585 455 108 103 102 
134 585 452 103 99 99 
134 585 453 104 100 100 
135 585 452 104 100 100 
135 585 453 105 101 100 
134 585 454 107 103 102 
134 585 455 108 104 103 
135 585 454 107 103 102 
135 585 455 109 104 103 
129 585 456 105 99 95 
128 586 456 105 98 95 
128 586 457 102 96 93 
129 586 456 105 98 95 
129 586 457 103 97 94 
128 586 458 101 94 92 
128 587 458 98 92 89 
128 587 459 95 89 87 
129 586 458 101 95 92 
129 587 458 98 93 90 
129 587 459 96 90 88 
130 585 456 106 101 98 
130 585 457 106 100 98 
131 585 456 108 103 101 
131 585 457 107 101 99 
130 586 457 105 99 97 
130 586 458 102 96 94 
130 586 459 100 95 94 
130 587 459 98 92 90 
131 586 458 104 99 97 
131 586 459 102 97 95 
131 587 459 99 94 92 
128 587 460 95 90 87 
129 587 460 97 91 88 
129 587 461 98 91 87 
128 587 462 97 89 84 
128 587 463 100 91 86 
129 587 462 95 86 80 
129 587 463 99 90 84 
130 587 460 97 91 88 
131 587 460 97 90 87 
131 587 461 95 86 80 
130 587 462 96 86 79 
130 587 463 102 90 82 
131 587 463 111 93 82 
128 588 460 96 91 89 
128 588 461 98 92 89 
129 588 461 97 90 86 
128 588 462 100 93 89 
128 588 463 100 92 87 
129 588 462 96 88 83 
130 588 461 96 87 82 
131 588 461 97 86 77 
130 588 462 96 87 79 
131 588 462 102 89 80 
131 588 463 106 91 81 
132 585 456 109 103 101 
132 585 457 109 103 101 
133 585 456 108 102 101 
133 585 457 108 103 101 
132 585 458 107 102 100 
133 585 458 107 102 100 
133 585 459 106 100 98 
132 586 458 106 100 98 
132 586 459 103 97 95 
133 586 459 104 98 96 
134 585 456 108 103 102 
134 585 457 107 102 101 
135 585 456 109 104 103 
135 585 457 107 102 100 
134 585 458 107 101 100 
134 585 459 105 99 97 
135 585 458 106 101 99 
135 585 459 104 98 96 
132 586 460 100 93 90 
132 587 460 98 91 87 
132 587 461 94 85 78 
133 586 460 99 93 90 
133 586 461 96 90 86 
133 587 460 96 89 84 
133 587 461 96 87 81 
132 587 463 108 92 82 
133 587 462 99 88 79 
133 587 463 102 90 80 
134 585 460 101 95 91 
135 585 460 101 95 91 
134 586 460 100 93 90 
134 586 461 97 89 84 
134 587 461 97 88 82 
135 586 460 100 93 89 
135 586 461 98 91 87 
134 586 463 98 87 79 
134 587 462 97 88 81 
134 587 463 98 88 80 
135 586 462 97 89 83 
135 586 463 98 88 81 
132 588 461 97 86 78 
132 588 462 106 92 84 
132 588 463 108 93 85 
133 588 462 102 90 80 
136 585 448 100 97 97 
136 585 449 101 97 97 
137 585 448 101 98 97 
137 585 449 101 97 97 
136 585 450 101 98 97 
136 585 451 103 99 98 
137 585 450 101 97 96 
137 585 451 103 99 98 
138 585 448 101 98 97 
138 585 449 101 98 97 
139 585 448 101 97 97 
139 585 449 100 96 96 
138 585 450 102 98 97 
138 585 451 104 99 98 
139 585 450 101 97 96 
139 585 451 103 99 98 
136 585 452 105 101 100 
136 585 453 106 102 101 
137 585 452 106 102 101 
137 585 453 107 103 102 
136 585 454 106 102 101 
136 585 455 108 103 102 
137 585 454 107 103 101 
137 585 455 108 103 101 
138 585 452 107 103 101 
138 585 453 108 103 102 
139 585 452 106 102 100 
139 585 453 109 104 102 
138 585 454 108 103 102 
138 585 455 108 103 101 
139 585 454 111 106 104 
139 585 455 110 104 102 
140 585 448 101 97 96 
140 585 449 99 96 95 
141 585 448 101 97 97 
141 585 449 100 96 96 
140 585 450 100 96 95 
140 585 451 102 97 96 
141 585 450 99 95 94 
141 585 451 100 95 94 
141 586 448 102 98 97 
141 586 449 101 97 96 
141 586 450 99 95 94 
141 586 451 100 95 93 
142 586 448 103 99 97 
142 586 449 102 98 97 
143 586 448 105 99 97 
143 586 449 103 99 97 
142 586 450 100 96 95 
142 586 451 98 94 92 
143 586 450 101 97 96 
143 586 451 98 93 92 
140 585 452 106 100 98 
140 585 453 109 104 101 
141 585 452 105 100 97 
141 585 453 108 102 100 
140 585 454 112 106 104 
140 585 455 113 107 105 
141 585 454 112 106 103 
141 585 455 115 109 107 
141 586 452 103 98 95 
141 586 453 106 101 99 
142 586 452 100 95 93 
142 586 453 105 99 97 
143 586 452 98 92 91 
143 586 453 100 94 92 
142 586 454 109 104 101 
142 586 455 115 109 107 
143 586 454 104 98 96 
143 586 455 111 105 103 
136 585 456 109 104 102 
136 585 457 107 102 100 
137 585 456 108 103 101 
137 585 457 105 99 97 
136 585 458 104 99 97 
136 585 459 103 97 95 
137 585 458 102 97 94 
137 585 459 102 95 92 
138 585 456 108 102 100 
138 585 457 104 99 96 
139 585 456 107 101 99 
139 585 457 103 97 94 
138 585 458 100 94 91 
138 585 459 100 93 90 
139 585 458 98 91 88 
139 585 459 98 92 88 
136 585 460 102 95 92 
136 585 461 101 95 91 
137 585 460 101 95 90 
137 585 461 101 94 90 
137 585 462 100 92 88 
137 585 463 99 91 87 
136 586 461 99 93 89 
136 586 462 98 91 87 
136 586 463 98 90 85 
137 586 462 98 91 87 
137 586 463 98 91 86 
138 585 460 100 93 89 
138 585 461 101 93 89 
139 585 460 100 93 89 
139 585 461 101 93 89 
138 585 462 100 93 88 
138 585 463 98 90 86 
139 585 462 101 93 88 
139 585 463 99 91 86 
140 585 456 107 102 100 
140 585 457 102 96 93 
141 585 456 110 104 101 
140 585 458 97 91 87 
140 586 457 99 93 90 
141 586 456 108 102 99 
141 586 457 101 95 91 
140 586 458 96 90 86 
140 586 459 98 91 87 
141 586 458 95 89 85 
141 586 459 97 90 86 
142 586 456 112 106 104 
142 586 457 102 96 93 
143 586 456 113 107 105 
143 586 457 103 96 93 
142 586 458 95 88 84 
142 586 459 96 89 85 
143 586 458 94 87 83 
143 586 459 94 87 82 
140 585 460 100 93 89 
140 585 461 102 94 89 
140 585 462 102 93 88 
140 585 463 101 92 87 
141 585 462 103 94 88 
141 585 463 104 94 88 
140 586 460 100 93 89 
140 586 461 101 94 89 
141 586 460 100 92 88 
141 586 461 102 94 89 
141 586 462 103 94 88 
142 585 463 105 95 88 
143 585 463 106 96 89 
142 586 460 100 92 88 
142 586 461 102 94 88 
143 586 460 99 91 87 
143 586 461 103 93 88 
142 586 462 104 95 89 
143 586 462 105 96 89 
143 586 463 107 97 89 
128 587 464 103 94 87 
129 587 464 104 94 87 
129 587 465 112 99 89 
130 587 464 108 95 85 
130 587 465 116 100 88 
131 587 464 116 98 87 
131 587 465 125 105 94 
130 587 466 118 102 89 
128 588 464 104 95 90 
128 588 465 107 98 91 
129 588 464 105 95 88 
129 588 465 110 99 90 
128 588 466 110 99 91 
128 588 467 115 102 93 
129 588 466 116 102 92 
129 588 467 122 105 95 
130 588 466 123 105 92 
130 588 467 125 105 94 
131 588 466 127 106 95 
131 588 467 140 114 105 
128 588 468 113 100 92 
128 589 468 113 100 92 
128 589 469 116 102 93 
129 588 468 121 105 95 
129 589 468 126 108 98 
129 589 469 130 110 100 
128 589 470 129 110 100 
128 589 471 147 121 113 
129 589 470 140 117 106 
128 590 470 148 122 112 
128 590 471 159 130 120 
129 590 470 155 126 117 
129 590 471 164 131 122 
129 591 471 173 138 130 
130 588 468 131 110 99 
130 589 468 145 118 107 
130 589 469 146 120 111 
131 588 468 148 119 111 
131 589 468 152 122 114 
131 589 469 164 131 124 
130 590 469 165 131 125 
131 590 469 177 144 139 
131 591 469 169 142 138 
130 590 470 170 136 131 
130 591 470 167 138 133 
130 591 471 173 142 136 
131 590 470 177 144 140 
131 591 470 167 139 135 
132 587 464 121 102 93 
132 587 465 126 106 97 
133 587 464 104 91 82 
133 587 465 115 97 88 
132 587 466 136 112 105 
133 587 466 127 105 97 
133 587 467 131 107 99 
134 586 464 100 89 80 
134 586 465 104 90 80 
134 587 464 101 88 79 
134 587 465 111 93 82 
135 586 464 98 88 81 
135 586 465 101 91 83 
134 586 466 110 94 83 
134 587 466 117 98 87 
134 587 467 122 102 90 
135 586 466 107 93 84 
135 586 467 111 97 85 
135 587 467 117 100 87 
134 587 468 127 106 94 
135 586 468 116 100 88 
135 587 468 126 106 93 
135 587 469 131 109 97 
132 588 466 139 114 109 
132 588 467 145 118 113 
133 588 467 141 115 110 
132 588 468 162 132 128 
132 589 469 179 146 141 
133 588 468 157 130 125 
133 589 469 175 146 142 
132 590 469 183 152 147 
132 591 469 165 140 135 
133 590 469 174 147 143 
133 591 468 152 129 125 
133 591 469 158 133 128 
134 588 468 140 114 106 
134 588 469 151 124 118 
134 589 469 164 136 131 
135 588 469 145 118 109 
135 588 470 146 119 110 
135 589 470 153 125 118 
134 590 469 161 135 132 
134 591 468 137 117 114 
134 591 469 147 124 121 
135 590 469 153 126 122 
135 591 468 137 116 110 
135 591 469 148 123 118 
135 590 470 156 128 124 
128 589 474 188 153 143 
128 589 475 194 159 149 
128 590 472 174 141 130 
128 590 473 186 148 138 
129 590 472 171 138 129 
129 591 472 180 147 140 
129 591 473 186 144 140 
128 590 474 189 152 140 
128 590 475 199 162 154 
128 591 475 191 152 144 
129 591 474 185 144 140 
129 591 475 187 147 138 
128 589 476 198 164 155 
128 589 477 194 158 153 
128 588 478 182 146 143 
128 588 479 185 148 146 
128 589 478 188 149 144 
128 589 479 187 143 137 
129 589 478 183 141 133 
129 589 479 189 144 138 
128 590 476 194 156 146 
128 590 477 189 151 141 
128 591 477 195 150 140 
129 590 477 190 148 138 
129 591 476 190 148 139 
129 591 477 192 149 139 
128 591 478 200 153 142 
128 591 479 199 152 142 
129 590 478 190 146 137 
129 590 479 191 146 138 
129 591 478 194 149 139 
129 591 479 195 149 140 
143 583 471 111 98 91 
141 583 473 151 122 112 
141 583 474 145 119 109 
141 583 475 141 117 106 
142 583 472 130 109 100 
142 583 473 140 115 106 
143 583 472 111 97 90 
143 583 473 114 99 91 
142 582 475 137 113 103 
142 583 474 132 110 101 
142 583 475 143 117 107 
143 582 474 113 98 92 
143 582 475 120 102 95 
143 583 474 111 97 90 
141 581 479 155 122 113 
140 583 476 137 114 103 
140 583 477 133 113 101 
141 582 476 166 131 120 
141 582 477 147 120 110 
141 583 476 142 117 106 
141 583 477 140 116 105 
140 583 478 132 112 100 
140 583 479 146 121 109 
141 582 478 147 119 109 
141 582 479 147 119 109 
141 583 478 142 117 106 
141 583 479 148 122 110 
142 581 477 148 118 110 
143 581 476 138 111 104 
143 581 477 142 114 107 
142 581 478 152 120 112 
142 581 479 162 124 117 
143 580 479 171 128 122 
143 581 478 153 119 112 
143 581 479 163 124 117 
142 582 476 155 124 114 
142 582 477 151 121 112 
143 582 476 135 110 103 
136 585 464 100 92 86 
136 585 465 102 93 87 
137 585 464 102 92 86 
137 585 465 104 93 87 
136 585 466 105 94 87 
136 585 467 109 97 88 
137 585 466 105 94 85 
137 585 467 111 98 89 
136 586 464 100 91 86 
137 586 464 101 93 87 
136 586 466 107 94 85 
136 586 467 109 96 86 
138 585 464 99 90 84 
138 585 465 104 93 85 
139 585 464 98 89 83 
139 585 465 100 90 84 
138 585 466 107 94 86 
138 585 467 111 98 88 
139 585 466 104 93 85 
139 585 467 107 94 86 
137 585 468 114 100 89 
137 585 469 114 99 88 
137 585 470 115 99 86 
136 586 468 115 100 89 
136 586 469 120 103 91 
136 587 469 130 109 96 
137 586 468 114 101 91 
137 586 469 115 100 88 
136 587 470 134 112 99 
137 586 470 119 101 87 
137 586 471 122 102 86 
137 587 470 131 109 94 
137 587 471 136 111 96 
138 585 468 116 101 90 
138 585 469 115 100 88 
139 585 468 109 96 87 
139 585 469 115 100 90 
138 585 470 118 101 88 
138 585 471 123 105 91 
139 585 470 122 104 92 
139 585 471 130 109 97 
138 586 471 122 103 87 
136 588 470 145 119 108 
136 589 470 155 125 116 
137 588 471 152 123 111 
137 589 471 170 136 126 
136 591 469 160 129 119 
137 591 469 175 132 121 
136 590 470 163 131 123 
136 591 470 167 130 120 
137 590 470 171 134 124 
137 590 471 177 137 126 
137 591 470 175 132 121 
137 591 471 178 131 120 
138 590 471 182 140 129 
138 591 470 183 132 122 
138 591 471 183 134 123 
139 591 471 193 143 133 
140 585 464 98 89 83 
140 585 465 99 89 82 
141 585 464 102 92 86 
141 585 465 99 89 82 
140 585 466 102 91 84 
140 585 467 104 93 85 
141 585 466 100 89 82 
141 585 467 102 91 84 
142 585 464 103 93 87 
142 585 465 99 89 82 
143 585 464 107 96 88 
143 585 465 103 92 84 
142 584 467 100 90 83 
142 585 466 98 88 81 
142 585 467 100 89 82 
143 584 467 100 89 82 
143 585 466 99 88 80 
143 585 467 99 88 81 
140 584 469 114 99 90 
140 585 468 108 95 86 
140 585 469 112 98 89 
141 584 468 105 93 86 
141 584 469 111 97 89 
141 585 468 105 93 86 
140 584 470 122 104 94 
140 584 471 132 110 100 
140 585 471 133 111 100 
141 584 470 122 104 95 
141 584 471 143 117 107 
142 584 468 103 93 86 
142 584 469 107 95 88 
143 584 468 102 91 84 
143 584 469 104 94 87 
142 584 470 117 101 93 
142 584 471 130 109 100 
143 584 470 109 96 89 
143 584 471 114 99 92 
140 591 471 200 149 139 
141 591 471 201 148 139 
143 591 471 197 144 135 
137 586 472 127 104 89 
137 587 472 141 114 98 
138 585 472 125 106 92 
139 585 472 133 111 99 
139 585 473 141 115 105 
138 586 472 129 108 93 
138 586 473 147 119 107 
138 587 472 155 122 109 
138 587 473 163 131 118 
139 586 473 149 120 109 
139 587 473 175 139 129 
139 586 474 159 127 117 
139 587 474 182 144 135 
137 588 472 161 129 116 
137 589 472 180 142 130 
138 588 472 174 140 128 
138 588 473 181 145 132 
138 589 472 184 144 131 
138 589 473 183 145 130 
139 589 473 190 146 134 
139 588 474 188 148 137 
139 589 474 194 150 139 
138 590 472 186 140 129 
139 590 472 193 146 136 
139 590 473 197 151 139 
139 591 472 191 141 130 
140 584 472 146 118 108 
140 584 473 156 125 115 
140 585 472 136 112 101 
140 585 473 145 118 107 
141 584 472 153 123 112 
141 584 473 160 128 117 
140 584 474 142 117 107 
140 584 475 137 115 103 
140 585 474 137 114 103 
140 585 475 144 119 108 
141 584 474 145 119 109 
140 586 474 149 121 111 
140 586 475 160 129 119 
140 587 475 182 143 134 
142 584 472 143 117 108 
140 584 476 139 116 105 
140 584 477 140 118 105 
140 585 476 152 126 113 
140 585 477 163 132 121 
140 584 478 146 121 107 
140 585 478 170 136 126 
141 584 478 155 127 115 
141 584 479 166 134 124 
141 585 478 178 139 130 
141 585 479 184 141 133 
140 586 476 169 135 126 
140 586 477 177 140 131 
140 587 476 187 146 136 
141 586 477 185 144 135 
141 587 476 198 155 145 
141 587 477 196 153 144 
141 586 478 191 147 139 
142 587 477 210 163 153 
142 586 478 201 155 148 
142 586 479 204 157 149 
142 587 478 210 163 153 
143 586 479 210 159 150 
143 587 478 216 165 155 
143 587 479 215 163 155 
140 588 474 192 151 140 
140 588 475 193 151 140 
140 589 474 201 155 144 
141 588 475 206 160 149 
141 589 474 208 160 149 
141 589 475 210 162 151 
140 590 473 203 154 143 
140 591 472 200 148 137 
140 591 473 205 154 143 
141 590 473 207 156 146 
141 591 472 201 147 137 
141 591 473 204 152 142 
140 590 474 203 155 144 
141 590 474 208 158 147 
142 589 475 214 164 153 
143 589 475 214 163 152 
142 590 473 207 156 145 
142 591 472 200 145 136 
142 591 473 202 149 139 
143 590 473 206 153 143 
143 591 472 199 146 136 
143 591 473 202 148 138 
142 590 474 209 159 147 
143 590 474 208 156 146 
141 588 476 209 163 153 
142 588 476 215 166 155 
142 588 477 214 165 155 
142 589 476 216 166 156 
143 588 477 218 168 157 
143 589 476 218 167 157 
143 588 478 218 167 157 
131 595 455 183 137 128 
128 597 449 189 136 127 
129 597 449 189 137 128 
128 597 450 190 136 127 
128 597 451 194 142 132 
129 597 450 191 140 130 
129 597 451 193 142 132 
128 598 448 185 132 124 
128 598 449 189 135 127 
129 598 448 188 136 128 
130 597 449 190 138 128 
131 597 449 190 138 129 
130 596 451 191 141 131 
130 597 450 189 138 127 
130 597 451 192 141 130 
131 596 451 189 139 129 
131 597 450 189 138 127 
130 598 448 193 142 132 
131 598 448 193 141 132 
131 598 449 192 140 130 
128 597 452 199 147 136 
128 597 453 201 149 138 
129 596 452 193 141 130 
129 596 453 194 142 132 
129 597 452 196 143 133 
129 597 453 197 143 132 
128 597 454 201 149 138 
128 597 455 202 149 138 
129 596 454 196 143 134 
129 596 455 199 147 136 
129 597 454 198 144 134 
129 597 455 200 147 136 
130 596 452 192 142 132 
130 596 453 193 143 134 
131 596 452 190 141 131 
131 596 453 189 142 133 
130 596 454 193 143 134 
130 596 455 193 143 134 
131 596 454 188 139 130 
131 596 455 186 139 130 
132 595 454 184 138 129 
132 595 455 180 134 125 
133 595 454 186 140 129 
133 595 455 182 136 126 
134 595 455 187 142 130 
135 595 455 190 144 133 
132 597 449 191 142 131 
132 596 451 189 139 129 
132 597 450 191 142 130 
132 597 451 189 140 128 
133 596 451 187 138 128 
133 597 450 189 139 127 
133 597 451 188 138 127 
132 598 448 190 138 128 
132 598 449 191 141 130 
132 599 448 189 136 127 
133 598 448 188 136 126 
133 598 449 189 138 127 
133 599 448 186 133 124 
133 598 450 189 139 127 
134 597 451 188 137 125 
135 597 451 188 137 126 
134 598 449 187 134 124 
134 599 448 183 129 121 
134 599 449 184 130 121 
135 599 449 183 128 120 
134 598 450 187 136 125 
134 598 451 188 136 125 
135 598 450 186 132 122 
135 598 451 188 135 125 
135 599 450 186 131 122 
132 596 452 189 141 130 
132 596 453 187 141 131 
133 596 452 188 139 129 
133 596 453 188 141 130 
132 596 454 185 139 130 
133 596 454 187 140 130 
134 596 452 187 138 127 
134 596 453 189 141 130 
134 597 452 187 138 126 
135 596 453 188 138 127 
135 597 452 188 137 126 
135 597 453 188 137 125 
134 596 454 190 143 133 
134 596 455 190 144 133 
135 596 454 190 142 131 
135 596 455 191 143 133 
135 597 454 190 140 129 
130 595 457 190 141 131 
131 595 456 183 136 127 
131 595 457 182 135 126 
130 595 458 190 140 131 
130 595 459 193 142 132 
131 594 459 181 134 126 
131 595 458 183 135 127 
131 595 459 187 138 130 
129 595 461 195 142 132 
129 595 462 195 142 133 
129 595 463 196 143 134 
131 593 462 144 109 103 
131 593 463 145 111 106 
130 595 460 192 141 131 
130 595 461 191 141 132 
131 594 460 178 133 124 
131 594 461 179 133 124 
131 595 460 186 138 130 
130 595 462 191 141 132 
130 595 463 191 142 132 
131 594 462 174 130 122 
131 594 463 172 129 121 
128 597 456 201 149 137 
128 597 457 201 150 138 
129 596 456 201 150 139 
129 596 457 202 151 140 
128 596 458 202 151 138 
128 596 459 204 152 139 
128 597 458 203 152 138 
128 597 459 203 152 139 
129 596 458 201 149 137 
129 596 459 199 146 134 
130 596 456 193 143 133 
130 596 457 194 144 134 
130 596 458 196 145 134 
128 596 460 205 153 141 
128 596 461 204 151 140 
129 596 460 198 145 134 
129 596 461 199 145 135 
128 596 462 203 149 138 
128 596 463 202 149 138 
129 596 462 198 144 134 
129 596 463 198 145 135 
133 593 459 130 91 88 
132 594 457 164 118 113 
132 595 456 174 127 120 
132 595 457 170 123 117 
133 594 457 164 116 112 
133 595 456 176 129 121 
133 595 457 168 120 114 
132 594 458 164 119 113 
132 594 459 161 118 111 
132 595 458 173 128 120 
133 594 458 153 107 104 
133 594 459 139 96 92 
134 594 457 173 128 120 
134 595 456 183 138 127 
134 595 457 180 135 125 
135 595 456 190 143 132 
135 595 457 188 142 130 
134 594 458 167 124 114 
134 594 459 149 108 98 
135 594 458 179 135 124 
135 594 459 177 134 122 
135 595 458 187 142 130 
135 595 459 187 141 129 
132 593 460 141 102 94 
132 593 461 139 104 97 
133 593 460 128 92 88 
133 593 461 122 93 90 
132 593 462 130 100 97 
132 593 463 129 102 101 
133 593 462 118 94 92 
133 593 463 120 96 96 
132 594 460 156 114 104 
132 594 461 157 116 105 
134 593 460 130 97 88 
134 593 461 127 98 90 
135 593 461 152 117 104 
134 593 462 120 97 91 
134 593 463 115 94 91 
135 593 462 146 114 101 
135 593 463 134 106 95 
134 594 460 143 106 96 
135 594 460 168 128 116 
135 594 461 164 125 113 
135 594 462 167 128 115 
135 596 456 192 144 133 
134 600 448 182 127 120 
135 600 448 183 129 123 
135 600 449 185 130 124 
136 598 451 188 133 124 
136 599 450 188 133 126 
136 599 451 187 133 125 
137 599 451 188 133 126 
138 599 451 185 132 123 
136 597 452 189 138 127 
136 597 453 190 139 127 
136 596 455 191 141 130 
136 597 454 190 140 129 
136 597 455 190 140 129 
137 597 454 189 137 126 
137 597 455 188 136 125 
136 598 452 189 136 126 
136 598 453 189 138 127 
137 598 452 188 134 125 
137 598 453 188 135 126 
137 599 452 187 133 125 
137 598 454 188 135 126 
138 597 455 186 134 123 
138 598 453 187 133 124 
138 599 452 185 132 123 
138 599 453 185 132 123 
139 599 453 185 132 122 
138 598 454 187 134 124 
138 598 455 186 133 122 
138 599 454 185 132 123 
139 598 455 183 130 119 
139 599 454 184 131 121 
139 599 455 180 128 116 
136 595 457 192 145 133 
136 595 458 192 145 133 
136 595 459 191 145 132 
137 595 459 193 146 133 
136 593 462 175 133 120 
136 593 463 173 132 117 
136 594 460 185 140 127 
136 594 461 186 141 128 
136 595 460 191 145 132 
137 595 460 195 149 135 
137 595 461 197 150 137 
136 594 462 182 137 124 
136 594 463 188 141 127 
137 594 462 196 148 135 
137 594 463 196 146 134 
137 595 462 198 151 137 
138 595 460 196 148 135 
138 595 461 198 151 137 
138 594 462 201 151 138 
138 594 463 201 149 137 
138 595 462 200 151 138 
139 594 463 201 149 137 
139 595 462 200 151 138 
139 595 463 200 150 137 
136 596 456 191 142 131 
136 596 457 192 144 132 
137 596 456 189 138 126 
137 596 457 189 139 128 
137 597 456 187 136 125 
136 596 458 192 145 133 
137 596 458 191 143 131 
137 596 459 193 145 132 
138 597 456 186 134 124 
138 597 457 186 135 125 
139 597 457 181 129 118 
138 596 458 188 137 127 
138 596 459 190 140 129 
138 597 458 185 133 124 
139 596 459 187 135 125 
139 597 458 178 126 116 
139 597 459 179 128 118 
138 598 456 185 133 122 
139 598 456 181 129 118 
139 598 457 178 126 115 
139 599 456 179 127 115 
139 598 458 174 122 111 
138 596 460 193 144 132 
138 596 461 197 148 135 
139 596 460 189 139 128 
139 596 461 194 145 132 
139 597 460 182 131 120 
139 596 462 197 149 136 
140 595 462 199 149 137 
140 595 463 193 143 132 
141 595 463 180 132 122 
140 597 459 170 119 108 
140 599 456 176 126 113 
140 599 457 174 124 112 
140 598 458 169 119 107 
140 598 459 163 112 100 
140 599 458 167 118 104 
140 599 459 162 115 101 
140 597 460 171 121 110 
140 597 461 175 126 115 
140 596 462 189 140 128 
140 596 463 186 137 126 
140 597 462 172 123 112 
141 596 463 168 120 109 
141 597 462 162 112 102 
141 597 463 154 104 93 
140 598 460 161 110 98 
140 598 461 161 112 101 
140 599 460 158 111 97 
141 598 461 156 109 99 
141 599 460 161 116 101 
141 599 461 159 113 101 
141 598 462 153 105 95 
141 599 462 155 108 95 
142 596 463 146 96 85 
142 597 463 145 96 85 
142 598 462 149 103 89 
142 598 463 147 100 87 
142 599 462 155 108 93 
142 599 463 155 109 93 
136 600 448 185 130 125 
136 600 449 186 132 126 
136 601 448 184 130 125 
137 600 449 185 130 125 
137 601 448 182 127 122 
137 601 449 182 127 122 
136 600 450 187 133 127 
137 600 450 187 133 127 
137 600 451 187 133 127 
138 600 449 182 128 122 
138 601 448 179 126 120 
138 601 449 180 126 119 
139 601 448 180 129 121 
139 601 449 182 130 120 
138 600 450 185 131 124 
138 600 451 185 131 123 
139 600 451 183 130 120 
139 601 450 183 131 121 
139 601 451 183 131 121 
139 602 448 179 129 121 
138 600 452 184 131 121 
139 600 452 182 129 118 
139 600 453 181 129 117 
139 601 452 180 128 116 
139 600 454 181 129 117 
139 600 455 180 128 116 
140 601 448 180 130 118 
140 601 449 181 131 119 
140 601 450 181 131 119 
140 601 451 179 129 118 
140 602 448 178 128 117 
140 602 449 179 129 117 
141 602 448 172 123 112 
141 602 449 173 124 112 
140 602 450 179 130 118 
