ply
format ascii 1.0
comment Created by CloudCompare v2.10.1 (Zephyrus)
comment Created 1/31/20 11:07 AM
obj_info Generated by CloudCompare!
element vertex 2081
property float x
property float y
property float z
property uchar red
property uchar green
property uchar blue
end_header
276 625 119 81 87 96 
276 626 119 79 86 94 
276 627 119 80 88 97 
276 628 119 81 88 98 
276 629 119 81 89 99 
276 630 119 85 93 103 
275 631 120 95 103 115 
276 624 120 79 86 94 
276 625 120 79 85 94 
277 624 121 75 82 90 
277 625 120 77 84 92 
277 625 121 75 81 89 
276 626 120 79 86 94 
276 627 120 80 86 95 
277 626 120 78 84 92 
277 626 121 76 82 90 
277 627 120 81 86 95 
277 627 121 79 85 93 
278 624 122 73 78 87 
278 625 122 72 78 86 
279 624 122 72 78 86 
279 624 123 73 78 86 
279 625 122 72 78 85 
279 625 123 72 77 85 
278 626 121 76 82 90 
278 627 121 77 83 92 
278 626 122 74 80 88 
278 627 122 75 81 89 
279 626 122 72 78 86 
279 626 123 71 77 85 
279 627 123 73 79 86 
276 628 120 78 85 94 
276 629 120 79 86 96 
277 628 120 78 84 93 
277 628 121 78 84 92 
277 629 120 77 84 93 
277 629 121 76 82 91 
276 630 120 87 94 104 
276 631 120 91 98 109 
277 630 120 83 89 99 
277 631 120 89 96 106 
277 631 121 88 95 104 
278 628 121 77 83 91 
278 629 121 76 83 92 
278 628 122 75 81 90 
278 629 122 76 83 91 
279 628 122 74 80 88 
279 628 123 74 80 87 
279 629 122 76 82 90 
279 629 123 75 81 88 
278 630 121 80 87 95 
278 631 121 85 92 101 
278 630 122 79 86 94 
278 631 122 83 89 98 
279 630 122 78 84 93 
279 630 123 77 83 91 
279 631 122 81 88 96 
272 632 119 110 118 131 
273 632 119 108 116 129 
274 632 119 108 116 128 
272 633 120 109 118 131 
273 632 120 108 116 130 
273 633 120 109 117 131 
272 634 120 111 119 133 
272 635 120 111 120 133 
272 635 121 109 117 130 
273 634 120 115 123 137 
273 635 120 116 124 138 
273 635 121 111 119 132 
274 632 120 109 117 130 
274 633 120 116 124 137 
275 632 120 104 112 125 
275 633 120 120 127 140 
274 634 120 124 132 145 
274 634 121 118 127 141 
274 635 121 112 120 133 
275 634 120 129 136 149 
275 634 121 120 128 142 
275 635 121 110 119 132 
272 636 121 107 115 128 
273 636 121 107 115 127 
272 636 122 106 114 127 
272 637 122 105 113 126 
273 636 122 106 113 126 
273 637 122 105 113 125 
273 637 123 106 114 127 
272 638 123 107 116 129 
273 638 123 108 116 130 
274 636 121 108 116 129 
274 636 122 106 114 126 
274 637 122 105 113 126 
274 637 123 107 115 128 
275 636 122 107 115 128 
275 637 122 106 114 127 
275 637 123 108 116 129 
274 638 123 110 117 130 
275 638 123 110 118 130 
272 639 124 112 121 135 
273 639 124 111 119 133 
274 639 124 110 118 131 
275 639 124 111 118 131 
276 632 120 99 106 118 
276 633 120 107 115 127 
276 633 121 104 112 124 
277 632 120 92 99 110 
277 632 121 94 101 112 
277 633 121 100 108 119 
276 634 121 109 117 130 
276 635 121 108 116 129 
277 634 121 103 111 122 
276 635 122 107 115 128 
277 634 122 102 109 120 
277 635 122 106 113 126 
278 632 121 90 97 107 
278 633 121 97 103 114 
278 632 122 89 95 105 
278 633 122 93 100 111 
279 632 122 87 94 103 
279 633 122 90 97 108 
278 634 122 97 104 115 
278 635 122 101 108 120 
278 635 123 103 110 121 
279 634 122 93 101 112 
279 634 123 93 100 111 
279 635 123 99 105 117 
276 636 122 107 114 127 
276 637 122 106 114 127 
276 637 123 108 116 129 
277 636 122 107 115 127 
277 636 123 107 114 126 
277 637 123 109 116 129 
276 638 123 111 119 131 
277 638 123 113 120 133 
278 636 123 105 112 124 
278 637 123 107 114 127 
279 636 123 103 110 122 
279 637 123 104 111 123 
276 639 124 111 119 132 
277 638 124 113 120 133 
277 639 124 112 120 133 
278 637 124 105 113 126 
279 637 124 103 110 122 
278 638 124 110 117 130 
278 639 124 110 118 132 
278 639 125 112 120 134 
279 638 124 105 113 126 
279 639 124 108 117 131 
279 639 125 111 120 133 
280 626 123 72 78 85 
280 627 123 74 79 86 
280 624 124 73 79 87 
280 625 124 73 78 86 
281 624 125 74 79 87 
281 625 125 74 79 87 
281 624 126 75 81 89 
281 625 126 74 80 87 
280 626 124 73 79 86 
280 627 124 75 80 87 
281 626 125 76 81 89 
281 627 124 77 82 90 
281 627 125 80 85 92 
282 624 126 76 81 90 
282 625 126 74 79 87 
283 624 127 77 82 91 
283 625 127 75 80 89 
282 626 125 76 82 90 
282 627 125 80 86 93 
282 626 126 75 81 89 
282 627 126 79 84 92 
283 626 127 74 80 87 
283 627 127 77 83 90 
280 628 123 75 80 87 
280 629 123 77 82 90 
280 630 123 78 83 91 
280 631 123 79 85 93 
281 631 123 79 84 93 
280 628 124 77 82 90 
280 629 124 78 83 91 
281 628 124 80 85 92 
281 628 125 82 86 94 
281 629 124 79 85 92 
281 630 124 77 83 91 
281 631 124 78 84 92 
282 628 125 83 87 95 
282 629 124 79 84 92 
282 629 125 82 87 95 
282 628 126 81 87 94 
282 629 126 82 87 95 
283 628 126 80 85 93 
283 628 127 78 83 91 
283 629 126 80 85 93 
283 629 127 78 84 92 
282 630 124 77 83 91 
282 630 125 78 84 92 
282 631 124 77 83 92 
282 631 125 76 83 91 
283 630 125 77 83 91 
283 631 125 77 83 92 
283 630 126 78 84 92 
283 630 127 77 83 91 
283 631 126 79 84 93 
284 629 127 77 82 90 
284 630 127 76 82 90 
284 631 126 79 85 93 
284 631 127 79 84 92 
285 631 127 80 85 93 
280 632 122 86 92 101 
280 632 123 87 93 102 
280 633 123 92 99 109 
281 632 123 85 91 99 
281 633 123 92 98 108 
280 634 123 94 101 111 
280 635 123 95 102 113 
281 634 123 95 102 112 
281 635 123 94 101 112 
281 634 124 94 100 110 
281 635 124 94 100 111 
282 632 124 81 87 95 
282 633 124 84 90 99 
283 632 124 77 83 92 
283 632 125 79 84 93 
283 633 124 81 87 96 
283 633 125 79 85 93 
282 634 124 89 95 104 
282 635 124 89 96 106 
283 634 124 84 91 100 
283 634 125 80 87 96 
283 635 124 83 91 102 
283 635 125 81 88 98 
280 636 123 99 106 118 
280 636 124 98 106 117 
280 637 124 101 109 121 
281 636 124 94 102 113 
281 637 124 97 105 117 
280 638 124 104 113 126 
280 639 125 110 118 132 
281 638 124 102 110 123 
281 638 125 104 112 125 
281 639 125 107 115 129 
282 636 124 92 100 111 
282 637 124 94 103 115 
282 637 125 96 104 117 
283 636 125 89 97 108 
283 637 125 101 109 120 
282 638 125 100 108 121 
282 639 125 104 112 125 
283 638 125 106 114 126 
283 639 125 107 115 127 
282 639 126 106 114 127 
283 639 126 106 114 126 
284 633 125 78 84 93 
284 632 126 80 85 93 
284 632 127 80 86 94 
284 633 126 79 84 92 
285 632 127 81 86 94 
285 633 126 78 84 92 
285 633 127 80 85 94 
284 634 125 78 84 93 
284 635 125 79 86 96 
284 634 126 77 84 92 
284 635 126 79 85 95 
285 634 126 78 84 92 
285 634 127 78 84 92 
285 635 126 80 86 95 
286 633 127 81 86 94 
286 634 127 79 85 93 
286 635 127 80 85 94 
284 636 125 89 96 106 
284 637 125 105 112 123 
284 636 126 95 101 112 
284 637 126 101 108 119 
285 636 126 85 92 101 
285 637 126 92 98 108 
284 638 125 107 114 126 
284 638 126 103 110 122 
284 639 126 103 110 122 
285 638 126 94 101 111 
285 639 126 96 103 114 
285 639 127 95 102 113 
286 636 126 83 89 98 
286 636 127 80 86 95 
286 637 126 85 92 101 
286 637 127 83 90 99 
287 636 127 80 86 95 
287 637 127 81 87 96 
286 638 126 86 93 103 
286 638 127 85 92 102 
286 639 127 88 95 106 
287 638 127 81 88 97 
287 639 127 83 90 100 
286 614 128 91 97 108 
286 615 128 90 97 107 
287 614 128 91 98 109 
287 615 128 89 96 106 
287 615 129 88 95 105 
283 622 128 82 89 99 
283 623 128 82 88 97 
285 618 128 88 95 105 
285 619 128 93 99 109 
286 616 128 90 96 106 
286 617 128 90 96 105 
286 617 129 90 96 105 
287 616 128 90 96 106 
287 616 129 89 95 105 
287 617 129 89 95 105 
286 618 128 90 96 106 
286 618 129 89 95 105 
286 619 128 91 97 107 
286 619 129 88 94 104 
287 618 129 89 95 105 
287 619 129 86 92 102 
287 618 130 89 95 104 
287 619 130 85 91 101 
284 620 128 98 104 114 
284 621 128 96 102 111 
285 620 128 97 103 112 
285 620 129 96 101 111 
285 621 128 95 101 110 
285 621 129 94 99 109 
284 622 128 88 94 104 
284 623 128 81 87 96 
285 622 129 86 92 101 
285 623 129 81 87 95 
286 620 129 89 94 104 
286 621 129 88 93 103 
286 620 130 83 89 98 
286 621 130 82 88 98 
287 620 130 83 89 98 
287 621 130 82 88 97 
287 621 131 82 88 96 
286 622 129 82 89 98 
286 622 130 81 87 97 
286 623 130 82 88 96 
286 623 131 87 92 101 
287 622 130 81 87 97 
287 622 131 84 90 99 
287 623 131 89 95 105 
283 625 128 77 82 90 
283 626 128 75 80 88 
284 624 128 79 84 92 
284 624 129 79 84 93 
284 625 128 77 82 90 
284 625 129 77 82 90 
285 624 129 80 85 93 
285 625 129 77 82 90 
285 625 130 78 83 91 
284 626 128 74 80 87 
284 626 129 74 79 86 
284 627 128 74 79 87 
284 627 129 72 77 84 
285 626 129 75 80 87 
285 627 129 72 77 85 
286 624 130 83 88 97 
286 625 130 79 85 93 
286 625 131 81 88 97 
287 624 131 92 98 107 
287 625 131 82 89 99 
286 626 130 73 79 88 
286 626 131 73 79 88 
286 627 130 71 77 85 
286 627 131 71 77 85 
287 626 131 74 81 90 
287 627 131 72 78 86 
287 624 132 97 103 113 
287 625 132 85 92 102 
287 626 132 79 85 95 
287 627 132 74 80 88 
284 628 128 73 79 87 
284 628 129 69 75 83 
284 629 128 74 80 88 
285 628 129 69 74 82 
285 629 128 71 77 85 
285 629 129 69 75 83 
284 630 128 75 81 89 
285 630 128 74 80 88 
285 630 129 73 79 87 
285 631 128 78 84 92 
285 631 129 75 81 89 
286 628 130 68 74 81 
286 628 131 69 75 83 
286 629 130 69 74 82 
286 629 131 68 74 81 
287 628 131 71 76 84 
287 629 131 70 75 82 
286 630 129 72 78 86 
286 631 129 76 81 89 
286 630 130 70 76 84 
286 631 130 73 79 87 
287 630 131 70 76 83 
287 631 130 72 78 86 
287 631 131 71 77 84 
287 628 132 72 77 85 
287 629 132 71 76 83 
287 630 132 71 76 83 
285 632 128 82 87 95 
286 632 128 83 88 96 
286 632 129 82 87 95 
286 633 128 82 88 95 
286 633 129 84 89 97 
287 633 129 83 88 96 
286 632 130 78 84 92 
287 632 130 79 84 92 
287 632 131 75 81 89 
287 633 130 81 87 95 
286 634 128 81 86 94 
286 635 128 80 85 93 
287 634 128 81 87 95 
287 634 129 83 89 97 
287 635 128 81 87 95 
287 635 129 82 88 96 
287 636 128 82 88 96 
287 637 128 81 87 96 
288 614 128 98 104 115 
288 614 129 94 100 110 
288 615 129 89 95 106 
289 614 129 93 100 110 
289 614 130 91 97 107 
289 615 130 90 96 106 
290 614 130 89 95 105 
290 614 131 89 95 105 
290 615 131 89 95 105 
291 614 131 88 94 104 
291 615 131 87 94 104 
291 614 132 87 93 103 
291 615 132 87 94 104 
292 614 132 86 93 102 
292 615 132 87 93 103 
292 615 133 88 94 104 
293 614 133 93 99 109 
293 615 133 89 95 105 
293 615 134 91 97 107 
294 614 133 100 106 116 
294 614 134 100 106 116 
294 615 134 93 99 109 
295 614 134 97 103 114 
295 614 135 92 98 108 
295 615 134 92 99 109 
295 615 135 91 98 108 
288 616 129 90 96 106 
288 616 130 90 96 106 
288 617 130 90 96 105 
289 616 130 91 96 106 
289 616 131 90 96 106 
289 617 130 90 96 105 
289 617 131 90 95 105 
288 618 130 89 95 104 
288 619 130 86 92 101 
288 619 131 85 91 100 
289 618 131 88 94 104 
289 619 131 86 92 101 
290 616 131 88 95 105 
290 617 131 90 96 105 
289 619 132 86 92 102 
290 617 132 89 96 105 
291 616 132 88 95 105 
291 617 132 89 95 105 
291 617 133 87 94 103 
290 618 132 89 95 105 
290 619 132 87 93 103 
290 619 133 88 95 105 
291 618 132 88 94 104 
291 618 133 86 92 102 
291 619 133 88 95 105 
288 620 131 83 89 98 
288 621 131 83 89 98 
289 620 131 84 89 99 
288 622 131 86 92 101 
289 620 132 85 91 101 
289 621 132 88 95 104 
289 621 133 95 102 112 
288 622 132 93 99 108 
288 623 132 98 104 114 
289 622 132 93 100 110 
289 622 133 96 103 114 
289 623 133 100 107 117 
290 620 132 88 95 105 
290 620 133 96 102 112 
290 621 133 103 109 119 
291 620 133 101 107 117 
291 620 134 102 108 118 
291 621 134 107 113 123 
290 622 133 100 107 117 
290 622 134 100 106 117 
290 623 134 99 106 116 
291 622 134 99 106 116 
291 622 135 97 104 115 
291 623 134 96 103 114 
291 623 135 97 104 115 
292 616 132 88 95 105 
292 616 133 88 95 105 
292 617 133 87 93 103 
293 616 133 88 94 104 
292 617 134 87 93 103 
293 616 134 89 95 105 
293 617 134 89 95 105 
292 618 133 85 91 101 
292 619 133 85 92 102 
292 618 134 86 93 103 
292 619 134 88 94 104 
292 619 135 88 94 103 
293 618 134 88 94 104 
293 618 135 88 94 104 
293 619 135 86 92 102 
294 616 134 91 98 108 
294 616 135 93 99 109 
294 617 135 90 97 107 
295 616 135 94 101 112 
295 617 135 100 106 117 
294 618 135 89 96 105 
294 619 135 87 94 103 
292 620 134 97 103 113 
292 620 135 91 97 107 
292 621 134 103 109 119 
292 621 135 94 100 110 
293 620 135 88 94 104 
292 622 135 95 102 113 
292 623 135 97 104 115 
295 616 136 100 107 117 
295 617 136 105 111 122 
294 618 136 91 97 107 
294 619 136 88 94 104 
295 618 136 99 105 116 
295 618 137 97 104 114 
295 619 136 90 97 107 
295 619 137 87 93 103 
293 620 136 87 93 103 
293 621 136 87 93 103 
292 622 136 90 97 108 
292 623 136 96 103 114 
293 622 136 89 96 106 
293 622 137 85 92 102 
293 623 136 92 99 109 
293 623 137 86 93 103 
294 620 136 86 92 101 
294 620 137 83 89 99 
294 621 136 84 90 100 
294 621 137 83 89 98 
295 620 137 84 90 100 
295 621 137 83 89 99 
295 621 138 83 89 99 
294 622 137 83 89 99 
294 623 137 83 89 98 
294 623 138 84 90 99 
295 622 138 84 90 99 
295 623 138 85 91 101 
295 623 139 86 93 102 
296 614 135 90 96 106 
296 614 136 90 97 107 
296 615 136 94 101 111 
297 614 136 90 96 106 
297 614 137 88 95 105 
297 615 137 91 98 108 
298 614 137 88 94 104 
298 615 137 88 95 105 
298 614 138 88 95 105 
298 615 138 89 95 106 
298 615 139 88 95 106 
299 614 138 89 95 106 
299 614 139 90 97 107 
299 615 139 92 99 110 
300 614 139 91 98 109 
300 615 139 92 99 110 
300 614 140 93 100 111 
300 615 140 102 108 119 
300 615 141 107 114 125 
301 614 140 92 99 110 
301 614 141 92 99 110 
301 615 141 100 107 118 
301 615 142 99 106 117 
302 614 142 91 98 109 
302 615 142 99 105 116 
302 615 143 95 102 112 
303 614 143 92 99 109 
303 615 143 93 100 110 
296 616 136 106 112 123 
296 616 137 103 109 119 
296 617 137 103 109 119 
297 616 137 96 102 112 
297 616 138 92 98 108 
297 617 138 91 98 107 
296 618 137 91 98 108 
296 619 137 86 93 103 
296 618 138 86 93 103 
296 619 138 84 90 100 
297 618 138 86 93 103 
297 619 138 84 91 101 
297 619 139 84 90 100 
298 616 138 90 97 107 
298 616 139 93 99 110 
298 617 138 90 96 106 
298 617 139 91 97 107 
299 616 139 97 103 114 
299 617 139 96 103 113 
298 618 139 86 93 103 
298 619 139 84 91 101 
299 616 140 105 112 122 
299 617 140 99 105 115 
298 619 140 84 91 101 
299 618 140 88 95 105 
299 618 141 88 95 105 
299 619 140 85 92 102 
299 619 141 86 93 103 
296 620 138 85 91 100 
296 620 139 85 91 101 
296 621 138 84 90 100 
296 621 139 87 93 103 
297 620 139 86 92 102 
297 621 139 89 95 105 
296 622 138 85 91 101 
296 622 139 88 94 104 
296 623 139 91 98 108 
297 621 140 90 97 107 
296 622 140 94 101 111 
296 623 140 101 107 118 
297 622 140 97 104 114 
297 623 140 107 113 124 
297 623 141 108 115 126 
298 620 140 86 93 103 
298 621 140 90 97 107 
298 621 141 92 99 109 
299 620 140 85 92 103 
299 620 141 87 93 104 
299 621 141 91 97 108 
299 621 142 92 98 108 
298 622 141 98 104 115 
298 623 141 108 114 125 
299 622 141 96 102 113 
298 623 142 107 114 125 
299 622 142 97 103 113 
299 623 142 100 106 116 
299 623 143 95 102 112 
300 616 140 108 114 125 
300 616 141 111 118 129 
300 617 140 104 110 121 
300 617 141 105 111 122 
301 616 141 109 116 127 
301 616 142 106 113 124 
301 617 142 103 110 121 
300 618 141 93 100 111 
300 619 141 87 94 104 
300 618 142 94 101 112 
300 619 142 87 94 104 
301 618 142 94 101 112 
301 618 143 96 103 114 
301 619 142 89 96 106 
301 619 143 88 95 105 
302 616 142 102 109 119 
302 616 143 98 104 115 
302 617 143 98 104 115 
302 618 143 92 99 109 
302 619 143 88 95 105 
300 620 141 86 93 103 
300 620 142 87 93 103 
300 621 142 89 95 105 
300 621 143 90 96 105 
301 620 142 87 93 103 
301 620 143 88 94 104 
301 621 143 90 96 106 
300 622 142 94 100 109 
300 622 143 92 97 107 
300 623 143 92 98 108 
301 622 143 91 97 107 
303 614 144 93 99 110 
303 615 144 94 100 111 
302 617 144 93 100 110 
303 616 144 95 102 112 
303 616 145 95 101 111 
303 617 144 94 100 111 
303 617 145 93 99 109 
302 618 144 90 97 107 
302 619 144 87 94 104 
303 618 144 90 97 107 
303 618 145 92 98 108 
303 619 145 93 99 109 
301 621 144 91 97 107 
300 623 144 92 97 107 
301 622 144 91 97 107 
301 623 144 92 97 107 
301 623 145 91 97 106 
302 620 144 88 95 105 
302 620 145 91 98 108 
302 621 144 90 96 107 
302 621 145 90 97 108 
303 620 145 94 101 112 
303 620 146 101 108 119 
303 621 146 95 102 113 
302 622 145 89 96 107 
302 623 145 91 97 107 
302 622 146 89 96 107 
302 623 146 90 97 107 
303 622 146 89 97 108 
303 622 147 93 101 113 
303 623 146 89 96 107 
303 623 147 91 98 109 
288 624 132 96 103 113 
288 624 133 96 102 113 
288 625 132 92 98 109 
288 625 133 92 99 110 
289 624 133 94 102 113 
289 625 133 91 98 109 
289 624 134 93 101 112 
289 625 134 87 94 105 
288 626 133 86 92 102 
288 627 133 78 83 92 
289 626 133 90 97 106 
289 626 134 86 92 101 
289 627 134 82 87 95 
290 624 134 90 98 109 
290 624 135 86 94 105 
290 625 134 85 92 103 
290 625 135 83 90 101 
291 624 135 95 102 113 
291 625 135 84 92 102 
290 626 134 81 88 98 
290 626 135 78 85 95 
290 627 135 76 82 91 
288 628 132 73 78 85 
288 628 133 75 80 88 
288 629 132 72 76 84 
288 629 133 73 78 86 
289 628 133 77 82 90 
289 629 133 73 78 86 
289 628 134 75 80 88 
289 629 134 72 78 86 
288 630 132 71 76 84 
288 630 133 73 78 85 
288 631 132 72 77 84 
288 631 133 73 78 86 
289 630 133 74 80 88 
289 631 133 74 80 88 
289 630 134 74 80 88 
289 631 134 76 82 90 
290 628 135 73 79 87 
290 629 135 71 77 85 
290 630 135 72 78 86 
290 631 134 76 82 90 
290 631 135 73 79 87 
291 625 136 89 96 106 
291 626 136 78 85 95 
291 627 136 76 82 91 
291 627 137 76 82 91 
291 628 136 74 80 88 
291 628 137 75 81 90 
291 629 136 73 78 86 
291 630 136 71 77 84 
291 631 136 70 75 82 
292 624 136 98 105 115 
292 625 136 94 100 110 
292 625 137 91 97 107 
293 624 137 89 95 105 
293 625 137 88 94 104 
293 624 138 85 91 101 
293 625 138 86 91 100 
292 626 136 85 92 102 
292 626 137 82 88 97 
292 627 137 80 85 94 
293 626 137 85 91 100 
293 626 138 85 90 99 
293 627 138 83 89 97 
293 627 139 83 89 98 
294 624 138 85 91 100 
294 625 138 85 91 100 
294 625 139 87 92 102 
295 624 139 88 94 104 
295 625 139 91 97 106 
294 626 139 85 91 100 
294 627 139 83 89 98 
295 626 139 88 94 103 
295 625 140 93 99 109 
294 627 140 84 90 98 
295 626 140 88 94 103 
295 627 140 87 92 101 
292 628 137 78 84 93 
292 629 137 78 83 91 
293 628 138 82 87 96 
293 628 139 82 88 96 
293 629 138 80 86 95 
293 629 139 82 87 96 
292 630 137 73 79 87 
292 631 137 70 76 83 
293 630 138 77 83 91 
293 630 139 84 90 98 
293 631 138 76 81 90 
293 631 139 85 90 98 
294 628 139 82 87 96 
294 629 139 83 89 98 
294 630 139 86 92 100 
294 631 139 86 91 99 
294 628 140 84 89 98 
294 629 140 83 89 98 
295 628 140 85 91 100 
295 628 141 86 91 100 
295 629 140 84 90 99 
295 629 141 85 91 100 
294 630 140 84 90 99 
294 631 140 85 90 98 
295 630 140 83 89 98 
295 630 141 83 88 97 
295 631 140 82 88 96 
295 631 141 81 86 94 
288 632 131 75 81 89 
288 633 130 81 86 94 
288 633 131 78 84 92 
288 634 129 82 87 95 
288 635 129 83 89 97 
288 634 130 81 87 95 
288 634 131 80 86 94 
288 635 130 82 88 96 
289 634 131 79 85 93 
289 635 130 83 88 96 
289 635 131 81 87 95 
288 632 132 73 79 87 
289 632 132 72 78 86 
289 632 133 72 78 86 
289 633 132 73 79 87 
289 632 134 73 79 87 
289 634 132 76 82 90 
290 632 133 69 76 84 
290 633 133 70 76 84 
290 632 134 71 77 85 
290 632 135 72 78 86 
290 633 134 69 75 82 
291 632 135 69 75 82 
291 633 134 69 74 81 
291 633 135 68 73 80 
290 634 132 75 81 88 
290 634 133 72 78 85 
290 635 132 79 84 92 
291 634 133 72 78 85 
291 635 132 77 83 90 
291 635 133 74 79 87 
291 634 134 71 77 84 
291 634 135 69 74 82 
291 635 134 72 77 85 
288 636 129 84 90 98 
288 637 128 83 88 97 
288 637 129 85 90 98 
289 636 129 85 90 98 
289 637 129 85 90 98 
289 636 130 85 90 98 
289 636 131 83 88 97 
289 637 130 85 90 98 
288 638 128 79 86 95 
288 639 128 80 87 96 
289 638 129 81 86 94 
289 639 128 79 85 93 
289 639 129 78 84 92 
289 638 130 82 87 95 
290 636 131 83 88 96 
290 637 130 85 91 99 
290 637 131 84 90 98 
291 637 131 83 88 97 
290 639 129 77 83 91 
290 638 130 80 86 94 
290 638 131 82 88 96 
290 639 130 78 84 92 
291 638 131 81 87 95 
291 639 131 81 87 95 
290 636 132 81 86 94 
291 636 132 80 85 93 
291 636 133 77 82 90 
291 637 132 82 87 95 
291 638 132 82 88 97 
292 634 135 69 74 81 
292 635 134 73 78 86 
292 635 135 72 77 84 
293 635 135 72 77 84 
292 636 133 77 82 90 
292 637 133 79 85 93 
293 637 133 78 84 92 
292 636 134 75 80 88 
293 636 134 75 80 88 
293 636 135 74 79 86 
293 637 134 78 84 92 
293 637 135 79 84 92 
292 638 132 83 89 97 
292 638 133 81 87 95 
292 639 132 83 89 98 
292 639 133 83 88 96 
293 638 133 81 87 95 
293 639 133 85 90 98 
293 638 134 80 85 93 
293 639 134 83 88 96 
294 637 135 78 84 91 
294 638 134 80 86 94 
294 638 135 80 86 94 
294 639 134 84 89 97 
294 639 135 83 89 97 
295 639 135 83 89 97 
291 632 136 67 73 80 
292 632 136 68 73 80 
292 632 137 69 74 82 
292 633 136 68 73 80 
292 633 137 69 74 81 
293 633 137 68 74 81 
293 632 138 74 79 87 
293 632 139 82 87 95 
293 633 138 71 76 84 
292 634 136 68 73 80 
292 635 136 70 75 82 
293 634 137 69 74 81 
293 635 136 70 75 82 
293 635 137 69 74 82 
293 634 138 69 75 82 
294 632 139 81 86 94 
294 633 139 73 79 86 
294 635 136 71 76 84 
294 635 137 69 75 82 
294 634 138 70 75 82 
294 634 139 71 76 84 
294 635 138 69 75 82 
295 634 139 73 78 85 
295 635 138 70 76 83 
295 635 139 72 77 84 
294 632 140 85 89 97 
294 633 140 78 83 91 
295 632 140 83 88 96 
295 632 141 80 85 93 
295 633 140 76 81 89 
295 633 141 77 82 90 
295 634 140 74 80 87 
295 635 140 73 79 86 
294 636 136 73 79 86 
294 636 137 72 78 85 
294 637 136 77 83 90 
295 636 137 73 79 87 
295 637 136 77 83 91 
295 637 137 74 81 88 
295 636 138 72 77 85 
294 638 136 80 85 93 
295 638 136 81 87 94 
295 639 136 83 88 96 
296 624 140 101 108 118 
296 624 141 109 116 127 
296 625 140 104 110 120 
296 625 141 108 114 125 
297 624 141 109 116 127 
297 625 141 108 115 126 
297 625 142 106 113 124 
296 626 140 93 99 109 
296 626 141 96 102 113 
296 627 141 89 96 105 
297 626 141 102 109 120 
296 627 142 89 96 106 
297 626 142 94 101 111 
297 627 142 88 95 105 
297 627 143 87 93 102 
298 624 142 107 114 125 
298 625 142 108 115 125 
298 625 143 105 111 121 
299 624 143 96 102 112 
299 625 143 97 103 113 
298 626 142 100 107 117 
298 626 143 91 97 108 
298 627 143 87 93 102 
299 626 143 93 99 109 
296 628 141 87 93 102 
296 629 141 84 90 99 
296 628 142 86 92 102 
296 629 142 84 90 99 
297 628 142 86 93 102 
297 628 143 86 92 101 
297 629 142 85 91 100 
297 629 143 86 91 100 
296 630 141 83 88 97 
296 631 141 81 86 94 
296 630 142 83 89 98 
296 631 142 82 87 96 
297 630 142 84 89 98 
297 630 143 83 89 98 
297 631 142 82 88 97 
297 631 143 81 87 95 
298 628 143 87 92 101 
298 629 143 87 93 102 
296 635 139 71 76 84 
296 632 141 79 84 92 
296 633 141 76 81 89 
296 632 142 80 85 93 
296 633 142 77 82 90 
297 632 142 79 84 93 
297 632 143 79 85 93 
297 633 142 77 82 90 
297 633 143 77 82 91 
296 634 141 76 81 89 
296 635 140 71 77 85 
296 635 141 73 79 87 
297 635 141 73 78 86 
296 634 142 76 82 90 
297 634 142 76 82 90 
297 634 143 75 81 90 
297 635 142 75 81 89 
297 635 143 76 81 90 
298 634 143 75 80 89 
298 635 143 74 80 88 
296 637 137 75 81 89 
296 636 138 71 77 84 
296 636 139 71 76 84 
296 637 138 72 78 86 
296 637 139 71 76 83 
297 637 139 71 76 84 
296 638 137 79 85 93 
296 639 136 82 88 96 
296 639 137 82 87 95 
297 639 137 82 88 96 
296 638 138 76 81 89 
296 639 138 80 85 93 
297 638 138 76 81 88 
297 638 139 73 79 86 
297 639 138 79 84 92 
297 639 139 75 81 88 
298 639 139 75 80 87 
296 636 140 70 76 83 
297 636 140 69 75 82 
297 636 141 71 77 84 
297 637 140 71 76 83 
297 637 141 72 77 84 
297 636 142 74 80 87 
297 638 140 72 77 84 
298 637 141 71 76 84 
298 636 142 73 79 87 
298 636 143 73 79 87 
298 637 142 71 77 84 
298 637 143 72 78 85 
299 636 143 71 77 84 
299 637 143 71 76 83 
298 638 140 72 77 84 
298 638 141 71 77 83 
298 639 140 74 79 85 
299 639 141 73 78 85 
298 638 142 71 76 83 
299 638 142 71 76 84 
299 638 143 71 76 83 
299 639 142 72 77 84 
300 638 143 71 77 84 
300 639 142 74 79 86 
300 639 143 74 79 85 
299 625 144 90 96 106 
299 626 144 88 95 104 
299 627 144 86 92 102 
299 627 145 88 94 104 
298 628 144 86 91 101 
298 629 144 88 93 102 
299 628 144 87 93 102 
299 628 145 94 100 109 
299 629 144 91 97 106 
299 629 145 102 107 117 
298 630 144 84 90 99 
298 631 144 81 87 96 
299 630 144 87 92 101 
299 630 145 91 96 105 
299 631 144 82 88 97 
299 631 145 81 87 96 
300 624 144 89 95 105 
300 624 145 88 94 104 
300 625 144 87 93 103 
300 625 145 87 93 103 
301 624 145 90 96 105 
301 625 145 88 94 104 
301 625 146 89 95 104 
300 626 144 88 94 104 
300 626 145 89 95 105 
300 627 145 89 95 105 
301 626 145 89 94 104 
300 627 146 92 97 107 
301 626 146 89 95 104 
301 627 146 89 95 105 
302 624 146 90 96 106 
302 625 146 89 95 105 
302 625 147 90 96 106 
303 624 147 90 96 106 
303 625 147 91 97 107 
302 626 146 89 95 105 
302 626 147 89 95 105 
302 627 147 89 95 105 
303 626 147 91 97 107 
303 624 148 92 99 109 
303 625 148 92 98 109 
302 627 148 91 98 108 
303 626 148 92 99 109 
303 626 149 100 107 118 
303 627 148 94 101 111 
303 627 149 100 107 117 
300 628 145 98 103 112 
300 629 145 104 109 118 
300 628 146 98 104 113 
300 629 146 99 104 113 
301 628 146 94 100 109 
301 628 147 90 96 106 
301 629 146 97 103 112 
301 629 147 90 96 106 
300 630 146 87 93 102 
300 630 147 83 89 98 
300 631 146 81 87 96 
300 631 147 81 87 96 
301 630 147 87 93 102 
301 631 147 84 90 99 
302 628 147 89 96 105 
302 628 148 91 97 107 
302 629 148 90 96 106 
303 628 148 93 99 109 
303 628 149 95 102 112 
303 629 148 91 97 107 
303 629 149 89 95 104 
302 630 148 89 95 104 
302 631 148 88 93 102 
302 631 149 88 93 101 
303 630 149 88 93 103 
303 631 149 88 93 102 
303 631 150 87 92 101 
298 632 144 78 84 93 
298 633 144 77 83 91 
299 632 145 78 85 94 
299 633 144 77 83 92 
299 633 145 79 85 94 
298 634 144 75 81 90 
298 635 144 73 79 87 
299 634 144 77 83 92 
299 634 145 81 87 96 
299 635 144 74 80 88 
299 635 145 77 83 91 
299 636 144 71 76 84 
299 636 145 72 77 85 
299 637 144 69 74 82 
300 632 146 80 86 95 
300 632 147 81 87 96 
300 633 146 85 91 100 
300 633 147 88 94 103 
301 632 147 82 88 97 
301 633 147 84 90 99 
300 634 146 86 91 100 
300 634 147 89 95 104 
300 635 146 83 88 97 
300 635 147 86 92 100 
301 634 147 87 93 102 
301 635 147 85 91 100 
301 633 148 85 90 99 
301 634 148 87 92 101 
301 635 148 85 91 99 
302 632 148 86 91 100 
302 632 149 87 92 100 
302 633 148 86 91 100 
302 633 149 84 90 99 
303 632 149 87 92 100 
303 633 149 83 89 97 
303 632 150 86 91 99 
303 633 150 82 88 96 
302 634 148 86 92 101 
302 634 149 86 91 100 
302 635 148 83 88 97 
302 635 149 81 87 96 
303 634 149 83 88 97 
303 635 149 81 87 95 
303 634 150 80 86 95 
303 635 150 80 86 94 
300 636 145 71 76 84 
300 637 144 69 74 82 
300 637 145 68 74 81 
300 636 146 74 79 88 
301 636 146 74 80 88 
301 636 147 76 82 90 
301 637 146 69 74 82 
301 637 147 70 75 83 
300 638 144 70 75 82 
300 638 145 70 75 82 
300 639 144 71 76 83 
301 638 144 71 76 83 
301 638 145 70 75 81 
301 639 144 73 78 85 
301 639 145 72 77 83 
301 638 146 70 75 81 
302 636 147 71 77 85 
302 637 147 70 76 83 
302 639 145 72 77 84 
302 638 146 70 75 81 
302 638 147 70 75 82 
302 639 146 72 76 83 
302 639 147 72 77 83 
303 639 147 71 76 83 
302 636 148 75 81 89 
302 636 149 76 82 89 
302 637 148 70 76 83 
303 636 149 75 81 89 
303 637 149 71 76 84 
302 638 148 71 76 83 
303 638 148 70 75 83 
303 638 149 69 74 82 
303 639 148 71 76 83 
304 614 144 95 101 111 
304 614 145 94 100 110 
304 615 145 93 99 109 
305 614 145 94 100 110 
304 615 146 92 98 109 
305 614 146 94 99 109 
305 614 147 93 99 109 
305 615 146 92 98 107 
305 615 147 89 96 106 
306 614 147 93 98 108 
306 615 147 90 96 106 
306 614 148 90 96 106 
306 615 148 91 97 107 
306 615 149 96 102 112 
307 614 148 91 97 107 
307 614 149 92 98 108 
307 615 149 92 98 108 
307 614 150 92 98 108 
307 614 151 93 99 109 
307 615 150 92 99 108 
307 615 151 90 95 105 
308 614 151 97 103 113 
308 615 151 92 97 107 
308 614 152 113 119 130 
308 614 153 116 122 134 
308 615 152 102 108 119 
308 615 153 103 109 121 
308 614 154 103 110 122 
308 615 154 97 104 114 
309 614 154 96 103 114 
309 614 155 96 102 112 
309 615 155 95 101 111 
309 614 156 96 102 112 
309 614 157 95 101 111 
309 615 156 96 102 111 
309 615 157 94 100 111 
309 615 158 92 99 109 
310 614 158 95 102 113 
310 614 159 94 101 112 
310 615 158 91 98 109 
310 615 159 90 97 108 
304 616 145 94 100 110 
304 617 145 95 101 111 
304 616 146 93 99 109 
304 617 146 95 102 112 
305 616 146 92 99 109 
305 616 147 91 98 109 
305 617 147 97 104 115 
304 618 145 96 102 112 
304 618 146 99 105 115 
304 618 147 102 109 119 
304 619 146 104 110 121 
304 619 147 105 113 124 
305 618 147 103 109 120 
305 619 147 104 112 123 
305 616 148 99 106 116 
305 617 148 104 111 121 
305 618 148 105 113 124 
305 619 148 104 111 123 
306 616 148 103 109 119 
306 616 149 107 113 124 
306 617 148 111 118 128 
306 617 149 112 119 130 
307 616 149 104 110 120 
307 616 150 96 102 112 
307 616 151 90 96 106 
307 617 150 104 111 122 
307 617 151 91 98 108 
306 618 148 107 115 126 
306 618 149 105 113 124 
306 619 149 101 110 122 
306 618 150 106 114 126 
306 619 150 105 113 124 
306 619 151 106 113 124 
307 618 150 105 113 124 
307 618 151 96 103 114 
307 619 151 103 109 120 
304 620 146 103 110 121 
304 620 147 102 110 121 
304 621 147 99 107 119 
304 622 147 97 104 116 
304 620 148 99 107 119 
304 621 148 100 108 120 
305 620 148 96 105 117 
305 620 149 92 101 114 
305 621 148 96 104 116 
305 621 149 93 101 113 
304 622 148 99 106 118 
304 623 148 97 104 115 
305 622 148 98 105 117 
305 622 149 95 103 114 
305 623 149 97 104 115 
305 623 150 93 100 111 
306 620 149 96 105 117 
306 621 149 93 101 113 
306 620 150 102 110 122 
306 620 151 106 113 124 
306 621 150 95 103 115 
306 621 151 98 106 118 
307 620 151 106 112 123 
307 621 151 103 109 121 
306 622 150 90 98 110 
306 622 151 90 98 110 
306 623 150 92 99 110 
306 623 151 91 98 109 
307 622 151 92 99 110 
307 623 151 89 97 107 
308 616 151 90 96 105 
307 617 152 86 92 101 
307 618 152 89 95 105 
307 618 153 86 92 102 
307 619 152 93 100 110 
307 619 153 89 95 104 
307 619 154 88 94 103 
307 620 152 98 104 114 
307 620 153 90 96 105 
307 621 152 97 104 114 
307 621 153 89 95 104 
307 620 154 89 94 103 
307 621 154 87 93 102 
307 622 152 90 98 108 
307 622 153 88 94 104 
307 623 152 88 95 106 
307 623 153 88 95 104 
307 622 154 86 92 101 
307 623 154 87 93 102 
308 616 152 91 97 107 
308 616 153 91 97 107 
308 617 152 86 92 101 
308 617 153 87 92 101 
308 616 154 93 99 109 
308 616 155 93 98 108 
308 617 154 90 96 105 
308 617 155 90 95 105 
308 618 153 86 92 102 
308 618 154 88 94 103 
308 618 155 89 94 104 
308 619 154 87 93 102 
308 619 155 88 93 102 
308 616 156 93 99 109 
308 617 156 90 96 106 
309 616 156 94 100 110 
309 616 157 95 101 111 
309 617 156 93 99 110 
309 617 157 97 103 114 
309 616 158 95 101 111 
309 617 158 98 104 114 
308 618 156 91 97 107 
308 619 156 92 98 108 
308 619 157 102 108 118 
309 618 157 97 103 114 
309 619 157 106 111 122 
309 618 158 98 104 115 
309 619 158 107 113 123 
310 616 158 94 101 111 
310 616 159 94 100 111 
310 617 158 97 103 114 
310 617 159 97 103 113 
310 618 159 97 104 114 
310 619 159 101 107 117 
308 620 154 88 94 102 
308 620 155 88 94 102 
308 621 154 86 91 100 
308 621 155 88 93 102 
308 622 154 87 92 101 
308 622 155 87 92 101 
308 623 154 87 93 102 
308 623 155 86 92 100 
308 620 156 97 103 112 
308 620 157 108 114 125 
308 621 156 99 105 114 
308 621 157 113 119 129 
309 620 158 110 116 127 
309 620 159 107 113 124 
309 621 158 112 119 130 
309 621 159 109 116 127 
308 622 156 92 98 107 
308 622 157 100 106 116 
308 623 156 83 89 98 
308 623 157 84 90 100 
309 622 157 97 104 115 
309 623 157 87 93 103 
309 622 158 102 109 120 
309 622 159 100 107 118 
309 623 158 88 95 105 
309 623 159 86 93 104 
310 620 159 102 109 119 
310 621 159 110 116 127 
310 622 159 99 106 118 
310 623 159 84 92 102 
304 624 148 94 101 112 
304 624 149 94 101 112 
304 625 148 93 99 110 
304 625 149 94 102 113 
305 624 149 94 101 112 
305 625 149 95 102 113 
305 624 150 94 100 111 
305 625 150 94 101 112 
304 626 148 97 103 114 
304 626 149 105 112 123 
304 627 149 111 116 127 
304 627 150 109 115 126 
305 626 150 106 113 124 
305 626 151 104 110 121 
305 627 150 112 118 129 
305 627 151 102 109 119 
306 624 150 93 100 111 
306 624 151 92 99 110 
306 625 151 94 101 111 
306 626 151 99 105 116 
306 627 151 100 106 117 
304 628 149 97 104 114 
304 629 149 90 96 107 
304 628 150 95 102 113 
304 629 150 89 95 105 
305 628 150 95 101 112 
305 628 151 97 103 114 
305 629 151 91 97 107 
304 630 150 87 93 102 
304 630 151 87 93 102 
304 631 150 86 91 100 
304 631 151 86 91 100 
305 630 151 87 93 102 
305 631 151 85 90 100 
306 629 151 96 102 112 
306 625 152 94 101 111 
307 624 152 90 97 108 
307 624 153 89 95 105 
307 625 152 93 100 110 
307 625 153 93 100 110 
307 624 154 88 94 103 
307 625 154 93 99 108 
306 626 152 99 105 116 
306 627 152 100 106 116 
307 626 152 98 104 114 
307 626 153 98 105 115 
307 627 153 99 105 116 
307 626 154 99 105 115 
307 627 154 99 106 116 
305 630 152 88 93 102 
305 631 152 86 91 100 
306 628 152 99 105 116 
306 629 152 95 101 111 
306 629 153 96 102 112 
307 628 153 99 105 116 
307 629 153 97 103 113 
307 628 154 97 104 115 
307 629 154 96 102 113 
306 630 152 90 95 105 
306 630 153 91 97 107 
306 631 152 86 91 101 
306 631 153 86 92 101 
307 630 153 93 99 109 
307 630 154 92 98 108 
307 630 155 96 101 111 
307 631 154 86 92 102 
307 631 155 87 93 103 
308 624 154 91 96 105 
308 624 155 88 94 103 
308 625 154 93 98 107 
308 625 155 95 101 110 
308 626 154 102 108 118 
308 626 155 105 111 121 
308 627 154 102 108 119 
308 627 155 110 116 126 
308 624 156 87 93 102 
308 625 156 91 98 107 
309 624 157 86 93 103 
309 625 156 90 97 106 
309 625 157 90 96 105 
309 624 158 85 92 101 
309 625 158 87 94 103 
308 626 156 99 105 115 
308 627 156 107 113 123 
309 626 156 95 102 112 
309 626 157 92 98 108 
309 627 156 101 108 118 
309 627 157 94 101 111 
309 626 158 89 94 103 
309 627 158 89 96 106 
310 624 158 84 90 100 
310 624 159 82 89 99 
310 625 158 85 91 101 
310 625 159 83 89 99 
310 626 158 86 92 101 
310 626 159 85 91 100 
310 627 158 86 92 102 
310 627 159 84 91 101 
308 628 154 99 106 116 
308 628 155 107 114 124 
308 629 155 99 105 116 
308 630 155 95 101 111 
308 631 155 88 94 104 
308 628 156 109 115 125 
308 629 156 100 106 117 
309 628 156 102 109 120 
309 628 157 94 101 112 
309 629 156 99 106 117 
309 629 157 96 103 114 
309 628 158 91 98 109 
309 629 158 97 103 114 
308 630 156 97 102 112 
308 630 157 95 100 110 
308 631 156 89 95 104 
308 631 157 90 96 106 
309 630 157 99 105 116 
309 631 157 93 99 109 
309 630 158 110 116 126 
309 631 158 108 113 123 
310 628 158 89 97 107 
310 628 159 88 95 105 
310 629 158 99 105 116 
310 629 159 97 104 114 
310 630 158 110 116 127 
310 630 159 113 119 129 
310 631 159 112 117 128 
304 632 150 84 89 98 
304 632 151 83 89 98 
304 633 150 81 87 96 
304 633 151 81 86 95 
305 632 151 82 88 97 
305 633 151 80 86 94 
304 634 150 78 84 93 
304 634 151 78 84 92 
304 635 150 77 83 92 
304 635 151 77 83 91 
305 634 151 77 83 92 
305 635 151 76 82 90 
304 636 149 74 79 87 
304 637 149 72 78 85 
304 636 150 75 81 89 
304 636 151 77 82 90 
304 637 150 73 78 86 
305 636 151 76 82 90 
305 637 151 75 80 88 
304 638 149 70 75 82 
304 639 148 70 76 83 
304 639 149 69 75 82 
304 638 150 72 77 84 
304 639 150 71 76 83 
305 638 150 72 78 85 
305 638 151 75 80 87 
305 639 150 72 77 84 
305 639 151 73 78 85 
305 632 152 82 88 97 
305 633 152 80 86 95 
305 634 152 77 83 92 
305 635 152 76 82 90 
306 632 152 84 89 98 
306 632 153 83 88 98 
306 633 152 79 85 94 
306 633 153 79 85 94 
306 632 154 83 88 98 
306 633 154 80 86 95 
307 632 154 82 88 98 
307 632 155 82 88 97 
307 633 154 79 85 95 
307 633 155 79 85 94 
306 634 152 76 83 91 
306 634 153 78 84 93 
306 635 152 75 81 90 
306 635 153 77 83 92 
306 634 154 80 86 95 
306 635 154 79 85 94 
307 634 154 82 88 97 
307 634 155 83 88 97 
307 635 154 82 88 96 
307 635 155 85 90 98 
305 636 152 76 82 90 
305 637 152 75 81 88 
305 638 152 76 81 89 
305 639 152 77 82 90 
306 636 152 75 81 90 
306 636 153 77 83 91 
306 637 152 76 81 89 
306 637 153 77 83 90 
306 636 154 77 83 91 
306 637 154 76 81 89 
307 636 154 78 84 92 
307 636 155 81 86 95 
307 637 154 77 83 90 
307 637 155 75 82 90 
306 638 152 76 82 89 
306 638 153 75 81 88 
306 639 152 77 83 90 
306 639 153 77 83 90 
306 638 154 73 79 86 
306 639 154 74 80 88 
307 638 154 72 78 86 
307 638 155 72 78 87 
307 639 154 72 79 87 
307 639 155 73 79 88 
308 632 155 82 87 97 
308 633 155 78 84 93 
308 634 155 81 87 96 
308 635 155 84 90 98 
308 632 156 82 88 97 
308 632 157 84 90 99 
308 633 156 79 84 94 
308 633 157 80 86 95 
309 632 157 85 92 101 
309 633 157 80 87 96 
309 632 158 94 100 110 
309 632 159 100 106 116 
309 633 158 82 89 98 
309 633 159 84 91 101 
308 634 156 79 85 93 
308 634 157 77 82 91 
308 635 156 82 87 95 
308 635 157 77 82 90 
309 634 157 77 83 92 
309 634 158 75 81 90 
309 634 159 75 81 90 
309 635 158 72 78 86 
309 635 159 73 78 86 
310 632 159 98 103 113 
310 633 159 86 92 102 
310 634 159 76 82 91 
310 635 159 73 78 86 
308 636 155 80 86 94 
308 637 155 77 83 91 
308 636 156 80 85 93 
308 636 157 77 82 90 
308 637 156 77 83 91 
308 637 157 77 82 90 
309 637 157 77 82 90 
309 636 158 71 77 85 
309 636 159 70 76 83 
309 637 158 74 79 87 
309 637 159 73 78 86 
308 638 156 76 82 91 
308 638 157 80 86 94 
308 639 156 75 82 90 
308 639 157 78 84 92 
309 638 157 78 84 92 
309 639 157 78 83 91 
309 638 158 76 81 89 
309 638 159 75 81 88 
309 639 158 77 82 90 
309 639 159 76 82 90 
310 636 159 71 76 84 
310 637 159 72 77 84 
310 638 159 76 81 89 
310 639 159 77 83 90 
299 614 179 73 81 90 
297 614 183 80 86 95 
298 614 180 79 85 93 
298 614 181 79 85 94 
299 614 180 73 79 88 
299 614 181 79 85 94 
298 614 182 82 88 96 
298 614 183 87 93 102 
299 614 182 83 89 98 
299 615 182 82 88 97 
299 615 183 86 93 102 
300 614 177 84 92 101 
301 614 177 85 92 102 
300 614 178 81 88 97 
300 614 179 77 84 94 
301 614 178 84 91 101 
301 614 179 84 91 101 
302 614 176 87 95 106 
302 614 177 86 94 104 
303 614 176 87 95 106 
303 614 177 88 96 107 
302 614 178 85 93 103 
302 614 179 83 91 101 
303 614 178 88 96 107 
303 614 179 88 95 106 
300 614 180 71 78 88 
300 614 181 74 80 88 
300 615 181 72 78 86 
301 614 180 78 86 96 
301 614 181 72 80 89 
301 615 181 71 78 86 
300 615 182 76 82 91 
300 615 183 78 84 93 
301 615 182 70 76 84 
301 615 183 71 77 85 
302 614 180 83 90 101 
302 615 181 78 85 93 
303 614 180 85 92 102 
303 615 181 83 90 99 
302 615 182 73 78 87 
302 615 183 70 76 83 
303 615 182 80 85 93 
303 615 183 72 78 86 
296 614 185 75 80 88 
297 614 184 78 84 93 
297 614 185 78 84 92 
296 614 186 72 78 86 
296 614 187 70 75 82 
297 614 186 74 80 88 
297 614 187 70 76 83 
297 615 186 74 80 88 
297 615 187 70 75 82 
298 614 184 81 88 98 
298 615 184 86 93 103 
298 615 185 81 88 97 
299 615 184 86 93 103 
299 615 185 79 87 97 
298 615 186 78 84 92 
298 615 187 70 76 83 
299 615 186 76 83 92 
299 615 187 72 78 86 
296 614 188 77 81 87 
296 614 189 84 88 95 
296 615 188 74 78 86 
296 615 189 78 83 90 
297 615 188 71 76 84 
297 615 189 70 76 84 
296 614 190 79 83 90 
296 614 191 71 75 81 
296 615 190 72 77 84 
296 615 191 69 74 81 
297 615 190 66 72 80 
298 615 188 69 75 82 
300 615 184 82 89 99 
300 615 185 78 86 95 
301 615 184 73 80 89 
302 615 184 69 75 84 
303 615 184 70 76 83 
299 616 187 70 76 85 
296 616 191 68 73 80 
297 616 190 67 73 80 
297 616 191 67 72 80 
298 616 188 68 74 81 
298 616 189 66 72 80 
299 616 188 66 73 80 
299 616 189 66 72 80 
299 617 189 68 74 82 
298 616 190 67 73 81 
298 616 191 66 72 79 
299 616 190 67 73 81 
299 616 191 66 72 80 
299 617 190 69 75 82 
299 617 191 66 73 80 
300 616 184 81 88 98 
300 616 185 79 87 96 
301 616 184 75 82 91 
301 616 185 77 84 93 
300 616 186 74 82 92 
300 616 187 70 77 87 
301 616 186 75 83 92 
301 616 187 71 78 87 
302 616 184 71 77 86 
302 616 185 72 79 87 
303 616 184 71 76 85 
303 616 185 70 76 84 
302 616 186 70 77 87 
302 616 187 69 76 85 
302 617 187 70 76 85 
303 616 186 69 76 85 
303 616 187 69 76 84 
303 617 187 69 75 83 
300 616 188 67 73 82 
300 617 188 67 73 82 
300 617 189 69 75 82 
301 616 188 70 77 86 
301 617 188 70 77 85 
301 617 189 68 74 81 
300 617 190 70 76 84 
300 617 191 69 75 83 
301 617 190 70 76 83 
301 617 191 71 76 84 
301 618 191 70 75 83 
302 617 188 70 76 84 
302 617 189 70 75 82 
303 617 188 70 75 83 
303 617 189 69 74 81 
302 617 190 69 74 81 
303 618 189 68 73 80 
302 618 190 67 72 79 
302 618 191 67 73 80 
303 618 190 67 72 80 
303 618 191 66 71 79 
303 619 191 67 72 79 
310 614 160 95 103 114 
310 614 161 98 105 116 
310 615 160 90 97 108 
311 614 160 93 100 111 
311 614 161 95 102 113 
311 615 160 91 98 108 
311 615 161 92 99 110 
311 614 162 88 95 106 
311 614 163 85 92 102 
311 615 162 91 98 108 
311 615 163 88 95 105 
311 614 164 85 92 102 
311 614 165 88 95 106 
311 614 166 90 98 109 
311 614 167 91 100 111 
305 614 173 67 77 88 
304 614 174 70 78 88 
304 614 175 75 83 94 
305 614 174 69 77 87 
305 614 175 74 82 92 
306 614 173 76 85 96 
307 614 172 87 96 106 
307 614 173 85 92 101 
307 615 173 83 90 99 
306 614 174 69 77 87 
306 614 175 73 81 91 
306 615 175 71 78 89 
307 615 174 79 86 95 
307 615 175 71 78 88 
309 614 171 92 100 111 
310 614 169 93 101 112 
311 614 168 95 103 114 
311 614 169 91 100 111 
311 615 168 96 104 115 
311 615 169 93 101 113 
310 614 170 95 102 113 
310 614 171 95 102 113 
310 615 171 95 102 113 
311 615 170 89 97 109 
311 615 171 89 98 109 
308 614 172 83 91 101 
308 614 173 84 90 100 
308 615 173 83 90 101 
309 614 172 86 94 104 
309 614 173 84 91 101 
309 615 173 84 92 102 
308 615 174 85 91 101 
309 615 174 87 94 104 
310 614 172 93 100 111 
310 615 172 92 100 111 
310 615 173 88 96 107 
311 615 172 93 100 111 
310 616 160 94 100 110 
310 617 160 96 102 112 
311 616 160 93 100 110 
311 616 161 95 101 111 
311 617 161 96 102 112 
311 616 162 93 99 109 
311 617 162 95 101 111 
310 618 160 94 101 111 
310 618 161 95 101 112 
310 619 160 95 101 112 
310 619 161 93 99 110 
311 618 161 97 103 114 
311 619 161 96 102 112 
311 618 162 98 104 114 
311 618 163 97 104 114 
311 619 162 98 104 114 
311 619 163 99 105 115 
310 620 160 97 104 114 
310 620 161 93 100 111 
310 621 160 99 106 117 
310 621 161 95 102 112 
311 620 162 94 100 110 
311 620 163 95 101 111 
311 621 162 92 98 108 
311 621 163 90 96 105 
310 622 160 96 103 114 
310 622 161 93 99 110 
310 623 160 84 91 102 
310 623 161 85 91 101 
310 622 162 90 96 106 
310 623 162 84 91 101 
311 622 162 90 96 105 
311 622 163 86 92 101 
311 623 162 85 91 100 
311 623 163 83 89 98 
311 620 164 93 99 109 
311 621 164 91 96 106 
311 622 164 86 91 100 
311 623 164 84 89 98 
311 623 165 84 89 98 
311 616 170 91 100 111 
311 616 171 90 98 109 
308 616 175 81 87 96 
309 616 174 87 93 103 
309 616 175 86 92 102 
309 617 175 87 92 102 
310 616 173 90 98 109 
311 616 172 92 99 110 
311 616 173 97 104 115 
311 617 173 94 101 111 
310 616 174 88 95 106 
310 617 174 92 99 110 
310 617 175 85 92 101 
311 617 174 96 103 114 
311 617 175 91 98 109 
311 618 174 92 99 109 
311 618 175 92 99 110 
312 615 163 89 96 106 
312 614 164 87 94 104 
312 614 165 91 98 109 
312 615 164 89 96 106 
312 615 165 95 102 112 
312 614 166 96 103 113 
312 615 166 102 109 120 
312 615 167 98 106 117 
312 615 168 99 107 118 
312 616 163 94 100 111 
312 617 163 94 101 112 
312 618 163 95 102 113 
312 619 163 99 105 116 
312 616 164 98 104 115 
312 616 165 103 109 119 
312 617 164 97 104 115 
312 617 165 103 110 121 
312 616 166 106 113 124 
312 616 167 101 110 121 
312 617 166 107 113 124 
312 617 167 99 107 118 
312 618 164 95 102 114 
312 618 165 97 105 116 
312 619 164 97 104 115 
312 619 165 96 103 114 
312 618 166 106 113 124 
312 618 167 105 112 124 
312 619 166 101 108 119 
312 619 167 105 112 122 
313 618 167 105 113 124 
313 619 167 105 111 122 
312 620 164 94 100 110 
312 620 165 91 98 108 
312 621 164 90 96 105 
312 621 165 89 95 104 
312 620 166 91 98 108 
312 620 167 95 101 111 
312 621 166 90 95 104 
312 621 167 92 97 106 
313 620 167 96 102 113 
313 621 167 92 98 108 
312 622 164 88 93 102 
312 622 165 87 92 100 
312 623 165 84 90 98 
312 622 166 87 92 101 
312 622 167 87 93 101 
312 623 166 85 90 99 
312 623 167 85 91 99 
312 616 168 101 109 120 
312 616 169 97 105 117 
312 617 168 94 103 115 
312 617 169 94 103 114 
313 617 169 92 100 111 
312 616 170 96 104 115 
312 616 171 92 99 110 
312 617 170 96 104 116 
312 617 171 94 101 112 
313 617 170 94 101 113 
313 618 168 97 106 117 
313 618 169 89 97 108 
313 619 168 101 108 119 
313 619 169 92 99 109 
313 618 170 87 95 105 
313 618 171 88 95 106 
313 619 170 89 95 105 
313 619 171 87 94 103 
312 616 172 92 99 109 
312 617 172 90 97 107 
312 617 173 87 94 104 
312 618 172 87 94 103 
312 618 173 86 93 103 
312 619 173 88 93 102 
313 618 172 87 94 104 
313 619 172 87 93 102 
313 619 173 88 93 101 
312 618 174 89 96 106 
312 618 175 92 99 109 
312 619 174 87 93 103 
312 619 175 87 94 104 
313 619 174 86 92 100 
313 620 168 98 104 113 
313 620 169 94 100 109 
313 621 168 93 98 108 
313 621 169 92 98 108 
313 620 170 91 97 106 
313 620 171 91 96 105 
313 621 170 91 96 105 
313 621 171 89 95 103 
312 623 168 87 92 101 
313 622 168 89 95 104 
313 622 169 93 99 108 
313 623 168 89 94 103 
313 623 169 97 102 111 
313 622 170 91 96 106 
313 622 171 87 93 102 
313 623 170 99 104 113 
313 623 171 89 95 104 
313 620 172 90 95 103 
313 620 173 87 92 99 
313 621 172 90 94 103 
313 621 173 90 95 103 
313 620 174 86 91 99 
313 620 175 86 91 100 
313 621 174 91 96 104 
313 621 175 89 95 104 
313 622 172 87 92 101 
313 622 173 88 94 103 
313 623 172 82 89 98 
313 623 173 82 88 98 
313 622 174 94 99 108 
313 622 175 96 102 111 
313 623 174 85 91 101 
313 623 175 90 96 106 
314 622 175 97 102 112 
314 623 175 95 100 110 
304 614 176 86 94 105 
304 614 177 91 99 110 
305 614 176 81 89 100 
305 614 177 90 98 109 
304 614 178 91 99 109 
304 614 179 87 94 105 
305 614 178 89 97 108 
305 614 179 88 95 106 
306 614 176 83 90 101 
306 615 176 83 90 100 
306 615 177 96 102 112 
307 615 176 72 80 89 
307 615 177 85 91 101 
306 615 178 94 100 110 
306 615 179 92 98 108 
307 615 178 85 92 101 
307 615 179 82 90 99 
304 614 180 82 90 100 
304 615 180 80 88 98 
304 615 181 79 86 96 
305 614 180 83 91 101 
305 615 180 79 86 97 
305 615 181 73 81 92 
304 615 182 77 83 92 
304 615 183 73 79 87 
305 615 182 70 78 88 
305 615 183 70 77 86 
306 615 180 82 89 99 
306 615 181 78 85 95 
307 615 180 84 91 100 
306 615 182 70 78 89 
307 616 176 69 77 87 
307 616 177 73 80 89 
307 616 178 73 81 90 
307 616 179 75 82 92 
305 616 183 71 77 86 
307 616 180 80 86 96 
307 616 181 82 87 96 
306 616 182 70 78 87 
306 616 183 71 78 87 
307 616 182 76 82 91 
307 616 183 71 78 87 
307 617 183 69 76 85 
308 616 176 74 81 90 
308 616 177 71 78 87 
309 616 176 84 90 99 
309 617 176 86 92 101 
309 617 177 81 86 95 
308 616 178 74 81 90 
308 616 179 70 77 86 
309 617 178 74 80 89 
309 617 179 71 78 86 
309 618 178 78 83 92 
309 618 179 72 78 87 
310 617 176 83 90 99 
310 618 176 83 90 99 
310 618 177 83 89 98 
311 618 176 88 94 105 
311 619 176 87 93 103 
311 619 177 83 89 98 
310 618 178 82 87 96 
310 618 179 73 79 87 
310 619 178 81 86 95 
310 619 179 77 82 91 
311 619 178 82 88 96 
311 619 179 79 84 92 
308 616 180 74 81 90 
308 616 181 78 84 93 
308 617 181 75 80 88 
309 617 180 72 78 86 
309 617 181 72 77 85 
308 616 182 82 87 95 
308 617 182 76 81 89 
308 617 183 74 80 88 
309 617 182 71 77 85 
309 617 183 75 80 88 
309 618 180 70 76 83 
309 618 181 71 76 83 
309 618 182 73 78 85 
309 618 183 76 81 89 
310 618 180 70 75 83 
310 618 181 69 74 81 
310 619 180 71 76 84 
310 619 181 70 74 82 
311 619 180 75 80 88 
310 618 182 73 77 85 
310 618 183 75 81 89 
310 619 182 72 77 84 
310 619 183 78 83 91 
311 620 178 80 85 94 
311 620 179 80 86 93 
311 620 180 75 80 87 
311 620 181 69 74 82 
