ply
format ascii 1.0
comment Created by CloudCompare v2.10.1 (Zephyrus)
comment Created 2/3/20 1:30 PM
obj_info Generated by CloudCompare!
element vertex 1998
property float x
property float y
property float z
property uchar red
property uchar green
property uchar blue
end_header
303 611 197 71 77 85 
302 610 199 69 74 81 
302 611 198 69 75 82 
302 611 199 69 74 81 
303 610 198 72 78 86 
303 610 199 69 75 82 
303 611 198 71 77 84 
300 612 192 71 75 82 
300 612 193 73 77 84 
301 612 193 73 77 83 
300 612 194 74 78 83 
300 612 195 75 79 86 
300 613 194 74 78 84 
300 613 195 79 83 89 
301 612 194 74 78 84 
301 612 195 73 78 85 
302 612 195 70 76 83 
300 613 196 76 80 87 
300 613 197 74 79 86 
301 612 196 74 78 86 
301 612 197 71 76 84 
300 613 198 72 77 83 
300 613 199 70 73 79 
301 612 198 70 75 83 
301 612 199 70 74 81 
301 613 199 69 73 79 
302 612 196 72 77 85 
302 612 197 71 77 85 
302 612 198 70 75 83 
302 612 199 69 73 80 
303 608 200 78 83 90 
303 608 201 73 78 85 
303 609 200 71 76 83 
303 609 201 70 75 81 
303 608 202 71 76 83 
303 609 202 70 75 81 
303 609 203 68 73 80 
302 610 200 70 74 81 
302 610 201 69 74 80 
302 611 200 69 73 80 
302 611 201 69 74 80 
303 610 200 70 74 81 
303 610 201 69 74 80 
302 611 202 75 79 86 
302 611 203 77 81 88 
303 610 202 72 76 83 
303 610 203 72 76 82 
303 611 203 76 80 87 
303 609 204 69 73 80 
303 609 205 68 72 78 
303 609 206 67 71 77 
302 611 204 74 78 85 
303 610 204 70 75 81 
303 610 205 68 73 79 
303 611 204 74 78 85 
303 611 205 68 72 79 
303 610 206 67 71 78 
303 610 207 69 73 80 
303 611 206 67 72 79 
303 611 207 67 72 78 
300 613 200 70 73 79 
300 613 201 69 73 79 
301 612 200 69 74 80 
301 612 201 69 73 80 
301 613 200 70 74 80 
301 613 201 68 73 79 
301 613 202 69 73 80 
301 613 203 70 75 82 
302 612 200 69 74 80 
302 612 201 69 74 80 
302 612 202 71 76 83 
302 612 203 72 77 84 
301 613 204 70 75 82 
301 613 205 68 74 81 
302 612 204 70 75 82 
302 612 205 67 72 79 
302 613 204 70 75 82 
302 613 205 67 73 79 
302 612 206 66 72 79 
302 612 207 67 72 79 
302 613 206 67 72 78 
302 613 207 67 72 78 
303 612 207 68 72 79 
294 608 223 59 63 68 
295 608 222 58 62 67 
295 608 223 58 62 67 
295 609 223 57 61 66 
303 609 211 69 73 79 
303 610 208 69 74 80 
303 610 209 70 74 80 
303 611 208 69 73 80 
303 611 209 72 76 82 
303 610 210 70 74 80 
303 610 211 69 73 79 
303 611 210 71 75 81 
303 611 211 70 74 80 
303 609 212 69 73 79 
303 609 213 69 73 78 
303 608 215 65 69 74 
303 610 212 69 73 80 
303 610 213 68 72 78 
303 611 212 68 72 79 
303 611 213 67 71 77 
303 610 214 66 70 76 
303 610 215 66 70 76 
303 611 214 65 70 76 
303 611 215 65 70 76 
302 612 208 68 72 79 
302 612 209 70 74 80 
302 613 208 68 72 79 
302 613 209 69 73 79 
303 612 208 69 73 80 
303 612 209 71 75 81 
302 612 210 70 74 80 
302 612 211 68 72 79 
302 613 210 68 72 79 
302 613 211 66 71 78 
303 612 210 71 76 82 
303 612 211 69 74 80 
302 612 212 66 70 76 
302 612 213 66 70 76 
302 613 212 66 70 77 
302 613 213 67 71 77 
303 612 212 67 71 77 
303 612 213 65 70 76 
302 612 214 65 70 76 
302 612 215 65 69 75 
302 613 214 67 72 78 
302 613 215 66 70 76 
303 612 214 65 69 75 
303 612 215 65 70 76 
299 608 219 65 69 74 
297 608 221 56 61 67 
297 609 221 57 62 68 
296 608 222 57 61 67 
296 608 223 58 61 66 
296 609 223 57 61 66 
297 608 222 56 60 66 
297 609 222 56 61 67 
297 609 223 58 62 67 
297 610 223 58 62 67 
298 608 221 58 62 68 
298 609 221 58 63 69 
299 608 220 63 67 72 
299 608 221 60 64 70 
299 609 220 61 65 70 
299 609 221 59 63 69 
298 609 222 57 62 68 
299 610 221 60 64 70 
298 610 222 59 63 69 
298 610 223 58 62 68 
298 611 223 57 61 67 
299 610 222 60 64 70 
299 611 222 62 66 72 
299 611 223 61 65 71 
300 608 219 63 67 73 
300 609 219 62 66 71 
301 608 218 62 66 71 
301 609 218 63 67 73 
301 609 219 62 66 71 
300 610 219 61 65 71 
301 610 219 62 66 72 
302 608 217 63 67 72 
303 608 216 62 66 72 
303 608 217 63 67 72 
303 609 216 64 68 74 
303 609 217 64 68 74 
302 608 218 63 67 72 
302 609 218 64 68 73 
303 609 218 64 68 73 
303 610 216 64 69 75 
303 610 217 65 69 75 
303 611 216 65 70 76 
303 611 217 65 70 76 
302 610 219 64 68 74 
302 611 219 66 70 75 
303 610 218 65 69 75 
303 611 218 67 71 77 
303 611 219 65 69 75 
300 609 220 63 66 72 
300 610 220 62 66 71 
300 611 220 64 68 73 
300 611 221 63 67 72 
301 610 220 63 67 72 
301 611 220 66 70 75 
301 611 221 69 73 78 
300 611 222 65 69 74 
300 611 223 63 67 73 
302 611 220 66 70 75 
302 612 216 64 69 75 
302 613 216 64 69 75 
302 613 217 66 70 76 
303 612 216 65 69 76 
303 612 217 67 71 77 
303 613 217 66 70 76 
302 612 219 68 72 78 
302 613 218 69 73 79 
302 613 219 69 73 79 
303 612 218 67 71 77 
303 612 219 68 72 78 
301 612 220 70 73 78 
301 612 221 71 74 80 
301 613 221 71 75 81 
300 612 222 66 70 76 
300 612 223 66 70 76 
301 612 222 72 75 81 
301 612 223 68 72 78 
301 613 222 70 75 81 
301 613 223 68 72 78 
302 612 220 70 74 79 
302 613 220 71 74 80 
302 613 221 70 74 80 
304 608 192 76 83 92 
304 608 193 75 81 89 
304 608 194 76 80 87 
304 608 195 80 85 93 
304 609 194 75 80 87 
304 609 195 79 84 92 
304 608 196 89 94 101 
304 608 197 88 93 101 
304 609 196 84 89 97 
304 609 197 85 91 99 
304 608 198 83 89 97 
304 608 199 83 88 97 
304 608 200 80 85 93 
304 608 201 74 79 86 
304 608 202 73 78 85 
304 608 203 68 73 80 
304 608 204 68 73 79 
304 608 205 68 73 79 
304 609 204 68 73 79 
304 609 205 68 72 78 
304 608 206 69 73 79 
304 608 207 69 73 79 
304 609 206 67 71 77 
304 609 207 69 74 80 
304 608 208 71 75 81 
304 608 209 69 73 79 
304 609 208 73 77 83 
304 609 209 70 75 81 
304 608 210 65 69 75 
304 608 211 65 69 75 
304 609 210 68 72 78 
304 609 211 68 72 78 
304 608 212 65 70 75 
304 608 213 66 70 76 
304 609 212 67 71 77 
304 609 213 67 71 77 
304 608 214 67 71 77 
304 608 215 66 70 75 
304 609 214 66 71 77 
304 609 215 66 71 76 
304 610 214 65 70 76 
304 610 215 66 70 76 
304 609 216 65 69 75 
291 608 227 58 61 65 
291 608 228 60 62 67 
291 608 229 59 62 67 
291 609 228 57 60 65 
291 609 229 56 60 65 
291 608 230 57 61 65 
291 608 231 55 59 64 
291 609 230 55 59 64 
291 609 231 54 58 64 
291 610 230 55 58 63 
292 608 225 55 59 64 
293 608 224 57 60 65 
293 608 225 55 59 64 
293 609 225 56 60 64 
292 608 226 56 59 64 
292 608 227 57 61 65 
292 609 226 57 60 65 
292 609 227 57 60 65 
293 609 226 57 60 65 
293 610 225 57 60 65 
292 610 227 56 60 64 
293 610 226 57 60 65 
293 610 227 57 60 65 
293 611 227 56 60 64 
294 608 224 56 60 65 
294 609 224 57 61 66 
294 609 225 56 59 64 
295 609 224 57 60 65 
294 610 225 57 60 65 
295 610 224 56 61 66 
295 610 225 55 59 64 
295 611 225 57 61 66 
294 610 226 56 60 64 
294 611 226 57 61 65 
294 611 227 57 61 65 
295 611 226 56 60 64 
295 611 227 56 60 64 
292 609 228 55 59 64 
292 609 231 54 58 63 
292 610 228 55 58 63 
292 610 229 55 58 63 
292 611 229 54 58 63 
293 610 228 55 59 63 
293 611 228 56 60 64 
293 611 229 55 58 63 
292 610 230 55 59 64 
292 610 231 54 58 63 
292 611 231 55 58 64 
293 611 230 55 59 64 
293 611 231 56 59 65 
294 611 228 58 61 66 
295 612 227 57 60 65 
294 612 228 57 60 65 
294 612 229 56 60 65 
295 612 228 56 60 65 
295 612 229 57 61 66 
295 613 229 58 62 68 
294 612 230 57 61 66 
294 612 231 57 61 66 
295 612 230 59 62 68 
295 612 231 58 62 67 
295 613 230 60 64 70 
295 613 231 59 63 69 
291 608 232 52 56 61 
291 608 233 50 54 60 
291 609 232 52 56 62 
291 609 233 51 55 61 
291 608 234 51 54 59 
291 608 235 52 56 61 
291 609 234 52 56 60 
291 608 236 52 56 61 
291 608 237 51 55 60 
291 608 238 51 55 61 
291 608 239 54 58 64 
292 609 232 54 58 64 
292 609 233 54 58 64 
292 609 234 55 59 64 
292 609 235 57 60 65 
292 610 232 55 59 64 
292 610 233 57 61 66 
292 611 232 55 59 64 
293 610 233 59 62 66 
293 611 232 56 60 65 
293 611 233 58 61 66 
292 610 234 61 64 70 
293 610 234 62 66 71 
293 610 235 65 68 73 
293 611 234 60 63 68 
293 611 235 63 66 71 
294 611 232 56 60 65 
294 611 233 57 60 65 
294 611 234 60 63 68 
294 611 235 62 64 69 
292 608 236 53 57 62 
292 608 237 52 56 61 
292 609 236 58 61 66 
292 609 237 55 58 63 
292 608 238 53 57 62 
292 608 239 56 59 64 
292 609 238 55 58 63 
292 609 239 58 61 66 
292 610 236 61 64 69 
292 610 237 57 60 64 
293 610 236 65 67 72 
293 610 237 61 63 68 
293 611 237 61 63 68 
292 610 238 56 59 63 
293 610 238 58 61 65 
293 610 239 60 62 66 
293 611 238 59 61 66 
293 611 239 60 62 67 
294 611 236 61 64 68 
294 611 237 61 63 67 
294 611 238 60 62 66 
294 611 239 60 62 66 
294 612 232 57 60 66 
294 612 233 56 60 65 
295 612 232 57 61 66 
295 612 233 57 60 65 
295 613 232 56 61 67 
295 613 233 56 60 65 
294 612 234 59 62 67 
294 612 235 61 63 68 
295 612 234 57 60 65 
295 612 235 59 62 66 
295 613 234 58 61 66 
295 613 235 59 61 66 
294 612 236 62 64 68 
294 612 237 62 64 67 
295 612 236 61 63 66 
295 612 237 60 62 66 
295 613 236 59 62 66 
295 613 237 61 63 67 
294 612 238 61 63 67 
294 612 239 61 63 67 
294 613 239 61 63 67 
295 613 238 62 63 67 
295 613 239 62 64 68 
296 610 224 58 62 67 
296 611 224 56 61 67 
296 611 225 57 61 67 
297 610 224 58 62 68 
297 611 224 59 63 68 
298 611 224 59 63 68 
299 611 224 60 64 70 
297 612 225 54 59 65 
296 612 226 56 59 65 
296 612 227 55 59 64 
297 612 226 55 59 65 
297 612 227 53 58 64 
297 613 227 56 60 66 
298 612 225 57 61 67 
298 613 225 56 61 67 
299 612 224 61 65 71 
299 612 225 60 64 69 
299 613 225 61 65 70 
298 612 226 57 61 67 
298 613 226 57 61 66 
298 613 227 58 62 68 
299 613 226 61 65 70 
299 613 227 58 62 67 
296 612 228 55 59 64 
296 613 228 57 61 66 
296 613 229 60 64 70 
297 613 228 57 61 67 
297 613 229 62 66 72 
296 613 230 63 67 72 
296 613 231 64 68 74 
297 613 230 68 71 76 
298 613 228 59 63 69 
300 612 224 67 71 77 
300 613 224 67 70 76 
300 613 225 64 67 73 
301 613 224 68 72 77 
300 613 226 61 65 70 
296 613 232 61 66 72 
296 613 233 58 63 68 
296 613 234 58 62 66 
296 613 235 59 62 66 
296 613 236 60 62 67 
291 608 240 60 63 67 
291 608 241 61 63 68 
291 609 241 63 65 69 
290 608 242 58 61 65 
291 608 242 61 63 67 
291 609 242 62 64 69 
292 609 240 61 63 68 
292 609 241 62 65 69 
292 609 242 61 64 68 
292 610 240 60 63 67 
292 610 241 61 64 68 
293 610 240 60 62 67 
293 610 241 61 64 68 
293 611 240 60 63 67 
293 611 241 61 63 67 
292 610 242 61 64 68 
292 611 242 61 64 68 
293 611 242 62 64 68 
293 612 241 62 64 68 
293 612 242 62 64 68 
294 612 240 61 64 67 
294 612 241 62 64 68 
294 613 240 63 65 68 
294 613 241 62 64 68 
295 613 240 62 64 68 
295 613 241 62 64 68 
294 612 242 62 64 68 
294 613 242 62 64 68 
327 520 169 101 110 122 
327 521 169 101 109 121 
327 520 170 100 108 120 
327 520 171 100 107 119 
327 521 170 114 122 135 
327 521 171 113 122 136 
327 522 169 115 122 134 
327 523 169 123 130 143 
326 522 170 127 136 150 
326 522 171 127 136 151 
326 523 170 122 132 148 
326 523 171 122 132 148 
327 522 170 126 134 147 
327 522 171 130 138 153 
327 523 170 129 138 153 
327 520 172 108 115 127 
327 520 173 124 131 143 
327 521 172 114 123 137 
327 521 173 121 129 143 
327 520 174 131 138 151 
327 520 175 117 125 137 
327 521 174 122 130 144 
327 521 175 110 118 132 
326 522 172 128 137 151 
326 522 173 123 132 146 
326 523 172 123 132 147 
326 523 173 120 129 143 
326 522 174 118 127 141 
326 523 174 116 124 138 
326 523 175 107 115 128 
327 522 174 116 124 138 
327 522 175 107 115 128 
327 523 175 109 117 129 
327 524 169 113 120 133 
327 525 169 109 115 127 
326 524 170 127 136 151 
326 524 171 116 127 143 
326 525 170 128 136 150 
326 525 171 123 132 147 
326 527 169 100 105 116 
327 526 169 105 111 122 
327 527 169 101 107 117 
326 526 170 122 129 141 
326 526 171 126 133 146 
326 527 170 106 112 124 
326 527 171 113 120 132 
325 527 173 99 104 115 
325 527 174 97 104 114 
325 527 175 98 104 115 
326 524 172 106 117 132 
326 524 173 110 119 132 
326 525 172 107 117 131 
326 525 173 104 112 124 
326 524 174 121 128 140 
326 524 175 113 120 132 
326 525 174 113 120 132 
326 525 175 112 119 130 
326 526 172 103 111 124 
326 526 173 98 105 116 
326 527 172 98 105 117 
326 527 173 97 103 114 
326 526 174 97 104 115 
326 526 175 98 105 116 
326 527 174 95 102 113 
326 527 175 97 103 114 
328 520 175 111 119 131 
327 520 176 103 112 124 
327 521 176 101 109 122 
327 521 177 99 106 118 
327 522 176 100 108 120 
327 522 177 99 106 117 
327 523 176 101 108 119 
327 523 177 100 105 115 
327 523 178 99 104 114 
327 523 179 98 103 113 
326 524 176 103 109 121 
326 525 176 103 110 121 
326 525 177 99 105 116 
327 524 176 101 107 118 
327 524 177 100 105 115 
327 525 177 100 106 116 
327 524 178 99 104 113 
327 524 179 100 105 114 
327 525 178 102 108 117 
327 525 179 108 113 123 
326 526 176 98 105 116 
326 526 177 97 103 114 
326 527 176 99 105 115 
326 527 177 100 105 116 
327 526 177 98 105 115 
326 527 178 101 107 118 
327 526 178 104 110 121 
327 526 179 119 125 136 
327 527 178 104 110 121 
327 527 179 114 120 132 
327 524 180 102 108 118 
327 525 180 116 121 132 
327 525 181 125 132 144 
327 525 182 127 135 149 
327 525 183 106 115 129 
327 526 180 136 142 155 
327 526 181 131 140 153 
327 527 180 135 142 154 
327 527 181 140 148 161 
327 526 182 130 139 154 
327 526 183 112 122 137 
327 527 182 141 149 164 
327 527 183 131 139 154 
327 523 190 136 143 157 
327 523 191 139 147 162 
327 525 184 102 110 123 
327 525 185 103 109 118 
327 525 187 104 109 120 
327 526 184 99 108 121 
327 526 185 101 107 117 
327 527 184 106 116 129 
327 527 185 102 109 121 
327 526 186 103 107 116 
327 526 187 105 109 119 
327 527 186 105 110 120 
327 527 187 105 110 119 
327 524 188 107 112 123 
327 524 189 124 129 141 
327 525 188 105 110 121 
327 525 189 110 117 129 
327 524 190 138 145 159 
327 524 191 137 148 163 
327 525 190 122 131 145 
327 525 191 132 144 160 
327 526 188 107 112 121 
327 526 189 104 110 121 
327 527 188 105 110 119 
327 527 189 101 106 118 
327 526 190 107 116 130 
327 526 191 126 136 152 
327 527 190 103 110 123 
327 527 191 117 126 139 
328 520 176 99 107 119 
328 520 177 99 107 118 
328 521 176 100 108 120 
328 521 177 100 107 119 
328 520 178 105 112 124 
328 520 179 110 118 130 
328 521 178 101 108 119 
328 521 179 102 110 121 
328 522 177 100 106 117 
328 522 178 100 107 117 
328 522 179 99 105 116 
328 523 178 99 104 115 
328 523 179 98 103 113 
328 520 180 109 118 130 
328 521 180 104 111 123 
328 521 181 103 110 121 
329 520 180 104 113 126 
329 520 181 101 110 122 
329 521 181 102 109 120 
329 520 182 104 111 122 
329 520 183 109 115 125 
329 521 182 103 109 119 
329 521 183 104 109 120 
328 522 180 99 105 115 
328 522 181 100 106 116 
328 523 180 98 104 113 
328 523 181 100 105 115 
328 522 182 101 106 115 
328 522 183 101 106 116 
328 523 182 100 106 117 
328 523 183 104 111 121 
328 524 180 105 111 121 
328 524 181 109 115 126 
328 525 181 126 132 144 
328 524 182 107 114 125 
328 524 183 109 116 128 
328 525 182 124 131 144 
328 525 183 112 121 134 
328 521 184 101 109 120 
328 521 185 103 111 123 
329 520 184 120 127 139 
329 520 185 127 134 147 
329 521 184 103 110 122 
329 521 185 104 113 126 
328 520 186 126 132 144 
328 520 187 128 133 145 
328 521 186 112 119 131 
328 521 187 116 122 134 
329 520 186 128 135 147 
329 520 187 135 140 152 
328 522 184 99 104 115 
328 522 185 97 104 115 
328 523 184 100 106 115 
328 523 185 99 105 115 
328 522 186 102 108 120 
328 522 187 104 111 122 
328 523 186 101 107 117 
328 523 187 103 108 119 
328 520 188 115 122 135 
328 520 189 103 110 121 
328 521 188 110 118 130 
328 521 189 102 109 122 
329 520 188 121 127 139 
329 520 189 104 111 122 
328 520 190 100 106 117 
328 520 191 100 106 117 
328 521 190 101 108 120 
328 521 191 100 108 120 
329 520 190 100 106 117 
329 520 191 100 106 116 
328 522 188 106 113 125 
328 522 189 107 113 125 
328 523 188 106 112 122 
328 523 189 117 123 134 
328 522 190 103 111 124 
328 522 191 106 115 130 
328 523 190 116 123 136 
328 523 191 127 135 149 
328 524 184 106 112 123 
328 524 185 102 108 118 
328 525 184 103 110 121 
328 525 185 103 109 119 
328 524 186 101 107 117 
328 524 187 101 107 118 
328 525 186 101 106 116 
328 525 187 102 108 118 
328 526 186 102 107 116 
328 524 188 109 114 124 
328 524 189 121 126 137 
326 528 169 102 108 119 
327 528 169 99 105 116 
327 529 169 102 108 118 
326 528 170 101 107 118 
326 528 171 99 107 119 
326 529 170 111 117 128 
326 529 171 104 112 123 
327 529 170 109 115 125 
327 530 169 105 110 120 
327 531 169 101 106 116 
326 530 170 127 132 143 
326 530 171 114 120 132 
326 531 170 117 122 133 
326 531 171 109 115 127 
327 530 170 119 124 134 
327 531 170 111 116 126 
325 528 173 99 105 115 
325 529 172 99 105 116 
325 529 173 98 104 115 
325 528 174 98 104 115 
325 528 175 99 105 115 
325 529 174 100 105 115 
325 529 175 100 105 115 
325 530 172 100 107 117 
325 530 173 97 103 113 
325 531 172 100 106 116 
325 531 173 98 103 112 
325 530 174 102 106 116 
325 530 175 110 113 123 
325 531 174 105 109 118 
325 531 175 118 121 130 
326 528 172 98 105 116 
326 528 173 98 104 114 
326 529 172 99 106 117 
327 532 169 99 105 114 
327 533 169 95 100 109 
326 532 170 99 105 115 
326 532 171 101 107 117 
326 533 171 96 101 111 
327 532 170 100 105 114 
327 533 170 94 99 109 
326 534 171 94 98 106 
326 535 171 92 97 105 
327 534 170 93 98 107 
327 534 171 94 99 108 
327 535 170 91 96 106 
327 535 171 91 96 106 
325 532 172 101 105 114 
325 532 173 98 103 112 
325 533 172 99 104 113 
325 533 173 98 103 112 
325 532 174 105 109 118 
325 532 175 119 122 131 
325 533 174 100 105 113 
325 533 175 109 113 122 
325 534 172 97 102 111 
325 534 173 99 103 111 
325 535 173 96 100 108 
325 534 174 97 101 110 
325 534 175 99 103 112 
325 535 174 96 101 110 
325 535 175 98 103 112 
326 532 172 101 106 115 
326 533 172 97 102 112 
326 534 172 95 99 108 
326 535 172 94 98 107 
327 536 170 91 96 106 
327 536 171 89 95 105 
327 537 171 90 96 105 
327 538 171 92 97 106 
325 536 173 93 98 106 
325 537 173 93 99 108 
324 537 175 99 105 115 
325 536 174 93 98 108 
325 536 175 96 101 111 
325 537 174 94 100 109 
325 537 175 96 101 110 
324 538 175 103 107 116 
324 539 175 97 102 112 
325 538 174 94 100 109 
325 538 175 98 102 111 
325 539 174 93 99 110 
325 539 175 95 100 109 
326 536 172 91 96 105 
326 536 173 92 97 106 
326 537 172 91 96 106 
326 537 173 93 98 107 
327 537 172 89 94 104 
326 538 173 100 105 114 
327 538 172 98 103 112 
327 538 173 119 122 132 
327 539 173 124 128 138 
326 538 174 94 100 110 
326 539 174 108 114 124 
325 540 175 89 96 107 
325 541 175 87 96 107 
325 542 175 90 97 108 
327 540 173 120 126 137 
327 541 173 118 126 139 
326 540 174 105 112 124 
326 541 174 103 113 126 
326 541 175 95 105 118 
327 540 174 115 122 133 
327 541 174 110 120 134 
326 542 175 103 112 124 
326 543 175 106 112 124 
327 542 174 110 119 133 
327 542 175 111 119 133 
327 543 174 107 115 128 
327 543 175 111 118 130 
328 532 169 98 103 112 
328 533 169 97 101 110 
328 534 169 94 99 108 
328 535 169 92 98 108 
328 534 170 92 97 106 
328 535 170 90 95 105 
328 536 169 92 98 107 
328 537 169 90 96 106 
329 537 169 89 96 106 
328 536 170 90 95 104 
328 537 170 91 97 106 
328 537 171 93 98 107 
329 538 169 95 101 113 
329 539 169 102 110 122 
328 538 170 90 98 109 
328 538 171 94 101 110 
328 539 171 99 106 117 
329 538 170 96 104 115 
329 539 170 108 116 129 
329 539 171 105 113 126 
328 538 172 102 107 116 
328 539 172 110 114 124 
329 540 169 112 119 131 
329 541 169 120 126 138 
329 540 170 114 123 136 
329 540 171 116 125 138 
329 541 170 119 127 140 
329 541 171 111 121 135 
329 542 169 114 120 131 
329 543 169 111 117 127 
329 542 170 123 130 143 
329 542 171 113 123 137 
329 543 170 125 131 142 
329 543 171 118 126 139 
328 540 172 122 129 141 
328 540 173 123 129 140 
328 541 172 116 126 140 
328 541 173 111 120 134 
329 540 172 117 125 138 
329 541 172 107 117 132 
328 541 174 107 117 130 
328 542 173 97 107 120 
328 543 173 90 98 110 
329 542 172 104 114 129 
329 542 173 99 109 124 
329 543 172 100 111 125 
329 543 173 92 103 117 
328 542 174 100 109 121 
328 543 174 95 102 114 
325 528 176 99 105 115 
325 529 176 99 104 114 
325 529 177 99 104 114 
325 530 176 110 114 124 
325 530 177 105 110 120 
325 531 176 121 125 135 
325 531 177 112 117 127 
325 531 178 105 110 120 
326 528 176 100 105 114 
326 528 177 100 106 115 
326 529 177 99 105 115 
326 528 178 101 107 118 
326 528 179 102 109 120 
326 529 178 100 106 116 
326 529 179 100 106 117 
327 528 179 106 113 124 
327 529 179 101 108 119 
326 530 177 100 105 115 
326 530 178 100 105 114 
326 530 179 100 104 114 
326 531 178 102 107 116 
326 531 179 98 103 112 
326 529 180 100 107 118 
326 529 181 98 105 116 
327 528 180 120 127 139 
327 528 181 123 131 145 
327 529 180 106 113 125 
327 529 181 105 113 126 
326 529 182 100 108 120 
327 528 182 129 138 152 
327 528 183 133 141 155 
327 529 182 107 115 129 
327 529 183 109 117 130 
326 530 180 98 103 113 
326 530 181 97 103 113 
326 531 180 97 103 112 
326 531 181 100 106 115 
326 530 182 98 105 116 
326 530 183 99 106 116 
326 531 182 100 105 116 
326 531 183 103 108 119 
327 530 183 100 106 118 
325 532 176 124 129 138 
325 532 177 112 118 128 
325 533 176 113 117 128 
325 533 177 108 113 124 
325 532 178 101 107 117 
325 532 179 98 104 114 
325 533 178 98 104 115 
325 533 179 96 103 113 
324 535 176 104 110 121 
324 535 177 110 115 126 
325 534 176 100 105 115 
325 534 177 101 107 118 
325 535 176 101 107 117 
324 535 178 110 115 125 
324 535 179 105 111 121 
325 534 178 99 105 115 
325 534 179 98 103 114 
325 535 178 106 111 121 
325 535 179 103 109 119 
326 532 179 96 102 112 
325 533 180 97 103 113 
325 533 181 100 104 114 
325 533 182 104 108 118 
325 533 183 104 109 120 
325 534 180 98 104 114 
325 534 181 100 105 115 
325 535 180 102 107 117 
325 535 181 101 106 116 
325 534 182 103 108 118 
325 534 183 101 107 118 
325 535 182 101 107 118 
325 535 183 100 107 119 
326 532 180 97 103 113 
326 532 181 100 106 115 
326 533 180 98 103 113 
326 533 181 100 105 115 
326 532 182 102 108 118 
326 532 183 105 111 121 
326 533 182 104 109 119 
326 533 183 105 110 121 
323 535 191 99 104 113 
327 528 184 113 121 134 
327 528 185 104 112 123 
327 529 184 103 110 123 
327 529 185 99 105 116 
327 528 186 104 109 120 
327 528 187 105 110 120 
327 529 186 99 105 115 
327 529 187 102 108 118 
326 530 184 101 106 115 
326 530 185 98 104 114 
326 531 184 117 121 131 
326 531 185 116 121 131 
327 530 184 99 104 115 
326 530 186 98 104 114 
326 530 187 101 107 117 
326 531 186 107 113 124 
326 531 187 103 108 119 
325 531 191 140 147 160 
326 529 188 103 108 119 
326 529 189 100 106 117 
327 528 188 104 109 120 
327 528 189 102 108 118 
327 529 188 103 109 119 
327 529 189 101 107 117 
326 528 191 108 115 127 
326 529 190 100 106 117 
326 529 191 101 108 119 
327 528 190 102 109 120 
327 528 191 109 117 129 
327 529 190 101 107 118 
326 530 188 102 108 118 
326 530 189 99 105 116 
326 531 188 101 106 116 
326 531 189 99 104 114 
326 530 190 100 108 120 
326 530 191 107 115 128 
326 531 190 117 123 134 
326 531 191 127 134 147 
325 533 184 106 113 124 
325 533 185 104 112 125 
325 533 186 103 111 124 
325 533 187 101 108 119 
325 534 184 101 107 118 
325 534 185 97 105 117 
325 535 184 99 106 117 
325 535 185 98 105 116 
324 535 186 101 108 119 
324 535 187 99 104 115 
325 534 186 97 105 117 
325 534 187 97 104 115 
325 535 186 98 106 117 
325 535 187 99 105 116 
326 532 184 134 138 148 
326 532 185 139 144 156 
326 533 184 120 125 137 
326 533 185 121 128 141 
326 532 186 125 131 143 
326 532 187 109 114 125 
326 533 186 115 123 135 
326 533 187 106 113 124 
325 532 189 102 107 117 
325 533 188 100 105 115 
325 533 189 100 105 115 
324 533 191 101 107 117 
325 532 190 116 122 133 
325 532 191 128 135 148 
325 533 190 102 108 119 
325 533 191 109 115 127 
324 534 189 98 103 113 
324 535 188 98 103 113 
324 535 189 100 104 114 
325 534 188 96 102 112 
325 534 189 98 104 114 
324 534 190 99 104 113 
324 534 191 98 103 113 
324 535 190 99 104 114 
324 535 191 99 104 114 
326 532 188 101 106 116 
326 532 189 100 105 115 
326 532 190 112 117 128 
323 539 180 100 105 115 
323 539 181 101 107 117 
323 538 182 124 131 143 
323 538 183 130 138 152 
323 539 182 103 110 121 
323 539 183 104 113 126 
323 540 179 98 103 114 
323 541 178 95 101 110 
323 541 179 96 101 112 
323 542 178 96 102 112 
323 542 179 103 110 121 
323 543 178 103 109 120 
323 543 179 115 122 135 
323 540 180 98 103 113 
323 540 181 99 104 115 
323 541 180 96 102 112 
323 541 181 95 101 113 
322 541 182 102 108 119 
322 541 183 99 104 115 
323 540 182 97 103 115 
323 540 183 94 101 112 
323 541 182 96 102 114 
323 541 183 96 102 113 
322 542 180 109 115 127 
322 542 181 103 110 122 
322 543 180 120 128 140 
322 543 181 116 123 136 
323 542 180 105 111 123 
323 543 180 118 125 138 
322 542 182 105 112 123 
322 542 183 100 106 116 
322 543 182 100 107 119 
322 543 183 94 100 110 
324 536 176 111 116 127 
324 536 177 125 130 141 
324 537 176 111 116 127 
324 537 177 118 124 135 
324 536 178 117 123 134 
324 536 179 104 111 121 
324 537 178 110 117 128 
324 537 179 102 109 120 
324 538 176 109 114 125 
324 538 177 111 117 128 
324 539 176 101 106 116 
324 539 177 105 110 120 
324 538 178 105 112 123 
324 538 179 102 108 119 
324 539 178 104 110 120 
324 539 179 102 108 118 
324 536 180 102 108 119 
324 536 181 106 112 123 
324 537 180 102 108 118 
324 537 181 111 118 130 
325 536 180 102 108 119 
325 536 181 103 109 119 
324 536 182 126 131 143 
324 536 183 135 142 154 
324 537 182 138 144 157 
324 537 183 146 155 170 
325 536 182 109 116 127 
325 536 183 111 118 130 
324 538 180 102 108 117 
324 538 181 107 114 125 
324 539 180 103 108 118 
324 538 182 126 132 145 
324 538 183 142 151 165 
324 540 176 93 100 110 
324 540 177 95 100 110 
324 541 176 93 99 109 
324 541 177 94 100 109 
325 541 176 91 98 108 
324 540 178 97 102 112 
324 541 178 95 100 109 
324 542 177 95 100 109 
324 543 177 94 99 108 
325 542 176 91 97 107 
325 543 176 90 95 103 
325 543 177 90 95 103 
324 542 178 98 103 113 
326 543 176 93 98 107 
323 537 185 130 140 156 
323 537 186 129 137 151 
323 537 187 100 109 122 
323 538 184 133 144 159 
323 538 185 131 141 156 
323 539 184 110 119 133 
323 539 185 119 128 142 
322 539 186 108 116 129 
322 539 187 98 107 120 
323 538 186 130 140 154 
323 538 187 107 116 130 
323 539 186 115 124 138 
323 539 187 106 115 129 
323 536 189 100 106 116 
323 537 188 98 105 116 
323 537 189 101 108 119 
323 536 190 100 106 117 
323 536 191 102 107 117 
323 537 190 102 108 119 
323 537 191 102 107 117 
322 538 189 100 105 116 
322 539 188 96 103 114 
322 539 189 99 105 115 
323 538 188 94 101 113 
323 538 189 98 105 116 
322 538 190 100 106 116 
322 538 191 101 106 116 
322 539 190 101 106 118 
322 539 191 105 112 124 
323 538 190 101 107 118 
321 543 185 98 103 113 
321 542 187 104 110 121 
321 543 186 101 106 117 
321 543 187 102 108 119 
322 540 184 100 106 117 
322 540 185 102 109 120 
322 541 184 99 104 114 
322 541 185 99 105 115 
323 540 184 99 105 116 
323 540 185 104 111 124 
322 540 186 100 108 119 
322 540 187 97 104 115 
322 541 186 97 103 113 
322 541 187 99 105 115 
322 542 184 98 103 114 
322 542 185 99 105 115 
322 543 184 93 99 109 
322 543 185 98 104 115 
322 542 186 100 106 116 
322 542 187 104 110 121 
321 541 188 134 139 151 
321 541 189 129 137 150 
321 541 190 128 137 152 
321 541 191 123 134 150 
321 542 188 121 128 140 
321 542 189 130 137 151 
321 543 188 105 113 126 
321 543 189 126 135 149 
320 543 191 106 120 140 
321 542 190 121 132 148 
321 542 191 122 134 151 
321 543 190 118 129 145 
321 543 191 109 123 141 
322 540 188 95 102 113 
322 540 189 103 110 121 
322 541 188 110 116 127 
322 541 189 116 124 136 
322 540 190 106 114 128 
322 540 191 109 119 134 
322 541 190 119 127 142 
324 536 184 123 131 145 
324 536 185 105 114 127 
324 537 184 139 149 165 
324 537 185 121 132 148 
325 536 184 110 118 131 
324 536 186 106 112 123 
324 536 187 100 106 116 
324 537 186 120 127 139 
324 537 187 107 114 125 
324 536 188 98 103 114 
324 536 189 98 104 114 
324 536 190 98 104 114 
327 544 175 96 103 112 
327 552 169 112 117 128 
327 553 169 115 121 133 
327 552 170 111 117 128 
327 552 171 110 116 127 
327 553 170 114 120 132 
327 553 171 114 120 132 
326 555 169 119 126 139 
327 554 169 117 124 136 
326 555 170 116 122 134 
326 555 171 117 122 134 
327 554 170 116 123 135 
327 554 171 117 123 135 
327 555 170 116 123 135 
327 555 171 117 123 135 
327 552 172 110 116 128 
327 552 173 109 114 125 
327 553 172 113 119 131 
327 553 173 112 117 129 
327 552 174 106 111 122 
327 552 175 106 111 121 
327 553 174 110 115 126 
327 553 175 110 115 125 
326 555 172 124 129 141 
326 555 173 125 132 145 
327 554 172 116 122 133 
327 554 173 112 118 130 
327 555 172 119 124 136 
327 555 173 120 126 140 
326 555 174 127 134 148 
326 555 175 138 144 158 
327 554 174 110 117 129 
327 554 175 110 116 129 
327 555 174 119 125 138 
327 555 175 118 125 138 
325 558 169 107 112 123 
325 559 169 100 105 116 
325 558 170 111 118 129 
325 558 171 117 124 136 
325 559 170 108 113 124 
325 559 171 118 124 135 
326 556 169 116 123 135 
326 557 169 110 115 127 
326 556 170 115 121 132 
326 556 171 116 122 133 
326 557 170 112 118 131 
326 557 171 115 121 134 
325 558 172 123 131 144 
325 558 173 131 140 156 
325 559 172 133 139 151 
325 559 173 133 140 154 
325 558 174 131 139 158 
325 558 175 131 142 159 
325 559 174 124 132 150 
325 559 175 121 131 150 
326 556 172 122 128 141 
326 556 173 125 133 148 
326 557 172 121 128 142 
326 557 173 122 132 148 
326 556 174 131 140 156 
326 556 175 140 149 164 
326 557 174 127 138 155 
326 557 175 129 140 158 
326 558 174 131 141 158 
326 558 175 131 142 160 
329 544 169 105 111 122 
329 545 169 104 110 122 
329 544 170 110 118 129 
329 544 171 110 117 130 
329 545 170 98 106 118 
329 545 171 95 103 116 
328 547 169 111 118 129 
329 546 169 105 112 124 
329 547 169 113 120 132 
328 547 170 124 130 142 
329 546 170 107 115 127 
329 546 171 103 110 122 
329 547 170 117 124 136 
329 547 171 117 124 135 
328 544 173 90 96 107 
328 545 173 94 100 110 
329 544 172 94 104 117 
329 544 173 88 97 109 
329 545 172 93 101 113 
329 545 173 92 100 111 
328 544 174 87 94 104 
328 544 175 88 94 104 
328 545 174 91 97 107 
328 545 175 86 92 101 
328 546 173 95 101 112 
329 546 172 100 106 118 
329 546 173 97 103 114 
329 547 172 106 112 123 
329 547 173 100 105 115 
328 546 174 94 100 109 
328 546 175 93 98 107 
328 547 175 93 99 108 
329 546 174 94 100 111 
329 547 174 96 102 111 
328 548 169 114 120 132 
328 549 169 104 111 122 
328 548 170 126 132 144 
328 548 171 121 127 138 
328 549 170 106 113 125 
328 549 171 103 111 122 
329 548 171 123 129 140 
328 550 169 102 108 118 
328 551 169 107 112 123 
328 550 170 105 111 123 
328 550 171 105 111 123 
328 551 170 110 115 126 
328 551 171 108 114 125 
328 548 172 109 115 126 
328 548 173 102 108 119 
328 549 172 102 108 119 
328 549 173 102 108 119 
329 548 172 111 117 128 
329 548 173 102 108 118 
329 549 173 101 107 117 
328 548 175 94 99 108 
328 549 174 99 104 114 
328 549 175 96 101 111 
329 548 174 99 104 113 
329 549 174 98 103 113 
328 550 172 104 111 122 
328 550 173 102 108 119 
328 551 172 104 110 121 
328 551 173 100 107 117 
328 550 174 99 105 115 
328 550 175 99 104 114 
328 551 174 99 105 115 
328 551 175 101 106 116 
328 552 169 111 116 127 
328 552 170 112 117 127 
328 552 171 109 115 126 
328 552 172 107 113 124 
328 552 173 105 111 121 
328 552 174 104 109 119 
328 552 175 104 109 120 
323 544 178 113 121 133 
323 544 179 127 136 151 
323 545 178 130 137 149 
323 545 179 134 142 156 
323 546 179 126 134 147 
323 547 179 116 124 136 
321 544 183 90 97 108 
321 545 182 107 115 128 
321 545 183 94 100 111 
321 546 182 103 111 122 
321 546 183 95 101 112 
321 547 182 92 100 111 
321 547 183 91 97 107 
322 544 180 122 132 148 
322 544 181 112 122 137 
322 545 180 128 138 153 
322 545 181 123 132 146 
323 545 180 130 139 154 
322 544 182 95 106 119 
322 544 183 90 97 108 
322 545 182 110 119 132 
322 546 180 125 134 148 
322 546 181 122 131 144 
322 547 181 101 110 123 
323 546 180 125 134 148 
323 547 180 111 119 132 
322 546 182 118 125 138 
322 547 182 93 101 113 
321 548 183 88 94 104 
321 549 183 96 102 112 
322 548 181 90 97 108 
323 548 180 93 99 110 
323 548 181 86 93 103 
323 549 181 82 89 99 
322 548 182 87 94 105 
322 548 183 87 93 104 
322 549 182 85 92 102 
322 549 183 95 100 111 
323 549 182 83 89 99 
322 550 183 105 109 119 
323 550 182 81 87 96 
323 550 183 87 92 101 
323 551 183 82 87 96 
324 544 177 94 99 107 
324 545 177 93 98 108 
325 544 176 90 93 101 
325 544 177 88 92 100 
325 545 177 84 90 99 
324 544 178 106 112 123 
324 545 178 103 109 119 
325 546 177 83 88 97 
324 546 178 105 111 121 
324 547 179 98 105 117 
325 546 178 86 91 100 
325 547 178 80 86 96 
325 547 179 82 89 99 
326 544 176 89 94 103 
326 544 177 85 90 99 
326 545 176 83 89 98 
326 545 177 82 88 97 
327 544 176 86 91 101 
327 545 176 85 91 100 
326 546 177 81 88 97 
326 547 177 84 90 100 
327 546 176 88 94 102 
327 546 177 87 92 102 
327 547 177 97 102 111 
326 547 178 83 90 100 
324 547 180 97 104 115 
324 548 179 90 98 109 
325 548 179 80 87 97 
327 548 177 116 119 129 
326 548 178 88 95 106 
326 548 179 87 94 104 
326 549 179 92 98 108 
327 548 178 107 112 122 
327 549 178 114 120 130 
327 549 179 104 111 121 
327 550 178 108 114 125 
327 550 179 99 106 117 
327 551 178 109 115 126 
327 551 179 105 112 123 
324 548 180 85 92 102 
324 549 181 81 87 96 
325 548 180 81 88 98 
325 549 180 81 88 97 
325 549 181 79 85 94 
324 550 181 78 84 92 
325 550 181 78 84 93 
324 550 182 78 84 92 
324 551 183 79 84 92 
325 550 182 78 83 92 
325 551 182 80 85 93 
325 551 183 82 86 94 
326 549 180 88 94 104 
326 550 180 91 97 107 
326 550 181 83 89 99 
326 551 181 93 100 110 
327 550 180 98 104 115 
327 551 180 107 113 123 
327 551 181 109 114 125 
326 551 182 82 89 99 
321 544 184 94 99 108 
321 544 185 96 101 110 
321 545 184 95 99 108 
321 545 185 95 99 108 
320 545 187 93 98 108 
321 544 186 99 104 114 
321 544 187 100 105 115 
321 545 186 96 100 109 
321 545 187 96 100 110 
320 547 185 91 96 104 
321 546 184 92 97 105 
321 546 185 93 97 106 
321 547 184 92 97 106 
321 547 185 92 96 105 
320 546 186 92 97 106 
320 546 187 91 97 106 
320 547 186 89 94 103 
320 547 187 90 95 105 
321 546 186 93 98 107 
322 544 184 93 98 107 
320 544 188 105 112 125 
320 544 189 125 132 145 
320 545 188 96 101 112 
320 545 189 110 116 127 
321 544 188 102 110 122 
321 544 189 127 134 148 
320 544 190 127 136 150 
320 544 191 107 120 137 
320 545 190 124 130 141 
320 545 191 105 113 126 
321 544 190 121 132 147 
320 546 188 91 97 107 
320 546 189 96 102 112 
320 547 188 86 92 103 
320 547 189 89 94 104 
320 546 190 104 110 120 
320 546 191 97 104 115 
320 547 190 92 98 108 
320 548 185 92 97 107 
320 549 185 93 98 107 
321 548 184 94 99 109 
321 549 184 102 107 117 
320 548 186 90 94 103 
320 548 187 89 95 104 
320 549 186 90 95 103 
320 549 187 93 97 106 
320 550 185 97 102 112 
320 551 185 94 100 109 
321 550 184 114 119 129 
321 550 185 108 113 123 
321 551 185 98 104 114 
320 550 186 89 93 102 
320 550 187 88 92 99 
320 551 186 89 94 102 
320 551 187 86 90 98 
322 550 184 112 116 125 
322 551 184 99 105 115 
322 551 185 93 100 110 
323 551 184 89 94 104 
320 548 188 85 92 103 
320 551 188 84 88 97 
324 551 184 78 84 93 
327 552 176 103 110 121 
327 552 177 107 114 125 
327 553 176 108 114 125 
327 553 177 111 117 129 
327 552 178 111 118 129 
327 552 179 123 129 141 
327 553 178 116 123 135 
327 553 179 126 133 145 
326 555 176 123 131 144 
326 555 177 108 117 130 
327 554 176 112 118 130 
327 554 177 115 122 134 
327 555 176 110 118 131 
327 555 177 112 119 131 
326 555 178 111 117 129 
326 555 179 115 120 131 
327 554 178 120 127 139 
327 554 179 125 131 143 
327 555 178 115 120 131 
327 555 179 116 121 133 
324 552 183 82 88 96 
325 552 183 83 88 96 
325 553 183 85 91 101 
326 552 181 98 106 117 
327 552 180 131 136 147 
327 552 181 117 122 133 
327 553 180 126 132 144 
327 553 181 107 114 125 
326 552 182 87 95 105 
326 552 183 84 90 100 
326 553 182 92 99 110 
326 553 183 86 93 104 
326 554 181 100 108 119 
326 555 180 115 120 131 
326 555 181 108 114 126 
327 554 180 118 125 137 
327 554 181 105 112 124 
327 555 180 118 124 136 
326 554 182 96 103 115 
326 554 183 89 97 109 
326 555 182 101 109 121 
326 555 183 94 103 115 
325 558 176 127 139 156 
325 558 177 123 134 150 
325 559 176 118 130 147 
325 559 177 125 134 149 
325 558 178 117 127 141 
325 558 179 112 120 133 
325 559 178 123 131 144 
325 559 179 116 122 134 
326 556 176 133 142 157 
326 556 177 113 123 138 
326 557 176 127 139 156 
326 557 177 118 129 146 
326 556 178 109 116 130 
326 556 179 113 120 131 
326 557 178 110 120 135 
326 557 179 111 119 132 
326 558 176 127 138 155 
326 558 177 123 134 150 
325 557 180 114 120 133 
325 557 181 116 122 134 
325 556 183 110 118 131 
325 557 182 123 129 140 
325 557 183 118 125 138 
324 559 180 115 119 129 
324 559 181 121 126 136 
325 558 180 110 117 129 
325 558 181 119 125 136 
325 559 180 112 118 129 
325 559 181 122 127 138 
324 559 182 131 136 149 
324 559 183 140 147 161 
325 558 182 128 134 146 
325 558 183 130 136 149 
325 559 182 132 137 149 
325 559 183 140 146 160 
326 556 180 115 121 132 
326 556 181 113 118 129 
326 557 180 115 121 133 
326 557 181 119 124 135 
326 556 182 114 120 131 
326 556 183 108 116 129 
326 557 182 120 125 137 
321 552 185 87 94 104 
320 552 187 86 91 99 
321 552 186 87 93 102 
321 552 187 85 90 99 
321 553 186 84 90 100 
321 553 187 84 89 98 
322 552 185 83 91 101 
323 552 184 82 89 100 
323 552 185 82 90 101 
323 553 185 87 95 106 
322 552 186 83 91 101 
322 553 186 84 91 101 
322 553 187 86 92 102 
323 553 186 89 96 107 
322 554 187 89 94 104 
323 554 186 93 100 110 
323 554 187 94 100 109 
320 552 188 85 90 99 
320 553 188 85 90 99 
320 553 189 84 89 97 
321 553 188 84 89 97 
320 554 189 83 88 96 
321 554 188 82 87 96 
321 554 189 81 87 95 
321 555 189 79 85 94 
320 554 190 84 89 97 
320 555 190 81 86 94 
320 555 191 83 87 95 
321 555 190 78 84 92 
322 554 188 87 93 102 
322 554 189 82 87 97 
322 555 189 80 86 95 
323 554 188 95 100 110 
323 555 188 92 98 108 
323 555 189 84 91 101 
320 556 191 80 85 93 
321 556 190 77 84 93 
321 556 191 80 86 94 
323 556 189 81 88 97 
322 556 190 78 85 95 
322 556 191 84 90 100 
322 557 191 92 97 107 
323 556 190 80 87 96 
323 557 190 86 92 102 
323 557 191 87 93 103 
323 559 189 103 108 117 
323 558 190 91 96 105 
323 558 191 88 94 104 
323 559 190 99 104 113 
323 559 191 94 99 109 
324 552 184 83 89 98 
324 553 184 96 102 112 
324 553 185 94 102 113 
325 553 184 88 95 106 
325 553 185 102 109 120 
324 553 186 100 107 118 
324 554 185 95 101 112 
325 554 184 88 96 107 
325 554 185 93 100 111 
325 555 184 95 102 112 
325 555 185 92 99 109 
324 554 186 98 104 114 
324 555 186 90 97 106 
324 555 187 92 98 108 
326 554 184 90 98 109 
326 555 184 93 101 113 
324 555 188 92 97 107 
325 556 184 103 111 122 
325 556 185 99 105 116 
325 557 184 113 120 133 
325 557 185 109 116 126 
324 556 186 90 96 107 
324 556 187 89 95 105 
324 557 187 95 101 111 
325 556 186 94 101 111 
325 557 186 101 107 117 
324 559 184 142 150 164 
324 559 185 131 139 153 
325 558 184 125 133 146 
325 558 185 116 123 135 
325 559 184 139 146 160 
325 559 185 121 129 143 
324 558 186 104 111 122 
324 558 187 99 105 116 
324 559 186 108 116 130 
324 559 187 101 108 121 
325 558 186 107 113 124 
324 556 188 88 94 104 
324 556 189 88 94 104 
324 557 188 92 98 107 
324 557 189 91 96 106 
324 558 188 98 104 114 
324 558 189 99 104 113 
324 559 188 102 108 119 
324 559 189 103 108 118 
324 558 190 96 101 110 
328 545 176 85 91 99 
328 546 176 93 98 107 
328 547 176 94 99 108 
328 547 177 103 108 117 
328 548 176 94 100 109 
328 548 177 114 119 128 
328 549 176 96 102 111 
328 549 177 113 117 127 
328 549 178 123 127 137 
328 550 176 99 104 114 
328 550 177 104 109 119 
328 551 176 102 107 117 
328 551 177 105 111 121 
328 550 178 110 115 126 
328 551 178 108 114 125 
328 552 176 103 109 119 
328 552 177 105 112 123 
328 552 178 110 116 127 
323 563 172 99 104 114 
323 563 173 103 109 119 
322 563 175 103 111 123 
323 562 174 110 117 129 
323 562 175 122 128 140 
323 563 174 107 113 125 
323 563 175 108 115 127 
323 564 169 90 95 105 
323 565 169 92 99 110 
323 564 170 94 98 107 
323 564 171 96 100 109 
323 565 170 91 97 106 
323 565 171 93 98 107 
323 566 169 103 110 123 
323 567 169 120 127 139 
323 566 170 92 99 109 
323 566 171 93 99 108 
323 567 170 101 108 119 
323 567 171 93 98 108 
321 565 174 129 134 146 
321 565 175 125 131 143 
321 567 173 94 99 108 
320 566 175 105 110 121 
320 567 175 103 108 118 
321 566 174 114 120 131 
321 566 175 116 121 132 
321 567 174 99 104 114 
322 565 173 105 110 120 
323 564 172 98 102 111 
323 564 173 105 109 118 
323 565 172 96 100 109 
323 565 173 103 106 116 
322 564 174 111 116 128 
322 564 175 107 114 126 
322 565 174 116 122 133 
322 565 175 121 127 139 
323 564 174 108 114 124 
322 566 173 96 102 112 
322 567 172 89 94 104 
322 567 173 91 96 106 
323 566 172 93 98 108 
323 567 172 90 95 104 
322 566 174 100 106 117 
324 561 169 99 105 114 
325 560 169 97 103 113 
324 561 170 102 108 118 
324 561 171 103 108 119 
325 560 170 103 108 119 
325 560 171 105 111 122 
324 562 169 95 102 112 
324 563 169 92 98 109 
324 562 170 99 104 114 
324 562 171 100 104 114 
324 563 170 96 101 111 
324 563 171 98 103 112 
324 560 173 125 131 144 
324 561 172 102 109 121 
324 561 173 111 119 133 
325 560 172 115 120 132 
325 560 173 132 138 150 
324 560 174 132 139 154 
324 560 175 117 127 145 
324 561 174 127 135 149 
324 561 175 128 136 150 
325 560 174 129 136 152 
325 560 175 113 123 142 
324 562 172 99 104 115 
324 562 173 100 107 119 
324 563 172 98 103 113 
324 563 173 99 105 115 
324 562 174 115 122 135 
324 564 169 90 95 106 
324 564 170 93 98 107 
324 564 171 96 100 109 
321 571 169 118 123 135 
321 571 170 109 116 128 
321 571 171 100 108 120 
322 568 169 120 127 139 
322 569 169 108 115 127 
323 568 169 115 122 134 
322 568 170 102 109 120 
322 568 171 92 98 108 
322 569 170 99 106 117 
322 569 171 91 97 108 
323 568 170 106 113 124 
322 570 169 108 115 127 
322 571 169 114 120 132 
322 570 170 99 107 119 
322 570 171 93 100 112 
322 571 170 104 112 124 
322 571 171 96 104 116 
321 568 173 93 97 106 
321 569 173 91 95 105 
320 568 175 100 104 113 
320 569 174 93 97 106 
320 569 175 97 101 110 
321 568 174 99 103 112 
321 569 174 93 97 106 
321 570 172 88 95 106 
321 570 173 91 97 107 
321 571 172 91 99 110 
321 571 173 88 95 107 
320 570 174 96 100 109 
320 570 175 96 100 109 
320 571 174 92 97 107 
320 571 175 94 98 107 
321 570 174 93 99 108 
321 571 174 92 97 107 
322 568 172 90 95 104 
322 568 173 90 94 103 
322 569 172 91 96 105 
322 569 173 91 96 105 
322 570 172 88 96 107 
320 573 169 121 126 138 
321 572 169 125 131 142 
320 573 170 125 131 143 
320 573 171 118 125 138 
321 572 170 121 127 139 
321 572 171 115 122 134 
320 574 169 109 115 125 
320 574 170 114 120 132 
320 574 171 112 119 132 
320 573 172 110 118 132 
320 573 173 94 102 115 
321 572 172 102 111 124 
321 572 173 88 96 109 
321 573 173 87 96 109 
320 572 174 88 95 106 
320 572 175 91 96 107 
320 573 174 89 96 107 
321 572 174 88 94 105 
320 574 172 101 110 123 
320 574 173 93 101 113 
320 574 174 88 95 106 
323 561 176 112 120 135 
323 561 177 105 112 126 
323 561 178 106 113 125 
323 561 179 109 115 126 
322 563 176 102 109 121 
322 563 177 103 108 118 
323 562 176 111 118 130 
323 562 177 105 112 123 
323 563 176 108 114 126 
322 563 178 103 108 118 
322 563 179 106 111 121 
323 562 178 106 112 123 
323 562 179 109 113 124 
323 561 180 110 115 126 
323 561 181 110 116 128 
323 561 182 112 119 132 
322 563 180 109 115 125 
322 563 181 109 113 123 
323 562 180 108 113 123 
323 562 181 108 114 125 
322 563 182 101 107 118 
322 563 183 101 107 119 
323 562 182 109 115 127 
323 562 183 113 122 135 
323 563 182 106 111 121 
323 563 183 105 111 123 
320 565 176 102 108 119 
320 565 177 99 105 116 
321 564 176 100 106 117 
321 564 177 100 106 116 
321 565 176 108 114 124 
321 565 177 100 105 116 
320 565 178 100 105 115 
320 565 179 101 105 114 
321 564 178 100 106 116 
321 564 179 108 113 123 
321 565 178 101 106 116 
321 565 179 105 108 118 
320 566 176 104 110 120 
320 566 177 98 104 115 
320 567 176 101 107 117 
320 566 178 100 104 115 
322 564 176 101 107 119 
322 564 177 100 106 116 
320 565 180 118 121 130 
320 565 181 126 131 141 
321 564 180 117 121 130 
321 564 181 116 121 131 
321 565 180 125 128 137 
321 565 181 125 129 139 
320 565 182 113 118 129 
321 564 182 107 114 126 
321 564 183 101 108 120 
321 565 182 111 116 127 
321 565 183 100 107 119 
320 566 180 131 134 143 
320 566 181 126 130 141 
320 566 182 111 117 128 
320 566 183 104 112 124 
322 564 180 117 120 130 
322 564 181 110 115 126 
322 564 182 101 108 120 
322 564 183 100 107 119 
324 560 176 111 122 139 
324 560 177 119 128 143 
324 561 176 112 122 137 
324 561 177 107 116 131 
325 560 176 110 122 138 
324 560 178 129 135 147 
324 560 179 122 128 140 
324 561 178 114 121 134 
324 561 179 115 121 133 
324 560 180 115 120 131 
324 560 181 120 124 135 
324 561 180 113 118 129 
324 561 181 112 118 129 
324 560 182 130 137 149 
324 560 183 144 151 166 
324 561 182 121 128 141 
324 561 183 136 144 159 
323 561 186 132 141 155 
323 561 187 116 124 137 
322 563 184 104 110 122 
322 563 185 109 115 126 
323 562 184 122 131 146 
323 562 185 123 131 145 
323 563 184 107 114 126 
323 563 185 110 116 128 
322 563 186 113 118 129 
322 563 187 116 121 132 
323 562 186 120 128 141 
323 562 187 113 121 134 
323 563 186 112 118 130 
323 563 187 112 118 130 
323 560 189 106 111 121 
323 561 188 106 113 125 
323 561 189 105 111 122 
323 560 190 105 109 118 
323 560 191 100 105 114 
323 561 190 106 111 120 
323 561 191 104 108 117 
322 563 188 114 119 131 
322 563 189 108 114 126 
323 562 188 105 112 125 
323 562 189 106 112 123 
323 563 188 109 115 127 
323 563 189 108 114 125 
322 562 191 107 112 122 
322 563 190 107 113 124 
322 563 191 104 110 122 
323 562 190 106 111 121 
323 562 191 106 110 120 
321 565 184 98 105 117 
321 565 185 98 103 116 
321 565 186 100 106 117 
321 565 187 104 110 121 
320 566 184 101 108 120 
320 566 185 97 104 116 
321 566 184 98 105 117 
321 566 185 97 104 116 
320 566 186 95 102 115 
320 566 187 94 101 113 
320 567 186 94 101 113 
320 567 187 95 100 111 
321 566 186 94 102 114 
322 564 184 101 108 120 
322 564 185 103 109 121 
322 565 184 98 105 117 
322 565 185 99 105 117 
322 564 186 108 113 124 
322 564 187 116 120 131 
322 565 186 102 107 118 
321 565 188 115 121 132 
321 565 189 124 129 141 
321 565 190 116 122 135 
321 565 191 105 112 125 
320 566 188 100 105 116 
320 566 189 102 107 117 
320 567 188 102 106 116 
320 567 189 103 107 117 
321 566 188 102 108 119 
321 566 189 108 113 124 
320 566 190 99 105 116 
320 566 191 98 105 116 
320 567 190 101 106 117 
320 567 191 100 106 116 
321 566 190 103 109 120 
321 566 191 101 107 119 
322 564 188 122 127 138 
322 564 189 116 122 133 
322 564 190 109 116 128 
322 564 191 105 113 125 
324 560 184 141 149 165 
324 560 185 132 141 157 
324 561 184 140 150 166 
324 561 185 139 148 164 
324 560 186 117 127 142 
324 560 187 106 114 127 
324 561 186 130 140 154 
324 561 187 113 121 134 
324 560 188 105 111 123 
324 560 189 105 110 121 
320 568 176 99 104 114 
327 521 195 140 147 161 
327 523 192 135 145 160 
327 523 193 135 145 160 
327 522 194 139 148 163 
327 522 195 138 148 164 
327 523 194 135 145 160 
327 523 195 133 143 159 
327 520 197 105 111 123 
327 521 196 123 131 145 
327 521 197 108 116 129 
327 520 198 102 108 119 
327 520 199 107 113 124 
327 521 198 104 109 119 
327 521 199 108 112 122 
327 522 196 122 132 147 
327 522 197 110 119 133 
327 523 196 121 132 148 
327 523 197 110 121 136 
326 523 199 97 103 114 
327 522 198 102 108 119 
327 522 199 102 107 117 
327 523 198 101 109 122 
327 523 199 97 104 115 
327 524 192 134 146 163 
327 524 193 136 148 164 
327 525 192 126 139 157 
327 525 193 123 135 153 
