ply
format ascii 1.0
comment Created by CloudCompare v2.10.1 (Zephyrus)
comment Created 1/30/20 12:05 PM
obj_info Generated by CloudCompare!
element vertex 1989
property float x
property float y
property float z
property uchar red
property uchar green
property uchar blue
end_header
324 629 321 175 133 116 
325 629 320 176 133 117 
325 629 321 176 134 118 
324 628 322 176 134 118 
324 628 323 177 135 119 
325 628 322 177 134 120 
325 628 323 177 134 119 
325 629 322 177 134 120 
324 630 320 174 131 115 
325 630 320 176 133 117 
326 629 321 176 134 117 
327 629 321 177 134 118 
326 628 323 176 133 118 
326 629 322 176 134 118 
327 628 323 177 134 119 
327 629 322 178 135 119 
326 630 320 177 134 118 
326 630 321 176 134 117 
326 631 320 177 135 118 
327 630 320 177 135 118 
327 630 321 177 134 118 
327 631 320 177 135 119 
327 628 324 177 134 119 
325 624 328 171 129 115 
326 624 328 173 131 117 
327 624 328 176 132 117 
328 624 327 176 131 116 
328 625 327 175 129 115 
329 624 327 180 133 119 
329 625 327 178 130 117 
328 627 324 179 135 120 
328 627 325 176 132 118 
329 627 324 179 135 121 
329 627 325 177 133 117 
328 626 326 174 129 116 
329 626 326 175 128 114 
330 624 327 179 130 115 
330 625 327 178 131 115 
331 624 327 178 129 113 
331 625 327 179 132 117 
330 626 325 179 133 117 
330 627 325 178 132 117 
331 626 325 179 134 118 
331 627 325 177 131 116 
330 626 326 179 133 118 
331 626 326 180 134 118 
328 629 321 178 134 118 
328 628 323 180 136 121 
328 629 322 179 135 120 
328 629 323 179 135 120 
329 628 323 179 135 120 
329 629 322 178 134 119 
328 630 320 178 135 119 
328 630 321 178 135 119 
328 631 320 178 136 120 
329 630 320 178 134 118 
329 630 321 178 134 119 
329 631 320 178 134 119 
330 628 323 177 131 116 
330 629 322 177 132 117 
330 629 323 176 131 116 
331 628 323 177 131 116 
331 629 322 177 131 116 
331 629 323 178 133 117 
330 630 320 177 132 117 
330 630 321 177 132 118 
330 631 320 176 132 118 
331 630 321 176 131 116 
331 631 320 175 130 116 
331 630 322 177 131 116 
328 628 324 179 135 121 
329 628 324 179 134 120 
330 628 324 177 131 116 
331 628 324 177 130 116 
332 624 327 176 128 111 
332 625 326 175 128 112 
332 625 327 176 129 113 
333 624 327 172 126 108 
333 625 326 173 126 111 
333 625 327 173 126 110 
332 626 325 175 129 113 
332 627 325 177 130 115 
333 626 325 174 128 113 
333 627 324 178 133 117 
333 627 325 175 129 113 
332 626 326 175 129 112 
333 626 326 173 127 111 
334 624 327 170 125 109 
334 625 326 171 125 110 
334 625 327 170 124 110 
335 624 327 167 122 107 
335 625 326 167 122 106 
334 626 325 174 129 113 
334 627 324 178 133 117 
334 627 325 177 132 116 
335 626 325 173 128 111 
335 627 324 175 129 112 
335 627 325 176 130 113 
334 626 326 172 127 112 
335 626 326 170 125 108 
332 628 323 180 133 119 
332 629 322 176 129 115 
332 629 323 179 133 118 
333 628 323 180 133 119 
333 629 322 176 129 114 
333 629 323 179 133 118 
332 630 321 174 129 114 
332 631 320 175 130 116 
333 630 321 175 129 115 
333 631 320 173 128 114 
332 630 322 175 128 113 
333 630 322 175 129 113 
334 628 323 178 132 117 
334 629 322 175 128 113 
334 629 323 178 131 116 
335 628 323 175 128 114 
335 629 322 174 127 112 
335 629 323 176 128 114 
334 630 321 173 127 113 
334 631 320 172 125 111 
335 630 321 172 126 110 
335 631 320 173 126 112 
334 630 322 175 128 113 
335 630 322 174 128 113 
332 628 324 178 131 116 
333 628 324 179 132 118 
334 628 324 179 133 118 
335 628 324 175 129 112 
328 624 328 178 133 117 
329 624 328 180 135 119 
330 624 328 180 131 116 
331 624 328 178 129 113 
332 624 328 177 129 112 
333 624 328 174 128 110 
342 615 327 165 125 111 
343 614 327 161 123 107 
343 615 326 166 127 112 
343 615 327 164 125 110 
339 609 335 161 124 109 
338 611 335 165 125 111 
339 610 334 163 124 107 
339 610 335 163 125 109 
339 611 334 162 121 106 
339 611 335 164 124 108 
338 615 331 171 127 112 
339 614 331 163 122 106 
339 615 331 168 126 111 
336 613 335 173 128 114 
337 612 335 168 124 110 
337 613 334 171 128 114 
337 613 335 169 125 110 
336 615 333 167 121 107 
337 614 333 165 122 107 
337 615 332 167 123 108 
337 615 333 165 121 106 
336 614 334 170 124 110 
336 614 335 173 128 113 
336 615 334 170 123 107 
336 615 335 171 125 110 
337 614 334 168 124 110 
338 613 333 165 123 107 
339 612 333 164 124 109 
339 613 332 164 124 110 
339 613 333 165 124 110 
338 612 334 167 126 110 
338 612 335 166 123 109 
338 613 334 168 127 112 
339 612 334 164 123 107 
338 614 333 164 122 106 
338 615 332 167 123 109 
338 615 333 164 121 106 
339 614 332 164 122 106 
339 615 332 166 123 108 
342 609 331 152 118 104 
343 609 331 148 115 98 
343 610 329 148 114 97 
343 611 329 148 113 97 
342 610 331 154 120 105 
342 611 330 155 121 105 
342 611 331 157 120 107 
343 610 330 150 116 99 
343 611 330 151 116 99 
341 608 333 153 119 101 
341 609 332 154 118 104 
341 609 333 156 121 105 
340 608 334 158 121 107 
340 608 335 157 121 105 
340 609 334 160 123 108 
340 609 335 160 124 107 
341 608 334 155 120 103 
341 609 334 160 123 108 
340 610 333 159 122 107 
340 611 333 161 123 108 
341 610 332 158 122 108 
341 610 333 158 121 107 
341 611 332 161 125 112 
341 611 333 162 125 112 
340 610 334 161 123 107 
342 608 333 149 115 97 
342 609 332 152 117 102 
342 610 332 158 123 110 
340 613 331 163 123 108 
341 612 331 161 124 109 
341 613 330 163 124 110 
341 613 331 163 123 109 
340 615 329 167 124 109 
341 614 329 165 126 111 
341 615 328 166 126 110 
341 615 329 166 125 109 
340 614 330 167 126 111 
340 614 331 164 123 108 
340 615 330 168 127 113 
341 614 330 166 125 111 
342 613 329 160 122 108 
343 612 328 159 123 109 
343 612 329 154 118 104 
343 613 328 161 124 109 
343 613 329 159 121 108 
342 612 330 157 121 106 
342 612 331 159 122 108 
342 613 330 160 122 107 
343 612 330 154 117 102 
342 614 328 164 126 113 
342 614 329 162 123 109 
342 615 328 164 124 110 
342 615 329 163 124 109 
343 614 328 163 125 111 
340 612 332 163 125 111 
340 612 333 164 126 111 
340 613 332 163 123 109 
341 612 332 162 125 111 
339 619 327 168 124 108 
337 621 327 165 121 105 
336 623 327 164 119 103 
337 622 327 165 122 106 
337 623 326 164 120 102 
337 623 327 163 119 101 
338 620 327 166 121 105 
338 621 327 166 123 107 
339 620 327 165 121 105 
339 621 326 163 120 104 
339 621 327 164 121 105 
339 623 325 170 124 107 
338 622 326 165 121 105 
338 622 327 166 123 107 
338 623 326 166 121 105 
339 622 326 165 121 105 
339 623 326 167 123 106 
343 619 323 161 119 106 
341 616 327 169 127 113 
341 617 327 169 126 112 
341 619 325 164 122 106 
340 618 327 169 125 109 
340 619 326 164 120 105 
340 619 327 167 122 107 
341 618 326 168 126 111 
341 618 327 168 124 109 
341 619 326 166 124 109 
341 619 327 167 124 109 
343 616 325 165 125 110 
343 617 325 166 125 111 
342 616 326 168 127 113 
342 616 327 168 126 113 
342 617 326 167 125 110 
342 617 327 169 126 112 
343 616 326 166 126 111 
343 617 326 167 127 112 
342 618 325 167 126 111 
342 619 325 164 123 107 
343 618 324 167 128 113 
343 618 325 166 124 109 
343 619 324 163 122 108 
343 619 325 165 123 108 
342 618 326 167 125 110 
342 619 326 166 125 110 
341 623 323 168 125 109 
343 620 323 161 119 106 
343 621 322 161 122 108 
343 621 323 162 121 107 
343 623 321 163 124 108 
342 622 323 164 122 107 
342 623 322 167 125 109 
342 623 323 166 124 108 
343 622 322 161 122 107 
343 622 323 163 123 108 
343 623 322 164 124 108 
340 621 325 162 117 101 
341 620 325 164 121 106 
341 621 324 164 122 106 
341 621 325 164 122 106 
340 620 326 162 118 103 
340 620 327 164 120 105 
340 621 326 162 118 102 
341 620 326 163 120 104 
340 622 325 166 121 105 
340 623 324 170 125 106 
340 623 325 169 123 106 
341 622 324 166 123 106 
341 622 325 165 122 106 
341 623 324 169 125 109 
342 620 324 165 123 108 
342 620 325 164 122 106 
342 621 324 164 122 107 
343 620 324 163 122 108 
342 622 324 164 122 106 
337 617 331 171 126 110 
336 619 329 170 123 107 
337 619 329 169 124 108 
336 618 331 171 127 110 
336 619 330 171 125 107 
336 619 331 172 127 109 
337 618 330 170 124 108 
337 618 331 172 128 111 
337 619 330 170 124 108 
339 616 329 168 123 107 
339 617 329 170 125 109 
338 616 331 172 128 113 
338 617 330 170 125 109 
338 617 331 172 127 112 
339 616 330 170 126 111 
339 616 331 172 129 114 
339 617 330 170 125 110 
338 618 329 170 126 109 
338 619 328 168 124 107 
338 619 329 169 125 108 
339 618 328 172 128 111 
339 618 329 170 125 107 
339 619 328 170 126 109 
338 618 330 170 125 109 
336 616 332 168 124 109 
336 616 333 169 124 109 
336 617 332 168 123 106 
337 616 332 168 124 108 
337 617 332 168 125 106 
336 616 334 170 124 108 
338 616 332 170 126 111 
336 620 329 170 124 108 
336 621 328 163 118 101 
336 621 329 168 122 106 
337 620 328 166 122 105 
337 620 329 169 124 108 
337 621 328 163 119 102 
336 620 330 172 126 109 
336 622 328 164 120 104 
336 623 328 166 123 108 
337 622 328 164 121 105 
338 620 328 167 123 106 
340 616 329 169 125 109 
340 617 328 171 127 112 
340 617 329 173 128 113 
341 616 328 167 126 110 
341 616 329 169 127 111 
340 616 330 168 124 109 
340 618 328 171 126 110 
340 619 328 169 124 108 
344 611 327 152 116 98 
345 611 327 152 115 97 
346 613 323 149 114 95 
347 613 323 146 112 92 
347 614 321 145 112 94 
347 615 321 146 111 92 
346 614 323 152 116 99 
346 615 322 154 119 101 
346 615 323 157 120 104 
347 614 322 148 113 95 
347 614 323 151 116 98 
347 615 322 151 115 97 
345 612 325 157 121 102 
345 613 325 156 119 103 
344 612 327 157 121 103 
344 613 326 162 125 109 
344 613 327 161 124 107 
345 612 326 158 121 103 
345 612 327 155 118 100 
345 613 326 160 122 106 
344 615 325 163 124 109 
345 614 324 157 119 105 
345 614 325 157 119 105 
345 615 324 160 122 108 
345 615 325 160 123 108 
344 614 326 162 124 109 
344 614 327 162 125 109 
344 615 326 163 125 110 
345 614 326 160 122 107 
346 612 325 153 118 99 
346 613 324 153 117 100 
346 613 325 156 119 102 
346 614 324 154 117 102 
346 615 324 158 121 106 
348 615 320 142 111 91 
348 615 321 144 111 92 
344 610 329 148 114 97 
344 611 328 152 118 102 
344 611 329 150 114 99 
344 612 328 158 122 107 
344 613 328 159 122 106 
345 616 323 160 123 107 
345 617 322 163 127 110 
345 617 323 164 126 109 
344 618 323 165 126 111 
344 619 322 158 119 105 
344 619 323 162 122 109 
345 618 322 162 125 108 
345 618 323 164 126 111 
345 619 322 158 121 106 
345 619 323 160 122 107 
347 616 320 150 118 101 
347 616 321 151 117 99 
347 617 320 153 119 103 
347 617 321 153 118 101 
346 616 322 158 122 106 
346 616 323 159 123 106 
346 617 322 159 123 106 
347 616 322 154 119 102 
346 618 321 157 121 105 
346 619 320 155 119 103 
346 619 321 156 120 104 
347 618 320 154 120 104 
347 618 321 155 119 104 
347 619 320 154 119 103 
346 618 322 159 123 107 
346 619 322 158 122 107 
344 616 324 162 122 106 
344 616 325 163 124 109 
344 617 324 164 125 108 
344 617 325 164 124 108 
345 616 324 161 123 107 
344 618 324 165 125 110 
345 620 321 156 120 104 
345 621 321 155 119 104 
344 620 322 158 119 106 
344 620 323 158 119 106 
344 621 322 158 120 107 
345 620 322 157 120 107 
344 622 321 159 121 107 
344 623 321 160 122 108 
345 622 320 156 120 104 
345 622 321 156 120 104 
345 623 320 159 122 107 
345 623 321 158 122 106 
344 622 322 160 122 108 
346 620 320 155 121 105 
346 620 321 154 118 102 
346 621 320 154 119 103 
347 620 320 155 121 104 
346 622 320 155 120 103 
346 623 320 157 122 105 
348 616 320 146 115 96 
348 617 320 152 119 102 
336 609 339 168 128 113 
337 608 339 165 128 113 
337 609 338 163 124 109 
337 609 339 167 129 114 
336 611 337 169 129 114 
337 610 337 163 123 110 
337 611 336 166 125 111 
337 611 337 166 127 111 
336 610 338 163 122 107 
336 610 339 167 127 113 
336 611 338 167 125 110 
337 610 338 162 123 107 
338 608 337 161 123 108 
338 609 336 162 123 110 
338 609 337 161 122 109 
339 608 336 159 123 109 
339 608 337 159 122 107 
339 609 336 162 124 110 
338 608 338 163 127 111 
338 608 339 164 128 112 
338 609 338 165 127 112 
339 608 338 162 127 111 
338 610 336 164 125 112 
338 610 337 163 123 112 
338 611 336 166 126 113 
339 610 336 165 126 113 
336 608 340 168 129 114 
336 608 341 168 129 113 
336 609 340 169 130 114 
337 608 340 165 126 111 
336 612 336 171 128 113 
336 612 337 170 128 113 
336 613 336 173 129 114 
337 612 336 168 125 111 
340 608 336 156 120 105 
338 627 323 170 124 108 
339 626 323 171 126 108 
339 627 322 166 122 102 
339 627 323 169 124 107 
337 625 325 173 128 110 
336 624 326 166 121 103 
336 624 327 164 119 103 
336 625 326 170 124 108 
337 624 326 168 124 107 
337 625 326 172 127 110 
336 626 325 174 128 112 
336 627 324 173 127 111 
337 626 324 174 128 112 
337 626 325 174 128 110 
337 627 324 173 126 110 
338 624 325 171 125 107 
338 625 325 172 126 107 
339 624 324 170 122 104 
339 624 325 171 124 105 
339 625 324 171 124 105 
338 624 326 169 125 108 
338 626 324 172 125 108 
338 626 325 173 127 109 
338 627 324 169 122 105 
339 626 324 170 124 107 
339 627 324 168 122 105 
336 628 323 176 130 116 
336 629 322 173 127 111 
336 629 323 177 130 116 
337 628 323 172 126 111 
337 629 322 171 124 108 
336 630 321 172 124 110 
336 631 320 176 128 114 
337 630 321 173 126 111 
337 631 320 177 130 116 
336 630 322 171 124 108 
337 630 322 170 124 108 
339 629 321 167 123 106 
338 628 322 166 122 104 
338 628 323 168 123 106 
338 629 322 170 125 109 
339 628 322 166 122 104 
339 628 323 167 122 104 
339 629 322 168 124 107 
338 630 320 172 125 110 
338 630 321 171 125 109 
338 631 320 176 130 115 
339 630 320 169 123 107 
339 630 321 169 123 107 
339 631 320 172 127 111 
336 628 324 175 129 113 
340 624 323 172 128 109 
340 625 323 171 126 106 
341 624 323 170 126 109 
341 625 322 168 126 107 
341 625 323 169 125 106 
341 627 321 170 125 106 
340 626 323 171 127 107 
340 627 322 168 124 105 
340 627 323 169 126 107 
341 626 322 170 127 107 
341 626 323 168 125 104 
341 627 322 170 126 108 
343 624 321 164 124 107 
343 625 321 166 125 108 
342 624 322 167 125 107 
342 624 323 167 125 107 
342 625 322 168 125 107 
343 624 322 166 125 108 
343 625 322 167 125 107 
342 626 321 169 128 109 
342 627 321 168 124 106 
343 626 320 164 122 108 
343 626 321 166 124 107 
343 627 320 164 120 105 
342 626 322 169 127 108 
340 624 324 171 124 105 
340 625 324 171 125 106 
340 628 321 171 126 110 
340 629 321 170 125 109 
341 628 321 171 126 109 
341 629 320 169 125 109 
341 629 321 170 126 110 
340 628 322 169 125 107 
340 630 320 166 119 105 
340 630 321 168 123 108 
341 630 320 165 121 106 
342 628 320 167 123 106 
342 628 321 169 125 106 
342 629 320 165 121 106 
343 628 320 165 121 107 
344 624 320 161 122 108 
344 624 321 162 123 108 
344 625 320 162 123 108 
345 624 320 159 122 107 
345 625 320 158 121 106 
344 626 320 161 121 106 
344 627 320 160 120 105 
320 608 353 173 130 117 
320 609 352 174 130 117 
320 609 353 174 130 117 
321 608 353 174 130 118 
321 609 352 175 132 119 
321 609 353 174 131 118 
320 608 354 174 131 118 
320 608 355 176 133 120 
321 608 354 175 131 119 
321 608 355 176 133 121 
322 608 352 179 134 121 
322 608 353 175 130 118 
322 609 352 178 133 121 
323 608 352 180 135 121 
323 608 353 178 132 119 
323 609 352 181 136 122 
322 608 354 174 130 117 
322 608 355 175 131 118 
323 608 354 175 130 118 
324 608 352 182 137 123 
324 608 353 180 136 122 
325 608 352 181 136 122 
325 608 353 181 136 123 
291 582 391 123 102 90 
291 583 390 132 107 92 
291 583 391 130 106 93 
295 579 388 101 88 79 
295 579 389 104 91 81 
294 579 390 109 95 84 
294 579 391 111 97 85 
295 578 390 107 94 84 
295 578 391 109 95 85 
295 579 390 107 94 83 
295 579 391 109 96 85 
293 581 387 106 92 83 
293 582 385 110 94 81 
293 583 384 111 95 81 
293 583 385 113 96 82 
292 583 386 118 99 84 
292 583 387 122 101 86 
293 582 386 109 93 81 
293 582 387 112 95 84 
293 583 386 115 97 83 
293 583 387 117 98 84 
294 581 385 103 90 79 
295 581 384 98 86 77 
295 581 385 96 85 75 
294 580 387 100 87 77 
294 581 386 102 89 79 
294 581 387 103 90 80 
295 580 386 94 82 74 
295 580 387 96 84 75 
295 581 386 97 85 76 
294 582 384 105 90 79 
294 582 385 106 91 79 
294 583 384 109 93 81 
295 582 384 101 88 79 
293 581 388 109 94 84 
293 581 389 110 95 85 
292 581 390 115 98 87 
292 581 391 117 100 89 
293 580 390 111 97 86 
293 580 391 114 99 88 
293 581 390 112 97 86 
292 582 388 117 99 87 
292 582 389 119 101 88 
292 583 388 124 103 88 
292 583 389 126 104 89 
293 582 388 114 98 86 
293 582 389 117 99 88 
292 582 390 120 101 88 
292 582 391 120 101 89 
292 583 390 125 104 90 
294 580 388 102 89 79 
294 580 389 106 92 82 
294 581 388 104 90 81 
295 580 388 101 88 79 
294 580 390 110 96 85 
294 580 391 111 97 86 
291 580 393 122 105 93 
291 581 392 121 104 94 
291 581 393 123 106 96 
290 582 393 127 106 94 
290 583 393 133 108 95 
291 582 392 123 102 91 
291 582 393 125 104 94 
291 583 392 132 107 94 
292 579 393 119 104 92 
293 578 393 115 100 89 
293 579 392 116 100 89 
293 579 393 118 103 91 
294 577 393 110 97 87 
295 577 392 108 95 86 
295 577 393 107 95 86 
294 578 392 113 98 88 
294 578 393 112 99 89 
294 579 392 115 99 88 
295 578 392 110 96 87 
292 580 392 118 102 90 
292 580 393 121 104 92 
292 581 392 119 103 93 
293 580 392 116 101 89 
293 580 393 119 103 91 
291 584 390 141 113 97 
291 584 391 143 115 100 
291 585 390 152 121 106 
291 585 391 155 124 110 
291 586 391 165 131 118 
292 584 384 122 99 84 
292 584 385 123 101 85 
292 585 384 125 101 86 
292 585 385 129 104 88 
293 584 384 117 98 83 
293 584 385 118 98 83 
293 585 384 122 99 84 
292 584 386 125 102 86 
292 584 387 130 105 89 
292 585 386 135 108 92 
292 585 387 142 113 96 
292 586 384 133 105 90 
292 586 385 140 111 96 
292 587 385 153 122 107 
293 586 384 134 106 90 
293 587 384 153 121 106 
293 587 385 159 126 111 
292 586 386 148 117 102 
292 586 387 154 122 107 
292 587 386 157 124 110 
292 587 387 165 129 114 
293 587 386 165 130 115 
293 587 387 171 133 119 
292 584 388 134 108 92 
292 584 389 137 111 94 
292 585 388 147 117 101 
292 585 389 150 120 104 
292 585 390 155 124 108 
292 586 388 159 125 110 
292 586 389 163 128 114 
292 587 388 168 131 117 
292 587 389 170 132 120 
293 587 388 173 134 121 
293 587 389 173 133 120 
292 586 390 166 131 118 
292 586 391 169 133 120 
292 587 390 172 134 121 
292 587 391 170 132 119 
293 587 390 172 132 119 
293 587 391 170 131 117 
293 588 384 166 131 116 
293 588 385 169 133 118 
293 588 386 173 135 120 
293 588 387 174 135 121 
294 588 384 167 131 117 
294 588 385 173 135 120 
294 589 384 171 133 119 
294 589 385 174 135 120 
295 589 384 173 133 120 
295 589 385 174 133 120 
294 588 387 175 133 121 
294 589 386 175 134 120 
294 589 387 174 132 119 
295 589 386 173 131 118 
295 589 387 171 127 115 
293 588 388 174 134 121 
293 588 389 173 132 119 
293 588 390 171 130 117 
293 588 391 166 125 113 
294 588 388 174 132 120 
294 588 389 172 130 117 
294 589 388 172 128 116 
294 589 389 170 127 114 
295 589 388 169 125 113 
295 589 389 166 123 111 
294 588 390 169 127 114 
294 588 391 163 122 108 
294 589 390 167 124 111 
294 589 391 162 120 107 
295 589 390 165 122 109 
295 589 391 161 118 105 
290 584 393 143 114 100 
290 585 393 156 123 110 
291 584 392 143 115 101 
291 585 392 158 126 112 
291 585 393 160 126 113 
291 586 392 166 131 118 
291 586 393 165 129 116 
291 587 393 161 123 112 
292 587 392 167 128 115 
292 587 393 161 122 110 
293 588 392 161 120 108 
293 588 393 157 115 103 
294 588 392 159 117 104 
294 588 393 155 113 101 
294 589 392 158 116 103 
294 589 393 154 112 100 
295 589 392 157 115 102 
295 589 393 156 114 100 
296 579 387 96 85 77 
297 579 387 94 84 76 
296 577 391 104 93 85 
297 577 391 101 91 84 
296 578 389 102 90 81 
296 579 388 99 87 79 
296 579 389 102 89 81 
297 578 389 100 88 81 
296 578 390 104 92 82 
296 578 391 106 93 84 
296 580 385 93 82 75 
296 581 384 96 85 76 
297 580 385 92 82 75 
296 580 386 92 82 74 
296 580 387 93 82 73 
296 576 393 103 92 84 
296 577 392 105 93 85 
296 577 393 104 93 84 
297 576 393 100 91 84 
296 589 387 168 124 111 
296 590 384 173 131 118 
296 590 385 172 129 116 
297 590 385 170 125 112 
297 591 384 170 126 113 
297 591 385 170 127 113 
296 590 386 170 126 113 
296 590 387 168 124 111 
297 590 386 170 126 112 
297 590 387 170 125 111 
297 591 386 171 127 113 
298 591 384 170 126 112 
298 591 385 172 129 115 
299 591 385 175 130 116 
298 591 386 173 128 114 
298 591 387 173 127 113 
299 591 386 176 130 115 
299 591 387 175 128 114 
296 589 388 167 122 109 
296 589 389 165 120 107 
296 589 390 162 118 105 
296 589 391 160 117 104 
296 590 388 167 122 109 
296 590 389 164 120 106 
297 590 388 168 123 109 
297 590 389 165 119 106 
297 590 390 163 118 105 
297 590 391 162 118 104 
298 590 388 170 124 110 
298 590 389 169 121 108 
298 591 388 172 124 110 
298 591 389 171 123 110 
299 591 388 175 126 112 
299 591 389 174 125 112 
298 590 390 169 121 108 
298 590 391 169 122 109 
299 590 391 174 126 114 
299 591 390 174 125 113 
299 591 391 175 127 114 
300 591 387 178 129 114 
300 591 388 179 130 115 
300 591 389 180 131 117 
300 591 390 180 130 117 
300 591 391 179 130 117 
301 591 390 182 132 119 
301 591 391 181 131 118 
302 591 391 181 130 117 
303 591 391 183 132 120 
296 589 392 159 116 103 
296 589 393 158 115 102 
297 590 392 162 118 106 
297 590 393 163 118 105 
298 590 392 170 123 111 
298 590 393 171 124 112 
299 590 392 175 127 114 
299 590 393 176 128 115 
299 591 392 177 128 115 
299 591 393 179 130 117 
300 591 392 180 131 118 
300 591 393 182 132 119 
301 591 392 181 131 118 
301 591 393 183 133 120 
302 591 392 181 131 118 
302 591 393 183 133 119 
303 591 392 183 132 120 
303 591 393 184 133 120 
298 592 384 170 126 112 
299 592 384 172 128 114 
299 592 385 175 130 116 
300 592 385 176 129 116 
300 593 384 174 127 114 
300 593 385 176 127 114 
301 593 384 175 126 113 
301 593 385 177 127 114 
300 592 386 178 130 116 
300 592 387 179 130 116 
301 592 386 180 129 116 
301 592 387 182 131 118 
301 593 386 180 129 116 
301 594 384 176 127 114 
302 593 385 182 132 119 
302 592 387 185 134 121 
302 593 386 184 133 120 
302 593 387 186 135 122 
303 593 386 187 136 122 
303 593 387 188 137 124 
302 594 384 179 129 116 
302 594 385 181 131 118 
303 594 384 181 131 118 
303 594 385 184 133 120 
303 594 386 186 135 122 
300 592 388 180 130 116 
301 592 388 183 131 118 
301 592 389 183 132 119 
301 592 390 183 132 119 
302 592 388 185 134 121 
302 592 389 184 132 120 
303 592 388 188 137 124 
303 592 389 187 135 122 
303 593 388 189 138 124 
302 592 390 183 131 119 
302 592 391 182 130 118 
303 592 390 185 133 121 
303 592 391 183 132 120 
304 591 391 185 133 122 
305 591 391 185 134 121 
306 591 391 185 134 122 
307 591 390 183 131 120 
307 591 391 184 133 121 
310 591 387 171 123 113 
311 590 387 174 124 113 
311 591 386 172 123 112 
311 591 387 172 123 113 
308 591 389 177 126 115 
309 591 388 174 125 115 
309 591 389 176 126 115 
308 590 391 184 133 121 
308 591 390 180 129 118 
308 591 391 182 131 119 
309 590 390 179 129 118 
309 590 391 182 132 120 
309 591 390 178 128 117 
311 589 390 175 124 112 
311 589 391 177 126 114 
310 590 389 175 124 113 
310 591 388 173 123 114 
310 591 389 174 125 114 
311 590 388 173 123 112 
311 590 389 174 123 112 
311 591 388 172 122 112 
310 590 390 177 126 115 
310 590 391 180 129 117 
311 590 390 175 123 111 
311 590 391 178 127 115 
304 591 392 184 133 121 
304 591 393 184 133 120 
305 591 392 184 133 120 
305 591 393 183 132 120 
306 590 393 183 133 120 
306 591 392 184 133 120 
306 591 393 182 132 119 
307 590 392 184 134 121 
307 590 393 184 134 122 
307 591 392 184 133 121 
308 590 392 185 135 122 
308 590 393 185 135 123 
309 590 392 184 134 121 
309 590 393 185 135 123 
310 589 392 181 131 118 
310 589 393 182 133 120 
311 589 392 177 128 115 
311 589 393 178 129 115 
310 590 392 182 132 118 
310 590 393 183 133 120 
318 583 391 160 117 101 
319 582 391 162 120 106 
319 583 390 162 119 103 
319 583 391 160 117 102 
317 583 393 164 118 105 
319 581 392 159 115 102 
319 581 393 158 113 101 
318 582 393 161 116 103 
318 583 392 161 117 103 
318 583 393 164 119 106 
319 582 392 159 116 102 
319 582 393 158 113 100 
319 583 392 158 114 99 
315 587 389 175 126 113 
314 587 390 170 122 109 
314 587 391 168 120 106 
315 587 390 173 123 110 
315 587 391 171 122 109 
313 589 387 179 127 116 
312 591 384 176 126 115 
312 591 385 175 124 113 
313 590 385 180 130 118 
313 591 384 181 130 118 
313 591 385 179 128 116 
312 590 386 178 127 116 
312 590 387 176 126 115 
312 591 386 175 126 114 
313 590 386 181 130 118 
313 590 387 180 128 118 
314 589 385 181 130 117 
315 589 384 177 125 114 
315 589 385 178 127 115 
314 588 387 176 125 112 
314 589 386 181 129 117 
314 589 387 178 126 114 
315 588 386 177 127 115 
315 588 387 176 126 113 
315 589 386 179 127 114 
315 589 387 178 126 114 
314 590 384 181 130 118 
314 590 385 181 130 118 
314 591 384 182 131 119 
315 590 384 179 127 116 
314 590 386 183 131 119 
312 589 388 177 125 115 
312 589 389 175 124 113 
313 589 388 177 125 115 
313 589 389 174 123 111 
312 589 390 174 123 111 
312 589 391 172 122 110 
313 588 390 171 121 108 
313 588 391 170 120 108 
313 589 390 173 122 110 
312 590 388 175 124 113 
314 588 388 175 123 111 
314 588 389 174 124 111 
314 589 388 176 123 112 
315 588 388 175 125 113 
315 588 389 174 124 111 
314 588 390 171 122 109 
314 588 391 167 117 104 
316 587 387 174 125 113 
317 587 386 174 126 114 
317 587 387 173 125 112 
319 585 387 173 126 113 
318 587 384 172 123 110 
318 587 385 173 124 112 
319 586 384 174 126 112 
319 586 385 172 123 111 
319 587 384 174 125 112 
319 587 385 171 121 109 
318 586 386 172 124 112 
318 586 387 171 123 110 
318 587 386 173 125 113 
318 587 387 172 125 112 
319 586 386 174 125 113 
319 586 387 171 122 109 
316 585 391 171 123 109 
317 585 390 173 129 112 
317 585 391 171 126 110 
316 587 388 175 127 114 
316 587 389 175 127 113 
317 586 388 173 125 112 
317 586 389 173 126 112 
317 587 388 173 125 113 
317 587 389 174 127 113 
316 586 390 175 127 112 
316 586 391 172 124 110 
316 587 390 175 126 112 
317 586 390 174 127 112 
318 585 388 169 122 109 
318 585 389 167 121 106 
319 584 388 168 123 109 
319 584 389 163 119 104 
319 585 388 168 122 108 
318 584 390 163 119 102 
318 584 391 163 120 104 
318 585 390 167 123 105 
318 585 391 167 124 107 
319 584 390 159 114 98 
318 586 388 170 122 109 
318 586 389 170 124 108 
319 586 388 169 121 108 
316 588 384 177 125 115 
316 588 385 176 124 113 
316 589 384 178 126 115 
316 589 385 177 125 114 
317 588 384 177 127 116 
317 588 385 176 126 115 
317 589 384 178 128 116 
316 588 386 175 125 113 
316 588 387 174 126 113 
317 588 386 174 125 113 
318 588 384 174 125 112 
314 587 392 166 117 104 
314 587 393 164 115 103 
315 586 392 168 121 108 
315 586 393 166 119 107 
315 587 392 167 120 107 
315 587 393 165 118 106 
312 588 392 171 122 110 
312 588 393 171 122 108 
312 589 392 173 124 111 
312 589 393 172 123 110 
313 588 392 168 119 107 
313 588 393 167 118 106 
314 588 392 166 116 104 
316 584 393 164 117 103 
316 585 392 169 122 109 
316 585 393 166 119 106 
317 584 392 167 121 107 
317 584 393 164 117 104 
316 586 392 170 122 109 
318 584 392 165 121 107 
304 593 386 188 137 123 
304 593 387 189 138 124 
305 593 386 188 137 123 
305 593 387 189 138 124 
304 594 384 183 133 121 
304 594 385 186 135 122 
305 594 384 185 135 122 
305 594 385 187 137 123 
304 594 386 188 137 123 
305 594 386 188 137 123 
306 593 386 187 136 122 
306 593 387 188 136 123 
307 593 386 184 132 120 
307 593 387 184 132 119 
306 594 384 184 134 122 
306 594 385 186 135 122 
307 594 384 183 132 119 
307 594 385 183 132 119 
306 594 386 187 136 122 
304 592 388 189 137 123 
304 592 389 188 136 123 
304 593 388 189 138 124 
305 592 388 188 136 123 
305 592 389 187 135 122 
305 593 388 189 137 124 
304 592 390 186 134 122 
304 592 391 185 133 122 
305 592 390 186 134 122 
305 592 391 186 134 122 
306 592 388 186 135 122 
306 592 389 186 134 121 
306 593 388 188 136 123 
307 592 388 183 131 120 
307 592 389 183 131 120 
307 593 388 184 132 120 
306 592 390 185 133 121 
307 592 390 183 131 120 
308 593 385 177 127 114 
309 593 385 172 122 111 
308 592 387 173 123 111 
308 593 386 177 127 114 
308 593 387 177 127 115 
309 592 386 169 120 108 
309 592 387 170 121 109 
309 593 386 171 122 109 
308 594 384 180 130 117 
308 594 385 179 129 116 
309 594 384 176 127 115 
309 594 385 174 124 113 
310 592 385 169 119 110 
310 593 384 172 122 113 
310 593 385 171 121 112 
311 592 384 173 124 114 
311 592 385 172 122 112 
311 593 384 172 123 112 
311 593 385 170 121 112 
310 592 386 168 119 108 
310 592 387 169 121 110 
311 592 386 170 122 111 
310 594 384 173 124 114 
308 592 388 176 126 114 
308 592 389 178 127 116 
309 592 388 172 123 113 
312 592 384 175 126 114 
313 592 384 180 130 117 
321 579 389 173 130 116 
321 578 391 171 129 115 
321 579 390 172 129 116 
321 579 391 172 129 116 
322 579 389 172 131 116 
321 581 387 169 123 110 
321 583 385 177 135 119 
321 582 387 171 127 112 
321 583 386 177 135 119 
321 583 387 175 132 117 
322 581 385 164 123 109 
322 580 387 167 124 111 
322 581 386 165 122 109 
322 581 387 167 122 109 
322 582 384 164 125 108 
322 582 385 168 128 112 
322 583 384 170 130 113 
322 583 385 174 133 117 
323 582 384 162 123 106 
322 582 386 169 127 112 
322 582 387 169 125 111 
322 583 386 174 132 117 
321 580 388 173 130 117 
321 580 389 173 130 116 
321 581 388 170 125 112 
321 581 389 171 127 114 
320 580 391 169 124 111 
320 581 390 169 125 112 
320 581 391 165 121 107 
321 580 390 171 126 113 
321 580 391 171 125 113 
321 581 390 170 126 113 
321 581 391 170 125 112 
320 582 389 169 126 113 
320 583 388 172 129 114 
320 583 389 168 126 112 
321 582 388 171 127 113 
321 582 389 170 127 113 
321 583 388 174 131 116 
320 582 390 168 125 111 
320 582 391 163 120 105 
320 583 390 166 124 109 
322 580 388 171 128 115 
321 577 393 170 131 117 
320 579 393 167 125 112 
321 578 392 171 130 116 
321 578 393 171 130 115 
321 579 392 172 129 115 
321 579 393 170 127 114 
320 580 392 168 123 111 
320 580 393 163 120 108 
320 581 392 161 117 104 
320 581 393 158 114 102 
321 580 392 170 126 114 
320 585 385 180 134 120 
321 584 384 178 135 118 
321 584 385 178 135 119 
321 585 384 179 135 119 
321 585 385 179 134 119 
320 584 386 178 132 116 
320 584 387 175 130 114 
320 585 386 178 131 118 
320 585 387 176 129 114 
321 584 386 178 134 117 
321 584 387 177 133 117 
320 586 384 179 132 118 
320 586 385 177 130 117 
321 586 384 180 136 121 
322 584 384 174 132 115 
320 584 388 171 127 112 
320 584 389 167 124 109 
314 645 258 77 80 86 
314 645 259 72 75 81 
315 645 258 71 74 80 
315 645 259 61 64 69 
314 646 259 69 72 78 
313 646 261 70 74 80 
313 647 261 73 76 83 
313 647 262 69 73 80 
314 645 260 65 67 73 
315 645 260 55 58 63 
315 645 261 51 53 58 
315 645 262 47 50 55 
315 645 263 52 53 59 
314 646 260 66 69 75 
314 646 261 60 63 70 
314 646 262 56 60 66 
314 646 263 51 55 62 
314 647 262 65 70 77 
314 647 263 59 64 72 
315 646 262 47 50 55 
315 646 263 47 50 56 
316 643 263 67 70 76 
317 643 262 65 67 73 
317 643 263 66 69 75 
316 644 260 53 55 60 
316 644 261 57 59 64 
316 645 260 49 51 56 
316 645 261 50 52 57 
316 644 262 64 65 71 
316 644 263 69 70 76 
316 645 262 53 55 60 
316 645 263 61 62 68 
315 645 264 63 64 69 
314 647 264 55 60 66 
314 647 265 57 61 68 
315 646 264 53 56 61 
315 646 265 55 56 61 
315 647 265 49 53 59 
315 646 266 55 56 60 
315 647 266 50 52 57 
316 641 266 76 80 88 
316 641 267 80 83 90 
316 642 264 68 72 80 
316 642 265 69 73 81 
316 643 264 67 70 77 
316 643 265 68 72 78 
316 642 266 70 74 81 
316 642 267 76 79 85 
316 643 266 70 72 78 
316 643 267 74 76 82 
316 640 268 80 83 91 
316 640 269 94 97 105 
316 641 268 95 98 105 
316 641 269 108 110 119 
316 640 270 85 89 98 
316 640 271 77 81 90 
316 641 270 88 92 101 
316 641 271 76 81 90 
316 642 268 90 92 99 
316 642 269 97 101 109 
316 643 268 79 82 89 
316 643 269 81 85 92 
316 642 270 82 87 96 
316 642 271 76 81 90 
316 643 270 78 83 92 
316 643 271 77 81 89 
316 644 264 65 67 72 
316 644 265 64 66 71 
316 645 264 61 62 67 
316 645 265 58 59 63 
316 644 266 68 69 74 
316 644 267 76 78 83 
316 645 266 60 60 64 
316 645 267 68 69 73 
316 646 265 57 58 61 
316 646 266 56 56 59 
316 646 267 58 58 62 
316 647 266 54 56 60 
316 647 267 54 55 59 
316 644 268 78 80 87 
316 644 269 77 80 87 
316 645 268 73 75 80 
316 645 269 78 80 86 
316 644 270 78 81 89 
316 644 271 80 83 90 
316 645 270 81 83 89 
316 645 271 84 86 92 
316 646 268 61 62 66 
316 646 269 73 74 78 
316 647 268 56 56 61 
316 647 269 62 62 68 
316 646 270 85 84 88 
316 646 271 88 89 95 
316 647 270 75 76 80 
316 647 271 83 84 90 
313 648 262 73 78 86 
313 649 263 83 87 95 
313 650 263 92 96 104 
314 648 263 68 73 81 
314 649 263 80 84 92 
314 650 263 86 90 97 
314 651 263 86 90 98 
314 652 263 85 88 97 
314 653 263 83 87 95 
314 654 263 87 91 100 
314 655 263 101 106 115 
314 648 264 67 71 78 
314 648 265 62 66 73 
314 649 264 80 84 91 
314 649 265 75 79 86 
315 648 265 56 61 67 
314 649 266 72 76 84 
315 648 266 52 55 61 
315 648 267 51 54 60 
315 649 266 63 67 74 
315 649 267 58 62 69 
314 650 264 85 88 96 
314 650 265 86 89 96 
314 651 264 84 87 94 
314 651 265 83 86 94 
314 650 266 81 85 93 
314 651 266 82 85 93 
314 651 267 76 79 87 
315 650 267 67 71 78 
315 651 267 71 74 82 
315 648 268 47 50 56 
315 649 268 53 57 64 
315 649 269 55 60 67 
315 650 268 58 62 70 
315 650 269 58 63 71 
315 651 268 64 68 76 
315 651 269 63 69 77 
314 652 264 81 84 93 
314 652 265 79 81 89 
314 653 264 79 83 92 
314 653 265 77 81 89 
315 653 265 75 79 86 
314 652 266 76 79 87 
315 652 266 74 77 85 
315 652 267 74 77 85 
315 653 266 74 77 85 
315 653 267 74 78 85 
314 654 264 82 87 95 
314 654 265 77 81 89 
314 655 264 95 99 107 
315 654 265 74 78 86 
315 655 265 82 85 93 
315 654 266 73 77 84 
315 654 267 75 78 85 
315 655 266 77 80 88 
315 652 268 71 75 82 
315 652 269 72 76 84 
315 653 268 76 79 86 
315 653 269 76 79 87 
316 648 267 50 52 57 
316 648 268 50 53 59 
316 648 269 54 57 64 
316 649 269 55 60 67 
316 648 270 63 67 74 
316 648 271 70 74 82 
316 649 270 64 69 77 
316 649 271 69 75 84 
316 650 269 64 70 78 
316 650 270 72 77 86 
316 650 271 80 85 94 
316 651 270 77 82 90 
316 651 271 87 92 101 
316 654 267 78 81 89 
316 655 267 80 83 91 
316 652 269 76 80 87 
316 653 269 79 82 89 
316 652 270 78 83 91 
316 652 271 87 91 100 
316 653 270 83 86 94 
316 653 271 87 90 98 
317 653 271 89 93 101 
316 654 268 79 82 89 
316 654 269 81 84 91 
316 655 268 79 82 90 
316 655 269 78 81 89 
317 655 269 77 80 87 
316 654 270 84 87 95 
317 654 270 83 86 93 
317 654 271 87 90 98 
317 655 270 77 80 87 
317 655 271 79 82 90 
316 640 272 79 82 89 
316 640 273 80 82 88 
316 641 272 78 81 88 
316 641 273 81 83 89 
316 640 274 81 83 89 
316 641 274 85 87 93 
317 640 274 80 82 88 
317 640 275 80 82 88 
317 641 274 87 89 96 
317 641 275 87 89 95 
316 642 272 77 80 87 
316 642 273 80 83 89 
316 643 272 79 82 90 
316 643 273 81 84 91 
316 642 274 82 84 91 
316 643 274 81 84 91 
317 642 274 83 86 92 
317 642 275 85 88 95 
317 643 274 80 83 90 
317 643 275 81 84 90 
317 640 276 79 82 88 
317 640 277 81 85 92 
317 641 276 85 88 94 
317 641 277 81 85 93 
317 640 278 87 90 98 
317 641 278 81 84 92 
317 642 276 86 89 97 
317 642 277 86 90 98 
317 643 276 83 87 94 
317 643 277 87 90 98 
317 642 278 81 85 92 
317 643 278 86 90 99 
318 640 278 88 91 98 
318 640 279 92 94 101 
318 641 278 82 86 93 
318 641 279 86 89 96 
318 642 278 78 82 90 
318 642 279 79 82 91 
318 643 278 84 89 98 
318 643 279 82 86 96 
316 644 272 83 86 93 
316 644 273 82 85 91 
316 645 272 84 87 93 
316 645 273 81 84 90 
317 645 273 82 84 91 
317 644 274 82 85 92 
317 644 275 81 85 92 
317 645 274 84 86 93 
317 645 275 81 84 93 
316 646 272 87 88 94 
317 646 272 87 88 94 
317 646 273 84 86 93 
317 647 272 85 87 93 
317 647 273 83 86 93 
317 646 274 85 89 96 
317 646 275 82 86 95 
317 647 274 86 90 99 
317 647 275 92 98 108 
317 644 276 81 85 93 
317 644 277 86 89 98 
317 645 276 81 86 94 
317 645 277 90 95 105 
317 644 278 88 94 103 
317 645 278 107 113 123 
317 646 276 87 92 101 
317 646 277 94 100 110 
317 647 276 101 107 118 
317 647 277 104 111 122 
317 646 278 119 125 136 
318 644 278 89 96 106 
318 644 279 94 101 112 
318 645 278 107 114 126 
318 645 279 112 120 132 
318 646 278 122 129 140 
318 646 279 118 126 138 
318 647 278 118 125 137 
318 647 279 112 120 132 
318 640 280 93 95 102 
318 640 281 91 94 101 
318 641 280 90 92 99 
318 641 281 90 93 100 
319 640 281 90 93 101 
319 641 281 91 94 102 
319 640 282 92 95 103 
319 640 283 94 98 106 
319 641 282 92 95 102 
319 641 283 92 96 104 
318 642 280 85 88 96 
318 643 280 81 86 95 
319 642 281 91 94 101 
319 643 281 87 90 99 
319 642 282 93 95 103 
319 642 283 93 96 104 
319 643 282 91 94 102 
319 643 283 93 96 104 
319 640 284 96 100 108 
319 641 284 94 98 106 
318 644 280 92 99 109 
318 645 280 108 115 127 
319 644 281 83 89 99 
319 645 281 83 91 103 
319 644 282 88 92 100 
319 644 283 91 95 102 
319 645 282 83 89 98 
318 646 280 109 118 130 
318 647 280 115 122 134 
319 646 281 88 96 109 
319 647 280 114 121 133 
319 647 281 100 107 119 
319 646 282 87 92 102 
319 647 282 90 96 107 
316 648 272 68 72 80 
316 649 272 71 76 85 
317 648 272 75 78 84 
317 648 273 76 80 89 
317 649 272 72 78 87 
317 649 273 75 81 91 
317 648 274 88 93 102 
317 648 275 107 112 121 
317 649 274 85 90 99 
317 649 275 102 106 115 
316 650 272 84 89 98 
316 651 272 89 95 104 
317 650 272 85 90 99 
317 650 273 82 88 98 
317 651 272 90 95 104 
317 651 273 91 96 106 
317 650 274 83 88 98 
317 650 275 89 93 102 
317 651 274 92 97 107 
318 650 275 90 95 104 
318 651 274 95 101 111 
318 651 275 91 97 107 
317 648 276 110 115 126 
317 648 277 112 119 130 
317 649 276 111 116 126 
318 648 277 116 122 134 
318 649 276 110 115 125 
318 649 277 117 122 133 
318 648 278 116 123 135 
318 648 279 106 113 126 
318 649 278 103 111 123 
318 649 279 100 107 120 
318 650 276 98 102 112 
318 650 277 109 113 124 
318 651 276 88 94 105 
318 651 277 96 101 112 
319 651 277 96 101 111 
318 650 278 107 113 124 
318 650 279 100 107 118 
319 650 278 110 115 125 
319 650 279 97 103 114 
319 651 278 105 109 119 
319 651 279 97 102 111 
316 652 272 89 94 103 
317 652 272 88 94 103 
317 652 273 90 97 107 
317 653 272 90 95 103 
317 653 273 95 100 109 
317 652 274 96 101 111 
317 653 274 100 105 115 
317 654 272 92 95 103 
317 654 273 96 100 109 
317 655 272 87 90 98 
318 652 274 96 102 112 
318 652 275 96 102 113 
318 653 274 105 110 119 
318 653 275 106 111 121 
318 654 273 97 100 109 
318 655 272 85 88 96 
318 655 273 91 94 102 
318 654 274 103 107 116 
318 654 275 100 105 114 
318 655 274 95 99 107 
319 654 275 95 99 108 
319 655 274 95 99 107 
319 655 275 95 99 108 
318 652 276 92 98 108 
318 653 276 97 103 112 
319 652 276 85 90 101 
319 652 277 84 89 99 
319 653 276 88 93 103 
319 653 277 79 83 94 
319 652 278 88 92 101 
319 652 279 91 94 103 
319 653 278 76 79 89 
319 653 279 78 81 90 
319 654 276 92 97 106 
319 654 277 84 89 99 
319 655 276 93 97 107 
319 655 277 90 95 105 
319 654 278 78 83 92 
319 654 279 75 79 88 
318 648 280 107 114 126 
318 649 280 103 109 122 
319 648 280 113 119 131 
319 648 281 111 117 128 
319 649 280 102 108 119 
319 649 281 109 114 124 
319 648 282 93 99 110 
319 649 282 101 106 117 
319 650 280 92 98 108 
319 650 281 95 100 110 
319 651 280 92 96 105 
319 651 281 93 98 107 
319 650 282 97 102 111 
319 651 282 93 97 106 
319 652 280 91 95 104 
319 652 281 93 97 106 
319 653 280 87 90 98 
314 656 263 93 98 107 
315 659 263 71 77 85 
315 660 263 71 76 85 
314 656 264 97 101 109 
314 657 264 84 89 97 
315 656 264 88 92 101 
315 656 265 83 86 94 
315 657 264 81 85 93 
315 657 265 82 86 93 
315 656 266 79 83 91 
315 657 266 82 85 93 
315 658 264 74 78 86 
315 658 265 81 85 93 
315 659 264 68 73 81 
315 660 264 68 73 81 
315 661 264 72 77 85 
315 661 265 72 76 84 
315 662 264 74 79 87 
315 662 265 74 79 86 
315 663 265 73 78 86 
315 663 266 78 82 89 
316 656 266 79 82 90 
316 656 267 81 84 91 
316 657 266 81 85 92 
316 657 267 80 83 91 
317 657 267 80 84 91 
316 658 264 76 80 87 
316 658 265 81 84 91 
316 659 264 69 73 81 
316 659 265 74 78 85 
316 658 266 84 87 94 
316 658 267 84 87 94 
316 659 266 76 80 87 
317 658 266 84 87 95 
317 658 267 84 87 95 
317 659 266 80 84 91 
317 659 267 84 87 95 
316 656 268 80 83 91 
317 656 268 80 83 91 
317 656 269 74 77 84 
317 657 268 79 83 91 
317 657 269 75 79 87 
317 656 270 70 74 82 
317 656 271 72 75 83 
317 657 270 71 75 84 
317 658 268 82 85 93 
317 658 269 79 83 91 
317 659 268 85 89 97 
317 659 269 83 87 96 
317 658 270 75 79 88 
318 656 271 71 74 83 
318 657 270 69 74 83 
318 657 271 68 72 81 
318 659 269 86 90 98 
318 658 270 74 79 88 
318 658 271 70 76 85 
318 659 270 84 88 97 
318 659 271 85 90 99 
316 660 264 65 69 77 
316 660 265 68 72 80 
316 661 264 67 72 79 
316 661 265 67 71 79 
317 660 265 68 72 80 
316 661 266 66 70 78 
317 660 266 74 78 85 
317 660 267 83 87 94 
317 661 266 70 75 83 
317 661 267 78 82 91 
316 662 265 73 77 84 
316 662 266 73 77 85 
316 663 266 80 84 92 
317 662 266 71 76 85 
317 662 267 73 79 87 
317 663 267 76 82 91 
317 660 268 87 90 98 
317 661 268 85 88 96 
317 662 268 75 80 88 
317 663 268 74 79 89 
318 660 268 88 92 100 
318 660 269 88 92 100 
318 661 268 86 89 97 
318 661 269 86 89 97 
318 660 270 89 93 101 
318 660 271 91 95 104 
318 661 270 86 90 98 
318 661 271 89 93 101 
319 660 271 94 98 107 
319 661 271 92 96 105 
318 662 268 79 83 92 
318 662 269 77 81 90 
318 663 269 70 76 85 
318 662 270 78 82 90 
318 662 271 80 84 92 
318 663 270 68 73 82 
318 663 271 69 73 82 
319 662 271 83 87 95 
319 663 271 71 76 84 
315 664 266 76 80 88 
315 665 266 70 74 82 
315 666 266 62 67 74 
315 666 267 67 71 79 
315 667 266 53 58 66 
315 667 267 58 63 72 
315 668 267 53 59 67 
315 669 267 53 58 66 
315 670 268 55 60 69 
315 671 268 52 57 65 
316 664 266 81 86 93 
316 664 267 82 87 96 
316 665 266 79 83 91 
316 665 267 83 88 97 
317 664 267 81 86 96 
317 665 267 84 89 98 
316 666 266 76 80 87 
316 666 267 79 84 93 
316 667 267 71 76 86 
317 664 268 78 84 93 
317 664 269 75 81 90 
317 665 268 86 91 100 
317 665 269 84 90 100 
316 666 268 86 92 101 
316 667 268 84 90 99 
317 666 268 92 97 106 
317 666 269 95 101 111 
317 667 268 97 103 113 
317 667 269 104 110 120 
318 664 269 73 79 88 
318 665 269 82 88 98 
318 664 270 71 76 85 
318 664 271 70 75 83 
318 665 270 80 86 95 
318 665 271 76 81 90 
318 666 270 90 96 107 
318 666 271 85 91 100 
318 667 270 100 106 116 
318 667 271 93 99 109 
316 668 267 65 71 80 
316 669 267 63 69 78 
316 668 268 79 85 95 
316 669 268 71 77 86 
317 668 268 95 100 110 
317 668 269 106 111 121 
317 669 268 91 97 106 
317 669 269 103 108 118 
317 668 270 104 109 119 
317 669 270 104 109 118 
316 670 268 65 71 79 
316 671 268 58 63 70 
317 670 269 93 97 105 
317 671 269 83 87 95 
317 670 270 96 101 110 
317 671 270 89 93 101 
318 668 270 100 106 116 
318 668 271 95 101 111 
318 669 270 98 104 113 
318 669 271 94 99 108 
318 670 270 95 99 108 
318 670 271 92 97 105 
318 671 270 90 94 103 
318 671 271 91 95 104 
318 656 272 74 78 86 
318 656 273 82 86 93 
318 657 272 69 73 82 
318 657 273 73 77 85 
319 656 273 82 86 94 
319 657 273 75 80 90 
318 656 274 90 94 102 
319 656 274 91 95 103 
319 656 275 94 98 107 
319 657 274 82 87 96 
319 657 275 90 94 103 
318 658 272 73 79 88 
318 659 272 80 86 96 
319 658 272 75 82 92 
319 658 273 77 84 95 
319 659 272 90 96 106 
319 659 273 93 99 109 
319 658 274 76 83 94 
319 659 274 88 95 107 
319 656 276 94 99 108 
319 660 272 102 106 115 
319 660 273 107 112 121 
319 661 272 98 102 111 
319 661 273 101 105 114 
319 662 272 86 90 98 
319 662 273 90 95 104 
319 663 272 76 79 88 
319 663 273 83 87 95 
318 665 272 75 80 88 
319 664 272 69 73 82 
319 664 273 76 81 89 
319 665 272 73 77 85 
319 665 273 73 78 87 
319 665 274 76 81 90 
318 666 272 83 88 97 
318 667 272 90 95 104 
319 666 272 80 84 93 
319 666 273 81 85 93 
319 667 272 86 91 100 
319 667 273 89 94 103 
319 666 274 82 87 95 
319 667 274 90 95 104 
319 667 275 93 99 109 
318 668 272 92 97 107 
318 668 273 92 97 107 
318 669 272 92 97 107 
318 669 273 92 97 107 
319 668 273 92 97 107 
319 669 273 94 99 109 
319 668 274 95 100 110 
319 668 275 98 104 114 
319 669 274 97 103 112 
319 669 275 104 110 121 
318 670 272 92 96 105 
318 670 273 93 98 108 
318 671 272 93 98 107 
318 671 273 94 99 108 
319 670 273 94 99 108 
319 670 274 98 102 112 
319 670 275 103 109 120 
319 671 274 96 101 111 
319 671 275 99 105 116 
316 672 268 55 60 67 
316 672 269 63 67 74 
316 673 268 47 52 60 
316 673 269 54 59 66 
317 672 269 78 82 89 
317 673 269 69 73 81 
317 672 270 87 91 99 
317 673 270 80 84 92 
316 674 269 53 58 66 
316 675 269 54 59 67 
317 674 269 67 72 79 
316 675 270 55 61 69 
317 674 270 73 78 86 
317 675 270 66 71 80 
318 672 270 89 93 101 
318 672 271 92 96 105 
318 673 270 87 91 100 
318 673 271 93 98 107 
318 674 270 82 87 96 
318 674 271 93 98 107 
318 675 270 79 84 93 
318 675 271 91 96 105 
316 676 270 57 62 71 
316 677 270 60 66 75 
317 676 270 65 71 79 
317 677 270 67 73 81 
316 678 270 64 70 79 
316 679 270 66 73 83 
316 679 271 70 77 86 
317 678 270 66 72 81 
317 679 270 67 73 82 
318 676 270 78 83 92 
318 676 271 86 92 101 
318 677 270 80 85 94 
318 677 271 87 93 102 
319 676 271 94 99 108 
319 677 271 93 98 108 
318 678 270 77 82 91 
318 679 270 72 78 87 
318 679 271 87 92 101 
319 678 271 90 95 105 
319 679 271 90 95 104 
316 680 271 75 82 91 
316 681 271 84 90 99 
317 680 270 67 74 83 
317 680 271 68 75 84 
317 681 271 73 79 89 
316 682 271 87 92 101 
317 682 271 81 87 97 
318 680 270 66 73 82 
318 680 271 73 79 88 
318 681 271 73 78 88 
319 680 271 88 93 102 
319 681 271 86 90 98 
318 682 271 76 81 91 
318 683 271 80 85 96 
319 682 271 82 87 96 
318 672 272 95 100 110 
318 672 273 95 100 110 
318 673 272 98 103 113 
319 672 273 97 103 113 
319 673 272 101 107 117 
319 673 273 105 110 120 
319 672 274 100 106 117 
319 672 275 101 107 118 
319 673 274 106 112 123 
318 674 272 100 104 114 
318 675 272 101 106 116 
319 674 272 104 109 119 
319 674 273 105 110 120 
319 675 272 101 105 115 
319 675 273 99 104 114 
319 674 274 106 112 122 
319 676 272 97 102 112 
319 677 272 93 98 108 
316 682 272 88 94 104 
316 683 272 90 95 106 
317 683 272 87 93 103 
318 683 272 83 90 100 
319 683 272 81 87 96 
316 684 273 93 99 109 
316 685 273 94 100 110 
317 684 272 93 99 110 
317 685 272 95 101 112 
317 685 273 95 100 111 
317 686 273 98 104 113 
317 687 273 99 104 114 
316 687 274 105 113 126 
318 684 272 92 99 109 
318 685 272 99 105 116 
319 684 272 84 90 100 
319 685 272 89 95 105 
318 686 272 96 102 112 
318 686 273 97 103 113 
318 687 273 95 100 110 
319 686 272 90 96 106 
319 687 272 91 97 107 
319 687 273 89 95 105 
317 688 273 101 107 118 
317 689 273 95 102 113 
317 688 274 112 118 129 
317 689 274 98 105 117 
317 690 274 93 99 111 
317 691 274 92 98 108 
317 691 275 94 100 111 
318 688 273 91 97 107 
318 689 273 91 97 107 
319 688 273 91 96 105 
319 689 273 92 97 106 
318 690 273 91 97 107 
319 690 273 92 97 107 
319 691 273 92 97 106 
318 690 274 91 96 107 
318 691 274 92 97 106 
319 691 274 91 96 106 
317 692 275 94 100 110 
317 693 275 94 100 110 
317 694 275 99 104 114 
318 692 274 92 96 104 
318 692 275 94 99 108 
318 693 275 93 98 106 
319 692 274 90 94 103 
319 693 274 90 94 103 
318 694 275 96 100 109 
319 694 274 92 95 103 
319 694 275 92 96 105 
317 694 276 111 116 126 
320 642 283 93 97 105 
320 643 283 93 97 105 
320 640 284 97 100 109 
320 640 285 95 98 106 
320 641 284 95 99 107 
320 641 285 98 101 109 
320 640 286 85 89 97 
320 640 287 87 90 98 
320 641 286 93 96 103 
320 641 287 87 91 98 
321 641 287 85 89 97 
320 642 284 93 97 105 
320 642 285 93 97 105 
320 643 284 93 96 104 
320 643 285 91 95 103 
321 643 285 90 94 103 
320 642 286 95 98 106 
321 642 286 94 97 105 
321 642 287 89 93 102 
321 643 286 93 96 105 
321 643 287 95 99 107 
320 644 283 92 96 103 
