ply
format ascii 1.0
comment Created by CloudCompare v2.10.1 (Zephyrus)
comment Created 1/30/20 12:05 PM
obj_info Generated by CloudCompare!
element vertex 1957
property float x
property float y
property float z
property uchar red
property uchar green
property uchar blue
end_header
88 720 283 116 123 137 
88 721 282 118 126 140 
88 721 283 116 124 138 
88 722 281 135 143 157 
88 723 280 139 145 158 
88 723 281 145 152 166 
88 722 282 131 139 153 
88 722 283 127 134 148 
88 723 282 142 150 164 
88 723 283 141 149 163 
89 723 283 135 143 157 
88 720 284 117 124 137 
88 720 285 114 120 133 
88 721 284 115 122 135 
89 720 285 115 121 134 
89 721 284 114 120 132 
89 721 285 115 122 134 
88 720 286 119 125 137 
89 720 286 118 124 136 
89 720 287 116 122 134 
89 721 286 118 125 137 
89 721 287 120 126 139 
88 722 284 120 127 141 
89 722 284 122 128 141 
89 722 285 120 126 138 
89 723 284 121 128 141 
89 723 285 118 124 137 
89 722 286 121 128 141 
90 721 287 120 127 140 
90 723 285 117 124 137 
90 722 286 126 133 147 
90 722 287 127 135 148 
90 723 286 126 133 146 
90 723 287 143 150 163 
88 724 280 134 140 152 
88 724 281 136 142 155 
88 725 280 123 129 141 
88 725 281 117 123 135 
88 724 282 136 143 156 
88 725 282 120 127 139 
89 724 282 128 135 149 
89 724 283 125 133 147 
89 725 282 116 122 135 
89 725 283 114 121 134 
88 726 280 112 118 130 
88 726 281 109 115 127 
88 727 280 108 114 125 
88 727 281 108 114 126 
89 726 281 109 115 127 
89 727 281 110 116 127 
89 726 282 110 116 128 
89 726 283 112 118 130 
89 727 282 112 118 130 
89 727 283 110 116 128 
90 727 283 110 117 129 
89 724 284 115 123 136 
89 725 284 113 120 132 
89 726 284 112 118 130 
90 724 284 110 117 129 
90 724 285 112 119 131 
90 725 284 110 116 128 
90 725 285 110 116 129 
90 724 286 117 125 138 
90 724 287 134 141 155 
90 725 286 110 118 131 
90 725 287 123 131 144 
91 724 287 141 148 162 
91 725 287 129 136 149 
90 726 284 110 116 127 
90 726 285 110 115 127 
90 727 284 107 114 126 
90 727 285 108 114 125 
90 726 286 112 119 131 
90 727 286 112 118 129 
91 726 286 116 123 136 
91 726 287 122 129 141 
91 727 286 111 118 130 
88 728 279 110 116 128 
88 728 280 109 115 127 
89 728 281 109 115 127 
89 728 282 112 119 131 
75 704 288 96 102 112 
75 704 289 100 106 116 
75 705 288 99 105 115 
75 705 289 106 112 122 
75 704 290 100 106 117 
75 704 291 105 112 123 
75 705 290 104 111 121 
75 705 291 107 113 124 
75 706 288 98 104 114 
75 704 292 112 118 130 
75 704 293 117 123 134 
75 704 294 117 123 135 
76 705 289 110 115 125 
76 705 290 111 116 126 
76 705 291 111 118 129 
76 706 288 99 105 115 
76 706 289 104 110 120 
76 707 288 94 100 110 
76 707 289 96 103 113 
76 706 290 109 114 125 
76 706 291 114 120 131 
76 707 290 102 109 120 
76 707 291 112 118 129 
76 704 293 117 123 135 
76 705 292 114 120 132 
76 705 293 116 123 135 
76 704 294 117 123 134 
76 704 295 115 120 131 
76 705 294 118 124 135 
76 705 295 116 122 133 
76 706 292 115 121 133 
76 706 293 116 122 134 
76 707 292 116 122 134 
76 707 293 118 124 137 
76 706 294 116 122 134 
76 706 295 114 120 132 
76 707 294 119 126 139 
77 706 295 113 120 134 
77 707 294 122 130 144 
77 707 295 123 131 145 
76 708 288 96 101 112 
76 708 289 97 103 114 
76 709 288 100 106 116 
76 709 289 105 111 122 
76 708 290 106 112 123 
76 708 291 114 120 132 
76 709 290 114 120 131 
77 709 290 120 125 137 
77 709 291 120 126 139 
77 710 288 106 112 122 
77 710 289 115 121 132 
77 711 288 121 127 139 
77 711 289 125 133 146 
77 710 290 123 129 142 
77 710 291 128 136 149 
77 711 290 131 139 153 
78 711 288 134 141 155 
78 711 289 137 145 160 
78 711 290 146 154 170 
78 711 291 144 152 168 
79 711 291 165 174 191 
76 708 292 118 125 137 
76 708 293 124 131 145 
77 708 292 125 132 145 
77 708 293 132 139 152 
77 709 292 124 131 144 
77 709 293 129 137 151 
77 708 294 141 148 162 
77 708 295 138 145 161 
77 709 294 139 146 161 
77 710 292 126 134 148 
78 709 293 133 141 156 
78 708 294 146 154 169 
78 708 295 137 146 161 
78 709 294 137 146 162 
78 709 295 136 145 161 
79 709 294 138 148 164 
79 709 295 140 149 165 
78 710 292 137 145 160 
78 710 293 136 145 161 
78 711 292 148 157 173 
79 710 293 147 156 173 
79 711 292 161 170 187 
79 711 293 151 161 179 
79 710 294 145 154 170 
79 710 295 145 154 170 
76 704 296 114 119 130 
76 704 297 115 122 134 
76 705 296 113 119 131 
76 705 297 117 124 136 
77 705 296 112 119 132 
77 705 297 125 132 145 
76 704 298 124 131 144 
77 704 298 135 143 158 
77 704 299 145 154 170 
77 705 298 143 149 163 
77 705 299 152 159 174 
77 706 296 114 121 134 
77 706 297 123 129 142 
77 707 296 122 129 143 
77 707 297 122 128 142 
77 706 298 133 138 151 
78 705 298 143 150 163 
78 705 299 154 160 175 
78 707 296 126 134 148 
78 707 297 124 130 145 
78 706 298 132 137 151 
78 706 299 144 150 166 
78 707 298 127 133 147 
79 706 299 136 144 160 
79 707 298 127 134 149 
79 707 299 128 135 151 
77 704 300 146 156 172 
78 704 300 156 165 180 
78 704 301 153 161 177 
78 705 300 160 168 184 
79 704 301 141 150 165 
79 705 300 153 160 177 
79 705 301 150 159 174 
79 704 302 129 137 152 
79 706 300 136 145 161 
79 706 301 138 147 163 
78 708 296 130 138 153 
78 708 297 128 136 151 
79 708 296 133 141 157 
79 708 297 134 143 159 
79 709 296 138 146 163 
79 709 297 139 148 164 
79 708 298 131 139 154 
78 712 288 152 159 174 
78 712 289 155 163 178 
79 712 288 169 176 192 
79 712 289 172 179 196 
79 713 288 163 170 186 
79 713 289 167 174 191 
78 712 290 158 167 183 
79 712 290 168 177 194 
79 712 291 174 183 200 
80 711 291 172 181 199 
80 711 292 168 176 196 
80 711 293 155 164 183 
81 711 292 159 167 185 
81 711 293 149 158 176 
80 710 294 150 158 174 
80 710 295 149 157 173 
80 711 294 150 158 175 
81 710 294 148 156 173 
81 710 295 148 156 174 
81 711 294 147 156 173 
82 711 292 142 149 167 
82 711 293 140 147 165 
83 711 292 132 138 156 
83 711 293 134 141 158 
82 710 294 143 150 168 
82 710 295 147 155 173 
82 711 294 142 149 166 
83 710 295 161 168 185 
83 711 294 142 149 166 
84 711 292 132 139 156 
84 711 293 132 138 155 
85 711 293 132 137 154 
84 710 295 161 170 188 
84 711 294 138 145 163 
85 710 295 155 163 181 
85 711 294 135 143 160 
85 711 295 148 155 173 
86 711 293 133 140 156 
86 710 295 145 153 172 
86 711 294 133 141 158 
86 711 295 138 145 164 
87 711 294 130 138 154 
87 711 295 131 139 156 
80 707 299 132 139 155 
80 705 301 131 140 155 
80 704 302 125 134 148 
80 704 303 123 131 145 
80 705 302 125 133 147 
81 704 303 121 129 143 
81 705 303 123 131 145 
80 706 300 131 139 155 
80 706 301 130 139 154 
80 707 300 132 141 156 
81 706 301 129 137 152 
81 707 300 136 145 161 
81 707 301 134 143 159 
81 706 302 125 133 147 
81 706 303 125 133 147 
82 707 301 136 146 163 
82 706 302 125 134 148 
82 706 303 127 135 150 
82 707 302 130 140 156 
82 707 303 130 139 154 
83 707 302 139 148 166 
83 707 303 134 143 158 
80 708 297 136 145 162 
80 709 296 144 153 170 
80 709 297 141 150 167 
81 709 296 148 157 174 
81 709 297 146 155 172 
80 708 298 135 144 160 
80 708 299 134 143 159 
81 708 298 142 152 169 
81 708 299 140 149 166 
81 709 298 148 156 174 
81 710 296 149 158 175 
82 709 297 154 162 180 
83 709 297 155 164 183 
82 708 299 158 167 184 
82 709 298 160 168 186 
82 709 299 164 173 191 
83 709 298 165 173 192 
83 709 299 172 181 199 
82 710 296 151 159 176 
82 710 297 152 160 178 
83 710 296 157 166 183 
83 710 297 149 160 178 
81 708 300 141 150 167 
82 708 300 155 164 182 
82 708 301 146 157 175 
83 708 300 166 176 194 
83 708 301 150 162 180 
83 708 302 144 155 173 
84 707 302 142 152 170 
84 707 303 142 150 166 
84 709 297 151 159 179 
85 709 297 146 154 173 
84 709 298 156 164 184 
84 709 299 163 172 190 
85 709 298 142 149 169 
85 709 299 141 149 168 
84 710 296 162 172 189 
84 710 297 150 160 179 
85 710 296 155 164 182 
85 710 297 144 153 171 
86 709 298 135 141 159 
86 709 299 136 143 161 
87 709 298 138 144 161 
87 709 299 136 142 159 
86 710 296 138 147 165 
86 710 297 133 141 158 
86 711 296 132 140 158 
87 710 296 129 138 155 
87 710 297 137 145 161 
87 711 296 129 138 156 
86 710 298 136 142 158 
87 710 298 139 145 161 
84 708 300 160 169 188 
84 708 301 150 160 179 
84 709 300 167 175 193 
85 708 301 148 156 173 
85 709 300 145 152 170 
85 709 301 144 152 168 
84 708 302 144 155 173 
85 708 302 147 156 173 
85 708 303 146 155 171 
86 708 301 140 147 163 
86 709 300 135 142 160 
86 709 301 135 142 159 
87 709 300 132 138 155 
87 709 301 129 135 152 
86 708 302 141 149 165 
86 708 303 143 151 167 
87 708 302 132 140 157 
87 708 303 138 144 161 
80 713 288 154 162 178 
80 713 289 152 159 177 
81 713 288 148 156 173 
81 713 289 144 151 169 
80 712 290 165 173 191 
80 712 291 173 182 200 
80 713 290 149 157 176 
81 712 290 147 155 172 
81 712 291 158 166 183 
81 713 290 143 151 169 
82 713 288 142 150 167 
82 713 289 141 148 166 
83 713 288 145 154 171 
83 713 289 144 153 170 
82 712 290 137 144 161 
82 712 291 142 148 165 
82 713 290 138 145 163 
83 712 290 137 145 162 
83 712 291 137 144 161 
83 713 290 138 147 164 
82 714 288 142 150 167 
83 714 288 137 147 163 
82 712 292 140 147 164 
83 712 292 134 141 158 
84 713 288 151 159 176 
84 713 289 150 160 177 
85 713 289 157 168 187 
84 712 290 139 147 165 
84 712 291 134 142 159 
84 713 290 140 150 168 
85 712 291 135 143 160 
85 713 290 147 157 175 
84 714 288 149 159 176 
85 714 288 157 167 186 
86 713 289 165 176 195 
86 712 291 136 144 160 
86 713 290 156 166 184 
86 713 291 141 150 167 
87 713 290 149 158 176 
87 713 291 136 145 162 
86 714 288 166 177 195 
86 714 289 167 178 197 
86 715 288 164 172 190 
87 714 289 163 173 191 
87 715 288 154 163 180 
87 715 289 157 166 184 
87 714 290 156 165 183 
84 712 292 132 138 155 
85 712 292 131 138 155 
85 712 293 131 138 154 
86 712 292 133 141 156 
86 712 293 131 138 153 
87 712 292 131 138 153 
87 712 293 130 137 152 
87 713 292 131 138 153 
86 712 294 130 138 154 
87 712 294 128 136 152 
88 711 295 133 141 157 
88 709 299 134 140 156 
88 710 297 137 145 160 
88 711 296 135 144 160 
88 711 297 137 145 161 
89 711 296 137 146 163 
89 711 297 138 147 164 
88 710 298 139 145 161 
88 710 299 134 141 157 
89 710 298 135 144 161 
89 710 299 130 138 154 
89 711 298 142 151 168 
90 710 299 135 143 160 
90 711 298 148 157 174 
90 711 299 138 147 164 
91 711 298 142 153 170 
91 711 299 139 149 165 
88 709 300 130 135 152 
88 709 301 128 134 149 
89 709 300 128 134 150 
89 709 301 128 134 149 
88 708 302 128 134 150 
88 708 303 133 138 154 
88 709 302 127 133 149 
89 708 303 126 132 147 
89 709 302 128 134 149 
89 710 300 128 136 152 
90 709 301 129 136 151 
91 709 301 125 133 148 
90 708 303 129 134 151 
90 709 302 129 135 150 
90 709 303 129 135 150 
91 709 302 127 134 148 
91 709 303 129 135 151 
90 710 300 130 137 153 
91 710 300 128 136 151 
91 710 301 124 132 147 
91 711 300 133 141 157 
92 711 299 141 150 167 
92 709 302 125 131 145 
92 709 303 129 135 151 
93 709 303 130 137 151 
92 710 301 122 129 144 
92 711 300 131 139 155 
92 711 301 124 132 148 
93 710 301 123 130 146 
93 711 300 131 140 155 
93 711 301 127 134 149 
92 710 302 122 129 144 
93 710 302 124 130 145 
93 710 303 127 133 147 
93 711 302 126 131 146 
94 711 301 125 131 145 
94 710 302 129 135 150 
94 710 303 136 142 157 
94 711 302 122 128 142 
95 710 303 135 141 157 
95 711 302 120 127 142 
95 711 303 124 130 145 
88 713 291 128 136 152 
88 715 289 144 153 170 
88 714 290 139 148 164 
88 714 291 129 137 152 
88 715 290 135 142 157 
88 715 291 129 136 151 
89 715 290 122 128 142 
89 715 291 124 130 143 
88 712 293 130 137 153 
88 713 292 125 133 148 
88 713 293 128 135 150 
89 713 293 130 137 152 
88 712 294 132 140 156 
88 712 295 134 142 157 
88 713 294 133 140 156 
89 712 294 137 145 161 
89 712 295 135 144 160 
89 713 294 139 146 161 
89 713 295 142 150 166 
88 714 292 125 132 146 
89 714 292 124 130 144 
89 714 293 128 135 147 
89 715 292 123 128 141 
89 715 293 124 130 143 
89 714 294 134 140 153 
90 713 295 141 148 164 
90 715 292 121 127 139 
90 715 293 122 128 141 
90 714 294 136 143 156 
90 714 295 132 139 153 
90 715 294 125 131 144 
90 715 295 125 132 145 
91 715 295 122 130 143 
88 716 288 130 137 152 
88 716 289 127 134 149 
88 717 288 117 124 138 
89 716 289 120 126 140 
89 717 288 116 123 136 
89 717 289 119 126 140 
89 716 290 120 127 140 
89 716 291 120 126 139 
89 717 290 120 127 140 
89 718 288 117 124 138 
89 718 289 121 128 142 
89 719 288 118 125 138 
89 719 289 124 131 144 
90 717 290 120 126 139 
90 717 291 121 128 141 
90 718 289 126 133 146 
90 719 289 130 137 150 
90 718 290 132 139 152 
90 718 291 130 138 152 
90 719 290 137 145 159 
90 719 291 142 149 163 
91 719 291 135 142 156 
89 716 292 120 126 139 
90 716 292 119 126 139 
90 716 293 120 126 139 
90 717 292 120 127 140 
90 717 293 121 128 141 
91 717 293 122 129 142 
90 716 294 121 127 140 
91 716 294 120 126 139 
91 716 295 120 127 140 
91 717 294 121 128 141 
91 717 295 120 128 141 
90 718 292 125 133 147 
91 718 292 126 133 147 
91 718 293 122 129 142 
91 719 292 126 134 148 
91 719 293 124 130 143 
91 718 294 121 127 140 
91 718 295 122 128 141 
91 719 294 121 128 140 
92 717 295 120 128 141 
92 718 295 122 129 142 
92 719 294 121 127 139 
92 719 295 123 129 141 
93 719 295 128 134 146 
89 712 296 136 145 161 
89 712 297 143 152 170 
90 712 296 139 148 165 
90 712 297 143 153 171 
90 713 296 134 143 160 
91 713 296 132 142 158 
91 713 297 131 142 159 
90 712 298 150 159 176 
91 712 298 142 153 171 
91 712 299 141 152 169 
91 713 298 136 147 165 
90 714 296 128 137 152 
91 714 296 127 136 151 
91 714 297 133 143 159 
91 715 296 124 132 146 
91 715 297 135 143 158 
91 716 296 121 129 143 
92 712 299 143 153 170 
92 713 298 143 153 170 
92 713 299 146 155 171 
93 713 299 137 146 161 
92 714 297 140 149 164 
92 715 297 141 148 163 
92 714 298 141 149 165 
92 715 298 139 147 162 
93 714 299 129 137 153 
93 715 298 136 143 158 
93 715 299 121 129 144 
94 715 299 114 121 136 
92 712 300 144 153 169 
93 712 300 138 146 161 
93 712 301 130 137 152 
93 713 300 139 147 162 
94 712 301 121 129 143 
94 713 300 126 132 146 
94 713 301 121 128 142 
95 712 301 120 127 141 
95 713 301 119 127 140 
95 712 302 119 126 141 
94 714 300 119 127 140 
94 715 300 116 123 137 
95 714 300 116 123 136 
95 714 301 118 126 139 
95 715 300 117 124 138 
92 716 296 123 131 145 
92 716 297 129 137 152 
92 717 296 121 129 143 
92 717 297 122 130 145 
93 716 297 120 128 143 
93 717 297 122 130 145 
93 716 298 120 129 144 
93 716 299 116 125 139 
93 717 298 122 131 146 
92 718 296 126 133 147 
93 718 296 137 144 158 
93 718 297 133 141 155 
93 719 296 145 151 165 
93 719 297 150 156 171 
94 716 299 117 124 137 
94 717 298 123 132 146 
94 717 299 123 130 144 
95 716 299 114 121 134 
95 717 299 119 126 140 
94 718 297 139 147 161 
94 719 297 148 155 169 
94 718 298 128 136 150 
94 718 299 124 131 145 
94 719 298 133 141 156 
95 718 299 124 132 145 
95 719 298 130 139 153 
95 719 299 128 136 150 
95 716 300 113 120 134 
95 717 300 114 121 134 
81 704 304 128 136 150 
81 705 304 127 135 149 
82 704 304 139 147 161 
82 704 305 146 154 169 
82 705 304 132 140 154 
82 705 305 143 151 166 
83 705 305 133 142 158 
82 704 306 151 160 177 
83 704 306 147 158 174 
83 705 306 138 147 164 
82 706 304 128 137 151 
83 706 304 132 140 155 
83 706 305 131 140 155 
84 705 305 128 137 154 
84 704 306 140 150 168 
84 704 307 143 155 174 
84 705 306 133 142 161 
85 704 307 146 158 177 
85 705 306 143 152 170 
85 705 307 142 154 172 
84 706 304 136 144 159 
84 706 305 133 142 159 
84 707 304 139 147 163 
85 706 305 139 148 163 
85 707 304 144 152 168 
85 707 305 141 149 164 
85 706 306 138 148 164 
86 705 307 155 166 183 
86 707 304 144 152 168 
86 707 305 144 151 167 
87 707 305 150 157 173 
86 706 306 156 164 181 
86 706 307 155 165 183 
86 707 306 152 161 177 
87 706 307 147 156 173 
87 707 306 150 159 175 
85 704 308 152 164 184 
86 704 308 163 174 193 
86 704 309 167 177 195 
86 705 308 161 171 189 
87 704 309 156 166 183 
87 705 308 144 153 171 
87 705 309 143 152 169 
87 704 310 151 161 178 
87 706 308 142 152 170 
86 708 304 145 153 169 
87 708 304 148 155 171 
87 708 305 154 161 177 
88 707 305 150 158 175 
89 707 305 146 154 171 
88 706 307 145 154 171 
88 707 306 148 157 174 
88 707 307 146 155 172 
89 707 306 144 152 168 
89 707 307 145 154 171 
90 707 306 139 146 162 
90 707 307 144 152 168 
91 707 306 132 140 156 
91 707 307 140 148 163 
88 704 309 145 154 171 
88 705 308 136 144 162 
88 705 309 141 149 166 
89 705 309 142 150 166 
88 704 310 144 154 170 
89 704 310 142 150 166 
89 704 311 134 144 160 
89 705 310 144 152 168 
88 706 308 140 149 166 
89 706 308 143 152 168 
89 706 309 141 149 165 
90 705 309 143 151 166 
90 704 311 129 139 155 
90 705 310 141 150 166 
90 705 311 136 146 162 
91 704 311 129 140 156 
91 705 310 141 149 166 
90 706 308 144 152 168 
90 706 309 142 150 166 
90 707 308 145 152 168 
91 706 308 145 153 169 
91 706 309 142 151 167 
91 707 308 146 154 169 
91 706 310 141 150 167 
88 708 304 153 159 174 
88 708 305 156 163 179 
89 708 304 137 144 159 
89 708 305 150 157 172 
90 708 304 129 136 152 
90 708 305 134 141 157 
91 708 304 128 134 150 
91 708 305 129 135 151 
91 709 304 129 135 152 
90 708 306 135 142 158 
91 708 306 129 136 152 
92 707 307 138 145 161 
93 707 307 134 141 158 
94 707 307 135 140 158 
95 707 307 129 136 153 
92 704 311 130 142 159 
92 705 310 144 153 170 
92 705 311 139 149 167 
93 704 311 135 147 165 
93 705 310 152 161 179 
93 705 311 156 167 186 
92 706 309 144 153 170 
92 707 308 145 153 169 
93 706 309 155 163 180 
93 707 308 143 151 168 
92 706 310 144 154 171 
93 706 310 163 172 190 
94 705 311 167 179 198 
95 705 311 171 182 201 
94 706 309 159 168 184 
94 707 308 141 147 164 
94 707 309 151 158 174 
95 706 309 154 161 177 
95 707 308 136 142 158 
95 707 309 149 155 171 
94 706 310 171 180 197 
94 706 311 170 181 200 
95 706 310 163 172 190 
95 706 311 169 180 198 
92 708 304 131 137 152 
92 708 305 126 133 148 
92 709 304 132 138 153 
93 708 305 126 134 149 
93 709 304 131 138 153 
93 709 305 129 136 152 
92 708 306 128 135 151 
93 708 306 130 137 154 
94 708 305 130 138 156 
94 709 304 136 143 160 
94 709 305 135 144 160 
95 708 305 135 144 163 
95 709 304 141 149 166 
95 709 305 141 150 168 
94 708 306 126 133 151 
94 708 307 129 135 153 
95 708 306 130 139 157 
95 708 307 127 135 153 
95 710 304 139 147 163 
91 704 312 118 130 146 
92 704 312 115 127 144 
93 704 312 127 140 158 
93 705 312 151 163 182 
94 704 312 130 144 163 
94 705 312 153 167 187 
95 704 312 136 148 166 
95 705 312 163 176 195 
89 720 288 120 126 139 
90 720 288 125 131 143 
90 720 289 133 140 153 
90 721 288 120 127 139 
90 721 289 124 132 145 
90 720 290 140 147 161 
90 720 291 147 154 167 
90 721 290 134 141 155 
91 720 290 138 145 159 
91 720 291 138 145 158 
91 721 290 126 133 147 
91 721 291 125 132 146 
90 722 288 123 131 145 
90 722 289 120 129 143 
90 723 288 137 144 158 
91 722 289 123 131 145 
91 723 288 142 149 162 
91 723 289 129 136 149 
91 722 290 121 129 143 
91 722 291 121 128 141 
91 723 290 123 130 144 
91 723 291 119 126 140 
91 720 292 123 130 143 
91 720 293 121 128 141 
91 721 292 122 128 141 
91 722 292 122 128 141 
91 724 288 140 146 159 
91 724 289 128 135 148 
91 725 288 134 140 153 
91 725 289 126 133 146 
91 724 290 122 129 142 
91 726 288 126 132 144 
91 726 289 123 130 142 
92 723 291 118 125 137 
92 720 293 122 128 140 
92 721 292 121 127 140 
92 721 293 122 128 140 
92 720 294 122 128 140 
92 720 295 122 128 140 
92 721 294 122 129 141 
92 721 295 123 129 141 
93 720 295 125 131 143 
93 721 295 122 129 141 
92 722 292 121 128 140 
92 722 293 122 128 141 
92 723 292 120 126 138 
92 723 293 120 126 139 
93 723 293 118 124 137 
92 722 294 122 129 141 
93 722 294 122 128 140 
93 722 295 122 128 140 
93 723 294 120 127 140 
94 722 295 120 127 139 
94 723 294 122 129 142 
94 723 295 122 129 142 
95 723 295 123 131 144 
92 724 290 121 128 141 
92 724 291 119 126 138 
92 725 290 121 128 141 
92 725 291 119 126 138 
92 726 289 121 128 141 
92 726 290 119 126 139 
92 724 292 118 124 137 
93 724 292 119 126 139 
93 724 293 119 126 139 
93 725 292 120 127 139 
93 725 293 121 128 142 
93 724 294 121 128 142 
94 725 293 121 129 142 
94 724 294 124 131 144 
94 724 295 125 132 146 
95 724 295 127 135 148 
93 720 296 134 140 153 
93 721 296 125 131 144 
94 720 296 128 135 148 
94 720 297 138 145 159 
94 721 296 124 131 144 
94 721 297 130 137 150 
95 720 297 131 139 153 
95 721 297 130 137 150 
95 720 298 130 138 152 
94 722 296 122 129 142 
94 723 296 120 127 140 
95 722 296 124 131 145 
95 722 297 127 134 147 
95 723 296 123 131 144 
96 710 303 129 136 152 
96 711 303 126 134 149 
97 711 303 126 134 149 
96 713 301 123 130 144 
96 712 302 123 131 145 
96 712 303 126 133 147 
96 713 302 125 132 146 
97 712 302 127 134 148 
97 712 303 128 136 150 
97 713 302 129 136 149 
96 714 301 123 130 144 
96 715 300 119 126 140 
96 715 301 121 128 141 
97 715 301 123 129 142 
96 714 302 126 133 146 
97 714 302 127 134 148 
97 715 302 123 130 144 
98 712 303 135 143 157 
98 713 303 135 142 156 
99 712 303 136 145 161 
99 713 303 144 153 170 
98 714 302 128 135 150 
98 714 303 129 137 152 
98 715 302 128 136 151 
99 714 303 141 151 167 
99 715 302 141 150 166 
99 715 303 142 152 168 
96 718 299 124 131 145 
96 719 299 126 134 149 
96 716 300 117 124 137 
96 716 301 120 126 140 
96 717 300 118 126 139 
96 717 301 121 128 141 
97 716 301 122 130 143 
97 717 301 122 130 144 
97 716 302 122 129 143 
96 718 300 120 129 142 
96 719 300 123 132 146 
97 718 300 121 129 144 
97 718 301 121 130 145 
97 719 300 128 137 151 
98 717 301 124 132 147 
98 716 302 130 139 153 
98 717 302 127 135 150 
99 716 302 143 151 166 
99 716 303 150 159 174 
99 717 302 132 140 157 
98 718 301 123 133 148 
98 719 300 142 151 167 
98 719 301 135 145 161 
99 718 301 130 139 155 
99 719 301 135 145 162 
99 718 302 130 139 155 
99 719 302 134 143 159 
100 714 303 148 160 178 
100 715 303 147 159 177 
101 715 303 160 171 190 
100 716 303 147 157 174 
100 717 302 136 145 162 
100 717 303 138 147 164 
101 716 303 155 166 184 
101 717 303 144 154 171 
100 719 301 134 143 159 
100 718 302 136 144 161 
100 719 302 135 144 160 
101 718 302 137 146 162 
101 718 303 140 148 165 
101 719 302 135 144 159 
102 716 303 146 157 175 
102 717 303 143 152 170 
103 716 303 145 155 171 
103 717 303 143 151 168 
102 718 302 139 147 164 
102 718 303 140 149 166 
102 719 302 137 145 161 
103 718 302 138 146 162 
103 718 303 138 147 163 
103 719 302 135 144 160 
104 716 303 148 156 171 
104 717 303 146 155 170 
105 716 303 147 154 169 
105 717 303 141 149 165 
104 718 302 134 143 159 
104 718 303 139 148 164 
104 719 302 131 140 156 
105 718 302 141 149 165 
105 718 303 139 147 163 
105 719 302 138 145 162 
106 716 303 138 145 160 
106 717 303 132 141 157 
107 716 303 131 137 151 
107 717 303 131 138 154 
106 718 302 139 147 163 
106 718 303 135 144 160 
106 719 302 135 143 159 
107 718 302 141 149 164 
107 718 303 140 148 164 
107 719 302 134 142 156 
109 715 303 130 134 147 
110 715 303 130 133 148 
111 715 303 129 130 146 
108 716 303 127 132 146 
108 717 303 131 138 154 
109 716 303 130 133 146 
109 717 303 135 141 156 
108 718 302 137 145 159 
108 718 303 140 148 163 
108 719 302 138 144 158 
109 718 302 143 149 162 
109 718 303 143 149 163 
109 719 302 141 146 159 
110 716 303 127 130 143 
110 717 303 128 133 146 
111 716 303 124 127 140 
111 717 303 123 127 141 
110 718 302 140 146 159 
110 718 303 136 141 154 
110 719 302 132 138 151 
111 718 303 123 129 142 
111 719 302 115 122 136 
111 719 303 113 120 134 
96 707 307 125 133 151 
96 705 311 172 183 202 
97 705 311 154 163 180 
96 706 309 149 156 173 
96 707 308 133 139 155 
96 707 309 145 152 167 
97 706 309 139 146 161 
97 707 308 127 133 148 
97 707 309 134 140 155 
96 706 310 157 166 184 
96 706 311 169 180 198 
97 706 310 147 156 171 
97 706 311 152 161 178 
98 705 311 147 155 170 
99 705 311 143 150 165 
98 706 309 136 142 157 
98 707 308 130 135 149 
98 707 309 133 139 154 
99 707 308 132 136 150 
99 707 309 131 137 152 
98 706 310 145 152 167 
98 706 311 149 157 172 
99 706 310 140 146 161 
99 706 311 146 152 167 
96 708 305 144 154 171 
96 709 304 142 150 167 
96 709 305 147 157 174 
97 709 305 139 149 165 
96 708 306 137 147 164 
96 708 307 126 135 152 
97 708 306 132 141 157 
97 708 307 126 133 149 
97 709 306 134 142 159 
96 710 304 135 142 158 
97 710 304 131 139 155 
97 710 305 131 140 156 
97 711 304 128 136 151 
98 709 305 128 137 153 
98 708 306 123 131 146 
98 708 307 125 130 145 
98 709 306 125 133 149 
99 708 307 126 132 146 
99 709 306 125 132 147 
98 710 304 128 137 152 
98 710 305 127 135 151 
98 711 304 128 136 151 
99 710 305 126 134 148 
99 711 304 125 134 150 
99 711 305 124 133 149 
98 708 308 130 135 149 
99 708 308 131 135 150 
100 705 311 144 150 165 
101 705 311 148 153 168 
100 707 308 132 137 151 
100 707 309 131 137 152 
101 707 308 135 141 155 
101 707 309 136 142 156 
100 706 310 138 144 159 
100 706 311 145 151 165 
101 706 310 143 149 164 
101 706 311 148 154 169 
102 705 311 150 156 170 
102 707 309 136 142 156 
103 707 309 133 138 152 
102 706 310 144 150 165 
102 706 311 151 157 171 
103 706 310 145 151 165 
103 706 311 151 156 170 
103 707 310 138 143 157 
100 708 307 131 137 152 
100 709 306 124 131 147 
100 709 307 130 137 153 
101 708 307 137 145 160 
101 709 306 126 134 150 
101 709 307 133 141 157 
100 710 305 124 132 147 
100 711 305 123 132 148 
101 711 305 124 132 147 
100 710 306 125 132 147 
101 710 306 123 131 146 
101 711 306 124 132 146 
102 709 307 133 140 156 
103 709 307 128 136 151 
102 711 305 125 133 148 
102 710 306 127 135 150 
102 711 306 126 134 148 
103 710 306 128 136 150 
103 710 307 128 136 150 
103 711 306 128 136 149 
100 708 308 133 139 153 
101 708 308 140 146 161 
102 708 308 140 146 162 
102 708 309 138 143 158 
103 708 308 133 139 154 
96 704 312 145 157 175 
96 704 313 120 131 148 
96 705 312 163 175 194 
97 704 312 134 144 159 
97 704 313 107 117 132 
97 705 312 149 158 174 
98 704 312 126 134 149 
98 704 313 105 114 128 
98 705 312 141 149 164 
99 704 312 133 141 155 
99 704 313 114 122 136 
99 705 312 139 147 162 
100 704 312 131 137 150 
100 704 313 117 124 136 
100 705 312 138 145 160 
101 704 312 133 138 151 
101 704 313 119 124 134 
101 705 312 139 146 160 
102 704 312 134 140 151 
102 704 313 123 127 138 
102 705 312 145 151 165 
103 704 312 134 140 153 
103 704 313 123 128 139 
103 705 312 145 152 166 
98 712 304 130 138 153 
99 712 304 127 138 154 
99 713 304 141 152 169 
100 712 304 133 145 163 
100 712 305 127 138 156 
100 713 304 150 162 180 
101 712 305 127 138 154 
101 713 304 147 159 178 
101 713 305 137 148 166 
100 714 304 148 161 180 
100 715 304 150 163 182 
101 714 304 158 169 188 
101 715 304 161 172 191 
102 712 305 128 136 151 
102 713 304 143 154 172 
102 713 305 135 145 162 
103 712 305 131 138 152 
103 713 305 132 141 156 
103 712 306 129 136 150 
102 714 304 148 159 177 
102 715 304 153 165 182 
103 714 304 132 143 159 
103 715 304 138 148 165 
103 716 304 142 152 169 
104 705 311 146 152 166 
105 705 311 146 153 167 
104 707 309 122 128 142 
105 707 309 117 122 139 
104 706 310 138 143 158 
104 706 311 147 153 167 
104 707 310 130 135 150 
105 706 310 137 141 157 
105 706 311 145 151 165 
105 707 310 129 134 150 
106 705 311 152 159 173 
107 705 311 151 158 173 
106 707 309 128 132 149 
107 707 309 143 148 162 
106 706 310 143 149 163 
106 706 311 147 152 166 
106 707 310 128 133 151 
107 706 310 144 150 165 
107 706 311 148 155 169 
107 707 310 140 145 162 
104 709 307 124 131 145 
105 709 307 124 130 144 
104 710 306 127 134 148 
104 710 307 125 132 145 
104 711 306 128 134 147 
105 710 307 125 132 145 
105 711 306 127 135 148 
106 709 307 125 131 145 
107 709 307 127 133 147 
106 710 307 126 133 147 
106 711 306 129 138 152 
106 711 307 128 135 150 
107 710 307 126 133 149 
107 711 306 133 141 157 
107 711 307 131 138 154 
104 708 308 123 129 143 
104 708 309 116 121 137 
104 709 308 122 127 143 
105 708 308 122 125 142 
105 708 309 119 123 140 
106 708 308 128 131 146 
106 708 309 129 133 149 
106 709 308 128 132 147 
107 708 308 134 139 152 
107 708 309 140 145 159 
107 709 308 130 136 149 
108 705 311 144 152 167 
109 705 311 144 152 167 
108 707 309 142 147 161 
108 706 310 145 152 167 
108 706 311 145 153 168 
108 707 310 146 152 167 
109 706 310 147 154 168 
109 706 311 148 155 170 
109 707 310 137 143 158 
110 705 311 145 153 168 
111 705 311 148 155 170 
110 707 309 134 137 151 
111 707 309 137 137 152 
110 706 310 147 153 167 
110 706 311 149 156 171 
110 707 310 138 144 158 
111 706 310 148 153 167 
111 706 311 154 159 173 
111 707 310 142 144 159 
108 709 307 127 133 148 
109 709 307 130 137 152 
108 710 307 131 137 154 
108 711 306 138 146 162 
109 710 307 133 141 158 
109 711 306 137 146 163 
110 709 307 142 149 164 
111 709 307 150 156 171 
110 710 307 136 145 161 
110 711 306 138 148 166 
111 710 307 142 152 169 
111 711 306 139 152 171 
108 708 308 133 138 150 
108 708 309 137 141 154 
108 709 308 129 134 148 
109 708 308 130 134 147 
109 708 309 133 136 149 
109 709 308 129 135 149 
110 708 308 135 140 153 
110 708 309 134 135 149 
110 709 308 139 145 159 
111 708 309 135 139 154 
111 709 308 153 158 172 
104 704 312 130 135 149 
104 704 313 122 128 140 
104 705 312 143 150 164 
105 704 312 130 137 150 
105 705 312 143 150 165 
106 704 312 140 147 162 
106 705 312 155 162 176 
107 704 312 150 158 172 
107 705 312 159 165 180 
108 704 312 146 153 168 
108 705 312 151 158 173 
109 704 312 132 140 155 
109 705 312 141 149 164 
110 704 312 128 136 151 
111 704 312 129 138 153 
104 712 305 129 136 150 
104 713 305 129 136 151 
105 713 305 128 136 151 
104 712 306 127 135 149 
105 712 306 127 135 149 
104 714 304 126 135 151 
104 714 305 124 133 149 
104 715 304 135 145 160 
105 714 304 130 138 154 
105 714 305 126 134 150 
105 715 304 139 147 162 
106 712 305 145 153 169 
106 713 305 140 149 164 
107 712 305 159 166 181 
107 713 305 154 162 177 
106 712 306 133 142 158 
107 712 306 144 152 168 
106 714 304 138 145 160 
106 714 305 138 145 160 
106 715 304 139 146 161 
107 714 304 142 149 163 
107 714 305 145 152 167 
107 715 304 139 145 160 
104 716 304 144 153 169 
105 716 304 145 153 168 
108 713 305 144 152 167 
109 712 305 141 149 165 
109 713 305 139 147 163 
108 712 306 148 156 171 
109 712 306 141 149 165 
108 714 304 142 149 163 
108 714 305 139 147 162 
108 715 304 137 143 157 
109 714 304 146 152 166 
109 714 305 142 149 164 
109 715 304 137 142 156 
110 712 305 144 152 168 
110 713 305 148 156 171 
111 712 305 158 165 180 
111 713 305 165 172 187 
110 712 306 140 150 166 
111 712 306 141 152 169 
110 714 304 148 153 168 
110 714 305 149 156 171 
110 715 304 135 139 154 
111 714 304 152 155 170 
111 714 305 168 173 188 
111 715 304 136 138 154 
96 724 295 130 138 152 
96 720 298 126 134 149 
96 720 299 128 137 151 
96 721 298 129 137 151 
96 721 299 130 138 153 
97 720 299 136 144 159 
97 721 298 131 139 154 
97 721 299 134 143 158 
96 722 297 129 136 150 
96 723 296 129 136 151 
96 723 297 129 136 150 
97 723 297 130 138 153 
96 722 298 129 137 151 
97 722 298 130 139 153 
97 723 298 129 138 153 
98 721 299 137 146 162 
99 721 299 133 142 157 
98 723 297 133 142 159 
98 722 298 130 139 155 
98 722 299 133 141 157 
98 723 298 130 140 158 
99 722 299 133 142 159 
99 723 298 138 149 167 
99 723 299 139 149 167 
97 720 300 139 147 162 
98 720 300 149 158 174 
99 720 300 142 152 169 
99 720 301 141 151 168 
99 721 300 134 143 159 
96 724 296 130 138 152 
97 724 296 131 140 155 
100 722 299 132 142 158 
100 720 301 133 142 158 
100 721 300 130 139 155 
100 721 301 131 141 156 
101 720 301 134 143 159 
101 721 300 130 139 155 
101 721 301 129 138 154 
100 722 300 129 138 154 
101 722 300 128 137 154 
102 720 301 132 140 155 
102 721 301 126 135 150 
103 720 301 129 137 151 
103 721 301 125 133 148 
102 720 302 134 142 157 
103 720 302 132 140 156 
102 722 300 125 135 151 
102 722 301 125 134 149 
103 722 300 123 132 147 
103 722 301 121 130 144 
104 721 301 118 127 143 
105 721 301 121 131 146 
104 720 302 125 134 150 
104 721 302 120 129 144 
105 720 302 129 137 153 
105 721 302 123 132 148 
106 721 301 124 134 149 
106 720 302 128 136 151 
106 721 302 124 133 148 
107 720 302 127 134 149 
107 721 302 123 131 145 
108 720 302 127 133 147 
108 721 302 124 130 143 
109 720 302 127 133 145 
110 720 302 119 126 139 
111 720 302 114 121 134 
112 715 303 126 128 144 
113 715 303 124 128 144 
114 715 303 129 134 149 
115 714 303 126 131 146 
115 715 303 143 148 162 
112 716 303 121 125 140 
112 717 303 123 127 140 
113 716 303 121 128 142 
113 717 303 126 129 141 
112 718 303 120 125 137 
112 719 302 109 116 128 
112 719 303 114 120 133 
113 718 303 121 125 135 
113 719 303 111 117 127 
114 716 303 127 133 147 
114 717 303 125 129 140 
115 716 303 138 143 155 
115 717 303 124 128 138 
114 718 303 117 120 131 
114 719 303 108 112 123 
115 718 303 115 118 128 
115 719 303 107 111 120 
116 714 303 123 128 140 
116 715 303 144 148 159 
117 714 303 120 125 136 
117 715 303 133 137 147 
119 713 303 112 112 130 
118 714 303 119 123 136 
118 715 302 123 129 141 
119 714 302 128 135 148 
119 714 303 119 122 137 
119 715 302 120 127 140 
116 716 303 131 136 147 
116 717 302 119 124 134 
116 717 303 122 126 136 
117 716 302 123 127 138 
117 716 303 129 133 144 
117 717 302 118 121 132 
116 718 302 114 116 126 
116 718 303 113 115 124 
116 719 303 106 108 118 
117 718 302 110 113 123 
117 719 303 105 108 118 
118 716 302 125 129 141 
118 717 302 120 124 135 
119 716 302 121 127 141 
119 717 302 116 120 133 
118 718 302 112 116 127 
118 719 302 106 111 121 
118 719 303 106 111 121 
119 718 302 111 114 126 
119 719 302 107 111 121 
119 719 303 107 110 120 
123 711 303 114 117 130 
124 711 303 120 123 136 
125 711 302 115 118 130 
125 711 303 120 123 136 
127 711 301 118 122 139 
126 710 303 123 127 141 
126 711 302 114 119 131 
126 711 303 119 123 136 
127 710 303 122 127 139 
127 711 302 116 120 134 
127 711 303 118 122 135 
120 712 303 112 114 130 
120 713 303 117 120 135 
121 712 303 117 120 133 
121 713 302 141 147 160 
121 713 303 123 127 140 
120 714 302 135 141 154 
120 715 302 130 137 150 
121 714 302 150 155 168 
121 715 302 131 136 148 
123 713 301 118 123 136 
122 712 303 116 120 133 
122 713 302 130 135 148 
122 713 303 122 127 140 
123 712 302 113 116 129 
123 712 303 111 114 127 
123 713 302 119 124 137 
122 714 301 136 141 155 
122 715 301 125 128 141 
123 714 301 120 125 139 
123 715 301 119 122 135 
122 714 302 150 155 168 
122 715 302 133 138 151 
121 716 301 113 119 132 
120 716 302 117 124 137 
120 717 302 113 119 133 
121 716 302 114 120 133 
121 717 302 110 117 131 
120 718 302 111 115 126 
120 719 302 113 116 125 
120 719 303 113 116 126 
121 718 302 108 113 125 
121 719 302 118 121 131 
122 716 301 116 120 132 
122 717 301 111 118 130 
123 716 301 116 119 129 
123 717 301 117 122 133 
122 717 302 110 118 131 
123 718 301 130 135 146 
122 718 302 119 124 135 
123 718 302 132 137 148 
124 713 301 122 125 138 
125 713 301 121 124 136 
124 712 302 120 120 133 
124 712 303 117 118 131 
124 713 302 120 123 135 
125 712 302 119 120 133 
124 714 301 120 124 135 
124 715 301 117 121 132 
125 714 301 122 124 134 
125 715 301 117 119 128 
126 712 301 116 120 134 
126 713 301 117 121 133 
127 712 301 119 124 141 
127 713 300 121 128 143 
126 712 302 114 119 131 
126 714 300 116 119 130 
126 714 301 121 123 133 
126 715 300 119 121 130 
127 714 300 117 123 136 
127 715 300 116 121 133 
124 716 301 114 118 127 
124 717 301 113 115 125 
125 716 301 113 115 124 
125 717 301 108 110 120 
124 718 301 119 124 134 
125 718 301 107 111 121 
124 718 302 123 128 139 
126 716 300 111 114 124 
126 717 300 108 110 122 
126 717 301 106 108 118 
127 716 300 124 129 141 
127 717 300 118 122 134 
126 718 301 105 108 118 
127 718 300 108 112 125 
127 718 301 104 108 120 
112 704 311 139 146 161 
112 705 311 149 156 170 
113 704 311 134 142 156 
113 705 311 148 154 168 
112 707 309 136 137 155 
113 707 309 135 137 156 
112 706 310 152 156 170 
112 707 310 143 143 159 
113 706 310 152 155 169 
113 707 310 143 144 160 
114 704 311 127 134 148 
114 705 311 142 149 163 
115 704 311 123 130 143 
115 705 310 142 149 164 
115 705 311 136 144 159 
114 707 309 134 138 158 
115 707 309 140 146 165 
114 706 310 149 153 167 
114 707 310 142 146 162 
115 706 310 148 155 169 
115 707 310 141 147 164 
112 709 307 141 149 165 
113 709 307 132 141 156 
112 710 307 139 151 168 
112 711 306 145 156 174 
113 710 307 141 151 168 
113 711 306 146 155 171 
114 709 307 140 146 161 
115 709 307 135 139 153 
114 710 307 147 154 169 
114 711 306 147 153 167 
115 710 306 135 140 155 
115 710 307 136 141 156 
115 711 306 145 149 163 
112 708 308 141 149 163 
112 708 309 136 142 158 
112 709 308 149 156 171 
113 708 308 129 137 153 
113 708 309 133 137 156 
113 709 308 128 137 152 
114 708 308 126 133 150 
114 709 308 132 139 153 
115 708 308 131 136 153 
115 709 308 132 136 150 
116 704 311 120 127 140 
116 705 310 149 157 172 
116 705 311 135 144 160 
117 704 311 119 126 139 
117 705 310 151 158 174 
117 705 311 136 145 160 
116 707 309 150 157 175 
117 707 308 143 151 169 
117 707 309 159 167 183 
116 706 310 158 165 180 
117 706 310 167 174 189 
118 704 311 114 121 135 
118 705 310 140 149 164 
119 704 310 112 119 131 
119 704 311 110 115 127 
119 705 310 135 142 157 
118 706 309 168 175 189 
118 707 308 144 153 170 
118 707 309 160 167 183 
119 706 309 155 161 175 
119 707 308 144 150 164 
119 707 309 151 157 172 
118 706 310 169 175 190 
119 706 310 150 157 170 
116 709 307 128 133 148 
117 709 307 126 132 150 
117 711 305 149 153 166 
116 710 306 133 138 155 
116 710 307 125 131 148 
116 711 306 144 149 163 
117 710 306 137 144 159 
117 710 307 131 137 154 
117 711 306 147 152 165 
118 709 307 131 136 154 
119 708 307 139 144 159 
119 709 307 141 147 162 
118 711 305 143 149 164 
119 711 305 137 145 160 
118 710 306 146 152 166 
118 710 307 137 142 158 
118 711 306 147 153 167 
119 710 306 148 155 170 
116 708 308 133 137 155 
116 709 308 130 135 149 
117 708 308 133 139 157 
117 709 308 128 133 150 
118 708 308 138 145 162 
119 708 308 140 145 160 
112 704 312 134 141 156 
113 704 312 129 137 150 
114 704 312 121 128 141 
115 704 312 121 127 138 
112 712 305 166 171 186 
112 713 305 172 177 191 
113 712 305 157 162 175 
113 713 304 143 146 157 
113 713 305 155 159 172 
112 712 306 155 163 178 
113 712 306 145 152 166 
112 714 304 155 158 172 
112 715 304 133 134 150 
113 714 304 137 140 153 
113 715 304 128 131 146 
114 712 305 152 156 167 
114 713 304 139 141 153 
114 713 305 151 153 165 
115 712 305 151 154 165 
115 713 304 137 139 152 
115 713 305 148 150 161 
114 712 306 150 155 168 
114 714 304 130 133 147 
114 715 304 129 133 149 
115 714 304 127 131 146 
116 712 305 149 151 163 
116 713 304 134 137 150 
117 712 305 142 145 157 
117 713 304 123 126 139 
116 714 304 120 124 138 
117 714 304 119 124 136 
118 712 305 138 142 156 
118 713 304 115 118 134 
119 712 304 123 126 142 
119 712 305 131 136 151 
119 713 304 115 116 134 
123 707 307 130 135 147 
121 705 309 119 124 136 
120 704 310 108 115 126 
120 705 310 127 134 147 
121 704 310 121 127 141 
121 705 310 120 127 139 
120 706 309 141 147 161 
120 707 308 141 147 160 
120 707 309 142 148 162 
121 706 309 128 132 145 
121 707 308 136 141 153 
121 707 309 135 139 153 
122 704 309 141 146 157 
122 705 309 124 126 137 
123 704 309 141 145 157 
123 705 309 133 136 146 
122 704 310 149 155 167 
122 706 308 130 132 143 
122 706 309 125 126 138 
122 707 308 130 133 145 
123 706 308 125 128 139 
123 706 309 130 132 143 
123 707 308 123 127 139 
120 708 307 143 148 161 
120 709 307 145 151 165 
121 708 307 144 149 161 
121 709 306 148 153 166 
121 709 307 144 150 163 
120 710 305 156 164 180 
120 711 305 136 144 161 
121 710 305 159 168 184 
121 711 304 147 153 167 
121 711 305 152 160 176 
120 710 306 150 157 172 
121 710 306 163 170 184 
122 708 307 137 142 154 
122 709 306 154 160 174 
122 709 307 145 151 164 
123 708 307 135 140 153 
123 709 306 147 153 166 
122 710 305 160 168 185 
122 711 304 146 152 165 
122 711 305 160 167 182 
123 710 305 166 172 187 
123 711 304 145 151 165 
122 710 306 163 170 186 
123 710 306 161 168 183 
120 708 308 142 147 160 
121 708 308 143 147 159 
125 705 307 110 115 126 
124 707 307 127 133 146 
125 706 307 114 120 131 
125 707 307 121 127 139 
126 704 307 113 118 128 
126 705 307 110 115 127 
127 704 306 148 152 164 
127 704 307 126 131 142 
127 705 306 132 138 151 
127 705 307 117 123 137 
126 706 307 114 121 134 
126 707 306 123 131 144 
126 707 307 121 127 140 
127 706 306 129 136 151 
127 706 307 119 126 140 
127 707 306 131 140 155 
124 704 308 119 124 136 
124 704 309 128 133 145 
124 705 308 123 128 138 
124 705 309 131 135 145 
125 704 308 110 116 127 
125 705 308 114 120 132 
124 706 308 120 125 136 
124 707 308 124 130 142 
125 706 308 116 122 134 
124 709 305 150 154 167 
125 709 305 137 141 155 
124 708 306 137 142 155 
124 708 307 132 136 150 
124 709 306 142 147 160 
125 708 306 129 134 147 
125 708 307 126 131 144 
125 709 306 134 139 152 
124 710 304 154 159 173 
124 710 305 161 165 179 
124 711 304 141 146 159 
125 710 304 134 140 153 
125 710 305 139 144 157 
125 711 304 125 130 143 
126 709 305 129 134 149 
127 708 305 134 141 155 
127 709 304 134 138 150 
127 709 305 133 138 152 
126 708 306 126 133 148 
127 708 306 129 138 153 
126 710 304 126 132 145 
127 710 304 128 132 145 
120 712 304 121 124 140 
120 712 305 126 133 148 
121 712 304 131 135 149 
122 712 304 133 138 150 
112 720 302 110 116 128 
113 720 302 110 115 127 
113 720 303 107 111 123 
134 603 383 115 93 79 
133 607 379 121 97 81 
133 605 381 114 91 76 
133 606 380 119 95 80 
133 606 381 120 96 81 
133 607 380 123 98 82 
133 607 381 126 100 86 
133 606 382 123 97 82 
133 607 382 127 99 84 
133 607 383 129 99 83 
134 604 382 114 91 77 
134 604 383 116 92 78 
134 605 382 117 92 77 
134 605 383 122 96 80 
134 606 382 123 97 82 
134 606 383 129 101 86 
129 619 366 139 106 88 
129 619 367 143 109 92 
128 622 363 147 111 94 
128 623 362 141 105 87 
128 623 363 150 113 97 
128 620 365 142 109 89 
128 621 364 145 109 90 
128 621 365 145 110 91 
129 620 365 140 107 88 
128 620 366 142 108 88 
128 621 366 144 109 90 
128 621 367 142 106 89 
129 620 366 142 107 89 
129 620 367 143 108 92 
128 622 364 148 111 93 
128 622 365 149 113 94 
128 623 364 150 113 95 
128 623 365 152 115 96 
128 622 366 147 110 92 
128 622 367 146 109 93 
128 623 366 149 111 93 
128 623 367 150 113 97 
130 615 371 136 104 87 
131 613 373 134 103 85 
131 612 374 129 98 82 
131 612 375 130 96 80 
131 613 374 134 101 85 
131 613 375 137 102 88 
130 615 372 138 105 89 
131 614 372 135 104 87 
131 614 373 136 104 87 
131 615 372 137 105 88 
131 615 373 139 106 90 
131 614 374 141 107 91 
131 614 375 144 110 95 
131 615 374 145 112 96 
131 615 375 147 113 97 
132 611 375 131 101 87 
132 612 375 130 98 83 
131 611 382 159 119 104 
131 611 383 167 126 111 
129 615 379 158 117 102 
131 612 376 133 99 84 
131 612 377 138 104 91 
131 613 376 139 105 91 
131 613 377 141 107 93 
131 612 378 136 102 88 
131 612 379 140 104 88 
131 613 378 139 104 90 
131 613 379 147 110 96 
130 615 376 145 108 91 
130 615 377 145 109 92 
131 614 376 145 110 95 
131 614 377 142 106 91 
131 615 376 146 109 93 
131 615 377 143 106 89 
130 614 378 150 113 99 
130 614 379 157 120 105 
130 615 378 153 116 101 
130 615 379 158 119 105 
131 614 378 143 107 91 
131 614 379 155 117 103 
129 613 382 166 123 111 
129 613 383 167 124 112 
128 615 381 168 124 108 
129 614 381 165 123 109 
129 615 380 163 123 109 
129 615 381 167 124 110 
128 614 383 165 121 108 
128 615 382 168 123 110 
128 615 383 166 120 107 
129 614 382 169 127 114 
129 614 383 166 124 111 
130 613 380 163 123 106 
130 613 381 164 122 107 
131 612 380 152 115 99 
131 612 381 159 120 104 
131 613 380 159 121 105 
131 613 381 162 121 104 
130 612 382 167 123 110 
130 612 383 168 125 111 
130 613 382 167 124 111 
130 613 383 167 123 111 
131 612 382 162 120 105 
131 612 383 167 124 109 
130 614 380 162 123 107 
130 614 381 164 123 108 
130 615 380 161 121 106 
132 609 377 129 101 84 
132 608 378 125 99 82 
132 609 378 127 98 81 
132 609 379 130 99 84 
133 608 378 125 98 81 
133 608 379 125 98 81 
133 609 379 127 98 81 
132 610 376 134 106 91 
132 610 377 132 102 86 
132 611 376 133 103 88 
132 611 377 134 102 87 
132 610 378 131 99 83 
132 610 379 133 102 87 
132 611 378 134 101 86 
132 611 379 134 101 86 
132 609 380 134 103 87 
133 608 380 128 100 84 
133 608 381 130 101 87 
133 609 380 132 102 86 
133 609 381 135 103 87 
132 609 383 151 117 101 
133 608 382 130 99 82 
133 608 383 131 99 83 
133 609 382 135 102 85 
133 609 383 139 106 90 
132 610 380 136 103 88 
132 610 381 139 104 88 
132 611 380 139 104 88 
132 611 381 148 112 96 
132 610 382 144 109 93 
132 610 383 158 122 106 
132 611 382 153 116 101 
132 611 383 163 125 109 
132 612 376 132 99 85 
132 612 377 135 102 88 
132 612 378 135 101 87 
132 612 379 135 100 85 
132 612 380 144 108 92 
129 617 369 144 111 91 
129 618 368 144 110 92 
129 618 369 142 107 87 
129 619 368 143 108 91 
129 619 369 143 107 89 
129 618 370 142 106 87 
129 618 371 137 102 85 
129 619 370 144 108 91 
129 619 371 143 108 92 
130 617 369 144 111 92 
130 616 370 141 109 92 
130 616 371 139 105 90 
130 617 370 144 109 92 
130 617 371 139 104 88 
130 618 371 137 102 83 
129 617 375 147 111 93 
128 619 373 150 113 100 
129 618 372 139 104 89 
129 618 373 145 110 97 
129 619 372 143 108 93 
129 619 373 145 108 95 
128 619 374 153 116 100 
128 619 375 160 123 108 
129 618 374 147 112 96 
129 618 375 151 116 99 
129 619 374 151 115 101 
129 619 375 154 118 103 
130 616 372 137 103 88 
130 616 373 141 107 91 
130 617 372 136 101 85 
130 617 373 143 108 94 
130 616 374 145 111 94 
130 616 375 148 113 95 
130 617 374 146 111 94 
130 617 375 147 111 94 
130 618 372 138 101 86 
130 618 373 145 111 97 
130 618 374 146 111 95 
128 621 368 144 108 91 
128 621 369 148 113 97 
129 620 368 143 107 90 
129 620 369 146 110 94 
128 620 371 149 114 98 
128 621 370 149 114 99 
128 621 371 152 116 100 
129 620 370 146 111 95 
129 620 371 147 113 97 
128 622 368 148 111 96 
128 622 369 149 113 98 
128 623 368 150 112 97 
128 623 369 150 112 98 
128 622 370 153 116 101 
128 622 371 154 117 100 
128 620 372 146 110 94 
128 620 373 153 115 100 
128 621 372 152 114 99 
128 621 373 154 116 102 
129 620 372 146 110 95 
128 620 374 157 120 104 
128 620 375 164 125 109 
128 617 377 164 123 108 
129 616 377 158 120 106 
129 617 376 152 116 100 
129 617 377 160 122 108 
128 616 379 163 122 107 
128 617 378 163 121 105 
128 617 379 166 124 109 
129 616 378 160 120 106 
129 616 379 161 120 107 
129 617 378 161 119 104 
128 618 376 160 121 107 
128 618 377 166 125 109 
128 619 376 163 123 108 
128 619 377 169 128 113 
129 618 376 156 119 105 
129 618 377 161 121 107 
128 618 378 166 124 106 
130 616 376 146 110 92 
130 616 377 150 114 97 
130 617 376 147 110 92 
130 616 378 155 117 103 
128 616 380 163 120 103 
128 616 381 169 124 108 
128 617 380 167 125 109 
129 616 380 163 121 106 
139 590 397 128 98 83 
139 591 396 142 109 94 
139 591 397 148 110 95 
139 591 398 161 120 107 
140 589 398 108 82 70 
141 588 399 97 77 62 
141 589 398 111 84 71 
141 589 399 114 86 71 
140 590 397 125 94 79 
140 590 398 137 101 88 
140 590 399 159 120 105 
140 591 398 162 121 107 
140 591 399 175 134 119 
141 590 399 148 110 95 
142 588 399 102 79 62 
142 589 399 121 90 73 
142 587 400 95 78 64 
143 586 401 101 82 67 
143 587 400 98 78 62 
140 591 400 185 141 125 
141 590 400 167 127 111 
141 591 400 181 138 123 
141 591 401 190 144 129 
141 591 402 193 146 132 
141 591 403 186 138 125 
142 589 400 115 86 68 
143 588 400 107 82 63 
143 588 401 119 88 70 
143 589 400 125 93 75 
143 589 401 148 111 93 
143 589 402 185 145 129 
142 590 400 155 117 100 
