ply
format ascii 1.0
comment Created by CloudCompare v2.10.1 (Zephyrus)
comment Created 1/31/20 11:06 AM
obj_info Generated by CloudCompare!
element vertex 1948
property float x
property float y
property float z
property uchar red
property uchar green
property uchar blue
end_header
109 790 223 108 114 125 
109 791 222 105 111 123 
109 791 223 106 113 124 
110 788 220 99 107 118 
110 788 221 97 106 118 
110 789 220 98 105 117 
110 789 221 98 106 118 
111 788 220 102 109 121 
111 789 220 100 107 119 
110 790 220 100 107 119 
110 790 221 101 108 120 
110 791 221 104 110 121 
111 790 220 101 108 119 
111 791 220 103 109 120 
110 790 222 102 109 120 
110 791 222 104 110 121 
111 792 219 105 111 122 
109 792 223 107 113 124 
109 793 223 105 112 123 
109 794 223 106 113 125 
110 792 221 103 110 121 
110 793 221 106 112 123 
111 792 220 104 111 122 
111 792 221 104 110 122 
111 793 220 105 112 123 
111 793 221 105 111 123 
110 792 222 104 110 122 
110 793 222 105 111 123 
110 793 223 104 111 122 
111 794 220 106 112 124 
111 794 221 106 112 124 
111 795 221 110 116 128 
110 794 222 106 113 124 
110 794 223 106 113 125 
110 795 222 112 119 131 
110 795 223 110 118 130 
111 794 222 107 114 126 
111 795 222 112 119 131 
111 796 221 114 121 133 
111 797 221 111 118 130 
110 796 223 118 126 138 
110 797 223 119 126 138 
111 796 222 118 124 136 
111 797 222 109 116 128 
111 797 223 114 121 134 
111 798 222 108 115 127 
111 798 223 112 119 132 
111 799 223 114 122 134 
117 768 206 79 86 95 
117 768 207 82 89 100 
117 769 206 81 87 97 
117 769 207 84 92 103 
116 770 207 92 99 111 
116 771 207 97 104 116 
117 770 206 83 90 100 
117 770 207 87 94 105 
117 771 206 88 95 105 
117 771 207 92 100 111 
118 768 205 75 81 89 
118 769 205 75 81 89 
119 768 205 72 78 85 
119 769 205 72 77 85 
118 768 206 77 83 92 
118 769 206 78 84 93 
118 770 205 76 81 89 
118 771 205 81 87 95 
119 770 204 73 79 87 
119 770 205 73 79 87 
119 771 204 75 81 89 
119 771 205 77 83 91 
118 770 206 80 86 96 
118 771 206 83 90 99 
119 773 203 77 83 92 
119 774 203 81 88 97 
119 775 203 84 91 101 
116 772 207 108 115 127 
116 773 207 114 121 134 
117 772 206 92 100 111 
117 772 207 100 108 120 
117 773 206 101 109 121 
117 774 205 96 105 117 
117 775 205 105 113 125 
116 774 207 120 127 140 
116 775 207 123 130 143 
117 774 206 108 116 129 
117 775 206 114 122 135 
118 772 205 84 90 100 
118 773 204 81 88 99 
118 773 205 86 94 105 
119 772 204 77 82 91 
119 772 205 79 84 92 
119 773 204 77 84 93 
118 774 204 83 91 101 
118 774 205 91 99 111 
118 775 204 89 97 108 
118 775 205 96 105 117 
119 774 204 80 87 97 
119 775 204 85 93 103 
119 776 203 88 95 105 
119 777 203 92 100 111 
119 778 203 94 102 113 
119 779 203 93 102 114 
117 776 205 107 115 127 
117 777 205 111 117 129 
116 776 207 122 129 141 
116 777 207 119 125 137 
117 776 206 116 123 136 
117 777 206 115 122 134 
117 778 205 113 120 132 
116 778 207 120 126 137 
116 779 207 121 127 138 
117 778 206 118 125 136 
117 778 207 121 127 138 
117 779 206 121 127 139 
117 779 207 122 127 139 
118 776 204 96 104 115 
118 776 205 101 109 121 
118 777 204 99 107 119 
118 777 205 106 113 125 
119 776 204 91 98 109 
119 777 204 95 103 114 
118 778 204 101 108 120 
118 778 205 108 115 127 
118 779 204 101 109 121 
118 779 205 111 118 129 
119 778 204 96 104 116 
119 779 204 97 105 117 
119 780 203 95 104 117 
119 781 203 99 108 121 
119 782 203 104 112 125 
119 783 203 110 118 130 
117 780 206 124 129 141 
117 780 207 123 129 140 
117 781 206 125 130 141 
117 781 207 124 129 140 
117 782 206 129 134 146 
117 782 207 125 130 141 
117 783 206 130 135 147 
117 783 207 129 134 145 
118 780 205 115 122 134 
118 781 205 121 127 139 
119 780 204 103 111 123 
119 781 204 109 117 129 
118 782 205 126 132 144 
118 783 205 128 133 145 
119 782 204 115 122 135 
119 783 204 119 126 139 
118 782 206 129 134 146 
118 783 206 130 135 147 
120 771 203 72 77 85 
121 770 203 65 70 78 
121 771 203 69 74 81 
120 768 204 69 75 82 
120 769 204 68 74 81 
121 768 204 65 70 78 
121 769 204 65 70 77 
120 770 204 70 75 83 
120 771 204 72 78 86 
121 770 204 66 71 79 
120 772 203 74 79 88 
120 773 203 76 82 91 
121 772 203 72 77 85 
121 773 203 78 83 91 
120 774 203 81 87 96 
120 775 203 83 89 99 
121 774 203 83 88 96 
121 775 202 80 85 94 
121 775 203 81 87 95 
120 772 204 74 80 89 
120 776 202 85 92 102 
120 776 203 87 94 104 
120 777 202 86 93 103 
120 777 203 89 97 107 
121 776 202 80 86 95 
121 777 202 80 87 96 
120 778 202 86 93 104 
120 778 203 91 99 111 
120 779 202 83 91 102 
120 779 203 90 98 110 
121 778 202 77 84 94 
121 779 202 77 84 94 
120 780 202 85 93 104 
120 780 203 92 100 112 
120 781 202 88 97 109 
120 781 203 96 104 117 
121 780 202 79 87 97 
121 781 202 82 90 101 
120 782 202 92 100 112 
120 782 203 98 107 120 
120 783 202 97 106 118 
120 783 203 104 112 125 
121 782 202 83 91 102 
121 783 202 91 98 110 
113 768 211 116 122 134 
113 769 211 117 122 133 
113 770 211 113 119 130 
113 771 211 109 115 126 
115 768 209 101 108 120 
115 769 209 114 121 133 
114 768 210 116 122 134 
114 768 211 118 124 135 
114 769 210 123 128 140 
114 769 211 119 125 136 
115 770 209 113 121 133 
115 771 209 112 119 132 
114 770 210 121 127 138 
114 770 211 116 121 133 
114 771 210 114 121 132 
114 771 211 111 117 128 
112 768 213 104 110 121 
112 769 213 104 110 120 
113 768 212 113 118 129 
113 768 213 108 114 125 
113 769 212 113 119 129 
113 769 213 109 115 126 
112 768 214 101 107 118 
112 769 214 96 102 112 
112 770 213 102 108 118 
112 771 213 99 104 114 
113 770 212 110 115 126 
113 770 213 107 112 122 
113 771 212 106 112 122 
113 771 213 102 107 118 
112 770 214 95 101 111 
112 771 214 94 99 109 
112 771 215 90 96 105 
113 772 211 107 113 123 
115 772 208 118 125 137 
115 772 209 119 125 137 
115 773 208 126 132 144 
115 773 209 125 131 143 
114 772 210 114 120 132 
114 772 211 109 115 125 
114 773 210 116 122 133 
114 773 211 110 115 126 
115 774 209 130 136 148 
115 775 209 130 136 148 
114 774 210 116 122 133 
114 774 211 110 116 128 
114 775 210 114 120 131 
114 775 211 108 114 126 
115 774 210 119 125 136 
115 775 210 118 124 136 
112 772 213 95 101 111 
113 772 212 102 107 118 
113 772 213 96 102 112 
113 773 212 101 107 117 
113 773 213 94 100 110 
112 772 214 93 99 109 
112 772 215 92 98 107 
112 773 214 93 99 108 
112 773 215 94 100 110 
113 773 214 92 97 107 
113 774 212 101 106 116 
113 774 213 94 99 109 
113 775 213 98 104 114 
112 774 214 92 98 108 
112 774 215 93 99 109 
112 775 215 91 98 108 
113 774 214 92 98 108 
113 775 214 94 101 111 
114 773 212 105 110 120 
114 774 212 102 108 118 
114 775 212 101 107 118 
114 775 213 99 105 115 
116 768 208 89 96 107 
116 769 208 95 103 114 
116 770 208 99 107 119 
116 771 208 105 113 125 
116 772 208 115 122 134 
116 773 208 123 130 142 
116 774 208 131 138 150 
116 775 208 133 139 151 
112 773 216 95 101 111 
112 774 216 95 101 110 
112 775 216 92 98 108 
115 776 209 125 131 143 
115 777 209 113 119 131 
114 776 211 104 110 120 
115 776 210 113 119 131 
115 776 211 104 110 120 
115 777 210 107 113 124 
115 777 211 100 106 116 
115 778 209 111 117 128 
115 778 210 106 112 122 
115 778 211 101 107 117 
115 779 210 106 111 122 
115 779 211 102 108 118 
113 776 213 109 114 124 
112 776 215 94 100 110 
112 777 215 93 99 109 
113 776 214 107 113 123 
113 776 215 99 105 115 
113 777 214 109 114 125 
113 777 215 101 107 117 
112 778 215 92 98 108 
113 778 214 102 108 119 
113 778 215 97 103 113 
113 779 214 96 102 112 
113 779 215 94 100 110 
114 776 212 100 106 116 
114 776 213 105 110 121 
114 777 212 98 104 114 
114 777 213 105 111 121 
114 778 212 94 101 111 
114 778 213 97 103 113 
114 779 212 93 99 109 
114 779 213 92 98 108 
115 778 212 96 102 111 
115 779 212 97 102 112 
114 778 214 101 107 118 
114 779 214 94 100 110 
115 780 210 105 111 122 
115 780 211 103 109 120 
115 781 211 104 110 120 
115 782 211 103 109 119 
113 780 214 91 97 107 
113 780 215 92 98 108 
113 781 214 90 96 106 
113 781 215 91 97 107 
113 782 214 91 97 107 
113 782 215 91 98 109 
113 783 214 91 98 108 
113 783 215 93 100 111 
114 780 213 92 98 107 
114 781 213 92 98 107 
115 780 212 97 102 112 
115 781 212 97 102 113 
114 780 214 90 96 106 
114 781 214 90 96 106 
114 782 213 92 98 108 
114 783 213 93 99 109 
115 782 212 96 102 112 
115 783 212 95 101 112 
114 782 214 90 96 106 
114 783 214 92 98 108 
116 776 208 127 134 146 
116 776 209 123 129 141 
116 777 208 119 125 137 
116 777 209 117 123 135 
116 778 208 118 124 135 
116 778 209 114 120 130 
116 779 208 118 123 134 
116 779 209 112 117 128 
116 779 210 107 113 124 
116 780 208 119 124 135 
116 780 209 110 117 128 
116 781 208 118 124 136 
116 781 209 113 120 132 
117 780 208 121 126 137 
117 781 208 121 126 138 
116 780 210 104 110 122 
116 781 210 107 114 125 
116 781 211 107 113 124 
116 782 209 120 126 138 
116 783 209 122 128 139 
117 782 208 122 128 139 
117 782 209 120 126 138 
117 783 208 128 134 145 
117 783 209 125 131 143 
116 782 210 114 120 131 
116 782 211 107 112 123 
116 783 210 116 122 133 
116 783 211 104 110 120 
112 776 216 90 96 106 
112 777 216 89 95 105 
112 778 216 89 95 105 
112 778 217 88 94 104 
112 779 216 90 96 106 
112 779 217 90 96 106 
112 780 216 91 98 109 
112 780 217 93 100 110 
112 781 216 92 100 111 
112 781 217 102 109 120 
112 782 216 96 103 115 
112 782 217 107 114 125 
112 783 216 100 108 119 
112 783 217 106 114 126 
119 784 203 115 123 135 
119 785 203 118 125 138 
117 784 207 129 134 145 
117 785 207 119 125 136 
117 786 207 112 118 129 
118 784 205 129 134 146 
118 785 205 130 136 147 
119 784 204 124 130 142 
119 784 205 128 134 145 
119 785 204 128 134 146 
119 785 205 133 138 150 
118 784 206 128 133 145 
118 785 206 125 131 142 
118 785 207 122 128 139 
118 786 205 130 135 146 
118 787 205 122 128 139 
119 786 204 132 138 150 
119 786 205 134 140 152 
119 787 204 134 140 153 
119 787 205 133 138 150 
118 786 206 121 126 138 
118 786 207 116 121 132 
118 787 206 114 119 130 
118 787 207 108 113 124 
119 788 204 128 134 147 
119 788 205 124 129 141 
119 789 205 116 122 134 
118 788 206 109 115 125 
118 788 207 106 111 122 
118 789 206 107 112 123 
118 789 207 105 110 121 
119 788 206 115 121 132 
119 789 206 108 114 125 
119 790 205 114 120 132 
118 790 206 104 110 121 
118 790 207 104 110 121 
118 791 207 101 108 119 
119 790 206 105 112 123 
119 791 206 106 113 125 
119 791 207 100 108 120 
118 792 207 100 107 119 
119 792 206 105 112 124 
119 792 207 99 107 119 
119 793 206 105 112 124 
119 793 207 102 109 121 
119 794 207 107 114 126 
119 795 207 108 114 126 
120 784 202 102 110 123 
120 784 203 110 118 130 
120 785 202 106 114 127 
120 785 203 114 122 135 
121 784 202 97 104 116 
121 785 202 98 106 118 
120 786 202 105 114 127 
120 786 203 118 125 139 
120 787 202 105 114 128 
120 787 203 119 127 140 
121 786 202 96 104 117 
121 787 202 98 107 120 
120 787 204 132 138 151 
120 788 203 115 123 136 
120 789 203 119 126 138 
121 788 202 102 111 123 
121 789 202 103 111 124 
121 789 203 111 119 132 
120 790 203 121 127 139 
121 790 202 107 115 128 
121 790 203 115 123 136 
121 791 203 125 133 146 
120 788 204 124 131 143 
120 789 204 122 128 140 
120 790 204 123 129 141 
120 790 205 119 125 137 
120 791 204 126 133 145 
120 791 205 120 126 138 
121 791 204 131 138 151 
121 792 203 131 139 153 
121 793 203 132 140 153 
120 792 204 131 138 151 
120 792 205 125 131 144 
120 793 205 131 138 151 
121 792 204 135 141 155 
121 793 204 136 143 156 
121 793 205 137 144 157 
120 792 206 114 120 132 
120 793 206 115 122 134 
121 794 204 130 137 151 
121 794 205 130 137 150 
121 795 204 126 133 146 
121 795 205 129 135 147 
120 794 206 119 125 137 
120 794 207 109 115 127 
120 795 206 120 125 137 
120 795 207 111 117 129 
121 796 205 129 135 147 
121 797 205 130 135 147 
120 796 206 120 126 137 
120 796 207 114 120 131 
120 797 207 116 121 132 
121 796 206 125 131 142 
121 797 206 127 131 143 
121 797 207 118 123 134 
121 798 206 124 130 141 
121 798 207 116 122 133 
121 799 207 116 122 133 
113 784 215 97 104 115 
113 785 215 102 109 119 
113 786 215 103 109 120 
113 787 215 97 104 115 
114 784 213 93 100 110 
114 785 213 93 100 110 
115 784 212 93 100 110 
115 784 213 93 99 110 
115 785 212 91 98 109 
115 785 213 93 99 110 
114 784 214 93 100 110 
114 785 214 94 101 111 
114 786 213 93 100 111 
114 787 213 94 101 111 
115 786 212 91 97 108 
115 786 213 93 99 110 
115 787 212 92 98 108 
115 787 213 93 99 110 
114 786 214 95 102 112 
114 786 215 98 105 115 
114 787 214 95 102 113 
114 787 215 96 103 114 
115 788 212 91 97 107 
115 788 213 93 100 110 
115 789 212 92 98 109 
115 789 213 93 99 109 
114 788 214 97 103 114 
114 788 215 99 105 116 
114 789 214 97 103 114 
114 789 215 99 105 116 
115 790 212 94 101 111 
115 790 213 96 102 112 
115 791 213 97 103 113 
114 790 214 97 103 113 
114 790 215 98 104 115 
114 791 214 97 103 113 
114 791 215 99 105 116 
115 790 214 96 102 112 
115 791 214 95 101 111 
116 784 209 121 126 138 
117 784 208 127 133 145 
117 784 209 124 129 140 
117 785 208 117 123 134 
117 785 209 116 122 133 
116 784 210 114 120 131 
116 784 211 105 111 122 
116 785 210 108 114 125 
116 785 211 100 107 118 
117 786 208 107 112 123 
117 786 209 105 110 121 
117 787 208 103 108 118 
117 787 209 98 103 113 
116 786 210 99 105 116 
116 786 211 93 99 110 
116 787 210 93 99 109 
116 787 211 90 96 106 
117 787 210 94 100 111 
116 785 212 94 101 112 
116 786 212 91 98 108 
116 787 212 89 96 106 
117 788 208 103 109 119 
117 788 209 99 105 115 
117 789 208 105 111 121 
117 789 209 101 107 117 
116 788 210 94 100 110 
116 788 211 91 97 107 
116 789 210 94 101 111 
116 789 211 92 98 108 
117 788 210 97 103 113 
117 789 210 97 103 114 
117 790 208 105 111 122 
117 790 209 103 109 120 
117 791 209 102 108 119 
116 790 210 98 104 115 
116 790 211 97 103 114 
116 791 210 103 109 120 
116 791 211 102 108 119 
117 790 210 99 105 116 
117 791 210 103 109 120 
117 791 211 104 110 121 
118 789 208 106 112 122 
118 790 208 104 110 121 
118 791 208 102 108 120 
118 791 209 100 106 116 
116 788 212 90 96 106 
116 789 212 91 98 108 
116 790 212 96 102 113 
116 791 212 100 106 117 
112 784 216 103 110 122 
112 784 217 105 113 125 
112 785 216 105 112 124 
112 785 217 103 110 122 
113 784 216 102 110 121 
113 785 216 105 112 123 
112 784 218 104 112 124 
112 785 218 103 111 123 
112 786 216 101 109 120 
112 786 217 99 107 119 
112 787 217 95 103 115 
113 786 216 104 111 122 
113 787 216 97 105 116 
112 786 218 99 107 119 
112 787 218 100 107 119 
112 788 217 95 103 114 
112 789 217 98 106 117 
113 788 216 97 104 116 
113 788 217 95 102 114 
113 789 216 96 103 114 
113 789 217 96 103 115 
112 788 218 103 110 122 
112 789 218 104 111 122 
112 790 217 100 107 118 
113 790 216 97 104 115 
113 790 217 99 106 117 
113 791 216 99 106 117 
113 791 217 101 108 119 
112 790 218 101 108 119 
112 790 219 102 108 120 
112 791 218 104 111 122 
112 791 219 105 112 123 
114 789 216 96 103 114 
114 790 216 98 104 114 
114 791 216 99 106 117 
115 792 213 94 100 110 
115 793 213 92 98 109 
114 792 215 98 104 115 
114 793 215 99 105 116 
115 792 214 95 101 111 
115 793 214 94 100 111 
115 793 215 98 105 116 
114 794 215 99 106 117 
115 794 214 96 102 112 
115 794 215 97 104 115 
115 795 214 98 103 113 
115 795 215 96 102 113 
115 796 214 101 106 116 
115 796 215 99 105 115 
115 797 215 102 108 118 
117 792 209 103 110 120 
116 792 211 105 112 123 
117 792 210 105 111 121 
117 792 211 104 111 122 
117 793 210 105 112 123 
117 793 211 106 112 124 
117 794 210 107 114 126 
117 794 211 107 114 125 
117 795 211 108 115 127 
118 792 208 101 108 119 
118 792 209 102 108 119 
118 793 208 103 110 122 
118 793 209 107 114 125 
119 793 208 107 114 126 
118 793 210 106 113 124 
118 794 209 115 122 134 
118 795 209 117 123 134 
119 794 208 111 118 130 
119 794 209 117 123 135 
119 795 208 107 114 125 
119 795 209 113 119 131 
118 794 210 111 118 130 
118 795 210 112 119 131 
118 795 211 107 114 126 
116 792 212 102 108 119 
116 792 213 99 106 116 
116 793 212 101 107 118 
116 793 213 96 102 113 
116 794 212 104 110 121 
116 794 213 101 107 117 
116 795 213 105 111 121 
117 794 212 106 112 123 
117 795 212 108 114 125 
116 794 214 98 103 114 
116 795 214 102 107 117 
117 796 211 106 112 124 
119 796 208 105 111 121 
119 796 209 106 112 123 
119 797 209 95 101 112 
118 796 210 107 114 126 
118 796 211 104 111 123 
118 797 210 96 103 115 
118 797 211 96 103 115 
119 796 210 104 111 122 
119 797 210 93 100 112 
119 798 209 89 96 106 
118 798 211 89 97 108 
119 798 210 86 94 105 
119 798 211 87 94 106 
119 799 210 89 96 107 
119 799 211 90 98 109 
116 796 213 108 113 124 
117 796 212 107 113 125 
117 796 213 107 113 124 
117 797 212 104 110 121 
117 797 213 106 113 124 
116 796 214 105 111 120 
116 797 214 109 115 125 
116 797 215 105 110 121 
117 797 214 111 117 128 
117 798 213 106 114 126 
117 799 213 120 127 139 
116 798 214 112 118 129 
116 798 215 111 117 129 
116 799 215 119 125 137 
117 798 214 113 120 131 
117 799 214 124 130 142 
117 799 215 123 130 142 
118 797 212 99 106 117 
118 798 212 97 104 116 
118 798 213 104 111 123 
118 799 212 100 108 120 
118 799 213 115 123 135 
119 799 212 98 106 118 
113 792 216 103 109 121 
113 792 217 106 113 125 
113 793 216 106 113 124 
113 793 217 113 120 131 
112 792 218 109 116 128 
112 792 219 107 114 125 
112 793 218 116 122 134 
112 793 219 109 116 128 
113 793 218 116 123 135 
113 794 217 107 115 127 
113 795 217 103 110 122 
112 794 218 115 122 134 
112 794 219 110 117 128 
112 795 219 109 115 127 
113 794 218 110 117 129 
113 794 219 109 116 127 
113 795 218 108 115 126 
113 795 219 109 116 127 
114 792 216 100 107 118 
114 793 216 101 108 119 
114 794 216 100 107 119 
114 794 217 103 110 122 
114 795 216 98 104 115 
114 795 217 100 107 119 
115 795 216 97 103 114 
112 793 220 106 112 124 
112 794 220 106 113 125 
112 795 220 109 115 126 
113 796 218 107 113 125 
113 796 219 109 115 127 
113 797 218 104 110 121 
113 797 219 104 111 122 
113 798 219 103 110 122 
114 796 216 96 102 114 
114 796 217 100 106 117 
114 797 217 99 105 116 
115 796 216 96 103 114 
115 797 216 99 104 115 
115 797 217 98 104 115 
114 796 218 104 111 122 
114 797 218 102 109 120 
114 798 217 102 108 119 
115 798 216 103 109 120 
115 798 217 101 107 118 
115 799 217 104 111 122 
114 798 218 103 110 121 
114 798 219 104 111 122 
114 799 218 105 111 123 
114 799 219 104 110 123 
115 799 218 105 111 123 
112 796 220 109 116 127 
112 796 221 112 118 130 
112 797 220 106 113 125 
112 797 221 107 114 126 
113 797 220 104 111 122 
112 798 220 104 112 124 
112 798 221 106 114 126 
112 799 221 107 116 130 
113 798 220 103 110 123 
113 799 220 105 113 126 
113 799 221 107 116 130 
112 798 222 108 115 127 
112 799 222 110 118 131 
112 799 223 113 121 134 
116 798 216 106 112 123 
116 799 216 113 119 131 
120 796 208 106 112 123 
120 797 208 106 111 122 
120 797 209 98 103 113 
120 798 208 104 110 120 
120 798 209 94 100 110 
120 799 209 95 100 111 
121 798 208 106 112 122 
121 799 208 108 114 125 
121 799 209 99 104 114 
120 799 210 91 97 107 
99 768 231 92 99 110 
99 769 231 82 90 100 
99 770 231 82 89 99 
99 771 231 85 91 101 
99 772 231 92 99 109 
102 768 227 94 100 110 
102 769 227 94 100 110 
103 768 226 98 105 115 
103 768 227 96 102 112 
103 769 226 99 104 114 
103 769 227 95 101 111 
102 770 227 93 98 108 
103 770 226 95 100 110 
103 770 227 93 99 108 
103 771 226 94 100 110 
103 771 227 93 99 108 
101 768 229 95 101 111 
101 769 229 92 98 108 
100 768 230 94 100 111 
100 768 231 96 103 114 
100 769 230 86 93 103 
100 769 231 84 91 101 
101 770 229 90 96 106 
101 771 229 89 95 105 
100 770 230 85 92 102 
100 770 231 83 90 100 
100 771 230 87 94 104 
100 771 231 86 92 102 
101 771 230 88 94 104 
102 768 228 94 100 110 
102 769 228 95 100 109 
102 770 228 93 98 108 
102 770 229 92 98 108 
102 771 228 93 98 108 
102 771 229 92 98 107 
103 772 226 97 102 111 
103 772 227 97 103 112 
103 773 226 97 103 112 
103 773 227 99 104 114 
103 774 227 98 104 114 
103 775 227 98 104 114 
101 772 229 88 95 105 
101 773 229 90 97 107 
100 772 230 92 99 109 
100 772 231 92 99 110 
100 773 230 102 109 120 
100 773 231 104 110 122 
101 772 230 91 98 109 
101 773 230 93 101 112 
101 774 229 97 104 114 
100 774 230 108 115 126 
100 774 231 109 116 128 
100 775 230 110 117 129 
100 775 231 110 118 130 
101 774 230 100 107 118 
101 775 230 109 116 127 
102 772 228 94 100 110 
102 772 229 90 96 106 
102 773 228 97 103 113 
102 773 229 92 98 109 
102 774 228 98 104 114 
102 774 229 97 103 114 
102 775 228 98 104 114 
102 775 229 102 109 119 
103 774 228 98 103 113 
103 775 228 98 104 114 
97 768 233 85 92 102 
97 769 233 84 91 101 
96 768 234 97 103 113 
96 768 235 104 110 121 
96 769 234 94 101 112 
96 769 235 102 109 120 
97 768 234 88 94 104 
97 769 234 87 95 105 
97 770 233 85 91 101 
97 771 233 87 93 103 
96 770 234 88 96 107 
96 770 235 94 102 113 
96 771 234 88 95 106 
96 771 235 90 97 108 
97 770 234 85 93 103 
97 771 234 88 94 105 
98 768 232 84 91 101 
98 768 233 84 91 101 
98 769 232 83 90 100 
98 769 233 84 90 100 
99 768 232 87 94 105 
99 769 232 82 90 100 
98 770 232 85 91 101 
98 770 233 85 91 101 
98 771 232 87 93 103 
98 771 233 87 94 103 
99 770 232 83 90 100 
99 771 232 85 92 102 
96 769 236 100 107 119 
96 770 236 98 105 117 
96 771 236 96 103 114 
97 772 233 89 95 105 
97 773 233 90 96 105 
96 772 235 90 97 107 
96 773 235 94 101 111 
97 772 234 89 95 105 
97 773 234 90 96 106 
97 773 235 94 100 110 
96 774 235 96 103 114 
97 774 234 89 96 106 
97 774 235 92 100 111 
97 775 234 93 98 108 
97 775 235 93 100 112 
98 772 233 89 96 105 
98 773 233 90 97 107 
99 772 232 92 99 109 
99 773 232 99 106 117 
98 774 233 90 97 107 
98 775 233 93 99 110 
99 774 232 106 114 125 
99 774 233 97 104 115 
99 775 232 110 118 129 
99 775 233 102 109 120 
98 775 234 95 100 110 
96 772 236 96 103 114 
96 773 236 99 106 116 
96 773 237 104 112 123 
96 774 236 101 109 121 
96 774 237 112 121 134 
96 775 236 101 110 122 
96 775 237 114 123 136 
96 775 238 122 131 145 
103 776 227 99 105 115 
103 777 227 102 109 120 
103 778 227 108 114 125 
100 776 231 111 119 130 
100 777 231 106 113 124 
101 776 230 109 115 126 
101 777 230 102 109 120 
100 778 231 100 107 118 
100 779 231 98 105 116 
101 778 230 100 106 117 
101 779 230 99 106 116 
101 779 231 98 105 116 
102 776 228 98 104 115 
102 776 229 100 107 118 
102 777 229 98 104 114 
103 776 228 99 105 115 
103 777 228 100 106 117 
102 777 230 98 105 115 
102 778 229 97 104 114 
102 779 229 99 105 115 
103 778 228 103 109 119 
103 779 228 105 111 121 
102 778 230 98 104 115 
102 779 230 98 104 114 
100 780 231 99 106 117 
100 781 231 101 108 119 
101 780 230 99 105 116 
101 780 231 99 105 116 
101 781 230 99 105 116 
101 781 231 100 107 118 
101 782 230 101 107 119 
101 782 231 103 110 122 
101 783 231 106 113 124 
102 780 229 98 104 115 
102 781 229 100 106 117 
103 780 228 102 109 120 
103 780 229 100 106 117 
103 781 228 102 108 119 
103 781 229 102 108 118 
102 780 230 98 104 114 
102 781 230 100 106 116 
102 782 229 102 108 118 
103 782 228 105 111 122 
103 782 229 104 110 120 
103 783 228 106 113 124 
103 783 229 107 113 124 
102 782 230 101 107 118 
102 783 230 102 108 119 
102 783 231 104 110 122 
103 783 230 105 111 122 
97 776 234 96 101 111 
97 776 235 98 104 115 
97 777 235 99 105 116 
98 776 233 95 101 111 
98 777 233 96 102 111 
99 776 232 108 115 127 
99 776 233 101 108 118 
99 777 232 100 107 118 
99 777 233 97 103 114 
98 776 234 96 101 111 
98 777 234 96 102 112 
98 777 235 98 104 115 
99 778 232 96 103 114 
99 778 233 96 102 113 
99 779 233 99 106 117 
98 778 234 99 105 115 
98 778 235 100 106 117 
98 779 234 100 107 118 
98 779 235 101 107 118 
99 779 234 101 107 118 
96 776 236 108 115 127 
96 776 237 119 127 139 
96 777 237 119 127 140 
97 776 236 108 116 127 
97 777 236 106 114 125 
97 777 237 114 122 134 
96 776 238 121 130 143 
96 776 239 119 128 143 
96 777 238 114 123 136 
96 777 239 111 121 135 
97 778 236 101 108 120 
97 778 237 107 114 126 
97 779 236 103 109 120 
97 779 237 105 111 122 
96 778 238 106 114 127 
96 778 239 106 115 128 
96 779 239 106 115 127 
97 778 238 105 113 125 
97 779 238 105 112 124 
97 779 239 107 114 127 
98 779 236 103 109 120 
99 780 233 102 109 121 
99 781 233 108 116 128 
98 780 235 102 109 120 
98 781 235 104 111 123 
99 780 234 102 109 120 
99 781 234 107 115 127 
99 781 235 105 112 124 
99 782 233 112 120 133 
99 782 234 115 122 135 
99 782 235 107 114 127 
99 783 234 119 125 138 
99 783 235 107 114 126 
97 780 237 104 111 122 
97 780 238 107 113 125 
97 780 239 111 117 129 
97 781 238 105 112 123 
97 781 239 108 114 126 
97 782 238 105 111 122 
97 782 239 104 111 122 
97 783 239 107 113 124 
98 780 236 103 109 120 
98 780 237 103 109 119 
98 781 236 103 109 120 
98 781 237 102 109 120 
98 782 236 101 108 119 
98 782 237 101 108 119 
98 783 237 101 108 120 
99 782 236 102 109 121 
99 783 236 101 108 120 
99 783 237 101 108 120 
98 782 238 104 110 121 
98 783 238 104 110 121 
98 783 239 109 115 125 
100 776 232 109 116 128 
100 777 232 102 109 121 
100 778 232 98 105 116 
100 779 232 99 106 117 
100 780 232 100 107 118 
100 780 233 102 109 120 
100 781 232 102 109 121 
100 781 233 107 114 126 
100 782 232 107 114 126 
100 782 233 110 119 131 
100 783 232 112 119 131 
100 783 233 116 123 135 
101 783 232 111 117 129 
100 783 234 116 123 135 
104 768 225 104 110 121 
104 769 225 101 107 118 
105 768 224 100 107 119 
105 769 224 100 107 118 
104 768 226 103 109 119 
104 769 226 102 107 117 
104 770 225 97 103 113 
104 771 225 93 99 109 
105 770 224 99 106 116 
105 770 225 95 102 112 
105 771 224 95 102 113 
105 771 225 93 100 110 
104 770 226 96 101 111 
104 771 226 93 99 108 
104 772 225 92 98 108 
104 773 225 94 100 110 
105 772 224 92 99 110 
105 772 225 92 99 109 
105 773 224 93 100 110 
105 773 225 94 100 111 
104 772 226 94 100 109 
104 773 226 94 100 110 
105 774 224 95 101 112 
105 774 225 93 100 110 
105 775 224 96 102 112 
105 775 225 93 100 110 
104 774 226 94 100 111 
104 775 226 95 101 111 
106 774 224 97 103 114 
106 775 224 99 105 116 
105 776 224 95 102 112 
105 776 225 94 101 111 
105 777 225 94 101 112 
104 776 226 98 104 114 
104 776 227 100 106 117 
104 777 226 103 110 121 
104 777 227 104 110 121 
105 776 226 97 103 114 
105 777 226 100 107 118 
105 778 225 94 101 112 
105 779 225 96 104 115 
104 778 226 105 112 123 
104 778 227 108 115 126 
104 779 226 105 112 124 
104 779 227 108 115 126 
105 778 226 99 107 119 
105 779 226 99 107 118 
106 776 224 96 103 113 
106 777 224 93 100 110 
106 778 224 94 100 111 
106 778 225 94 101 111 
106 779 224 94 101 112 
106 779 225 95 102 113 
105 780 225 98 105 116 
104 780 226 100 108 119 
104 780 227 103 110 121 
104 781 227 102 109 121 
105 780 226 99 106 118 
105 781 226 101 109 121 
104 782 227 106 113 125 
104 783 227 112 119 131 
105 782 226 108 115 127 
105 783 226 118 125 136 
105 783 227 117 124 136 
106 780 224 94 101 112 
106 780 225 96 103 114 
106 781 224 99 106 117 
106 781 225 100 107 119 
107 781 224 98 105 116 
106 782 224 105 112 124 
106 782 225 106 113 125 
106 783 224 109 115 127 
106 783 225 112 119 131 
107 782 224 104 110 121 
107 783 224 109 115 126 
106 783 226 118 124 136 
104 781 228 102 109 120 
104 782 228 105 112 123 
104 783 228 108 115 127 
96 776 240 120 131 147 
96 777 240 111 123 139 
96 777 241 111 123 139 
96 778 240 110 121 136 
96 778 241 116 126 141 
96 779 240 114 123 137 
96 779 241 118 127 141 
96 778 242 121 128 142 
96 779 242 114 122 135 
96 780 240 117 124 137 
96 780 241 115 123 136 
96 781 241 107 115 128 
97 780 240 112 119 132 
97 781 240 110 117 129 
97 781 241 108 116 129 
96 780 242 109 117 129 
96 781 242 107 114 126 
97 782 240 105 112 124 
97 782 241 103 110 122 
97 783 240 111 118 129 
97 783 241 107 114 126 
96 782 242 103 110 122 
97 782 242 102 109 121 
97 783 242 105 112 124 
101 784 231 104 111 123 
103 784 229 106 112 124 
103 785 229 105 112 123 
102 784 230 106 113 124 
102 784 231 106 113 125 
102 785 230 117 123 135 
102 785 231 114 121 133 
103 784 230 104 111 122 
103 785 230 109 116 127 
103 786 229 106 113 124 
102 786 230 123 129 141 
102 786 231 122 129 141 
102 787 231 118 125 137 
103 786 230 113 120 131 
103 787 230 113 120 132 
103 787 231 117 124 136 
103 788 230 107 114 126 
103 788 231 106 113 125 
103 789 230 101 108 119 
103 789 231 99 106 117 
103 790 231 99 106 117 
103 791 231 100 107 118 
99 784 235 103 109 121 
98 784 237 104 110 122 
99 784 236 103 110 121 
99 784 237 104 111 122 
99 785 236 101 107 119 
99 785 237 102 109 120 
98 784 238 104 110 121 
98 784 239 111 117 128 
98 785 238 103 109 120 
98 785 239 104 111 122 
99 785 238 101 108 119 
99 786 237 99 106 117 
99 787 237 96 103 114 
98 786 239 102 108 119 
99 786 238 99 106 117 
99 786 239 102 108 119 
99 787 238 97 104 116 
99 787 239 100 107 119 
99 788 239 102 109 121 
100 784 233 111 117 129 
101 784 232 104 111 122 
101 784 233 108 114 126 
101 785 232 103 110 122 
101 785 233 102 109 120 
100 784 234 108 115 126 
100 784 235 105 111 122 
100 785 234 100 107 118 
100 785 235 101 107 118 
101 785 234 100 106 117 
101 786 232 106 113 125 
101 786 233 101 108 120 
101 787 233 99 106 117 
100 786 234 97 103 114 
100 786 235 99 105 116 
100 787 235 96 103 114 
101 786 234 97 103 114 
101 787 234 96 102 113 
101 787 235 96 103 114 
102 785 232 108 115 127 
102 786 232 111 117 129 
102 787 232 109 116 128 
102 787 233 100 108 119 
100 785 236 100 106 117 
100 786 236 99 105 116 
100 786 237 97 104 115 
100 787 236 97 104 115 
100 787 237 95 102 114 
100 787 238 95 103 114 
101 788 234 96 103 114 
101 788 235 96 103 114 
101 789 234 95 102 113 
101 789 235 96 104 116 
101 790 235 104 111 123 
102 788 232 104 111 123 
102 788 233 99 106 117 
102 789 232 99 106 117 
102 789 233 98 105 116 
103 788 232 103 110 121 
103 789 232 98 105 116 
102 788 234 96 103 114 
102 789 234 96 103 114 
102 790 233 97 104 115 
103 790 232 96 103 114 
103 790 233 97 104 115 
103 791 232 99 106 117 
103 791 233 98 106 118 
102 790 234 98 105 117 
102 790 235 102 110 122 
102 791 234 105 112 124 
102 791 235 113 120 133 
103 791 234 103 110 122 
100 788 236 97 104 115 
100 788 237 97 104 115 
100 789 237 98 105 116 
101 788 236 97 104 116 
101 789 236 99 106 117 
101 789 237 99 105 117 
100 788 238 98 105 117 
100 788 239 101 108 120 
100 789 238 99 106 118 
100 789 239 101 109 121 
101 790 236 104 111 123 
101 790 237 102 109 120 
101 791 236 113 121 133 
101 791 237 109 116 129 
100 790 238 105 111 123 
100 790 239 107 114 126 
100 791 238 107 114 126 
100 791 239 111 118 131 
101 791 238 108 115 127 
101 791 239 112 119 132 
102 791 236 114 121 134 
103 792 232 99 106 118 
103 792 233 100 108 121 
103 793 233 104 112 124 
102 792 234 109 117 129 
102 792 235 110 118 131 
102 793 235 111 119 132 
103 792 234 106 114 126 
103 793 234 110 117 129 
103 793 235 112 120 133 
103 794 234 115 123 135 
103 794 235 113 121 135 
103 795 235 110 119 133 
101 792 237 109 118 130 
101 792 238 112 120 134 
101 792 239 116 124 137 
101 793 238 121 130 144 
101 793 239 120 129 143 
101 794 239 124 133 147 
102 792 236 111 119 132 
102 792 237 110 118 131 
102 793 236 116 124 138 
102 793 237 116 125 139 
102 793 238 127 135 149 
102 794 236 118 127 140 
102 794 237 120 130 144 
102 795 237 123 133 148 
103 794 236 114 123 137 
103 795 236 112 122 136 
103 795 237 121 130 145 
102 794 238 127 136 151 
102 794 239 129 137 152 
102 795 238 127 137 152 
102 795 239 131 140 155 
103 796 235 108 117 131 
103 796 236 112 120 133 
103 796 237 122 131 145 
103 797 237 124 132 145 
102 796 238 123 134 150 
102 796 239 127 135 150 
103 796 238 126 135 151 
103 796 239 125 134 149 
103 797 238 126 134 149 
103 797 239 125 133 147 
103 798 237 122 130 144 
103 798 238 122 130 144 
103 798 239 121 128 142 
103 799 239 120 126 140 
104 784 227 117 124 136 
105 784 226 124 130 142 
105 784 227 122 129 141 
105 785 226 117 124 135 
105 785 227 114 121 133 
105 786 226 108 115 127 
105 786 227 103 111 123 
105 787 226 102 109 121 
105 787 227 99 106 118 
106 784 225 112 119 131 
106 785 225 108 115 127 
107 784 224 108 115 127 
107 785 224 107 114 125 
107 785 225 105 113 125 
106 784 226 120 126 138 
106 785 226 113 120 132 
106 786 225 105 112 124 
106 787 225 104 111 123 
107 786 224 106 113 124 
107 786 225 106 113 125 
107 787 224 108 115 126 
107 787 225 107 114 125 
106 786 226 107 114 126 
106 787 226 105 112 123 
106 787 227 103 110 122 
104 784 228 109 116 128 
104 785 228 107 114 125 
104 785 229 105 111 123 
104 786 228 102 109 121 
104 786 229 106 113 124 
104 787 228 102 109 121 
104 787 229 108 114 126 
105 787 228 99 107 118 
105 788 227 103 110 121 
105 789 227 105 112 124 
107 788 225 109 115 126 
107 789 225 109 116 127 
106 788 226 109 115 126 
106 789 226 112 118 130 
106 789 227 107 114 126 
107 789 226 114 121 133 
107 790 225 110 116 128 
106 790 226 114 122 134 
106 790 227 113 120 133 
106 791 227 121 129 142 
107 790 226 115 123 135 
107 791 226 117 124 137 
107 791 227 123 130 144 
104 788 228 103 109 121 
104 788 229 106 113 124 
104 789 229 105 111 123 
105 788 228 103 109 121 
105 789 228 106 112 123 
104 788 230 106 112 124 
104 789 230 102 109 120 
104 790 229 104 111 122 
105 790 228 108 115 127 
105 790 229 105 112 124 
105 791 228 116 123 135 
105 791 229 109 116 128 
104 790 230 100 107 119 
104 790 231 101 107 118 
104 791 230 103 110 121 
104 791 231 101 108 119 
105 791 230 106 113 125 
106 790 228 115 122 135 
106 791 228 119 127 139 
108 786 224 106 113 124 
108 787 224 107 114 125 
108 788 224 108 114 126 
108 789 224 107 114 125 
108 790 224 108 114 126 
108 790 225 107 114 125 
108 791 224 109 115 127 
108 791 225 109 116 128 
104 791 232 101 108 119 
106 792 227 121 130 143 
107 792 226 124 131 144 
107 792 227 123 131 145 
107 793 226 127 134 147 
107 793 227 124 132 145 
107 794 227 118 125 138 
107 795 227 105 112 124 
105 792 229 112 119 131 
105 793 229 110 117 129 
104 792 230 105 112 123 
104 792 231 103 109 120 
104 793 231 104 110 121 
105 792 230 106 113 125 
105 793 230 104 111 122 
105 793 231 104 110 121 
104 794 231 104 110 121 
105 794 230 104 110 121 
105 794 231 104 110 120 
105 795 230 103 109 120 
105 795 231 103 109 120 
106 792 228 122 130 142 
106 792 229 116 123 135 
106 793 228 125 132 145 
106 793 229 115 122 135 
106 794 228 119 126 138 
106 794 229 111 118 129 
106 795 229 102 109 120 
107 794 228 115 122 134 
107 795 228 101 108 120 
107 795 229 102 108 120 
106 794 230 104 111 122 
106 795 230 102 109 120 
105 796 231 103 110 121 
107 796 228 99 106 118 
107 796 229 101 107 118 
107 797 228 103 109 121 
107 797 229 103 109 120 
106 796 230 102 108 119 
106 796 231 103 109 121 
106 797 230 103 110 121 
106 797 231 103 110 122 
107 797 230 102 109 121 
107 798 229 105 112 123 
106 798 231 106 113 124 
107 798 230 108 115 126 
107 798 231 108 115 127 
107 799 230 114 120 132 
107 799 231 111 117 129 
108 792 224 113 119 131 
108 792 225 115 122 134 
108 793 224 113 119 131 
108 793 225 120 126 138 
109 792 224 109 115 127 
109 793 224 110 116 128 
108 792 226 118 125 138 
108 793 226 126 133 145 
108 794 225 114 120 132 
108 795 225 109 115 127 
109 794 224 107 114 126 
109 794 225 109 116 127 
109 795 224 110 117 129 
109 795 225 109 116 127 
108 794 226 116 123 135 
108 794 227 112 119 132 
108 795 226 109 115 127 
108 795 227 106 113 125 
110 795 224 111 119 131 
109 796 224 110 118 130 
109 796 225 110 116 128 
109 797 225 113 119 130 
108 796 226 111 116 128 
108 796 227 104 111 123 
108 797 227 105 112 123 
109 796 226 112 117 128 
109 797 226 111 117 128 
109 797 227 109 114 125 
108 798 227 105 112 123 
109 798 226 111 117 128 
109 798 227 108 114 125 
109 799 226 110 116 128 
109 799 227 108 114 125 
110 796 224 115 122 134 
110 797 224 115 122 134 
110 797 225 114 120 131 
110 798 224 115 122 134 
110 798 225 114 120 132 
110 799 224 116 123 135 
110 799 225 114 121 133 
111 799 224 115 122 135 
110 799 226 112 118 130 
108 797 228 103 109 121 
108 798 228 104 111 122 
108 798 229 105 112 123 
108 799 228 107 114 125 
108 799 229 109 116 128 
109 799 228 107 114 125 
108 799 230 112 119 131 
104 792 232 101 108 120 
104 793 232 102 109 121 
104 793 233 103 111 123 
104 794 232 102 110 121 
104 794 233 110 117 129 
104 795 233 107 114 126 
105 794 232 101 108 119 
105 795 232 102 109 120 
105 795 233 103 111 123 
104 794 234 115 122 135 
104 795 234 109 117 130 
104 796 233 104 112 124 
105 796 232 102 109 121 
105 796 233 103 110 122 
105 797 232 103 110 121 
105 797 233 103 110 122 
104 796 234 106 113 126 
104 796 235 107 115 128 
104 797 234 107 114 126 
104 797 235 109 116 128 
105 797 234 107 114 125 
105 798 233 104 110 120 
104 798 235 109 116 128 
105 798 234 105 111 122 
105 798 235 105 112 124 
105 799 234 103 109 121 
105 799 235 106 113 125 
106 797 232 102 109 120 
106 798 232 106 112 123 
106 798 233 104 110 121 
106 799 232 106 112 123 
106 799 233 103 109 120 
107 799 232 107 114 125 
106 799 234 103 110 122 
104 797 236 116 123 135 
104 797 237 126 133 145 
104 798 236 114 121 133 
104 798 237 120 126 139 
104 799 236 111 117 129 
104 799 237 114 120 133 
105 799 236 110 118 130 
104 798 238 118 126 140 
104 799 238 117 125 138 
104 799 239 119 126 139 
97 784 240 116 122 134 
97 784 241 113 119 131 
97 784 242 109 115 127 
97 785 242 107 114 126 
98 784 240 114 120 132 
98 784 241 110 117 129 
98 785 240 102 109 121 
98 785 241 103 110 122 
98 785 242 107 114 126 
98 786 240 101 108 119 
98 786 241 105 112 123 
98 787 240 101 108 119 
98 787 241 107 114 125 
99 787 240 101 107 119 
99 787 241 107 113 125 
98 786 242 114 121 133 
98 787 242 115 122 134 
99 787 242 114 121 133 
99 788 240 104 111 123 
99 788 241 110 116 129 
99 789 240 106 113 125 
99 789 241 112 119 132 
99 788 242 116 123 136 
99 789 242 118 126 140 
99 790 241 116 124 138 
99 790 242 121 130 144 
100 789 240 107 114 127 
100 790 240 111 119 132 
100 790 241 116 124 138 
100 791 240 118 125 139 
100 791 241 127 134 148 
100 790 242 125 134 149 
100 791 242 134 143 158 
100 792 240 126 133 146 
100 792 241 132 139 154 
101 792 240 123 131 144 
101 792 241 130 137 151 
101 793 240 125 131 145 
101 793 241 128 135 150 
100 792 242 139 146 160 
101 793 242 131 138 153 
101 794 240 127 134 148 
101 794 241 127 134 148 
101 795 241 129 135 149 
101 794 242 126 133 147 
101 795 242 129 135 149 
102 794 240 130 138 152 
102 795 240 130 138 152 
102 795 241 129 136 149 
102 795 242 129 136 149 
102 796 240 127 135 148 
102 796 241 129 135 149 
102 797 240 127 134 147 
102 797 241 127 133 147 
103 797 240 126 132 146 
103 797 241 126 133 146 
102 796 242 129 135 148 
102 797 242 126 133 147 
103 798 240 123 129 143 
103 798 241 125 132 145 
103 799 240 121 127 141 
103 799 241 123 129 143 
102 798 242 125 132 146 
103 798 242 125 132 145 
103 799 242 124 130 143 
104 799 240 120 127 141 
111 800 223 118 125 138 
119 800 211 96 104 117 
117 800 214 126 133 145 
117 800 215 124 131 143 
117 801 214 124 132 144 
117 801 215 123 130 143 
117 802 215 124 131 144 
118 800 213 118 126 138 
118 801 213 116 125 138 
119 800 212 102 111 124 
119 801 212 107 116 130 
119 801 213 111 120 134 
118 800 214 126 132 144 
118 801 214 122 129 142 
118 801 215 121 129 142 
119 802 213 116 124 136 
119 803 213 112 119 133 
118 802 214 120 128 141 
118 802 215 121 129 142 
118 803 214 114 122 135 
118 803 215 115 123 137 
119 802 214 117 125 138 
119 803 214 111 119 132 
119 804 213 107 116 129 
118 804 215 114 123 137 
119 804 214 108 117 130 
119 804 215 109 118 132 
119 805 214 111 120 133 
119 805 215 112 121 134 
119 806 215 111 119 133 
115 800 217 109 116 127 
115 801 217 111 117 129 
114 800 218 107 114 125 
114 800 219 107 114 126 
114 801 219 112 119 132 
115 800 218 107 114 126 
115 801 218 110 117 129 
115 801 219 110 117 130 
115 802 218 108 115 127 
115 802 219 107 114 127 
115 803 219 108 115 127 
113 800 220 113 121 135 
113 800 221 115 124 138 
113 801 220 123 130 144 
113 801 221 124 132 146 
112 800 222 117 125 139 
112 800 223 119 127 140 
112 801 222 129 137 151 
112 801 223 130 138 151 
113 800 222 119 128 141 
113 801 222 129 137 150 
113 801 223 132 140 153 
112 802 223 133 139 152 
113 802 222 126 134 148 
113 802 223 131 139 152 
113 803 222 120 128 142 
113 803 223 120 127 139 
114 800 220 111 119 132 
114 801 220 118 126 139 
114 801 221 124 131 145 
114 802 220 113 122 135 
114 802 221 119 127 141 
114 803 220 112 120 133 
114 803 221 113 120 133 
115 802 220 107 116 129 
115 803 220 109 117 129 
114 803 222 114 122 136 
115 804 219 109 116 129 
113 804 223 115 122 135 
113 805 223 118 125 137 
114 804 221 113 120 133 
115 804 220 110 117 130 
115 804 221 112 119 131 
115 805 220 112 119 131 
115 805 221 115 121 134 
114 804 222 114 121 134 
114 804 223 115 122 135 
114 805 222 117 124 136 
114 805 223 119 126 138 
115 805 222 117 124 136 
115 806 221 117 124 136 
114 806 223 122 128 141 
114 807 223 123 130 143 
115 806 222 119 125 138 
115 806 223 121 128 140 
115 807 222 122 128 141 
115 807 223 124 131 143 
116 800 216 119 125 137 
116 800 217 114 120 132 
116 801 216 120 127 139 
116 801 217 115 122 134 
117 801 216 124 131 143 
116 802 216 125 131 144 
116 802 217 118 125 137 
116 803 217 118 125 138 
117 802 216 127 134 147 
117 803 216 125 132 145 
117 803 217 123 130 143 
116 802 218 111 118 130 
116 803 218 114 121 134 
116 803 219 111 118 130 
118 803 216 120 128 142 
117 804 216 123 131 144 
117 804 217 125 132 145 
117 805 217 123 129 142 
116 804 218 114 121 134 
116 804 219 112 119 131 
116 805 219 115 122 134 
117 804 218 119 126 139 
117 805 218 120 127 139 
117 805 219 119 126 138 
117 806 219 122 129 141 
117 807 219 126 132 144 
118 804 216 118 126 139 
118 805 216 115 123 136 
118 805 217 118 126 138 
119 805 216 114 122 135 
118 805 218 117 124 137 
118 806 217 113 121 135 
119 806 216 113 120 133 
119 806 217 114 121 135 
119 807 216 114 122 135 
119 807 217 114 122 136 
118 806 218 119 126 139 
118 807 218 118 126 139 
118 807 219 122 128 141 
116 804 220 110 117 129 
116 805 220 115 122 134 
116 806 220 120 126 137 
116 806 221 120 126 138 
116 807 220 124 129 141 
116 807 221 125 130 142 
117 806 220 123 129 141 
117 807 220 126 131 143 
116 807 222 122 128 141 
115 808 223 127 135 149 
115 809 223 131 140 155 
119 808 217 121 129 143 
118 808 218 119 127 140 
118 808 219 124 130 142 
118 809 219 125 132 145 
119 808 218 121 128 142 
119 808 219 121 128 141 
119 809 218 123 130 143 
119 809 219 122 129 142 
119 810 218 122 130 143 
119 810 219 123 130 143 
119 811 219 121 129 142 
116 808 221 126 132 145 
117 808 220 129 134 146 
117 808 221 127 133 146 
117 809 220 130 136 148 
117 809 221 129 135 148 
116 808 222 124 130 144 
116 808 223 124 132 145 
116 809 222 126 133 146 
116 809 223 132 140 153 
117 809 222 131 137 150 
117 810 221 130 136 148 
116 810 223 137 144 157 
116 811 223 130 137 151 
117 810 222 135 141 154 
117 810 223 137 143 156 
117 811 222 131 137 150 
117 811 223 129 136 149 
118 809 220 129 135 147 
118 810 220 125 132 145 
118 810 221 127 133 146 
118 811 220 124 131 144 
118 811 221 127 133 146 
119 811 220 123 131 144 
118 811 222 129 135 148 
119 812 219 121 129 143 
117 812 223 126 132 146 
117 813 223 125 131 143 
118 812 221 130 136 149 
119 812 220 124 132 145 
119 812 221 128 135 149 
119 813 220 134 141 155 
119 813 221 131 138 151 
118 812 222 131 137 150 
118 813 222 130 136 149 
118 813 223 127 132 145 
119 813 222 132 138 151 
119 814 221 131 138 151 
118 814 223 122 127 139 
118 815 223 116 121 133 
119 814 222 128 135 147 
119 814 223 125 130 143 
119 815 222 125 132 144 
119 815 223 120 126 138 
120 800 209 98 104 115 
121 800 208 110 116 128 
121 800 209 104 110 121 
121 801 208 117 123 134 
121 801 209 111 117 129 
120 800 210 96 104 115 
120 800 211 98 106 119 
120 801 210 105 112 124 
120 801 211 105 114 127 
121 801 210 109 116 128 
121 802 209 119 124 136 
120 802 211 114 122 134 
120 803 211 117 124 137 
121 802 210 115 122 134 
121 802 211 117 124 136 
121 803 210 118 124 136 
121 803 211 116 123 135 
122 803 210 118 124 136 
120 801 212 110 119 133 
120 802 212 116 124 136 
120 803 212 116 123 136 
120 803 213 113 121 134 
121 804 210 118 124 135 
121 804 211 115 122 134 
121 805 211 121 126 138 
122 804 210 121 126 138 
122 804 211 121 126 138 
122 805 210 123 129 140 
122 805 211 123 128 140 
122 806 210 123 129 141 
122 806 211 125 130 142 
122 807 211 127 132 144 
120 804 212 110 118 130 
120 804 213 108 116 129 
120 805 213 109 117 130 
121 804 212 112 119 131 
121 805 212 117 123 135 
121 805 213 113 120 132 
120 805 214 112 120 133 
121 806 212 120 126 137 
121 806 213 116 122 134 
121 807 213 116 123 135 
120 806 214 115 123 136 
120 806 215 112 120 133 
120 807 214 114 122 135 
120 807 215 113 121 134 
121 806 214 117 124 137 
121 807 214 115 123 136 
122 806 212 124 129 141 
122 807 212 123 129 140 
122 807 213 118 125 137 
120 807 216 113 121 135 
121 808 213 119 126 139 
120 808 215 114 122 136 
121 808 214 119 127 140 
121 808 215 118 126 139 
121 809 215 125 132 145 
121 810 215 128 135 148 
122 808 212 123 130 142 
122 808 213 122 128 141 
122 809 213 127 134 146 
122 808 214 123 130 143 
122 809 214 128 134 147 
122 810 214 130 137 149 
122 810 215 129 136 148 
122 811 214 124 131 143 
122 811 215 126 132 144 
122 812 215 125 130 143 
120 808 216 118 126 140 
120 808 217 123 130 143 
120 809 216 123 129 143 
120 809 217 124 131 145 
121 809 216 123 129 142 
120 810 217 125 132 145 
120 811 217 126 133 145 
121 810 216 125 132 145 
121 811 216 127 133 145 
121 811 217 127 133 146 
120 810 218 123 131 144 
120 811 218 123 130 144 
120 811 219 122 129 142 
122 811 216 125 130 142 
121 812 216 127 133 145 
121 812 217 128 134 147 
121 813 217 129 136 149 
120 812 218 125 132 146 
120 812 219 126 134 147 
120 813 219 134 141 155 
121 812 218 128 135 148 
121 813 218 131 138 151 
121 813 219 132 139 152 
120 814 219 132 139 153 
121 814 218 131 138 152 
121 814 219 129 136 150 
121 815 219 127 134 148 
122 812 216 126 132 144 
122 812 217 128 134 146 
122 813 216 128 134 146 
122 813 217 128 134 147 
122 814 216 126 132 144 
122 814 217 128 134 147 
122 815 217 124 130 144 
122 814 218 129 136 149 
122 815 218 127 135 149 
122 815 219 123 131 145 
120 812 220 127 135 148 
120 813 220 136 143 157 
120 814 220 133 140 154 
120 814 221 131 138 152 
120 815 220 131 138 151 
120 815 221 131 137 150 
121 815 220 130 137 150 
120 815 222 126 132 145 
119 816 222 119 125 137 
119 816 223 113 119 131 
119 817 223 107 113 125 
121 816 219 130 137 151 
122 816 218 125 133 147 
122 816 219 130 138 151 
122 817 219 139 146 160 
123 816 218 127 135 149 
123 817 218 131 139 153 
123 817 219 138 145 159 
122 818 219 141 148 161 
123 818 218 133 141 155 
123 818 219 140 147 161 
123 819 218 133 141 155 
123 819 219 131 138 152 
120 816 221 129 135 148 
121 816 220 129 136 150 
121 816 221 131 138 151 
121 817 220 134 141 154 
121 817 221 131 137 150 
120 816 222 123 129 141 
120 817 222 118 124 136 
120 817 223 108 114 126 
121 817 222 125 131 143 
121 818 221 133 139 151 
120 818 222 112 119 131 
120 818 223 105 112 124 
120 819 223 107 114 126 
121 818 222 122 128 140 
121 819 222 114 121 133 
121 819 223 108 115 127 
122 817 220 138 144 158 
122 818 220 140 146 159 
122 818 221 137 143 156 
122 819 220 133 140 153 
122 819 221 128 134 147 
123 819 220 126 133 147 
122 819 222 113 120 132 
123 820 219 123 131 145 
121 820 222 105 113 125 
121 820 223 105 112 125 
121 821 223 103 111 122 
122 820 221 116 123 136 
123 820 220 121 128 142 
123 820 221 114 122 135 
123 821 220 120 127 140 
123 821 221 112 119 132 
122 820 222 109 116 128 
122 821 222 106 113 125 
122 821 223 103 110 122 
123 821 222 107 114 126 
123 822 221 112 118 130 
123 823 221 111 118 130 
122 822 222 106 113 124 
122 822 223 104 111 123 
122 823 223 106 113 125 
123 822 222 107 114 126 
123 823 222 107 115 127 
123 823 223 106 114 126 
122 824 223 113 120 133 
