ply
format ascii 1.0
comment Created by CloudCompare v2.10.1 (Zephyrus)
comment Created 1/30/20 12:04 PM
obj_info Generated by CloudCompare!
element vertex 1920
property float x
property float y
property float z
property uchar red
property uchar green
property uchar blue
end_header
133 844 253 145 154 172 
133 845 252 146 155 173 
133 845 253 146 155 173 
132 844 254 146 155 173 
132 844 255 149 157 175 
133 844 254 148 156 174 
133 844 255 146 155 172 
134 845 252 146 156 174 
134 845 253 147 156 175 
135 845 252 149 159 178 
135 845 253 155 165 185 
134 844 254 147 155 174 
134 844 255 145 155 173 
134 845 254 147 156 175 
134 845 255 145 154 173 
135 844 255 147 157 175 
135 845 254 150 160 179 
135 845 255 146 157 175 
135 846 252 154 165 184 
136 846 243 153 165 186 
136 847 243 154 167 189 
137 847 243 165 178 199 
136 846 244 152 164 185 
136 847 244 155 168 189 
136 847 245 164 176 196 
137 847 244 162 175 195 
137 847 245 164 176 196 
136 846 246 164 175 194 
136 846 247 163 173 192 
136 847 246 171 182 202 
136 847 247 160 171 191 
137 847 246 160 172 192 
137 847 247 152 163 182 
138 847 244 163 175 195 
138 847 245 161 173 193 
138 847 246 157 169 188 
138 847 247 151 161 181 
136 846 248 152 162 181 
136 846 249 151 160 178 
136 847 248 150 160 179 
136 847 249 149 159 177 
137 847 248 147 157 176 
137 847 249 148 158 175 
136 846 250 152 161 179 
136 846 251 162 171 190 
136 847 250 151 160 179 
137 846 251 176 185 204 
137 847 250 152 160 179 
137 847 251 164 173 192 
138 847 248 145 155 174 
138 847 249 149 157 176 
138 847 250 151 160 178 
138 847 251 162 171 189 
139 847 250 149 158 177 
139 847 251 154 163 182 
136 845 253 164 176 196 
136 845 254 158 170 189 
136 845 255 158 169 188 
137 845 255 165 175 193 
136 846 252 174 185 205 
136 846 253 175 188 209 
137 846 252 181 192 213 
137 846 253 178 191 212 
137 847 252 179 189 210 
136 846 254 169 182 202 
137 846 254 175 187 207 
137 846 255 171 182 200 
138 846 253 173 185 206 
138 847 252 174 184 204 
138 847 253 171 183 204 
139 847 252 158 169 189 
139 847 253 162 173 193 
138 846 254 170 182 201 
138 846 255 158 169 187 
139 846 254 162 174 193 
139 846 255 149 158 177 
139 847 254 155 167 186 
140 847 252 146 156 177 
140 847 253 146 156 176 
141 847 253 145 155 173 
140 846 255 139 148 167 
140 847 254 151 161 179 
140 847 255 144 153 172 
141 846 255 139 148 165 
141 847 254 146 155 174 
141 847 255 142 150 168 
142 847 254 142 151 169 
142 847 255 142 149 166 
143 847 254 139 148 166 
143 847 255 141 149 167 
138 848 243 167 180 202 
139 848 243 171 182 203 
138 848 244 163 176 197 
138 848 245 163 174 193 
139 848 244 165 177 197 
139 848 245 157 168 187 
138 848 246 159 169 189 
138 848 247 151 161 180 
139 848 246 152 162 182 
139 848 247 147 157 176 
140 848 243 175 185 203 
141 849 243 156 165 184 
142 849 243 147 155 172 
143 849 243 145 153 171 
143 850 243 145 153 171 
140 848 244 167 177 196 
140 848 245 149 160 179 
141 849 244 153 163 182 
141 849 245 144 155 173 
140 848 246 144 154 173 
140 848 247 143 153 171 
141 849 246 143 153 172 
141 849 247 144 155 173 
142 849 244 145 154 171 
142 849 245 142 152 170 
143 849 244 144 153 171 
143 849 245 142 152 170 
142 849 246 143 153 171 
142 849 247 149 160 178 
143 849 246 144 154 173 
143 849 247 156 166 184 
143 850 244 144 154 172 
143 850 245 143 153 171 
143 850 246 145 155 173 
143 850 247 157 167 186 
138 848 248 145 155 174 
139 848 248 146 156 174 
139 848 249 149 158 175 
139 848 250 149 158 175 
139 848 251 149 157 175 
140 848 248 146 156 173 
140 848 249 150 158 175 
141 848 248 150 159 177 
141 848 249 151 159 177 
141 849 248 148 158 176 
141 849 249 153 162 180 
140 848 250 148 155 172 
140 848 251 145 154 172 
141 848 250 148 156 174 
141 848 251 143 152 169 
142 849 248 155 165 183 
142 849 249 152 161 179 
143 849 248 162 172 190 
143 849 249 149 159 178 
142 848 250 146 155 172 
142 848 251 142 150 168 
142 849 250 146 155 172 
142 849 251 142 151 168 
143 848 251 141 150 167 
143 849 250 143 153 171 
143 849 251 142 151 169 
140 848 252 144 154 173 
141 848 252 141 151 168 
141 848 253 143 152 170 
142 848 252 142 151 169 
142 848 253 143 152 169 
143 848 252 141 150 169 
143 848 253 141 150 169 
142 848 254 141 150 168 
143 848 254 139 148 167 
144 847 255 149 158 177 
145 847 255 162 172 191 
146 847 255 163 174 194 
144 850 243 145 153 170 
145 850 243 145 153 171 
146 850 243 146 154 171 
147 851 243 152 160 177 
144 850 244 144 154 172 
144 850 245 144 154 172 
145 850 244 146 155 172 
145 850 245 146 155 173 
144 850 246 145 154 173 
144 850 247 156 166 185 
145 850 246 147 156 174 
145 850 247 151 161 180 
146 850 244 149 157 174 
146 850 245 151 159 176 
146 851 244 155 163 180 
146 851 245 154 163 180 
147 851 244 160 168 185 
147 851 245 159 168 185 
146 850 246 148 157 174 
146 850 247 146 156 173 
146 851 246 149 158 176 
147 850 247 144 154 172 
147 851 246 152 161 179 
147 851 247 146 155 174 
148 851 243 155 163 180 
149 851 243 154 163 179 
150 851 243 150 159 177 
148 851 244 160 168 185 
148 851 245 156 165 182 
149 851 244 157 166 182 
149 851 245 148 158 175 
148 851 246 148 157 176 
148 851 247 142 152 170 
149 851 246 144 154 171 
149 851 247 144 153 170 
150 851 244 149 158 175 
150 851 245 147 157 174 
151 851 245 148 157 175 
150 851 246 146 156 173 
150 851 247 141 151 168 
151 851 246 144 154 171 
151 851 247 139 149 167 
150 852 243 146 156 173 
151 852 243 145 154 172 
150 852 244 147 156 173 
151 852 244 149 158 175 
151 852 245 149 158 176 
151 852 246 144 154 172 
144 849 249 149 159 178 
144 849 250 144 154 172 
144 849 251 143 153 172 
145 849 250 144 153 171 
145 849 251 146 155 173 
144 850 248 164 174 192 
144 850 249 154 165 184 
145 850 248 161 171 188 
145 850 249 150 159 178 
145 850 250 144 154 171 
146 849 251 148 156 174 
147 849 251 148 157 174 
146 850 248 150 159 177 
146 850 249 145 155 172 
147 850 248 142 152 169 
147 850 249 141 150 167 
146 850 250 143 152 169 
146 850 251 144 153 170 
147 850 250 142 151 168 
147 850 251 145 154 171 
144 848 252 146 156 176 
144 848 253 158 169 187 
144 849 252 150 160 179 
145 848 253 174 184 203 
145 849 252 168 177 194 
145 849 253 177 186 204 
144 848 254 153 164 183 
144 848 255 148 158 177 
145 848 254 166 178 197 
145 848 255 160 171 190 
146 848 253 180 190 208 
146 849 252 168 177 195 
146 849 253 180 189 207 
147 849 252 153 161 179 
147 849 253 158 168 185 
146 848 254 172 183 203 
146 848 255 164 175 195 
147 848 254 153 163 182 
147 848 255 158 168 186 
148 849 251 146 155 171 
148 850 248 141 151 168 
148 850 249 139 148 165 
148 851 248 144 153 170 
149 850 248 140 150 167 
149 850 249 137 146 164 
149 851 248 142 151 169 
148 850 250 139 148 165 
148 850 251 142 150 167 
149 850 250 138 147 164 
149 850 251 141 149 167 
150 850 249 134 143 160 
150 851 248 136 145 162 
150 851 249 134 142 160 
151 850 249 135 143 162 
151 851 248 134 144 162 
151 851 249 133 141 160 
150 850 250 138 146 163 
150 850 251 146 155 172 
151 850 250 138 146 164 
151 850 251 162 171 189 
148 849 252 147 155 172 
148 849 253 144 153 170 
149 849 252 139 148 166 
149 849 253 139 149 166 
148 848 254 146 155 172 
148 848 255 145 154 170 
148 849 254 145 154 171 
149 848 254 142 150 167 
149 848 255 138 147 163 
149 849 254 142 151 167 
150 849 252 136 147 166 
150 849 253 133 144 162 
151 849 252 160 170 188 
151 849 253 149 158 176 
150 848 254 134 143 161 
150 848 255 132 141 157 
150 849 254 136 146 164 
151 848 254 135 143 161 
151 848 255 130 138 155 
151 849 254 141 150 167 
151 850 252 165 175 193 
152 851 246 141 153 172 
152 851 247 141 152 172 
153 851 247 144 157 179 
152 852 243 145 153 170 
153 852 243 143 152 170 
154 853 243 145 153 171 
155 853 243 148 157 174 
152 852 244 149 158 175 
152 852 245 147 158 177 
153 852 244 148 157 175 
153 852 245 150 161 182 
152 852 246 144 156 176 
153 852 246 158 170 191 
153 852 247 154 167 189 
154 852 244 157 165 183 
154 852 245 170 180 198 
154 853 244 151 160 178 
155 852 245 171 180 198 
155 853 244 155 164 181 
155 853 245 166 175 193 
154 852 246 172 184 204 
154 852 247 169 181 202 
155 852 246 173 184 203 
155 852 247 171 183 203 
156 853 243 146 154 172 
157 853 243 146 155 172 
158 853 243 145 154 172 
159 853 243 146 155 173 
156 853 244 151 159 177 
156 853 245 164 173 192 
157 853 244 147 156 174 
157 853 245 155 165 183 
156 852 246 172 182 202 
156 852 247 169 181 201 
157 852 246 162 172 191 
157 852 247 160 170 189 
157 853 246 160 170 189 
158 853 244 146 156 173 
158 853 245 149 159 177 
159 853 244 144 154 171 
159 853 245 149 158 175 
158 852 247 144 154 173 
158 853 246 146 156 175 
159 852 247 142 152 168 
159 853 246 149 158 175 
159 853 247 144 154 171 
152 850 249 135 143 161 
152 851 248 138 149 167 
152 851 249 136 145 163 
153 851 248 142 155 176 
153 851 249 137 148 166 
152 850 250 136 144 162 
152 850 251 145 153 171 
153 850 250 137 146 164 
153 850 251 138 147 164 
153 851 250 137 146 164 
154 851 248 161 173 193 
154 851 249 147 158 177 
155 851 248 151 162 181 
155 851 249 140 150 168 
154 850 250 137 146 164 
154 850 251 138 146 163 
154 851 250 137 146 164 
155 850 251 137 145 162 
155 851 250 136 145 161 
152 849 252 154 163 179 
152 849 253 148 156 172 
153 849 252 140 148 164 
153 849 253 140 148 164 
152 848 255 132 140 157 
152 849 254 134 142 159 
153 848 255 138 146 163 
153 849 254 135 142 159 
152 850 252 150 159 176 
153 850 252 138 147 163 
154 849 252 138 145 162 
154 849 253 139 146 162 
155 849 253 143 151 166 
154 848 255 146 154 171 
154 849 254 138 146 163 
155 848 255 149 156 174 
155 849 254 143 152 168 
155 849 255 144 152 169 
154 850 252 136 145 161 
155 850 252 139 147 163 
154 852 248 169 181 202 
155 852 248 164 175 195 
156 851 248 140 150 171 
156 851 249 135 144 162 
157 851 249 133 141 158 
156 850 251 143 150 166 
156 851 250 139 147 163 
156 851 251 145 152 167 
157 850 251 141 148 164 
157 851 250 137 144 160 
157 851 251 140 146 162 
158 851 249 130 137 153 
158 851 250 133 140 155 
158 851 251 136 143 159 
159 851 250 135 142 158 
159 851 251 137 144 159 
156 849 253 144 152 168 
157 849 253 143 151 168 
156 848 255 148 156 173 
156 849 254 144 152 168 
156 849 255 145 153 169 
157 848 255 149 158 175 
157 849 254 146 154 172 
157 849 255 149 158 176 
156 850 252 142 149 164 
156 850 253 144 152 168 
157 850 252 141 149 165 
157 850 253 145 152 168 
158 849 254 153 160 180 
158 849 255 161 170 189 
159 849 255 167 177 196 
158 850 252 140 148 164 
158 850 253 144 151 168 
159 850 252 143 150 167 
159 850 253 145 153 171 
159 851 252 143 150 166 
158 850 254 149 155 174 
159 850 254 153 162 180 
156 852 248 149 161 181 
157 852 248 140 151 170 
157 852 249 128 136 153 
158 852 248 134 144 162 
158 852 249 130 137 154 
159 852 248 136 146 162 
159 852 249 136 144 159 
159 852 250 136 143 159 
160 853 243 146 156 173 
160 854 243 148 157 176 
161 854 243 148 157 175 
162 854 243 145 155 174 
163 854 243 142 150 169 
160 853 244 145 155 172 
160 853 245 147 157 174 
161 853 244 149 157 174 
161 853 245 147 156 175 
160 853 246 145 154 171 
160 853 247 143 152 169 
161 853 246 145 155 173 
161 853 247 141 151 169 
161 854 244 150 159 176 
162 853 245 147 158 178 
162 853 246 157 169 189 
162 853 247 158 169 189 
163 853 246 172 181 200 
163 853 247 172 181 200 
162 854 244 150 159 176 
162 854 245 152 162 180 
163 854 244 147 156 173 
163 854 245 160 169 187 
163 854 246 172 181 199 
164 854 243 143 150 169 
164 855 243 144 151 169 
165 855 243 142 150 167 
166 855 243 140 148 165 
167 855 243 138 146 164 
164 853 247 171 179 196 
165 853 247 151 160 177 
164 854 244 143 151 168 
164 854 245 150 158 176 
165 854 244 143 150 167 
165 854 245 146 153 170 
165 855 244 142 149 166 
164 854 246 164 172 189 
164 854 247 166 173 190 
165 854 246 151 160 177 
165 854 247 148 157 175 
166 854 245 147 155 172 
166 855 244 142 150 167 
167 854 245 150 159 176 
167 855 244 141 150 167 
167 855 245 150 159 176 
166 854 246 149 158 174 
166 854 247 142 151 170 
167 854 246 152 162 179 
167 854 247 146 156 174 
160 851 250 137 144 160 
160 851 251 139 146 162 
161 851 251 143 150 166 
162 851 251 145 152 168 
163 851 251 142 150 166 
160 849 255 162 174 194 
161 849 255 157 169 190 
160 850 253 154 162 180 
160 851 252 145 152 169 
161 850 253 163 171 188 
161 851 252 146 153 170 
161 851 253 157 164 180 
160 850 254 160 170 189 
160 850 255 170 180 199 
161 850 254 163 173 192 
161 850 255 163 174 194 
162 851 252 147 152 169 
162 851 253 154 161 178 
163 851 252 144 151 168 
163 851 253 148 156 174 
162 850 254 168 176 194 
162 850 255 168 179 197 
163 850 254 157 166 186 
163 850 255 164 174 192 
163 851 254 156 165 184 
160 852 248 141 149 165 
160 852 249 135 142 158 
161 852 248 136 144 160 
161 852 249 136 143 160 
161 853 248 138 146 163 
160 852 250 135 143 158 
161 852 250 139 146 162 
161 852 251 144 150 167 
162 852 248 143 152 171 
162 852 249 144 153 172 
162 853 248 148 158 177 
163 852 249 153 163 182 
163 853 248 159 170 189 
163 853 249 155 165 184 
162 852 250 144 152 170 
162 852 251 146 153 170 
163 852 250 152 161 179 
163 852 251 144 153 171 
164 851 252 145 153 170 
164 851 253 144 152 170 
165 851 253 145 153 170 
164 850 255 160 169 188 
164 851 254 144 154 173 
164 851 255 149 159 178 
165 850 255 167 175 193 
165 851 254 146 154 171 
165 851 255 150 158 177 
166 851 254 144 152 168 
166 851 255 146 155 172 
167 851 254 144 152 168 
167 851 255 143 151 167 
164 852 249 159 168 186 
164 853 248 156 166 184 
164 853 249 158 167 185 
165 853 248 141 151 170 
165 853 249 147 156 173 
164 852 250 154 162 180 
164 852 251 147 155 173 
165 852 250 146 154 172 
165 852 251 144 152 170 
165 853 250 146 154 172 
166 853 248 139 148 166 
166 853 249 141 149 166 
167 853 249 141 148 165 
166 852 251 147 154 170 
166 853 250 142 150 166 
166 853 251 145 153 169 
167 853 250 140 148 164 
167 853 251 145 152 168 
166 854 248 138 148 166 
167 854 248 143 151 169 
167 854 249 141 148 165 
164 852 252 146 154 171 
165 852 252 146 154 171 
165 852 253 146 154 170 
166 852 252 148 155 171 
166 852 253 146 153 170 
167 852 252 147 154 170 
167 852 253 145 153 169 
167 852 254 146 154 169 
168 855 243 136 144 163 
168 855 244 142 151 169 
168 855 245 159 168 186 
169 855 244 148 157 174 
169 855 245 158 166 184 
168 854 246 154 165 184 
168 854 247 150 160 179 
168 855 246 164 173 192 
168 855 247 159 169 187 
169 855 246 161 169 187 
169 855 247 159 167 184 
170 855 246 148 157 174 
170 855 247 147 155 172 
171 855 247 145 153 169 
168 851 255 141 149 166 
169 851 255 142 150 167 
168 853 250 140 148 164 
168 853 251 144 152 167 
169 853 251 142 150 165 
168 854 248 143 152 170 
168 854 249 138 146 163 
169 854 248 140 149 167 
169 854 249 134 143 161 
169 855 248 144 153 170 
168 854 250 140 147 163 
169 854 250 137 146 163 
169 854 251 140 149 165 
170 854 249 135 144 162 
170 855 248 141 149 166 
170 855 249 137 146 164 
171 855 248 140 149 165 
171 855 249 143 152 169 
170 854 250 146 155 172 
170 854 251 143 152 169 
171 854 250 164 172 189 
171 854 251 158 167 185 
171 855 250 157 166 183 
168 852 252 146 154 169 
168 852 253 148 155 170 
168 853 252 147 154 170 
169 852 253 146 154 169 
169 853 252 144 151 167 
169 853 253 145 153 168 
168 852 254 148 155 170 
168 852 255 144 152 168 
169 852 254 143 150 166 
169 852 255 140 148 164 
170 853 252 143 151 167 
170 853 253 143 151 166 
171 853 252 142 150 167 
171 853 253 138 146 162 
170 852 254 139 147 162 
170 852 255 140 148 164 
170 853 254 139 147 163 
171 852 254 138 145 160 
171 852 255 139 146 161 
171 853 254 137 145 160 
170 854 252 142 150 167 
171 854 252 143 152 169 
172 855 249 145 154 171 
173 855 249 145 154 170 
172 854 251 146 155 172 
172 855 250 149 158 175 
172 855 251 148 157 174 
173 854 251 141 150 166 
173 855 250 145 154 170 
173 855 251 142 150 167 
174 855 250 147 156 172 
174 855 251 138 146 162 
175 855 251 130 140 157 
172 853 253 133 140 155 
172 852 255 135 142 155 
172 853 254 132 139 153 
172 853 255 133 140 154 
173 852 255 129 134 146 
173 853 254 126 133 146 
173 853 255 124 130 143 
172 854 252 139 148 164 
172 854 253 135 143 158 
173 854 252 136 143 159 
173 854 253 130 137 152 
174 852 255 116 122 135 
174 853 254 120 126 139 
174 853 255 117 123 136 
175 852 255 99 104 118 
175 853 254 106 112 125 
175 853 255 101 107 120 
174 854 252 130 138 153 
174 854 253 126 133 147 
174 855 252 129 137 152 
175 854 252 125 132 146 
175 854 253 115 122 136 
175 855 252 121 129 143 
174 854 254 117 124 137 
175 854 254 108 115 128 
168 856 243 139 148 166 
169 856 243 140 149 167 
170 856 243 141 151 168 
170 857 243 144 154 172 
171 857 243 152 162 180 
168 856 244 140 149 166 
169 856 244 141 150 167 
169 856 245 152 160 177 
170 856 244 140 148 166 
170 856 245 144 152 170 
171 856 244 140 149 166 
171 856 245 144 152 168 
171 857 244 141 150 168 
171 857 245 143 151 168 
170 856 246 144 152 169 
171 856 246 146 154 170 
171 856 247 145 153 170 
172 857 243 148 158 177 
173 858 243 137 147 167 
174 858 243 137 147 165 
175 858 243 141 150 167 
175 859 243 142 151 169 
172 857 244 140 149 166 
172 857 245 145 154 170 
173 857 244 138 147 164 
173 857 245 144 152 169 
172 856 246 146 154 170 
172 856 247 144 152 169 
172 857 246 146 154 170 
173 856 247 144 152 168 
173 857 246 144 152 168 
173 857 247 143 151 168 
173 858 244 136 145 163 
174 857 245 143 152 168 
174 857 246 142 150 166 
174 857 247 143 151 168 
175 857 246 142 150 167 
175 857 247 145 153 171 
174 858 244 140 149 166 
174 858 245 143 151 167 
175 858 244 144 153 170 
175 858 245 142 151 167 
175 858 246 143 152 169 
171 856 248 143 152 168 
172 856 248 142 151 167 
172 856 249 144 152 169 
173 856 248 142 151 167 
173 856 249 144 152 169 
174 856 248 146 154 170 
174 856 249 148 158 175 
174 857 248 144 152 169 
175 856 248 153 161 177 
175 856 249 158 166 184 
175 857 248 152 160 178 
174 856 250 150 159 176 
175 856 250 152 162 179 
175 856 251 131 143 161 
176 855 251 115 126 143 
177 855 251 116 126 143 
176 852 255 107 111 124 
176 853 254 104 111 124 
176 853 255 101 107 119 
177 852 255 115 120 133 
177 853 255 113 118 131 
176 854 253 111 117 131 
176 855 252 112 121 136 
177 854 253 122 129 142 
177 855 252 120 129 144 
177 855 253 124 131 145 
176 854 254 108 115 128 
177 854 254 113 120 133 
178 852 255 125 131 145 
178 853 254 126 132 146 
178 853 255 123 129 142 
179 852 255 132 138 153 
179 853 254 131 137 151 
179 853 255 132 138 152 
178 854 253 129 135 150 
178 855 252 131 139 155 
178 855 253 131 139 153 
179 854 253 127 134 148 
179 855 252 132 140 155 
179 855 253 127 134 149 
178 854 254 123 130 144 
179 854 254 131 136 150 
180 852 255 132 139 154 
180 853 255 132 138 153 
181 852 255 131 137 152 
181 853 255 130 137 151 
180 855 252 129 137 153 
180 855 253 127 135 150 
181 855 252 126 134 151 
181 855 253 125 133 149 
180 854 254 131 137 151 
181 854 254 130 137 152 
182 853 255 128 135 149 
183 853 255 124 132 148 
182 855 252 126 134 149 
182 855 253 127 133 148 
183 855 253 126 132 147 
182 854 254 129 136 151 
182 854 255 128 136 151 
182 855 254 129 136 150 
183 854 254 132 140 155 
183 854 255 129 137 154 
183 855 254 132 139 154 
176 859 243 144 153 171 
177 859 243 145 155 173 
178 859 243 152 162 180 
176 857 247 152 162 180 
176 858 244 146 155 172 
176 858 245 144 153 171 
176 859 244 148 157 174 
177 858 245 144 154 171 
177 859 244 149 158 175 
177 859 245 144 154 171 
176 858 246 150 158 175 
176 858 247 158 166 184 
177 858 246 147 156 173 
177 858 247 161 169 186 
178 859 244 151 160 177 
178 859 245 144 153 170 
179 859 244 150 159 177 
179 859 245 141 149 165 
178 858 246 141 150 167 
178 858 247 149 157 173 
178 859 246 142 151 167 
179 858 246 139 148 165 
179 858 247 139 147 163 
179 859 246 134 142 158 
179 859 247 130 138 154 
178 860 243 157 167 186 
179 860 243 164 175 194 
179 860 244 160 169 188 
180 859 244 140 149 167 
180 859 245 131 139 156 
181 859 245 124 133 150 
180 858 247 126 134 149 
180 859 246 125 133 149 
180 859 247 125 132 147 
181 859 246 121 128 144 
181 859 247 121 126 142 
182 859 246 120 127 144 
182 859 247 121 127 142 
183 859 246 126 134 150 
183 859 247 127 134 150 
180 860 243 164 175 195 
181 860 243 156 167 185 
182 860 243 145 156 173 
182 861 243 145 156 173 
183 861 243 142 152 169 
180 860 244 147 158 177 
181 860 244 141 152 170 
181 860 245 129 138 156 
182 860 244 139 149 167 
182 860 245 126 135 153 
183 860 244 139 149 166 
183 860 245 132 141 158 
183 861 244 140 150 168 
183 860 246 129 137 154 
176 856 249 152 162 181 
176 857 248 159 169 187 
176 857 249 152 162 180 
177 857 248 155 166 185 
177 857 249 142 153 171 
176 856 250 140 151 169 
176 856 251 124 135 153 
177 856 250 131 142 160 
177 856 251 123 133 150 
177 857 250 128 140 158 
177 858 248 162 171 188 
178 857 248 147 156 174 
178 857 249 140 150 168 
179 857 248 144 152 168 
179 857 249 137 146 162 
178 856 250 129 139 157 
178 856 251 125 134 150 
178 857 250 135 145 163 
179 856 251 136 144 160 
179 857 250 137 146 162 
178 858 248 157 165 181 
179 858 248 136 144 161 
179 856 252 134 142 158 
180 857 249 134 142 158 
181 857 249 139 146 161 
180 856 251 140 148 165 
180 857 250 139 148 165 
180 857 251 144 154 170 
181 856 251 143 151 167 
181 857 250 152 159 174 
181 857 251 151 158 174 
180 858 248 123 130 146 
180 858 249 132 140 156 
181 858 248 120 127 142 
181 858 249 129 135 151 
182 857 249 136 141 156 
182 856 251 135 142 158 
182 857 250 141 147 162 
182 857 251 143 149 164 
183 856 251 123 130 145 
183 857 250 125 132 147 
183 857 251 124 131 146 
182 858 248 126 132 146 
182 858 249 129 135 150 
182 859 248 126 132 146 
183 858 248 128 136 151 
183 858 249 124 132 148 
183 859 248 129 136 151 
180 856 252 135 143 159 
181 856 252 131 140 156 
182 856 252 127 134 149 
183 856 252 124 130 145 
184 855 253 129 137 153 
185 855 253 135 144 159 
184 854 255 134 143 159 
184 855 254 137 146 162 
185 854 255 137 146 162 
185 855 254 143 151 167 
185 855 255 148 156 171 
186 854 255 131 139 155 
186 855 254 138 147 163 
186 855 255 136 144 160 
187 855 254 140 148 164 
187 855 255 134 142 158 
188 855 254 139 146 163 
188 855 255 136 144 160 
189 855 255 134 141 157 
190 855 255 140 146 162 
191 855 255 142 149 165 
184 859 246 134 142 157 
184 859 247 135 143 158 
185 859 246 137 145 160 
185 859 247 139 147 162 
186 859 246 135 144 160 
186 859 247 135 143 159 
187 859 246 144 153 169 
187 859 247 137 145 162 
184 861 243 139 149 167 
185 861 243 138 148 166 
186 861 243 132 142 159 
187 861 243 126 135 152 
184 860 244 138 147 163 
184 860 245 135 144 160 
184 861 244 138 148 165 
185 860 244 135 144 160 
185 860 245 132 141 157 
185 861 244 134 144 160 
184 860 246 134 142 158 
185 860 246 135 143 159 
186 860 244 133 142 158 
186 860 245 134 143 159 
186 861 244 132 141 158 
187 860 244 133 142 159 
187 860 245 146 155 171 
187 861 244 127 136 154 
186 860 246 134 143 159 
187 860 246 146 155 171 
188 859 246 148 156 172 
188 859 247 138 147 164 
189 859 246 138 146 164 
189 859 247 138 147 163 
190 859 246 140 150 169 
190 859 247 138 147 165 
191 859 247 139 148 167 
188 861 243 128 137 153 
189 861 243 131 141 156 
190 861 243 134 143 160 
191 861 243 137 145 163 
188 860 244 131 140 157 
188 860 245 143 152 168 
188 861 244 129 138 154 
189 860 244 131 140 157 
189 860 245 133 142 160 
189 861 244 131 141 157 
188 860 246 148 157 173 
189 860 246 137 146 163 
190 860 244 138 147 164 
190 860 245 142 152 170 
190 861 244 136 145 163 
191 860 244 144 154 172 
191 860 245 156 166 184 
191 861 244 140 148 167 
190 860 246 144 153 172 
191 860 246 153 163 182 
184 856 251 122 130 145 
184 857 250 125 133 149 
184 857 251 124 132 147 
185 856 251 127 135 151 
185 857 250 132 141 157 
185 857 251 131 138 155 
184 858 248 128 137 153 
184 858 249 124 132 148 
184 859 248 134 142 158 
185 858 248 135 143 158 
185 858 249 132 140 156 
185 859 248 138 146 161 
186 857 250 135 144 160 
186 857 251 137 145 161 
187 857 250 139 147 164 
187 857 251 151 159 176 
186 858 248 134 142 158 
186 858 249 134 142 158 
186 859 248 134 142 158 
187 858 248 136 144 159 
187 858 249 138 146 161 
187 859 248 134 142 158 
186 858 250 136 143 159 
187 858 250 138 146 162 
184 856 252 123 130 146 
184 856 253 124 132 147 
185 856 252 130 138 154 
185 856 253 134 142 158 
186 856 252 140 148 165 
186 856 253 137 146 163 
187 856 252 153 161 178 
187 856 253 149 157 174 
187 857 252 155 164 181 
187 856 254 145 153 169 
188 857 250 141 149 165 
188 857 251 152 160 176 
189 857 250 143 151 167 
189 857 251 152 159 175 
188 858 248 136 144 160 
188 858 249 137 144 160 
188 859 248 136 144 160 
189 858 248 139 147 163 
189 858 249 140 147 163 
189 859 248 139 147 163 
188 858 250 138 146 161 
189 858 250 143 151 167 
190 857 251 145 154 170 
191 857 251 145 154 170 
190 858 248 140 148 164 
190 858 249 143 151 167 
190 859 248 138 146 163 
191 858 248 137 145 163 
191 858 249 140 148 165 
191 859 248 138 146 164 
190 858 250 145 153 170 
191 858 250 144 152 169 
191 858 251 146 155 172 
188 856 252 147 156 174 
188 856 253 145 154 171 
188 857 252 150 160 177 
189 856 252 149 157 173 
189 856 253 140 148 164 
189 857 252 152 159 176 
188 856 254 140 148 165 
189 856 254 135 142 159 
190 856 253 138 144 161 
190 857 252 141 149 166 
191 856 253 136 143 160 
191 857 252 141 149 165 
191 857 253 136 144 160 
190 856 254 138 144 160 
190 856 255 139 145 160 
191 856 254 137 144 161 
191 856 255 139 147 164 
192 855 255 141 150 168 
192 859 247 135 144 164 
192 861 243 136 144 163 
193 861 243 142 151 170 
193 862 243 146 155 174 
194 862 243 159 168 187 
195 862 243 152 161 180 
192 860 245 163 174 192 
192 861 244 147 156 175 
193 860 245 156 167 187 
193 861 244 155 165 184 
193 861 245 158 169 188 
192 860 246 151 162 182 
192 860 247 137 148 168 
193 860 246 147 158 179 
193 860 247 137 148 169 
194 861 244 165 175 194 
194 861 245 157 171 192 
195 861 244 165 175 193 
195 861 245 163 175 195 
194 860 246 151 166 187 
194 860 247 147 161 182 
194 861 246 155 169 190 
195 860 247 157 171 192 
195 861 246 162 175 196 
195 861 247 156 169 191 
195 862 244 160 169 187 
196 862 243 141 150 168 
197 862 243 139 148 166 
197 863 243 137 145 163 
198 863 243 133 141 159 
199 863 243 135 143 160 
196 861 245 157 167 187 
196 861 246 158 170 190 
196 861 247 159 170 190 
197 861 247 172 180 199 
196 862 244 149 157 176 
196 862 245 149 157 176 
197 862 244 136 144 163 
197 862 245 144 151 170 
197 863 244 133 142 161 
196 862 246 153 162 182 
197 862 246 161 169 187 
197 862 247 172 180 198 
198 862 245 141 148 165 
198 863 244 131 140 157 
198 863 245 137 145 162 
199 863 244 133 142 158 
199 863 245 140 147 164 
198 862 246 151 159 176 
198 862 247 157 165 183 
199 862 246 140 148 165 
199 862 247 140 148 165 
199 863 246 139 146 163 
192 857 251 145 154 170 
193 857 251 145 152 169 
192 858 249 140 149 166 
192 859 248 136 145 163 
192 859 249 138 147 165 
193 859 248 139 150 170 
193 859 249 150 160 179 
192 858 250 145 154 171 
192 858 251 146 154 171 
193 858 250 148 157 175 
193 858 251 144 152 170 
193 859 250 156 165 183 
194 859 248 163 173 192 
194 859 249 162 172 190 
195 859 249 154 164 183 
194 858 251 140 149 167 
194 859 250 151 161 179 
195 858 251 137 145 163 
195 859 250 149 159 177 
195 859 251 141 150 168 
192 856 253 140 147 164 
192 857 252 141 149 165 
192 857 253 140 148 165 
193 857 252 143 150 167 
193 857 253 150 157 174 
192 856 254 141 149 167 
192 856 255 143 152 171 
193 856 254 151 161 179 
193 856 255 167 177 196 
193 857 254 166 175 193 
193 858 252 141 149 166 
194 857 252 144 150 168 
194 857 253 151 158 176 
195 857 253 148 157 175 
194 856 255 179 190 209 
194 857 254 176 185 202 
194 857 255 183 192 210 
195 856 255 169 181 201 
195 857 254 165 174 192 
195 857 255 175 185 204 
194 858 252 141 148 165 
195 858 252 141 148 165 
195 858 253 145 153 171 
193 860 248 136 149 170 
194 860 248 155 166 186 
195 860 248 160 172 192 
195 860 249 157 168 186 
196 859 250 149 158 175 
196 859 251 140 147 165 
197 859 251 138 145 162 
196 857 254 166 174 192 
196 857 255 165 175 193 
197 857 255 151 159 176 
196 858 252 141 149 165 
196 858 253 144 152 169 
196 859 252 140 148 164 
197 858 253 144 152 168 
197 859 252 140 148 164 
197 859 253 142 150 166 
196 858 254 154 162 179 
196 858 255 161 169 186 
197 858 254 146 154 170 
197 858 255 148 155 172 
198 859 252 142 150 166 
198 859 253 143 151 167 
199 859 253 143 151 167 
198 858 254 142 149 166 
198 858 255 140 148 164 
198 859 254 142 149 166 
198 859 255 139 147 163 
199 858 255 139 146 161 
199 859 254 141 148 164 
199 859 255 139 146 161 
196 860 248 161 171 189 
196 860 249 155 164 182 
196 861 248 164 173 190 
197 860 249 145 155 173 
197 861 248 163 172 189 
197 861 249 142 152 170 
196 860 250 145 153 171 
197 860 250 138 146 164 
197 860 251 136 143 161 
198 861 248 153 161 178 
198 861 249 141 149 167 
199 861 249 142 149 165 
198 860 250 137 145 162 
198 860 251 137 144 161 
198 861 250 139 147 164 
199 860 251 141 148 164 
199 861 250 141 149 164 
199 861 251 143 150 165 
198 862 248 148 156 174 
199 862 248 141 148 165 
199 862 249 143 150 166 
198 860 252 143 150 167 
199 860 252 145 152 168 
199 860 253 142 150 166 
200 863 243 134 143 160 
200 863 244 134 143 160 
200 863 245 140 147 163 
201 863 245 140 148 164 
200 863 246 139 146 162 
200 863 247 140 146 162 
201 863 246 136 143 159 
201 863 247 134 140 156 
202 863 246 131 137 154 
202 863 247 128 133 150 
203 863 247 123 130 147 
200 859 254 139 146 162 
200 859 255 136 142 157 
201 859 255 131 138 153 
200 861 250 142 148 164 
200 861 251 150 156 171 
201 861 251 154 161 177 
200 862 248 138 145 162 
200 862 249 139 146 163 
200 863 248 136 143 159 
201 862 248 133 141 157 
201 862 249 133 140 157 
201 863 248 132 138 155 
200 862 250 137 145 161 
201 862 250 137 143 161 
201 862 251 146 153 169 
202 861 251 152 159 175 
202 862 249 135 142 158 
202 863 248 126 132 148 
202 863 249 131 138 155 
203 863 248 123 128 147 
203 863 249 138 145 162 
202 862 250 141 148 164 
202 862 251 143 152 168 
203 862 250 143 150 166 
203 862 251 144 151 168 
203 863 250 144 152 169 
200 860 252 147 154 170 
200 860 253 142 150 166 
200 861 252 153 160 175 
201 860 253 142 150 166 
201 861 252 158 165 180 
201 861 253 146 154 169 
200 860 254 140 146 162 
200 860 255 136 143 158 
201 860 254 139 146 161 
201 860 255 135 141 156 
202 861 252 150 157 172 
202 861 253 141 148 164 
203 861 252 140 148 163 
203 861 253 133 141 157 
202 860 254 135 142 157 
202 860 255 125 131 147 
202 861 254 135 142 157 
203 860 255 121 125 142 
203 861 254 126 133 149 
203 861 255 118 125 142 
203 862 252 139 147 163 
204 863 248 135 141 161 
204 863 249 150 158 176 
205 863 249 149 159 177 
204 862 251 138 148 166 
204 863 250 147 156 174 
204 863 251 140 150 167 
205 863 250 148 158 174 
205 863 251 150 160 176 
206 863 251 155 162 178 
204 861 253 132 138 157 
204 860 255 133 137 152 
204 861 254 132 140 157 
204 861 255 132 138 154 
205 861 255 134 140 157 
204 862 252 140 149 168 
204 862 253 146 154 172 
205 862 252 153 163 181 
205 862 253 153 163 181 
205 863 252 151 161 178 
204 862 254 145 155 173 
205 862 254 147 156 174 
206 863 252 149 157 173 
206 863 253 147 154 172 
207 863 252 144 150 165 
206 862 254 144 151 168 
200 864 243 136 145 161 
201 864 243 135 145 162 
202 864 243 137 146 163 
203 864 243 135 144 162 
200 864 244 135 143 161 
201 864 244 137 145 162 
201 864 245 140 147 163 
202 864 244 139 147 164 
202 864 245 138 145 162 
203 864 244 137 146 163 
203 864 245 141 148 163 
202 864 246 130 137 154 
203 864 246 130 137 155 
203 864 247 123 130 147 
204 864 243 138 148 166 
204 865 243 150 161 179 
205 865 243 161 172 192 
206 865 243 140 149 166 
207 865 243 134 142 159 
204 864 244 138 147 164 
204 864 245 137 145 162 
204 865 244 137 148 167 
205 864 245 134 141 158 
205 865 244 136 147 166 
205 865 245 136 144 160 
204 864 246 127 134 152 
204 864 247 120 125 143 
205 864 246 125 131 148 
205 864 247 116 121 140 
206 865 244 136 145 162 
206 865 245 131 140 157 
207 865 244 133 141 158 
207 865 245 131 138 155 
206 864 246 125 130 148 
206 864 247 123 128 145 
206 865 246 126 133 150 
206 865 247 126 130 146 
207 865 246 129 135 152 
207 865 247 131 136 151 
204 864 248 129 133 153 
205 864 248 135 141 161 
205 864 249 150 160 178 
206 864 248 135 141 158 
206 864 249 153 161 178 
207 864 248 139 145 159 
207 864 249 151 158 173 
207 865 248 137 142 157 
207 865 249 146 152 166 
206 864 250 163 170 186 
206 864 251 157 164 179 
207 864 250 158 164 178 
207 864 251 150 155 169 
207 865 250 149 155 169 
208 865 243 137 145 161 
209 865 243 134 140 156 
210 865 243 129 135 152 
211 865 243 123 133 148 
211 866 243 122 130 146 
208 865 244 132 138 153 
208 865 245 130 137 152 
209 865 244 132 139 154 
209 865 245 134 141 156 
208 865 246 132 138 153 
208 865 247 136 141 155 
209 865 246 139 145 159 
209 865 247 141 147 161 
209 866 247 144 150 165 
210 865 244 131 139 154 
211 865 244 129 138 152 
210 866 244 132 140 154 
210 866 245 136 144 159 
211 866 244 132 140 155 
211 866 245 139 146 161 
210 866 246 141 148 162 
210 866 247 145 152 167 
211 866 246 141 148 163 
211 866 247 142 150 165 
212 866 243 115 126 143 
213 866 243 119 129 147 
214 866 243 129 138 154 
215 866 243 133 142 157 
215 867 243 137 145 160 
212 866 244 131 140 156 
212 866 245 139 147 163 
213 866 244 136 144 160 
213 866 245 140 149 164 
213 867 245 144 152 167 
212 866 246 141 148 164 
212 867 246 141 149 164 
212 867 247 141 149 164 
213 867 246 144 152 167 
213 867 247 143 151 167 
214 866 244 138 147 163 
214 867 244 141 149 164 
214 867 245 142 150 165 
215 867 244 142 150 165 
214 867 246 143 150 166 
214 867 247 141 149 164 
214 868 245 142 149 164 
215 868 244 142 150 164 
215 868 245 139 146 161 
214 868 246 141 149 164 
215 868 246 135 142 158 
208 865 248 141 145 159 
208 865 249 146 150 164 
209 865 248 143 149 165 
209 865 249 143 149 164 
208 864 251 148 152 167 
208 865 250 146 151 166 
209 865 250 144 149 164 
209 866 248 145 152 166 
210 866 248 145 151 166 
210 866 249 142 148 164 
211 866 248 143 150 165 
211 866 249 140 147 162 
211 867 248 140 148 164 
212 867 248 141 149 165 
213 867 248 145 153 169 
216 867 243 139 148 163 
217 867 243 139 147 163 
216 867 244 143 150 165 
217 868 243 139 148 163 
218 868 243 140 148 163 
218 869 243 143 150 166 
219 869 243 142 150 165 
219 870 243 137 144 160 
216 868 244 140 147 162 
216 868 245 133 140 155 
216 869 245 129 136 151 
217 868 244 140 147 162 
217 869 244 137 143 158 
217 869 245 130 137 153 
218 869 244 137 144 160 
218 870 244 132 140 155 
219 870 244 130 138 153 
220 869 243 137 144 160 
220 870 243 133 139 154 
221 870 243 134 140 154 
92 768 256 99 104 114 
93 768 256 99 104 114 
93 768 257 101 107 117 
93 769 256 98 104 115 
93 769 257 102 108 119 
93 768 258 104 110 121 
93 768 259 107 114 126 
93 769 258 109 116 128 
93 769 259 116 124 136 
93 770 256 102 108 118 
93 770 257 108 114 125 
93 771 256 107 113 124 
93 771 257 114 120 132 
93 770 258 118 125 136 
93 770 259 123 130 143 
93 771 258 125 132 144 
93 771 259 127 134 147 
94 771 259 126 133 146 
93 768 260 110 117 129 
93 768 261 111 118 130 
93 769 260 117 125 138 
93 769 261 115 123 136 
93 768 262 111 118 131 
93 768 263 114 121 133 
93 769 262 114 122 134 
93 769 263 115 122 134 
93 770 260 120 128 141 
93 770 261 117 125 138 
94 769 262 116 123 136 
94 769 263 116 123 135 
94 770 261 117 125 138 
94 771 260 121 128 141 
94 771 261 118 125 139 
94 770 262 117 125 138 
94 770 263 118 125 137 
94 771 262 118 125 139 
94 771 263 120 127 140 
95 771 263 125 131 144 
93 772 256 110 118 130 
93 772 257 119 126 139 
93 772 258 124 132 145 
94 772 256 112 119 133 
94 772 257 113 122 136 
94 773 256 112 120 134 
94 773 257 113 121 135 
94 772 258 121 129 142 
94 772 259 121 128 141 
94 773 258 118 125 139 
94 773 259 118 125 139 
94 774 256 122 130 145 
94 774 257 118 126 140 
94 775 256 128 136 150 
94 775 257 124 133 146 
95 775 256 130 137 151 
95 775 257 124 132 146 
94 774 258 118 125 139 
94 774 259 118 126 139 
95 774 258 118 126 140 
95 774 259 118 127 140 
95 775 258 122 131 145 
95 775 259 127 135 149 
94 772 260 118 125 139 
94 772 261 116 124 137 
94 773 260 117 125 138 
95 772 261 118 126 140 
95 773 260 118 125 139 
95 773 261 118 125 140 
94 772 262 118 126 139 
95 772 262 119 127 140 
95 772 263 122 129 142 
95 773 262 120 128 142 
95 773 263 123 130 143 
95 774 260 122 129 143 
95 774 261 125 132 146 
95 775 260 129 137 151 
95 775 261 130 137 151 
95 774 262 126 133 147 
93 768 264 116 123 136 
93 768 265 118 126 138 
93 769 264 115 122 134 
94 768 265 117 124 136 
94 769 264 118 124 136 
94 769 265 121 127 139 
94 768 266 117 124 137 
94 768 267 113 120 133 
94 769 266 119 126 138 
94 769 267 111 118 131 
95 769 267 113 120 133 
94 770 264 126 132 144 
94 770 265 136 141 153 
94 771 264 130 136 148 
95 770 265 144 150 162 
95 771 264 129 135 147 
95 771 265 139 145 157 
95 770 266 134 140 152 
95 770 267 121 128 140 
95 771 266 132 138 151 
95 771 267 118 125 138 
94 768 268 110 117 130 
95 768 268 107 114 126 
95 768 269 102 108 120 
95 769 268 107 114 126 
95 769 269 103 109 121 
95 770 268 112 119 131 
95 772 264 124 130 143 
95 772 265 125 131 144 
95 773 264 122 129 142 
95 772 266 123 129 141 
95 776 256 127 135 149 
95 776 257 124 133 148 
95 777 256 126 135 150 
95 777 257 127 137 152 
95 776 258 126 135 150 
96 775 260 135 143 158 
96 775 261 135 143 158 
96 774 262 130 138 152 
96 774 263 129 136 151 
96 775 262 137 145 160 
96 775 263 137 145 160 
97 775 263 143 151 166 
96 771 267 111 118 131 
96 768 269 101 106 117 
96 769 268 105 112 123 
96 769 269 102 108 119 
96 768 270 100 105 115 
96 769 270 101 107 118 
97 768 271 98 103 114 
97 769 270 102 109 120 
97 769 271 102 109 120 
96 770 268 106 113 125 
96 770 269 105 112 124 
96 771 268 105 113 125 
96 771 269 107 115 128 
97 771 269 119 126 139 
96 770 270 105 113 125 
97 770 270 115 123 136 
97 770 271 118 126 139 
97 771 270 135 142 156 
98 770 271 131 138 152 
98 771 270 142 149 163 
98 771 271 142 149 163 
96 772 265 120 127 139 
96 773 264 124 132 145 
96 773 265 123 130 143 
96 772 266 115 122 135 
96 772 267 109 116 129 
96 773 266 119 126 140 
97 772 267 112 120 133 
97 773 266 121 129 142 
97 773 267 118 126 140 
96 774 264 130 137 152 
96 774 265 128 136 151 
96 775 264 137 145 159 
97 774 265 130 138 152 
97 775 264 140 148 163 
97 775 265 135 143 158 
97 774 266 126 134 149 
98 773 267 127 135 149 
98 775 265 138 146 160 
98 774 266 131 139 153 
98 774 267 131 139 153 
98 775 266 136 144 160 
98 775 267 137 144 160 
99 775 267 147 154 170 
96 772 268 105 114 127 
97 772 268 117 125 138 
97 772 269 127 134 148 
97 773 268 122 129 143 
98 772 269 131 139 153 
98 773 268 130 137 151 
98 773 269 135 143 157 
99 773 269 135 143 157 
98 772 270 138 146 160 
98 772 271 143 151 165 
99 772 271 134 142 156 
99 773 270 131 139 154 
99 773 271 131 138 153 
98 774 268 132 140 154 
99 774 268 135 143 158 
99 774 269 136 143 159 
99 775 268 138 146 163 
100 773 271 128 136 150 
100 774 269 138 146 162 
100 775 268 139 148 163 
100 775 269 144 152 167 
100 774 270 129 137 153 
100 774 271 124 131 147 
100 775 270 135 143 158 
101 775 270 133 140 155 
101 775 271 122 129 143 
96 777 256 128 137 153 
96 777 257 129 138 154 
96 776 258 130 139 155 
96 776 259 137 146 161 
96 777 258 135 145 161 
96 777 259 151 160 176 
97 777 259 161 171 188 
96 778 256 133 141 156 
96 778 257 135 144 160 
96 779 256 136 143 159 
97 779 256 137 145 160 
97 779 257 142 151 167 
96 778 258 140 150 167 
97 778 258 149 159 176 
97 778 259 156 167 184 
97 779 258 148 157 175 
97 779 259 150 160 178 
98 779 259 148 159 177 
96 776 260 143 151 166 
96 776 261 144 152 168 
96 777 260 159 168 185 
97 776 261 147 156 172 
97 777 260 166 176 193 
97 777 261 156 166 183 
97 776 262 146 155 171 
97 776 263 145 153 169 
97 777 262 145 154 173 
97 778 260 163 173 191 
97 778 261 158 168 186 
98 777 262 141 151 171 
98 777 263 139 148 166 
98 778 260 156 167 185 
98 778 261 154 164 182 
98 779 260 151 161 179 
98 779 261 148 158 176 
99 779 261 142 151 169 
98 778 262 143 155 174 
98 778 263 140 149 168 
98 779 262 142 153 171 
99 778 262 144 154 173 
99 778 263 136 146 164 
99 779 262 143 151 169 
99 779 263 140 148 165 
97 780 256 141 149 164 
97 780 257 145 153 169 
97 780 258 147 156 173 
98 780 256 145 153 168 
98 780 257 147 156 172 
98 781 256 140 147 163 
98 781 257 143 151 168 
98 780 258 145 155 172 
98 780 259 141 150 168 
98 781 258 138 146 163 
99 780 259 133 141 158 
99 781 258 128 135 152 
99 781 259 124 131 148 
98 782 256 130 137 153 
98 782 257 131 139 155 
99 782 256 125 132 147 
99 782 257 125 133 148 
99 783 256 121 128 142 
99 783 257 116 123 137 
99 782 258 123 130 146 
99 782 259 116 123 139 
99 783 258 115 122 135 
99 783 259 112 120 133 
98 780 260 138 148 166 
99 780 260 128 137 154 
99 780 261 132 140 157 
99 781 260 125 133 149 
99 781 261 124 132 147 
99 780 262 133 140 156 
99 780 263 136 144 159 
99 782 260 121 130 144 
100 783 259 109 117 130 
100 781 261 123 131 146 
100 780 262 127 134 149 
100 780 263 127 134 148 
100 781 262 123 131 144 
100 781 263 114 122 136 
100 782 260 119 128 142 
100 782 261 123 131 144 
100 783 260 114 122 135 
100 783 261 115 122 136 
100 782 262 116 124 137 
100 782 263 110 117 130 
100 783 262 107 114 127 
100 783 263 105 113 125 
101 782 263 104 111 124 
101 783 263 103 110 122 
97 776 264 143 151 167 
97 776 265 141 149 164 
98 776 264 141 149 164 
98 776 265 140 147 163 
98 777 264 136 144 161 
99 776 265 137 144 160 
99 777 264 132 140 157 
99 777 265 132 139 155 
98 776 266 141 148 164 
99 776 266 139 146 162 
99 776 267 146 154 169 
99 777 266 128 135 150 
99 778 264 129 138 154 
99 778 265 126 133 149 
99 779 264 131 140 155 
100 776 267 142 149 165 
100 777 266 126 132 147 
100 777 267 129 136 151 
100 778 265 124 130 145 
100 779 264 136 144 158 
100 779 265 122 128 142 
100 778 266 120 126 140 
100 778 267 110 117 131 
100 779 266 111 117 129 
100 779 267 107 112 124 
101 779 267 104 110 120 
100 776 268 139 147 162 
100 776 269 139 145 161 
100 777 268 122 129 143 
100 777 269 122 129 143 
101 776 269 130 136 151 
101 777 268 112 118 132 
101 777 269 110 115 129 
101 776 270 123 129 143 
101 776 271 114 121 133 
101 777 270 109 114 127 
101 777 271 107 112 123 
101 778 268 106 113 125 
101 778 269 104 110 121 
101 779 268 103 108 119 
101 779 269 101 107 117 
101 778 270 102 108 118 
101 778 271 101 106 116 
101 779 270 100 105 114 
102 778 271 98 103 113 
102 779 270 100 105 115 
102 779 271 100 106 116 
100 780 264 124 131 144 
100 780 265 112 119 131 
100 781 264 109 117 129 
101 781 264 105 112 124 
101 781 265 103 109 120 
100 780 266 107 113 125 
101 780 266 104 110 120 
101 780 267 103 108 118 
101 781 266 101 107 117 
101 781 267 100 106 116 
101 782 264 103 110 122 
101 782 265 100 105 116 
101 783 264 103 109 119 
101 783 265 101 106 117 
101 782 266 99 105 115 
101 782 267 98 104 114 
101 783 266 98 103 113 
101 783 267 97 102 112 
102 783 267 94 100 110 
101 780 268 99 105 115 
101 780 269 102 107 117 
101 781 268 96 102 112 
101 781 269 97 103 113 
101 782 268 94 101 112 
102 781 269 102 109 120 
102 780 270 105 111 122 
102 780 271 111 118 129 
102 781 270 115 123 135 
102 781 271 124 131 144 
102 782 268 94 101 112 
102 782 269 102 109 120 
102 783 268 97 103 114 
102 783 269 114 121 133 
102 782 270 118 127 140 
102 782 271 127 136 150 
102 783 270 124 132 144 
102 783 271 131 139 153 
103 783 271 134 142 156 
97 768 272 101 107 117 
97 769 272 101 108 119 
98 768 272 101 107 119 
98 768 273 104 111 124 
98 769 272 106 114 126 
98 769 273 108 116 128 
99 769 273 115 123 135 
99 768 274 111 119 132 
99 768 275 118 126 139 
99 769 274 120 127 140 
99 769 275 126 133 147 
98 770 272 119 127 141 
98 771 272 133 141 154 
99 770 273 126 133 147 
99 771 272 133 140 155 
99 771 273 132 139 152 
99 770 274 132 139 153 
99 772 272 133 140 155 
100 769 275 131 139 152 
100 771 273 132 139 153 
100 770 274 134 141 155 
100 770 275 133 140 154 
100 771 274 133 139 153 
100 771 275 132 138 152 
101 771 275 128 134 148 
100 768 276 125 132 146 
100 768 277 131 139 153 
100 769 276 135 141 155 
100 769 277 136 143 157 
101 768 277 135 142 156 
101 769 277 140 148 163 
101 768 278 137 144 159 
101 768 279 138 145 160 
101 769 278 140 147 162 
100 770 276 133 141 155 
101 770 276 133 141 155 
101 770 277 138 146 161 
101 771 276 127 134 148 
102 768 279 139 146 161 
102 769 278 142 149 164 
102 769 279 138 145 159 
102 770 277 141 148 162 
102 771 276 126 133 147 
102 771 277 129 136 150 
102 770 278 140 146 161 
102 770 279 133 138 153 
102 771 278 129 135 149 
103 770 279 127 132 146 
103 771 279 125 131 144 
100 772 272 129 136 150 
100 772 273 128 134 148 
100 773 272 124 131 146 
100 773 273 123 129 142 
101 773 273 122 129 142 
100 772 274 127 132 146 
101 772 274 121 127 140 
101 772 275 118 124 137 
101 773 274 120 126 139 
101 773 275 119 125 137 
100 774 272 121 128 142 
101 774 272 118 125 139 
101 774 273 119 125 138 
101 775 272 113 120 133 
101 775 273 111 117 131 
101 774 274 119 125 138 
101 775 274 115 121 132 
102 773 275 115 122 134 
102 774 274 120 126 138 
102 774 275 121 127 139 
102 775 274 115 121 133 
102 775 275 121 127 138 
101 772 276 120 126 139 
102 772 276 117 123 136 
102 772 277 120 127 139 
102 773 276 114 120 132 
102 773 277 118 124 136 
103 773 277 117 124 136 
102 772 278 121 129 142 
103 772 278 118 125 138 
103 772 279 118 124 136 
103 773 278 114 120 133 
103 773 279 114 121 133 
102 774 276 114 120 132 
102 775 276 114 121 133 
103 774 277 111 118 131 
103 775 276 109 117 130 
103 775 277 106 114 127 
103 774 278 109 116 128 
103 774 279 111 117 129 
103 775 278 106 113 126 
101 768 280 135 143 158 
102 768 280 136 143 158 
102 768 281 133 140 154 
102 769 280 136 143 156 
103 768 281 131 138 152 
103 769 280 129 135 149 
103 769 281 126 133 146 
103 768 282 131 138 152 
103 768 283 133 141 155 
103 769 282 128 135 148 
103 770 280 121 127 141 
103 770 281 119 125 138 
103 771 280 116 122 136 
103 772 280 117 123 136 
101 776 272 110 116 128 
101 776 273 105 112 124 
101 777 272 105 111 121 
102 776 273 103 109 120 
102 777 272 99 104 114 
102 777 273 103 109 120 
102 776 274 108 114 126 
102 776 275 110 116 128 
102 777 274 104 110 122 
102 777 275 104 111 122 
103 777 275 103 110 122 
102 778 272 99 104 114 
102 778 273 104 110 122 
102 779 272 100 107 118 
102 779 273 104 111 123 
102 778 274 104 111 123 
102 779 274 106 113 125 
103 778 274 106 114 126 
103 778 275 106 113 126 
103 779 274 106 114 126 
103 779 275 108 117 131 
102 776 276 113 119 131 
103 776 276 108 115 128 
103 776 277 106 114 127 
103 777 276 105 113 125 
103 777 277 108 117 130 
103 778 276 111 118 131 
103 779 276 115 124 138 
102 780 272 112 119 131 
102 780 273 107 115 127 
102 781 272 124 132 145 
103 780 273 110 117 130 
103 781 272 124 131 145 
103 781 273 116 124 137 
103 780 274 109 117 131 
103 780 275 114 123 138 
103 781 274 115 123 136 
103 782 272 129 137 152 
103 782 273 124 132 146 
103 783 272 133 141 155 
103 783 273 129 137 151 
104 772 279 113 119 131 
104 773 279 112 119 130 
104 774 279 112 118 130 
104 775 278 112 120 133 
104 775 279 115 122 134 
105 775 279 128 135 148 
104 768 283 138 145 160 
104 769 282 126 133 146 
104 769 283 141 147 161 
105 768 283 147 155 169 
105 769 283 139 146 161 
104 770 281 114 121 134 
104 771 280 112 119 131 
104 771 281 112 118 130 
104 770 282 118 124 136 
104 771 282 115 121 133 
105 770 282 121 127 141 
105 770 283 126 134 148 
105 771 282 118 125 138 
105 771 283 122 130 143 
106 770 283 128 137 153 
106 771 283 127 135 150 
107 771 283 130 138 153 
105 768 284 138 146 162 
105 769 284 147 155 170 
106 768 284 136 144 159 
106 768 285 130 138 154 
106 769 284 138 147 162 
