ply
format ascii 1.0
comment Created by CloudCompare v2.10.1 (Zephyrus)
comment Created 1/31/20 11:43 AM
obj_info Generated by CloudCompare!
element vertex 2168
property float x
property float y
property float z
property uchar red
property uchar green
property uchar blue
end_header
340 931 182 96 89 90 
341 931 182 96 88 89 
342 928 180 97 87 88 
342 929 180 96 87 87 
343 929 180 95 85 86 
343 929 181 96 85 86 
342 930 180 95 87 88 
342 930 181 97 87 88 
342 931 181 96 86 88 
343 930 181 96 86 87 
343 931 181 96 85 86 
342 931 182 97 88 89 
343 931 182 95 85 86 
340 932 182 97 89 91 
340 932 183 97 90 92 
340 933 183 96 90 91 
341 932 182 96 88 89 
341 932 183 97 89 91 
341 933 183 98 90 92 
342 932 182 98 89 90 
342 932 183 99 90 91 
342 933 183 98 90 91 
343 932 182 98 89 89 
343 932 183 98 89 89 
343 933 183 99 90 90 
339 933 184 96 89 90 
339 934 184 97 89 91 
340 933 184 95 87 89 
341 933 184 97 89 91 
340 934 184 95 88 89 
340 934 185 95 87 88 
340 935 185 96 88 89 
341 934 184 96 87 89 
342 933 184 98 90 91 
342 934 184 98 89 90 
342 935 184 98 90 90 
344 928 179 95 86 86 
344 928 180 95 86 86 
344 929 180 95 86 86 
344 929 181 94 85 86 
345 928 180 94 84 85 
345 929 180 93 84 84 
345 929 181 93 83 84 
344 930 181 94 85 85 
344 931 181 94 84 84 
345 930 181 93 84 85 
344 930 182 93 84 85 
344 931 182 93 85 86 
345 931 182 92 84 85 
346 928 180 92 83 83 
346 929 180 92 83 83 
346 929 181 91 83 84 
347 928 180 90 82 82 
347 928 181 89 81 81 
347 929 180 90 82 83 
347 929 181 90 82 82 
346 930 180 91 83 82 
346 930 181 91 83 83 
347 930 181 89 82 83 
348 928 180 89 80 81 
349 928 180 90 82 83 
352 896 167 68 61 61 
352 896 168 68 61 60 
352 897 168 67 60 60 
353 896 168 66 59 58 
353 897 168 67 60 60 
353 897 169 69 61 61 
352 898 168 65 57 57 
352 898 169 65 58 58 
352 899 169 66 59 60 
353 898 169 66 58 59 
353 899 169 67 59 60 
353 899 170 67 60 61 
354 896 168 72 65 65 
354 896 169 70 63 62 
354 897 169 71 64 64 
355 896 169 70 64 64 
355 897 169 71 64 64 
355 897 170 70 63 63 
354 898 169 71 63 64 
354 898 170 72 66 66 
354 899 170 67 60 60 
355 898 170 71 63 64 
355 899 170 70 63 63 
355 899 171 71 64 64 
352 900 169 66 61 63 
352 901 169 69 65 65 
353 900 169 65 60 62 
352 901 170 68 63 63 
353 900 170 66 59 61 
353 901 170 68 62 64 
352 902 169 70 65 64 
352 903 169 70 65 64 
352 902 170 68 63 64 
352 903 170 69 64 63 
353 902 170 67 62 63 
353 903 170 69 64 64 
353 903 171 68 64 64 
354 900 170 67 60 61 
354 900 171 68 61 62 
354 901 170 65 58 60 
354 901 171 65 58 60 
355 900 171 70 63 63 
355 901 171 66 58 58 
354 902 171 67 61 62 
354 903 171 68 63 63 
355 902 171 66 59 59 
355 901 172 65 57 57 
354 903 172 69 65 66 
355 902 172 67 61 61 
355 903 172 67 61 60 
355 903 173 67 61 60 
356 896 169 66 60 61 
356 896 170 66 60 61 
356 897 170 64 57 59 
357 896 170 63 56 58 
357 897 170 63 56 58 
357 897 171 63 56 58 
356 898 170 63 56 56 
356 898 171 63 56 57 
356 899 171 65 59 60 
357 898 171 62 56 57 
358 896 171 65 59 60 
358 897 171 62 55 56 
359 896 171 66 59 59 
356 899 172 65 60 61 
357 898 172 63 56 58 
357 899 172 64 59 61 
358 897 172 62 55 57 
359 896 172 64 59 60 
359 897 172 62 56 57 
359 897 173 64 59 60 
358 898 172 64 58 60 
358 898 173 64 59 60 
358 899 173 64 59 60 
359 898 173 64 59 60 
358 899 174 66 61 62 
359 898 174 66 61 62 
359 899 174 66 61 61 
356 900 171 66 60 61 
356 900 172 66 59 60 
356 901 172 65 57 58 
356 901 173 66 60 60 
357 900 172 65 60 60 
357 900 173 64 59 60 
357 901 173 66 60 60 
357 901 174 67 61 60 
356 902 172 65 58 58 
356 902 173 67 61 60 
356 903 173 70 65 64 
356 902 174 67 62 62 
356 903 174 70 65 65 
356 903 175 71 65 66 
357 902 174 67 62 62 
357 902 175 67 61 62 
357 903 175 69 63 64 
358 900 173 64 58 59 
358 900 174 67 61 62 
358 901 174 68 62 62 
358 901 175 67 62 62 
359 900 174 67 62 62 
358 902 175 68 63 63 
358 903 175 68 62 63 
352 904 170 70 65 64 
352 905 170 72 68 66 
352 905 171 72 67 66 
353 904 170 70 65 64 
353 904 171 70 65 65 
353 905 171 71 66 66 
352 906 171 73 67 67 
354 904 171 69 65 65 
353 905 172 69 64 65 
352 906 172 71 66 66 
352 907 172 71 65 66 
352 907 173 71 65 66 
353 906 172 70 65 66 
353 906 173 70 64 66 
353 907 173 71 64 65 
353 907 174 70 63 64 
354 904 172 69 64 65 
354 904 173 68 64 64 
354 905 172 68 63 64 
354 905 173 68 64 64 
355 904 173 67 61 60 
355 905 173 70 65 66 
355 904 174 69 64 63 
355 905 174 69 64 64 
355 905 175 70 64 64 
354 906 173 70 64 65 
354 906 174 70 64 65 
354 907 174 69 63 62 
354 907 175 70 63 63 
355 906 174 72 66 66 
355 906 175 71 64 65 
355 907 175 70 64 64 
352 908 173 73 67 67 
352 909 173 74 68 68 
353 908 173 73 67 67 
352 909 174 74 67 68 
353 908 174 72 65 65 
353 909 174 72 66 67 
353 909 175 72 66 66 
352 910 173 73 67 67 
352 910 174 73 67 68 
352 910 175 73 67 68 
352 911 174 73 67 67 
352 911 175 73 68 69 
353 910 175 71 66 67 
353 911 175 72 67 68 
354 908 174 71 64 64 
354 908 175 71 64 65 
354 909 175 72 65 66 
355 908 175 71 65 65 
354 910 175 69 63 64 
356 904 174 71 65 65 
356 904 175 72 66 66 
356 905 174 71 66 66 
356 905 175 72 66 66 
357 904 175 70 64 65 
356 906 175 71 65 66 
360 896 172 62 57 58 
360 896 173 63 58 59 
360 897 173 64 59 60 
361 896 173 64 60 61 
360 897 174 65 60 60 
360 898 174 65 61 60 
355 907 176 70 65 67 
353 911 176 73 67 68 
355 908 176 70 64 66 
355 909 176 71 64 65 
355 909 177 71 65 66 
354 910 176 70 63 64 
354 911 176 70 63 64 
354 911 177 73 65 65 
355 910 176 72 64 65 
355 910 177 71 63 64 
355 911 177 72 65 64 
356 905 176 72 66 66 
357 904 176 69 63 64 
357 905 176 70 64 65 
356 906 176 71 65 66 
356 907 176 70 64 66 
356 908 176 70 64 67 
352 912 175 74 68 69 
352 912 176 74 68 68 
352 913 176 77 70 70 
353 912 176 72 66 67 
353 913 176 74 67 67 
353 913 177 75 67 67 
352 914 176 81 73 75 
352 914 177 79 71 71 
352 915 177 81 72 73 
353 914 177 77 69 69 
353 914 178 77 69 70 
353 915 178 79 71 72 
354 912 177 71 64 63 
354 913 177 72 65 65 
352 916 177 80 72 73 
352 916 178 80 72 73 
352 917 178 82 74 75 
353 916 178 79 72 73 
353 917 178 81 74 75 
352 918 178 82 74 74 
352 919 178 81 74 74 
353 918 178 82 73 75 
352 921 178 85 75 77 
384 768 154 59 49 47 
384 768 155 59 50 48 
384 769 154 58 50 47 
384 769 155 59 50 48 
385 768 155 61 51 49 
384 770 155 61 51 48 
384 771 155 60 49 48 
384 769 156 61 51 48 
385 768 156 61 51 50 
385 769 156 59 51 50 
384 770 156 62 51 50 
384 771 156 62 51 50 
385 770 156 61 51 50 
385 770 157 57 48 48 
385 771 156 59 50 49 
385 771 157 55 47 44 
386 768 156 59 50 48 
386 768 157 55 46 46 
386 769 156 59 49 49 
386 769 157 55 46 46 
387 768 157 50 43 43 
387 769 157 49 43 42 
386 770 157 52 44 43 
386 771 157 50 42 41 
387 770 157 47 41 39 
387 771 157 48 42 41 
384 773 155 56 47 46 
384 774 155 56 46 44 
384 775 155 55 45 43 
384 772 156 60 49 49 
384 773 156 58 47 47 
385 772 156 57 47 47 
385 772 157 54 46 45 
385 773 156 55 45 45 
385 773 157 54 46 45 
384 775 156 55 44 42 
385 774 156 54 46 44 
385 775 156 55 46 44 
385 775 157 53 46 43 
386 772 157 49 42 41 
386 773 157 51 44 43 
387 772 157 50 44 42 
387 773 157 49 43 42 
387 773 158 52 44 43 
386 774 156 54 47 46 
386 774 157 51 44 43 
386 775 157 55 47 44 
387 774 157 53 45 43 
387 775 157 55 46 43 
387 774 158 52 44 43 
387 775 158 57 47 44 
388 768 157 47 41 41 
388 768 158 48 41 42 
388 769 158 48 42 42 
389 768 158 48 42 43 
389 768 159 50 43 44 
389 769 158 50 43 43 
389 769 159 51 45 45 
388 770 157 47 42 41 
388 771 157 49 43 42 
388 770 158 49 42 43 
388 771 158 49 43 43 
389 770 158 50 43 43 
389 771 158 49 43 43 
389 771 159 51 44 43 
388 772 157 49 43 42 
388 772 158 49 42 43 
388 773 158 53 44 44 
389 772 158 50 42 43 
389 772 159 51 43 42 
389 773 158 55 44 45 
389 773 159 55 45 44 
388 774 158 56 46 46 
388 775 158 60 48 47 
388 775 159 60 48 47 
389 774 158 58 45 48 
389 774 159 59 47 47 
389 775 159 60 47 47 
384 776 156 54 46 42 
384 777 156 58 49 46 
384 777 157 59 50 47 
385 776 156 56 47 44 
385 776 157 58 49 46 
385 777 157 58 48 46 
384 778 156 58 49 46 
384 778 157 61 52 48 
384 779 156 59 49 47 
384 779 157 62 51 49 
385 778 157 58 49 47 
385 779 157 59 49 49 
385 778 158 57 49 47 
385 779 158 60 50 50 
386 776 157 55 47 44 
386 776 158 58 48 45 
386 777 158 60 49 48 
387 776 158 59 48 47 
387 777 159 61 49 48 
386 778 158 61 50 48 
386 778 159 61 50 48 
386 779 158 61 50 50 
386 779 159 66 53 52 
387 778 159 62 50 48 
387 779 159 67 54 50 
384 780 156 61 51 49 
384 781 156 61 50 49 
384 781 157 62 52 50 
385 780 157 61 52 50 
385 781 157 61 51 50 
385 780 158 65 54 52 
385 781 158 65 54 51 
384 782 156 61 50 48 
384 782 157 64 53 52 
384 783 156 65 53 52 
384 783 157 66 54 53 
385 782 157 65 54 54 
385 783 157 69 56 55 
385 782 158 65 53 52 
385 783 158 68 55 54 
386 780 158 66 54 52 
386 780 159 67 55 50 
386 781 158 67 54 51 
386 781 159 70 57 52 
387 780 159 69 57 50 
387 781 159 72 58 52 
386 782 158 70 56 52 
386 783 158 71 56 53 
387 782 159 73 58 53 
387 783 159 73 59 54 
388 776 158 60 49 48 
388 776 159 60 48 47 
388 777 159 61 49 47 
389 776 159 61 49 48 
384 784 156 66 54 53 
384 784 157 69 55 55 
384 785 156 68 57 56 
384 785 157 73 58 59 
385 784 157 71 56 57 
385 785 157 71 56 56 
384 786 156 73 59 58 
384 787 156 72 59 58 
385 786 157 72 57 57 
385 787 157 71 58 56 
386 784 157 70 56 56 
386 785 157 70 55 56 
386 784 158 71 56 55 
386 785 158 72 58 59 
387 784 159 73 58 57 
387 785 159 73 58 59 
386 786 157 71 58 59 
386 787 157 71 59 58 
386 786 158 71 59 60 
386 786 159 70 57 59 
386 787 158 70 57 59 
386 787 159 70 57 60 
387 786 159 69 57 57 
387 787 159 68 56 58 
384 788 156 62 54 52 
384 788 157 67 55 54 
384 789 156 59 52 52 
384 789 157 66 55 53 
385 788 157 71 59 58 
385 789 157 70 58 56 
385 789 158 70 59 57 
384 790 156 57 49 49 
384 790 157 59 53 52 
384 791 157 57 50 50 
385 790 157 65 56 54 
385 790 158 70 59 57 
385 791 158 65 57 55 
385 791 159 67 55 54 
386 788 158 70 58 59 
386 788 159 72 58 63 
386 789 158 70 58 58 
386 789 159 71 58 61 
387 788 159 71 56 61 
387 789 159 70 56 59 
386 790 158 70 57 58 
386 790 159 69 57 59 
386 791 158 67 55 55 
386 791 159 67 54 56 
387 790 159 67 53 56 
387 791 159 67 54 58 
384 792 157 56 51 50 
384 793 157 58 53 52 
385 792 158 61 54 52 
385 792 159 65 53 51 
385 793 158 61 55 53 
384 794 157 59 55 54 
384 795 157 55 53 54 
385 794 158 60 55 54 
385 795 158 60 55 55 
386 792 159 63 54 53 
386 793 159 62 54 55 
387 792 159 64 54 55 
387 793 159 65 56 56 
386 794 158 59 54 54 
386 794 159 61 54 55 
386 795 158 59 55 56 
387 794 159 63 54 54 
387 795 159 62 55 55 
384 796 157 53 51 53 
384 797 157 52 50 52 
385 796 158 58 54 55 
385 797 158 57 54 55 
384 798 157 53 49 51 
384 799 157 54 50 52 
384 799 158 54 49 52 
385 798 158 56 53 54 
385 799 158 56 52 52 
386 796 158 60 56 57 
386 797 158 59 55 57 
386 797 159 61 56 58 
387 796 159 62 55 56 
387 797 159 60 54 54 
386 798 158 59 56 57 
386 798 159 59 55 56 
386 799 159 58 53 54 
387 798 159 59 54 55 
387 799 159 58 53 54 
388 794 159 64 55 53 
388 795 159 62 55 52 
388 796 159 69 58 56 
387 778 160 65 53 50 
387 779 160 68 55 50 
387 780 160 71 58 50 
387 781 160 71 58 49 
387 782 160 74 61 53 
387 783 160 74 60 54 
387 784 160 72 57 55 
387 785 160 70 58 57 
387 786 160 70 57 58 
387 787 160 68 55 58 
387 788 160 68 54 58 
387 789 160 66 52 55 
387 790 160 65 51 55 
387 791 160 65 52 57 
387 792 160 66 55 58 
387 799 160 60 55 56 
384 800 157 52 47 51 
384 801 157 54 49 50 
384 800 158 52 47 50 
384 801 158 54 50 51 
385 800 158 56 51 52 
385 801 158 54 50 51 
385 801 159 54 51 52 
384 802 158 54 50 50 
384 803 158 52 46 47 
384 803 159 54 46 47 
385 802 158 54 49 49 
385 802 159 53 50 51 
385 803 159 54 47 48 
386 800 159 56 51 51 
386 801 159 57 53 54 
387 800 159 59 54 54 
387 801 159 58 55 56 
386 802 159 55 53 55 
384 804 158 52 46 48 
384 804 159 55 48 47 
384 805 159 54 48 48 
385 804 159 54 48 45 
384 817 159 49 46 48 
384 818 159 49 46 48 
384 819 159 47 43 46 
385 819 159 47 44 48 
384 820 158 45 41 44 
384 820 159 49 45 46 
384 821 158 42 39 41 
384 821 159 43 40 43 
385 820 159 48 44 48 
385 821 159 49 45 47 
384 823 157 45 43 46 
384 822 158 43 40 41 
384 823 158 45 42 45 
385 822 159 49 45 47 
385 823 158 44 42 45 
385 823 159 49 46 49 
386 821 159 50 46 49 
386 822 159 49 46 48 
386 823 159 53 48 52 
384 824 157 47 44 47 
384 825 157 52 47 50 
384 824 158 46 44 47 
384 825 158 49 46 49 
385 824 158 48 45 48 
385 825 158 51 48 51 
384 826 157 52 48 50 
384 827 157 58 52 53 
385 826 158 52 48 51 
385 827 158 56 50 52 
386 824 159 51 47 51 
386 825 158 52 48 52 
386 825 159 50 46 50 
387 824 159 54 50 53 
387 825 159 51 46 50 
386 826 158 53 48 52 
386 826 159 51 47 51 
386 827 158 54 50 55 
386 827 159 52 49 53 
387 826 159 51 48 51 
387 827 159 51 47 51 
384 828 157 55 50 52 
384 829 157 61 53 55 
384 828 158 57 51 52 
384 829 158 55 48 50 
385 828 158 56 51 53 
385 829 158 56 51 53 
384 830 158 61 53 56 
384 831 158 59 51 52 
385 830 158 58 50 53 
385 831 158 59 51 53 
386 828 158 56 52 55 
386 828 159 53 49 54 
386 829 158 55 51 53 
387 828 159 54 50 54 
387 829 159 55 49 51 
386 830 158 57 50 52 
386 830 159 64 55 57 
386 831 158 67 57 59 
386 831 159 59 52 52 
387 830 159 58 51 52 
387 831 159 59 52 53 
388 827 159 53 48 51 
388 828 159 52 47 50 
388 829 159 54 47 49 
389 829 159 51 45 47 
388 830 159 54 47 48 
388 831 159 57 51 52 
389 830 159 51 45 46 
389 831 159 54 49 50 
385 803 160 54 48 48 
386 801 160 57 53 55 
387 800 160 59 54 56 
387 801 160 59 55 56 
386 802 160 55 52 54 
386 803 160 54 50 51 
387 802 160 57 52 54 
387 803 160 55 51 53 
384 805 160 55 49 49 
385 804 160 54 48 46 
385 805 160 55 50 48 
385 805 161 52 48 48 
384 806 160 55 50 50 
384 806 161 53 49 51 
384 807 161 49 47 49 
385 806 161 49 46 48 
386 804 160 53 48 48 
384 815 161 46 44 47 
384 816 160 49 47 49 
384 816 161 49 46 47 
384 817 160 50 48 49 
385 816 161 48 45 46 
385 817 160 47 46 47 
385 817 161 49 48 49 
385 818 160 48 45 47 
385 818 161 49 47 50 
385 819 160 47 45 49 
386 819 160 46 44 49 
386 820 160 49 45 50 
386 821 160 49 45 50 
387 820 160 48 45 50 
387 821 160 50 46 51 
386 822 160 52 48 52 
387 822 160 54 51 54 
387 823 160 58 56 58 
387 824 160 58 54 56 
387 825 160 55 50 53 
387 826 160 53 49 52 
384 832 158 59 52 53 
384 832 159 58 52 54 
384 833 159 52 46 52 
385 832 158 56 49 51 
385 832 159 57 51 52 
385 833 159 58 52 55 
386 832 159 56 51 50 
387 832 159 58 52 53 
384 833 160 55 48 52 
384 833 161 51 45 48 
385 833 160 56 49 51 
385 833 161 50 45 46 
384 834 161 50 45 47 
386 832 160 57 51 52 
386 833 160 55 49 51 
387 832 160 56 51 52 
380 686 118 87 58 40 
380 687 119 85 59 39 
381 686 118 82 60 38 
381 687 118 84 58 36 
382 687 117 87 63 40 
383 686 117 85 62 43 
383 687 116 88 62 41 
383 687 117 88 64 41 
382 687 118 81 60 38 
380 685 122 77 62 54 
381 685 123 75 61 51 
380 686 120 86 57 37 
380 686 121 78 56 44 
380 687 121 78 56 38 
381 686 120 78 54 41 
381 686 121 79 55 41 
381 687 120 82 58 36 
380 687 122 73 55 35 
383 685 122 71 50 44 
383 686 122 76 44 49 
383 687 123 82 60 51 
380 687 127 71 51 34 
381 686 127 70 54 43 
381 687 126 71 57 44 
381 687 127 70 53 40 
383 684 124 69 49 44 
383 684 125 70 51 43 
383 684 126 66 50 42 
383 685 127 67 52 41 
382 686 124 75 54 44 
382 687 124 86 65 44 
382 687 125 83 64 41 
383 687 124 86 61 49 
383 687 125 79 60 46 
382 686 127 67 52 40 
382 687 126 71 56 43 
382 687 127 67 52 40 
383 686 126 72 54 44 
383 686 127 67 51 41 
379 693 118 86 67 52 
379 694 119 79 62 47 
381 688 118 82 58 37 
381 688 119 81 57 35 
381 689 118 76 56 35 
381 689 119 81 58 32 
381 690 119 78 59 37 
382 688 117 83 59 38 
382 689 117 81 58 37 
383 688 116 87 61 39 
383 689 116 85 60 39 
382 688 118 82 59 38 
382 689 118 78 58 37 
383 690 117 80 58 37 
383 691 117 80 58 36 
382 690 118 78 58 37 
382 691 118 79 60 40 
383 690 119 83 61 39 
383 691 118 83 61 37 
381 693 117 75 57 36 
380 693 118 84 65 48 
380 693 119 73 58 45 
381 692 119 83 65 46 
381 693 119 86 67 49 
380 695 117 69 51 34 
381 694 117 82 58 38 
381 695 117 76 57 39 
380 694 118 81 64 46 
380 694 119 82 63 44 
380 695 118 72 54 35 
380 695 119 72 59 45 
381 694 119 85 68 53 
381 695 119 76 60 44 
382 692 117 79 60 41 
382 693 117 80 60 38 
383 692 117 80 60 40 
383 693 116 80 60 38 
383 693 117 81 60 38 
382 692 118 80 62 42 
382 692 119 78 63 46 
382 693 119 81 65 51 
383 692 119 80 61 44 
383 693 119 74 59 46 
382 694 116 80 66 54 
383 694 116 79 64 51 
383 695 116 79 65 53 
382 694 118 61 47 30 
382 694 119 77 57 38 
382 695 118 73 57 39 
382 695 119 83 62 44 
383 694 118 72 57 40 
383 695 118 72 57 39 
379 688 121 78 56 42 
379 689 120 77 56 41 
379 689 122 69 59 50 
379 689 123 76 67 60 
379 690 121 76 57 42 
379 691 121 74 55 38 
379 690 122 69 55 45 
379 689 124 74 66 59 
379 689 125 76 68 63 
378 688 127 53 39 24 
378 689 127 62 43 32 
379 688 126 70 59 47 
379 688 127 59 44 29 
379 689 126 71 61 51 
378 690 126 78 62 56 
379 692 120 79 62 48 
379 692 121 78 58 41 
379 693 120 77 60 46 
379 694 120 75 56 37 
379 695 120 75 57 36 
380 688 121 78 56 38 
380 689 120 83 59 35 
380 689 121 80 58 40 
381 688 120 81 56 35 
381 689 121 66 54 39 
380 688 122 73 55 39 
380 688 123 81 72 66 
380 689 122 70 57 46 
380 689 123 69 56 46 
381 688 123 75 61 52 
381 689 122 70 55 42 
381 689 123 73 58 48 
380 690 121 73 55 38 
380 691 121 75 57 41 
381 690 121 74 57 40 
381 691 120 82 65 47 
381 691 121 74 58 40 
380 690 122 73 56 41 
382 689 121 80 58 44 
383 689 121 79 58 41 
382 688 123 78 61 48 
382 689 122 77 58 47 
383 688 122 89 66 50 
383 688 123 87 63 48 
383 689 122 77 59 40 
382 690 120 78 60 44 
382 690 121 78 59 42 
382 691 120 78 62 48 
383 690 120 85 63 45 
383 691 120 87 65 47 
380 688 124 71 63 56 
380 688 125 73 66 59 
381 688 124 71 56 47 
381 688 125 74 64 55 
380 688 126 74 63 53 
381 688 126 75 63 52 
382 688 124 79 61 43 
382 688 125 82 63 37 
380 692 120 82 65 50 
380 693 120 79 63 47 
381 692 120 84 67 49 
380 694 120 83 63 44 
380 695 120 67 53 39 
379 697 119 81 62 44 
379 698 119 81 60 40 
379 699 119 78 56 40 
382 699 115 75 57 39 
383 699 114 72 54 39 
380 697 117 75 56 39 
381 696 117 73 57 44 
381 697 117 71 54 36 
380 696 118 72 56 43 
380 696 119 76 57 38 
380 697 118 76 58 42 
381 696 119 73 58 44 
381 697 119 82 61 43 
380 698 117 78 58 42 
380 699 117 79 59 46 
381 698 116 73 55 38 
381 698 117 74 56 39 
381 699 116 77 59 43 
381 699 117 78 59 47 
380 698 118 79 59 42 
380 699 118 79 59 44 
381 698 119 72 57 42 
382 697 117 70 51 32 
383 696 116 72 56 38 
383 697 116 72 55 37 
382 696 118 80 62 47 
382 697 118 85 63 45 
382 697 119 94 69 51 
383 696 118 74 57 40 
383 697 118 78 59 42 
382 698 116 73 55 37 
382 698 118 84 64 49 
382 698 119 85 64 47 
382 699 119 99 71 54 
383 698 118 88 70 57 
383 699 118 100 73 57 
383 699 119 92 70 53 
382 700 115 76 57 42 
382 701 115 75 55 40 
383 700 114 71 53 38 
383 700 115 73 55 39 
383 701 115 75 56 39 
382 702 115 74 56 37 
383 702 115 75 57 39 
383 703 115 74 54 37 
381 700 116 75 56 41 
381 700 117 70 55 39 
381 701 117 71 54 40 
380 700 118 76 56 43 
380 700 119 66 48 39 
381 700 119 78 57 45 
382 701 116 75 55 39 
383 701 116 75 55 37 
382 701 118 66 51 32 
383 700 119 85 63 49 
382 702 116 76 56 37 
382 703 116 77 57 37 
383 702 116 82 62 48 
382 702 119 65 48 35 
378 697 120 81 60 38 
378 697 121 81 60 40 
379 696 120 81 64 46 
379 697 120 85 63 38 
379 697 121 89 62 33 
378 698 121 77 56 41 
378 699 120 78 55 39 
379 698 121 80 59 41 
379 699 120 77 54 38 
379 699 121 72 52 37 
378 699 122 73 51 35 
379 699 122 70 51 38 
377 701 123 71 50 33 
378 700 122 76 54 37 
378 700 123 75 54 37 
378 701 123 72 51 29 
379 700 122 74 53 37 
379 700 123 68 50 33 
379 701 123 69 49 30 
377 702 124 69 50 35 
377 702 125 69 51 37 
377 703 125 69 48 36 
378 701 124 68 50 29 
379 701 124 67 49 32 
378 702 124 67 49 32 
378 702 125 68 50 35 
378 703 125 67 48 34 
379 702 124 66 48 30 
379 702 125 67 48 30 
379 703 125 68 50 35 
378 703 126 66 45 33 
379 703 126 68 48 33 
379 703 127 71 50 36 
380 696 120 74 57 37 
380 697 120 80 63 45 
381 697 120 77 64 50 
380 698 120 82 60 39 
380 698 121 75 57 40 
380 699 120 74 53 40 
380 699 121 68 51 39 
381 698 120 75 57 41 
381 699 120 76 56 43 
381 699 121 68 54 41 
380 699 122 71 53 38 
381 699 122 77 61 48 
381 699 123 74 58 46 
382 698 120 80 59 47 
382 699 120 83 62 48 
382 699 121 81 62 45 
383 699 120 91 68 52 
383 699 121 89 71 56 
382 699 122 76 61 49 
382 699 123 74 57 43 
383 698 122 84 69 52 
383 698 123 83 69 55 
383 699 122 84 67 53 
383 699 123 79 65 51 
382 699 124 77 61 47 
383 698 124 79 65 51 
383 698 125 62 50 37 
383 699 124 79 63 49 
383 699 125 72 57 44 
383 698 126 51 36 34 
383 698 127 49 37 37 
383 699 126 56 40 36 
383 699 127 48 36 35 
381 700 120 67 53 42 
381 700 121 80 62 51 
380 700 122 70 53 36 
380 700 123 69 53 36 
380 701 123 59 44 27 
381 700 122 79 64 50 
381 700 123 68 55 47 
381 701 122 79 61 48 
381 701 123 63 48 30 
380 702 122 68 50 35 
381 703 123 61 49 38 
382 701 121 87 62 46 
383 701 120 89 62 42 
382 703 120 75 55 36 
382 703 121 59 47 33 
380 701 124 64 48 33 
380 701 125 54 42 31 
381 700 124 73 56 45 
381 701 124 65 50 35 
381 701 125 64 49 35 
380 702 124 66 48 32 
380 702 125 63 46 32 
380 703 124 67 47 31 
381 702 124 62 50 40 
381 703 125 65 52 37 
380 702 126 58 43 31 
380 703 126 71 55 39 
380 703 127 64 47 34 
381 702 126 62 50 38 
381 702 127 50 40 34 
381 703 127 68 52 36 
382 700 124 77 57 45 
382 700 125 75 59 46 
382 701 125 74 60 47 
383 700 125 70 56 41 
382 701 126 66 52 36 
382 701 127 47 36 33 
383 700 126 59 45 36 
383 700 127 48 36 36 
383 701 127 46 36 35 
382 703 124 74 58 40 
382 702 127 43 36 33 
383 706 105 66 49 33 
383 707 105 69 50 29 
382 708 106 75 56 38 
382 709 106 75 55 40 
382 710 106 77 56 43 
382 711 106 80 57 43 
382 712 106 87 62 45 
382 713 106 89 63 39 
383 712 106 88 62 43 
383 713 106 90 64 44 
382 714 106 87 63 40 
383 714 107 86 63 41 
375 712 127 61 47 40 
375 713 127 61 46 40 
375 715 125 62 49 43 
375 714 126 63 50 40 
375 714 127 64 49 43 
375 715 126 63 50 42 
375 715 127 67 53 46 
375 717 123 59 48 39 
375 718 122 64 54 45 
375 718 123 56 46 38 
375 719 122 65 55 46 
375 719 123 56 46 37 
375 716 124 63 48 41 
375 716 125 63 48 42 
375 717 124 57 46 39 
375 717 125 60 46 41 
375 716 126 58 45 35 
375 716 127 65 51 44 
375 717 126 59 45 36 
375 717 127 61 48 39 
375 718 124 58 48 40 
375 718 125 60 49 42 
375 718 126 59 46 39 
383 704 114 71 52 38 
383 704 115 75 54 40 
382 704 117 78 57 37 
383 704 117 68 52 32 
383 705 116 86 58 42 
383 705 117 68 53 36 
382 704 119 79 62 44 
383 705 118 70 55 38 
383 705 119 81 63 47 
383 709 119 70 52 36 
376 705 127 61 45 34 
377 704 126 66 44 32 
377 704 127 63 42 30 
377 705 127 60 42 33 
376 706 127 60 45 33 
378 704 126 68 47 34 
378 704 127 63 43 31 
378 705 127 63 44 33 
379 704 127 61 42 33 
378 711 123 64 47 37 
379 711 123 65 48 43 
376 709 127 62 47 39 
377 708 127 61 46 38 
377 709 127 62 46 37 
376 711 125 63 47 40 
377 710 125 64 48 39 
377 711 124 63 48 40 
377 711 125 63 48 39 
376 710 126 63 47 40 
376 710 127 63 48 40 
376 711 126 62 47 40 
376 711 127 62 47 40 
377 710 126 64 48 40 
377 710 127 64 48 39 
379 709 125 64 47 41 
378 708 127 64 48 37 
378 709 126 64 47 38 
378 709 127 64 48 38 
379 708 127 68 49 39 
379 709 126 65 48 41 
378 710 125 66 49 38 
378 711 124 66 49 39 
379 710 124 63 44 35 
379 710 125 63 46 40 
379 711 124 66 47 37 
378 710 126 65 48 39 
381 706 122 76 59 47 
381 707 122 74 58 46 
382 704 120 72 58 41 
382 704 121 70 55 38 
383 705 120 74 59 42 
383 705 121 72 58 42 
382 704 123 63 48 27 
382 705 122 68 53 38 
383 705 122 68 55 42 
383 706 121 71 58 43 
382 706 122 77 60 50 
382 707 122 78 61 49 
383 706 122 66 52 38 
383 707 122 72 51 34 
383 707 123 77 59 46 
381 704 126 64 50 34 
381 704 127 61 48 33 
381 705 127 69 51 34 
380 707 127 70 53 43 
381 707 126 75 57 47 
382 704 126 63 52 40 
382 705 127 57 48 43 
383 705 126 66 53 44 
382 707 125 72 56 47 
382 706 127 83 63 50 
382 707 126 68 52 43 
381 709 121 72 54 39 
381 708 122 70 53 40 
381 711 121 78 57 44 
380 711 122 79 58 53 
380 711 123 73 55 52 
381 711 122 76 56 47 
381 711 123 78 58 50 
382 708 121 74 56 42 
382 709 120 93 63 50 
382 708 123 87 62 50 
383 708 123 89 63 52 
382 710 120 93 63 49 
382 711 120 76 54 41 
382 711 121 76 55 43 
383 710 121 75 53 38 
383 711 120 68 51 36 
383 711 121 66 49 36 
382 710 122 82 61 51 
382 710 123 83 60 49 
382 711 122 86 63 51 
383 710 122 83 59 49 
383 710 123 87 62 52 
380 709 125 68 51 44 
381 709 125 69 52 43 
380 708 126 69 52 44 
380 708 127 68 52 43 
380 709 126 68 51 43 
381 708 126 60 48 39 
381 708 127 67 53 45 
381 709 126 73 55 47 
380 710 124 69 51 45 
380 710 125 68 51 46 
380 711 124 70 53 47 
381 710 124 83 59 49 
381 710 125 71 54 47 
381 711 124 75 55 48 
382 708 124 84 57 44 
382 709 125 81 58 48 
383 709 125 87 62 53 
382 708 126 67 52 43 
382 708 127 69 55 46 
382 709 126 69 54 45 
383 708 127 61 52 44 
383 709 126 84 61 53 
383 709 127 70 57 49 
382 710 124 83 58 48 
383 710 124 83 60 52 
383 710 125 89 64 56 
379 714 115 82 62 44 
379 715 114 82 61 45 
379 715 115 83 61 47 
378 715 116 81 63 50 
378 715 117 79 61 51 
379 714 116 82 63 49 
379 715 116 82 63 49 
379 715 117 76 60 46 
377 719 119 77 62 53 
378 716 116 80 62 50 
378 717 117 80 61 50 
379 717 117 80 62 49 
379 716 118 76 59 49 
378 719 119 81 63 48 
379 719 119 86 64 47 
380 714 115 82 62 44 
381 714 114 88 67 57 
381 714 115 87 65 54 
383 713 114 86 61 48 
383 713 115 79 58 46 
380 714 116 81 61 44 
381 714 116 82 61 47 
382 713 116 75 59 43 
383 712 119 77 61 45 
382 714 117 81 61 42 
380 717 115 82 61 47 
381 718 115 81 61 45 
380 716 118 85 67 57 
380 717 118 82 64 51 
381 719 116 85 66 51 
380 718 118 84 66 50 
380 719 118 87 64 46 
380 719 119 82 61 43 
381 719 118 84 63 47 
381 719 119 91 68 48 
382 716 118 84 62 42 
382 717 118 90 71 53 
383 717 119 93 79 67 
382 718 116 89 65 48 
382 718 117 90 70 51 
383 718 116 85 61 42 
382 718 119 90 65 45 
382 719 118 91 67 50 
382 719 119 91 66 48 
383 718 119 94 68 49 
383 719 118 94 66 53 
383 719 119 93 68 53 
376 713 123 68 52 46 
377 712 123 73 57 50 
377 713 122 64 48 39 
377 713 123 67 52 46 
376 714 123 68 50 43 
376 715 123 62 49 41 
377 714 122 61 48 38 
377 714 123 65 50 41 
377 715 122 62 49 41 
378 713 121 67 47 37 
379 712 121 71 54 45 
379 713 121 69 50 39 
378 712 122 66 49 41 
378 712 123 64 49 38 
378 713 122 63 46 37 
379 712 122 71 53 45 
379 712 123 68 52 48 
378 714 121 64 45 34 
378 715 121 65 47 39 
379 714 121 69 50 38 
379 715 121 67 50 39 
378 715 122 63 46 41 
376 712 124 65 51 44 
376 712 125 65 49 42 
376 713 124 70 53 45 
376 713 125 63 47 40 
377 712 124 68 53 46 
376 712 126 61 47 40 
376 713 126 60 46 38 
376 714 124 69 51 45 
376 714 125 67 50 45 
376 715 124 65 48 39 
376 715 125 65 49 44 
376 714 126 68 51 41 
377 717 121 67 52 44 
376 716 122 65 51 43 
376 716 123 57 47 40 
376 717 122 63 51 42 
376 717 123 58 46 39 
377 716 122 65 50 44 
377 717 122 68 54 47 
376 718 121 64 51 41 
376 719 120 72 57 43 
376 719 121 65 54 44 
377 718 120 63 49 40 
377 718 121 65 51 43 
377 719 120 70 55 44 
376 718 122 70 57 46 
378 716 121 73 53 47 
378 717 120 67 49 37 
378 717 121 67 50 41 
379 716 120 81 62 50 
379 716 121 76 55 46 
379 717 120 72 54 41 
378 718 120 74 58 46 
378 718 121 66 50 40 
378 719 120 75 57 43 
379 718 120 80 63 51 
376 716 124 55 43 37 
380 712 121 70 51 41 
380 713 120 74 52 33 
380 713 121 69 49 36 
381 712 120 64 47 33 
381 712 121 69 51 38 
381 713 120 69 49 30 
380 712 122 72 55 47 
380 712 123 75 57 54 
380 714 120 70 49 34 
380 714 121 70 50 38 
380 715 120 68 49 39 
380 715 121 69 50 41 
381 714 120 72 53 32 
381 715 120 72 55 41 
382 712 120 68 50 35 
382 713 120 72 54 37 
383 712 120 70 54 38 
383 713 120 74 55 36 
382 714 120 77 60 46 
382 715 120 79 60 45 
383 714 120 79 60 45 
383 715 120 82 58 47 
380 716 120 73 57 45 
380 717 120 78 56 46 
381 716 120 79 60 46 
381 717 120 84 61 46 
380 718 120 83 62 46 
381 718 120 88 63 43 
382 716 120 83 62 46 
382 717 120 89 65 46 
383 716 120 86 67 55 
383 717 120 91 81 73 
382 718 120 88 60 42 
378 727 111 86 56 47 
379 727 111 84 56 42 
380 727 111 85 57 41 
377 728 111 85 57 47 
377 729 111 83 57 43 
377 730 111 76 54 40 
377 731 111 71 52 39 
378 728 110 87 58 48 
378 728 111 86 57 47 
378 729 110 86 58 48 
379 728 110 86 57 46 
379 728 111 85 56 44 
379 729 110 87 59 47 
378 730 110 86 59 49 
378 730 111 81 58 47 
378 731 111 78 55 43 
379 730 111 86 59 46 
379 731 111 82 56 42 
379 732 111 80 56 42 
380 728 111 87 58 43 
380 729 110 88 61 48 
380 729 111 89 61 47 
381 728 111 90 60 46 
381 729 111 92 64 50 
380 730 111 87 62 48 
380 731 111 85 60 44 
381 730 111 91 64 48 
381 731 111 90 62 43 
380 732 111 86 60 44 
375 722 119 76 56 47 
375 723 118 74 50 44 
375 723 119 75 52 46 
375 727 115 74 54 46 
375 725 117 68 51 41 
375 724 118 73 52 43 
375 726 116 66 50 44 
375 720 121 72 59 47 
375 721 120 76 59 48 
375 720 122 67 56 46 
375 729 113 82 60 43 
375 728 114 80 57 43 
375 729 114 83 61 42 
375 730 113 74 53 34 
375 731 113 67 50 34 
375 730 114 76 55 36 
375 731 114 68 51 37 
375 732 113 62 48 34 
375 732 114 61 46 37 
375 733 114 60 44 39 
375 733 115 58 43 38 
375 734 115 59 44 40 
375 735 115 58 43 37 
374 734 116 57 45 41 
374 735 116 55 44 38 
376 720 119 79 61 50 
376 721 119 77 58 46 
377 720 119 79 61 49 
377 721 118 79 59 46 
377 721 119 79 60 48 
376 723 117 75 51 41 
377 722 117 82 59 46 
377 723 116 78 56 48 
377 723 117 80 57 43 
376 722 118 78 55 45 
376 722 119 78 56 47 
376 723 118 74 49 41 
377 722 118 82 59 45 
378 721 117 85 63 52 
379 720 117 86 64 50 
379 721 117 86 63 52 
378 720 118 82 61 47 
378 720 119 80 62 49 
378 721 118 83 61 49 
379 720 118 85 61 46 
379 720 119 86 69 57 
378 722 116 83 59 52 
378 722 117 84 62 52 
378 723 116 81 60 51 
378 723 117 84 60 51 
379 722 116 86 60 52 
379 723 116 80 56 48 
376 725 115 72 56 48 
377 724 115 73 58 43 
377 725 114 75 59 47 
377 725 115 75 59 47 
376 726 113 75 56 46 
376 727 112 77 53 40 
376 727 113 76 55 43 
377 726 113 74 55 43 
377 727 112 77 53 41 
376 726 114 75 57 50 
376 726 115 71 52 51 
377 726 114 74 57 47 
378 725 113 73 56 39 
379 725 113 76 59 41 
378 724 115 75 57 42 
378 725 114 73 57 40 
378 725 115 73 58 41 
379 724 115 79 56 45 
379 725 114 76 58 42 
378 726 112 80 56 42 
378 726 113 73 55 39 
378 727 112 82 56 44 
379 726 112 82 57 42 
379 726 113 78 57 41 
379 727 112 82 56 43 
376 724 116 70 51 44 
376 724 117 72 52 43 
376 725 116 70 52 47 
377 724 116 73 55 44 
378 724 116 76 56 46 
380 723 115 85 55 47 
381 723 115 86 64 53 
383 721 115 85 62 50 
382 722 115 91 70 53 
382 723 115 89 67 54 
383 723 115 90 67 53 
380 720 117 87 65 50 
380 721 116 83 62 50 
380 721 117 87 63 51 
381 720 117 85 65 54 
381 721 116 85 66 57 
381 721 117 84 64 54 
380 720 118 87 64 48 
381 720 118 86 66 51 
380 722 116 84 59 51 
380 723 116 81 56 47 
381 722 116 85 65 54 
382 720 116 89 65 53 
382 720 117 88 65 54 
382 721 116 86 64 53 
382 721 117 87 65 56 
383 720 117 92 67 55 
383 721 116 91 66 57 
383 721 117 90 65 55 
383 720 118 97 67 57 
382 722 116 89 68 54 
383 722 116 92 68 55 
383 723 116 92 65 46 
380 725 113 78 60 41 
381 725 113 86 60 46 
380 724 115 85 59 49 
380 725 114 84 62 47 
381 724 115 89 63 53 
381 725 114 87 62 51 
380 726 112 86 61 44 
380 726 113 87 63 46 
380 727 112 87 60 42 
381 726 112 90 63 49 
381 726 113 91 64 52 
381 727 112 91 62 48 
382 724 114 88 64 53 
382 724 115 90 65 56 
382 725 114 88 63 53 
383 724 114 89 65 55 
383 724 115 90 66 54 
383 725 114 93 65 55 
382 726 113 95 67 55 
382 727 112 94 66 53 
382 727 113 97 70 58 
383 726 113 98 70 59 
383 727 113 97 69 56 
382 726 114 94 65 56 
383 726 114 96 69 56 
376 720 120 77 62 50 
376 728 112 80 56 44 
376 728 113 78 55 41 
376 729 112 81 56 41 
377 728 112 79 55 42 
376 730 112 74 52 36 
376 731 112 68 50 33 
376 731 113 66 48 31 
377 730 112 72 51 36 
377 731 112 69 51 37 
378 731 112 69 51 39 
376 732 113 63 48 34 
377 732 112 65 50 37 
377 732 113 64 49 37 
377 733 113 64 49 39 
376 732 114 62 46 39 
376 733 114 62 47 39 
377 734 113 63 47 40 
376 734 114 61 45 39 
376 734 115 61 45 41 
376 735 115 62 46 40 
377 734 114 62 46 40 
377 735 114 64 48 42 
377 735 115 64 48 42 
378 732 112 66 49 37 
378 733 112 65 47 38 
378 733 113 65 48 40 
379 732 112 72 51 38 
379 733 112 67 49 38 
378 734 113 64 48 40 
378 735 113 65 48 38 
379 734 112 66 49 39 
379 734 113 65 49 38 
379 735 113 67 50 39 
378 735 114 65 49 39 
381 728 112 92 62 48 
381 731 112 91 63 45 
382 728 112 95 66 53 
382 729 112 97 68 54 
383 728 112 98 69 55 
383 728 113 99 70 55 
383 729 112 101 70 56 
382 730 112 97 68 51 
382 731 112 97 69 52 
383 730 112 102 71 56 
383 731 112 103 73 58 
383 731 113 106 75 60 
380 732 112 86 60 45 
380 733 112 75 55 45 
381 732 112 91 63 46 
381 733 112 92 65 52 
380 734 112 69 52 43 
380 735 113 69 51 40 
381 734 112 87 64 50 
381 734 113 89 65 52 
381 735 113 80 59 46 
382 732 112 99 71 55 
382 733 112 99 72 57 
382 733 113 99 73 58 
383 732 112 104 75 60 
383 732 113 105 75 60 
383 733 113 102 74 59 
382 734 113 95 70 56 
382 735 113 93 69 56 
383 734 113 100 74 60 
382 735 114 95 71 58 
383 734 114 101 75 61 
383 735 114 99 72 58 
383 735 115 99 74 58 
375 736 115 60 46 39 
374 736 116 55 44 38 
374 737 116 55 45 38 
375 736 116 59 46 40 
375 737 116 58 45 38 
374 738 116 56 44 37 
374 739 116 56 45 35 
374 739 117 56 44 33 
375 738 116 58 46 37 
375 739 116 58 45 35 
375 739 117 59 45 35 
373 741 117 54 45 36 
373 742 116 53 45 36 
373 742 117 55 45 35 
373 743 116 57 46 38 
373 743 117 58 46 37 
374 740 117 55 43 30 
374 741 117 56 44 35 
375 740 117 61 46 35 
375 741 117 63 48 38 
375 741 118 65 49 39 
374 742 117 57 46 36 
374 743 117 58 47 36 
375 742 117 59 47 36 
375 743 117 59 47 36 
374 743 118 59 48 37 
375 742 118 65 50 38 
375 743 118 64 49 37 
373 744 116 56 45 37 
373 744 117 56 46 36 
373 745 116 56 46 38 
373 745 117 56 45 37 
373 746 116 57 47 39 
373 746 117 60 48 40 
373 747 117 61 49 41 
374 744 117 57 46 35 
374 745 117 58 47 35 
374 744 118 58 47 36 
374 745 118 60 48 36 
375 744 118 60 48 35 
375 744 119 68 52 41 
375 745 118 62 49 36 
375 745 119 68 54 44 
374 746 117 59 48 38 
374 746 118 63 51 39 
374 746 119 66 52 41 
374 747 118 62 49 40 
374 747 119 67 51 41 
375 746 119 68 53 44 
375 747 119 70 53 44 
373 748 117 60 47 40 
373 749 116 61 48 42 
373 749 117 60 46 39 
373 748 118 62 47 39 
373 749 118 62 47 40 
372 750 116 62 50 44 
372 750 117 62 50 45 
372 751 116 63 51 45 
372 751 117 64 52 45 
373 750 117 62 49 43 
372 751 118 59 49 41 
373 750 118 64 51 43 
373 750 119 69 54 43 
373 751 118 61 50 42 
373 751 119 66 53 43 
374 748 118 64 49 40 
374 748 119 67 52 42 
374 749 118 64 49 40 
374 749 119 69 52 42 
375 748 119 71 55 46 
374 750 119 71 55 44 
375 746 120 73 57 47 
375 747 120 73 57 46 
375 747 121 75 61 49 
373 751 120 67 55 44 
374 748 120 73 57 48 
374 749 120 74 59 49 
374 749 121 69 59 49 
375 748 120 74 59 49 
375 748 121 77 62 51 
375 749 120 74 61 50 
375 749 121 74 61 51 
375 748 122 74 61 50 
375 749 122 74 63 53 
375 749 123 74 62 51 
374 750 120 71 57 45 
374 750 121 69 59 50 
374 751 120 70 59 48 
374 751 121 71 60 49 
374 750 122 69 60 52 
374 751 122 71 61 51 
375 750 122 70 60 51 
375 750 123 72 62 51 
375 751 122 69 58 49 
375 751 123 70 60 53 
375 750 124 73 62 51 
375 751 124 74 65 57 
375 751 125 72 61 52 
376 736 115 62 46 40 
377 736 115 64 47 41 
377 737 115 65 46 40 
378 736 114 66 48 39 
378 736 115 66 47 38 
378 737 115 67 48 40 
379 736 114 69 50 40 
379 736 115 70 49 40 
379 737 115 71 50 45 
376 736 116 61 47 39 
376 737 116 63 46 39 
377 737 116 65 47 40 
376 738 116 63 47 39 
376 739 117 63 48 38 
377 738 116 66 48 41 
377 739 117 65 48 40 
378 738 116 67 48 41 
378 738 117 67 48 39 
378 739 117 67 48 38 
379 738 116 71 50 43 
379 738 117 72 50 40 
379 739 117 73 52 42 
378 739 118 72 52 41 
379 739 118 77 57 46 
376 740 117 62 48 37 
376 740 118 65 49 37 
376 741 118 68 52 40 
377 740 118 68 50 39 
377 741 118 71 53 41 
377 741 119 74 57 45 
376 742 118 70 54 42 
376 742 119 76 57 43 
376 743 119 73 55 43 
377 742 119 76 59 45 
377 743 119 78 59 44 
378 740 118 71 54 41 
378 740 119 76 58 46 
378 741 119 77 60 46 
379 740 118 77 58 47 
379 740 119 80 61 49 
379 741 119 80 61 49 
378 742 119 78 60 47 
380 736 114 74 53 43 
380 737 115 77 54 47 
381 736 114 81 59 47 
381 737 115 84 62 50 
382 736 114 91 68 53 
382 736 115 91 69 52 
382 737 115 91 69 53 
383 736 115 93 70 54 
381 737 116 87 64 51 
380 738 116 79 56 47 
380 738 117 79 58 47 
380 739 117 79 57 46 
381 738 116 85 62 49 
381 738 117 85 62 49 
380 739 118 82 61 50 
381 738 118 85 64 51 
381 739 118 84 63 51 
381 739 119 83 63 51 
382 737 116 90 68 52 
382 737 117 89 67 53 
383 736 116 90 68 54 
383 736 117 86 65 52 
383 737 116 89 68 54 
383 737 117 87 66 54 
383 737 118 83 64 51 
383 737 119 79 63 52 
382 738 117 87 65 51 
382 738 118 85 65 51 
382 738 119 81 63 48 
382 739 119 79 61 47 
383 738 118 82 64 50 
383 738 119 79 61 49 
380 740 119 80 61 50 
381 740 119 80 63 51 
376 743 120 78 59 46 
377 742 120 81 61 47 
377 743 120 81 61 48 
379 741 120 79 60 47 
378 742 120 80 61 47 
378 743 120 82 63 48 
378 743 121 81 62 48 
379 742 120 78 60 46 
379 742 121 76 59 46 
379 743 121 78 61 48 
379 743 122 76 61 50 
382 739 120 76 58 48 
383 738 120 75 58 49 
383 738 121 71 55 48 
383 739 120 75 57 48 
383 739 121 72 56 48 
383 739 122 68 54 46 
380 741 120 79 61 50 
381 740 120 78 62 50 
381 741 120 78 61 49 
381 741 121 76 60 50 
380 742 120 77 59 48 
380 742 121 76 60 49 
380 743 121 76 60 49 
381 742 121 75 59 49 
380 743 122 72 58 48 
381 742 122 71 57 48 
381 743 122 72 57 48 
381 743 123 68 52 45 
382 740 120 75 59 49 
382 740 121 73 57 48 
382 741 121 73 58 47 
383 740 121 72 57 48 
382 740 122 72 56 46 
382 741 122 71 56 46 
382 741 123 68 54 46 
383 740 122 69 55 46 
383 740 123 65 52 45 
383 741 123 64 51 43 
382 742 122 70 56 46 
382 742 123 65 51 43 
381 743 124 65 49 45 
383 740 124 59 47 40 
383 741 124 59 47 41 
383 741 125 57 45 41 
382 742 124 62 48 42 
382 743 124 62 47 43 
382 743 125 57 44 42 
383 742 124 58 46 42 
383 742 125 55 44 41 
383 743 125 55 44 41 
382 743 126 54 42 40 
382 743 127 53 41 39 
383 742 126 52 41 39 
383 742 127 53 42 38 
383 743 126 54 43 40 
383 743 127 53 41 38 
376 744 119 74 56 45 
376 745 119 71 55 44 
376 744 120 78 59 48 
376 745 120 75 57 46 
376 745 121 77 59 48 
377 744 120 80 61 48 
377 744 121 80 61 48 
377 745 120 79 60 48 
377 745 121 79 60 48 
377 745 122 78 61 49 
376 746 120 75 59 47 
376 746 121 77 61 48 
376 747 121 76 60 47 
376 746 122 79 62 50 
376 747 122 79 64 51 
377 746 122 79 62 51 
377 746 123 78 62 53 
377 747 122 80 64 53 
377 747 123 78 64 54 
378 744 121 80 62 48 
378 744 122 76 60 49 
378 745 122 76 61 49 
378 745 123 74 60 51 
379 744 122 75 60 49 
379 744 123 72 58 49 
379 745 123 72 58 49 
378 746 123 75 61 51 
378 747 123 74 60 51 
377 747 124 73 60 52 
379 745 124 69 54 46 
378 746 124 69 56 48 
378 747 124 67 55 46 
378 747 125 65 52 42 
379 746 124 68 53 46 
379 746 125 64 50 42 
379 747 125 63 49 39 
378 747 126 62 50 39 
379 746 126 61 48 39 
379 747 126 61 47 40 
379 747 127 59 46 40 
376 748 122 78 63 51 
376 748 123 78 64 53 
376 749 123 75 63 51 
377 748 123 80 65 54 
376 748 124 79 65 54 
376 749 124 74 62 52 
376 749 125 72 60 50 
377 748 124 76 62 52 
377 748 125 71 57 48 
377 749 125 70 58 48 
377 749 126 67 54 43 
376 750 124 74 63 53 
376 750 125 71 60 48 
376 751 124 72 61 49 
376 751 125 69 59 49 
377 750 125 67 57 47 
376 751 126 70 58 49 
376 751 127 70 56 46 
377 750 126 65 52 41 
377 750 127 64 49 40 
377 751 127 69 54 45 
378 748 125 66 54 44 
378 748 126 65 51 42 
378 748 127 63 49 44 
378 749 126 64 50 40 
378 749 127 64 49 43 
379 748 126 61 48 43 
379 748 127 60 47 43 
378 750 127 66 50 41 
380 744 123 70 55 47 
381 744 123 69 53 46 
380 744 124 66 50 45 
380 744 125 63 47 44 
380 745 124 68 52 45 
380 745 125 61 46 41 
381 744 124 63 47 44 
381 744 125 60 45 42 
381 745 125 60 46 41 
381 744 126 57 43 40 
381 745 126 57 43 39 
381 745 127 56 44 41 
380 746 125 62 48 40 
380 746 126 60 46 40 
380 746 127 59 46 41 
380 747 127 59 46 41 
381 746 127 58 44 40 
382 744 125 59 45 43 
382 744 126 55 42 40 
382 744 127 54 42 40 
382 745 127 54 42 40 
372 752 116 64 52 45 
372 752 117 64 52 43 
372 753 116 66 52 43 
372 753 117 63 50 40 
372 752 118 62 50 41 
372 752 119 60 50 40 
372 753 118 64 51 40 
372 753 119 64 52 42 
373 752 119 64 54 43 
373 753 119 61 50 38 
372 754 117 66 54 44 
372 755 117 68 55 45 
372 754 118 67 54 44 
372 754 119 66 53 43 
372 755 118 67 54 44 
372 755 119 65 52 41 
373 754 119 65 54 45 
373 755 119 66 55 45 
373 752 120 68 56 44 
373 752 121 68 56 42 
373 753 120 68 56 44 
373 753 121 73 60 49 
373 754 120 72 59 48 
373 754 121 71 58 45 
373 755 120 72 59 48 
373 755 121 74 62 51 
373 754 122 75 64 54 
373 755 122 73 62 54 
373 755 123 73 62 51 
374 752 121 71 59 47 
374 753 121 73 61 50 
374 752 122 73 63 53 
374 752 123 72 63 56 
374 753 122 77 65 56 
374 753 123 75 65 57 
374 754 121 75 62 50 
374 754 122 80 68 59 
374 754 123 76 66 58 
374 755 122 75 62 51 
374 755 123 73 62 52 
374 752 124 72 63 56 
374 753 124 74 65 56 
375 752 124 75 66 59 
375 752 125 75 65 55 
375 753 124 77 67 59 
375 753 125 75 64 55 
375 752 126 71 61 52 
375 753 126 73 62 53 
375 753 127 72 60 51 
374 754 124 76 65 56 
374 754 125 79 68 58 
374 755 124 74 64 56 
374 755 125 79 66 57 
375 754 125 78 67 57 
374 754 127 73 62 54 
374 755 126 78 66 58 
374 755 127 77 66 59 
375 754 126 75 65 56 
375 754 127 70 60 53 
376 752 126 70 59 51 
376 752 127 71 58 47 
376 753 127 70 57 47 
379 685 131 73 56 48 
378 687 129 69 49 39 
379 687 128 73 49 38 
379 687 129 69 52 38 
378 686 130 69 48 40 
378 686 131 70 51 44 
378 687 130 66 47 38 
378 687 131 65 44 37 
379 686 130 69 54 43 
379 686 131 72 56 48 
379 687 130 70 53 39 
379 684 133 74 56 48 
379 685 132 73 55 48 
379 685 133 74 56 49 
378 685 134 74 56 50 
379 684 134 74 57 49 
379 685 134 74 57 49 
379 685 135 75 57 50 
378 686 132 71 54 47 
378 686 133 73 55 49 
378 687 132 71 48 44 
378 687 133 73 54 49 
379 686 132 70 54 46 
378 686 134 74 56 51 
378 687 134 74 58 52 
378 687 135 75 58 52 
379 686 134 74 57 51 
379 686 135 75 58 51 
379 687 134 75 58 52 
379 687 135 76 58 52 
381 685 129 67 53 43 
380 684 131 73 55 47 
380 685 130 73 59 50 
380 685 131 72 55 47 
381 684 131 74 57 49 
381 685 130 75 60 51 
381 685 131 72 55 46 
380 686 129 70 56 45 
380 687 128 71 53 40 
380 687 129 71 54 38 
381 686 128 70 54 44 
381 686 129 69 55 44 
381 687 128 68 53 41 
380 686 130 70 57 46 
382 685 128 75 61 51 
382 685 129 74 59 49 
383 685 128 73 58 47 
383 685 129 75 60 48 
382 685 130 77 63 53 
382 685 131 73 56 47 
383 685 130 75 59 50 
383 685 131 74 57 48 
382 686 128 69 54 43 
383 686 131 73 57 48 
380 684 132 73 56 47 
380 684 133 74 57 49 
381 684 132 74 57 48 
381 684 133 74 57 49 
381 685 132 73 57 48 
380 684 134 75 57 49 
380 684 135 75 58 50 
380 685 135 75 58 51 
381 684 134 75 57 49 
381 685 135 76 58 51 
380 686 135 76 58 52 
380 687 135 76 59 52 
381 686 135 76 59 51 
381 687 135 77 59 52 
382 684 132 74 57 48 
382 684 133 74 57 49 
382 685 132 73 57 48 
382 685 133 74 57 49 
383 685 133 74 57 49 
382 684 134 75 58 50 
382 685 134 75 57 49 
382 685 135 76 58 51 
383 685 134 75 58 50 
382 686 132 73 56 48 
383 686 132 73 57 48 
383 686 133 74 57 49 
383 687 133 74 58 50 
382 686 135 76 59 51 
382 687 135 76 59 52 
383 686 134 75 58 50 
383 686 135 76 58 51 
383 687 134 75 58 51 
383 687 135 76 59 52 
380 687 136 77 59 53 
381 687 136 77 59 53 
382 687 136 77 59 53 
380 679 159 72 49 39 
381 679 158 73 53 41 
381 679 159 72 52 41 
382 679 157 75 54 40 
383 679 157 79 55 39 
382 678 159 73 54 40 
382 679 158 74 54 40 
382 679 159 73 54 40 
383 678 158 80 56 42 
383 678 159 77 55 41 
383 679 158 78 55 40 
377 687 145 71 43 39 
377 687 146 71 44 42 
377 687 147 69 45 45 
378 687 145 71 44 39 
379 687 145 71 46 39 
378 687 146 71 44 42 
378 687 147 70 43 43 
379 686 146 72 49 42 
379 686 147 73 49 42 
379 687 146 71 47 41 
379 687 147 73 47 42 
377 687 148 68 44 43 
377 687 149 70 44 43 
376 687 151 71 47 43 
377 687 150 70 46 43 
377 687 151 70 46 41 
379 685 149 70 48 40 
379 685 150 71 48 38 
379 685 151 71 48 38 
378 686 148 71 48 45 
378 686 149 72 47 42 
378 687 148 70 45 44 
378 687 149 70 45 43 
379 686 148 70 48 42 
379 686 149 71 48 41 
378 686 150 71 46 41 
378 686 151 70 46 42 
378 687 150 70 46 43 
379 686 150 72 48 41 
382 683 151 74 50 38 
383 683 151 78 55 35 
381 685 147 76 50 39 
380 687 145 71 45 38 
381 686 145 73 45 39 
381 687 144 73 44 36 
381 687 145 72 43 38 
380 686 146 72 49 41 
380 686 147 73 50 42 
381 686 146 73 47 39 
381 686 147 74 49 39 
382 685 147 78 51 38 
383 685 147 80 53 36 
382 686 145 75 46 39 
382 687 144 74 44 38 
382 687 145 74 44 38 
383 686 145 79 50 34 
383 687 144 75 45 37 
383 687 145 77 48 36 
382 686 146 76 48 37 
382 686 147 76 50 38 
383 686 146 80 51 34 
380 685 149 69 49 39 
381 684 149 74 51 37 
381 685 148 76 51 40 
381 685 149 74 51 40 
380 684 151 72 50 37 
380 685 150 71 50 39 
380 685 151 73 49 37 
381 684 150 73 50 38 
381 684 151 73 50 39 
381 685 150 72 51 41 
380 686 148 70 48 38 
382 684 149 77 52 38 
382 685 148 78 53 39 
383 684 148 82 56 36 
383 684 149 80 55 34 
383 685 148 82 54 38 
382 684 150 72 49 36 
382 684 151 73 49 38 
383 684 150 75 54 36 
379 683 155 72 44 43 
379 680 159 69 44 33 
379 681 158 70 44 38 
379 681 159 72 44 37 
379 682 157 72 46 41 
379 683 156 72 45 42 
379 683 157 75 46 43 
378 683 159 82 51 48 
379 682 158 74 47 40 
379 682 159 78 49 42 
379 683 158 79 49 45 
379 683 159 80 48 45 
376 687 152 69 43 35 
376 687 153 70 44 36 
377 686 152 70 45 38 
377 686 153 69 43 37 
377 687 152 69 44 38 
377 687 153 69 43 35 
376 687 154 74 47 39 
376 687 155 79 49 41 
377 686 154 74 43 38 
377 686 155 77 46 37 
377 687 154 73 46 39 
377 687 155 78 51 43 
378 685 152 70 46 39 
378 685 153 72 46 39 
379 684 153 70 47 38 
379 685 152 72 48 39 
379 685 153 71 46 39 
378 685 154 72 44 37 
378 685 155 75 45 37 
379 684 154 70 46 40 
379 684 155 70 44 40 
379 685 154 72 46 40 
379 685 155 71 45 37 
378 686 152 72 46 40 
378 686 153 72 43 36 
378 686 154 71 43 34 
376 687 156 77 47 39 
376 687 157 76 44 36 
377 686 156 78 46 37 
377 686 157 78 47 40 
377 687 156 79 48 42 
377 687 157 77 44 39 
376 687 158 78 48 36 
376 687 159 84 55 42 
377 686 158 77 46 39 
377 686 159 78 48 40 
377 687 158 77 44 37 
377 687 159 80 49 38 
378 685 156 77 47 38 
378 685 157 79 50 40 
379 684 156 72 44 39 
379 684 157 78 49 43 
379 685 156 75 47 40 
379 685 157 79 50 42 
378 684 158 81 51 46 
378 684 159 83 52 49 
378 685 158 78 48 43 
378 685 159 81 49 47 
379 684 158 81 51 46 
378 686 157 79 47 40 
378 686 158 79 48 42 
378 686 159 77 47 42 
381 681 155 72 52 40 
381 683 152 73 50 41 
381 683 153 73 50 42 
380 682 155 70 44 38 
380 683 154 71 45 42 
380 683 155 71 45 42 
381 682 154 74 50 44 
381 682 155 72 48 41 
381 683 154 73 47 43 
383 681 153 77 56 35 
382 681 154 74 56 41 
382 681 155 73 55 40 
383 680 154 79 57 37 
383 680 155 79 57 37 
383 681 154 77 57 37 
383 681 155 78 57 39 
382 682 153 75 53 42 
382 683 152 73 53 42 
382 683 153 74 51 43 
383 682 152 79 57 36 
383 682 153 78 57 36 
383 683 152 77 55 37 
382 682 154 74 54 42 
383 682 154 76 55 40 
380 680 157 71 49 39 
380 681 156 69 46 38 
380 681 157 70 46 38 
381 680 156 73 53 41 
381 680 157 73 53 42 
381 681 156 71 50 39 
380 680 158 70 48 38 
380 680 159 70 45 36 
380 681 158 70 44 37 
381 680 158 74 53 42 
380 682 156 70 44 38 
380 682 157 70 45 39 
380 683 156 72 45 41 
381 682 156 69 46 39 
382 680 156 75 56 39 
382 680 157 75 55 41 
382 681 156 73 54 38 
383 680 156 80 57 39 
380 684 152 71 49 38 
380 684 153 72 48 42 
381 684 152 73 49 40 
380 684 154 72 46 45 
378 688 128 69 44 39 
378 688 129 67 45 38 
378 689 128 67 47 40 
379 688 128 72 46 38 
378 688 130 70 52 45 
377 688 134 77 63 58 
377 689 134 79 63 58 
