ply
format ascii 1.0
comment Created by CloudCompare v2.10.1 (Zephyrus)
comment Created 1/31/20 6:24 PM
obj_info Generated by CloudCompare!
element vertex 2109
property float x
property float y
property float z
property uchar red
property uchar green
property uchar blue
end_header
479 895 245 70 59 48 
478 895 247 75 67 60 
479 895 246 68 58 48 
479 895 247 85 78 74 
478 895 248 84 76 70 
478 895 249 89 79 71 
478 895 250 91 79 70 
479 895 250 93 79 70 
479 895 251 73 61 52 
479 895 252 71 60 50 
480 895 251 71 59 50 
480 895 252 72 58 48 
481 894 252 70 54 42 
481 895 252 75 60 48 
482 894 253 68 54 41 
482 895 253 76 62 48 
482 894 254 64 53 41 
482 895 254 80 65 52 
451 908 245 68 57 51 
451 909 245 73 61 54 
454 907 245 72 61 55 
455 907 245 72 60 52 
452 908 245 70 58 51 
452 909 245 73 60 53 
453 908 245 72 60 53 
453 909 245 73 60 53 
452 909 246 77 64 56 
453 909 246 79 65 57 
453 909 247 82 67 58 
453 910 247 83 68 60 
454 908 245 76 63 55 
455 908 245 78 64 54 
454 908 246 81 67 58 
454 909 246 81 66 58 
454 909 247 82 66 58 
455 908 246 81 67 57 
455 909 246 82 68 58 
455 909 247 84 68 59 
454 910 247 83 67 59 
453 910 248 85 70 62 
453 911 248 85 70 61 
454 910 248 85 69 60 
454 910 249 85 68 58 
455 910 248 85 68 57 
455 910 249 84 66 56 
454 910 250 84 69 58 
454 911 250 85 68 59 
455 910 250 84 68 59 
455 910 251 83 67 58 
455 910 252 84 67 58 
455 911 252 83 66 57 
456 906 245 73 60 51 
456 907 245 75 62 53 
457 906 245 73 60 51 
457 907 245 76 63 53 
459 905 245 71 58 50 
458 906 245 73 60 52 
458 907 245 78 64 54 
459 906 245 76 61 51 
458 907 246 81 66 55 
459 907 246 83 66 54 
456 908 245 79 64 54 
457 908 245 81 66 55 
456 908 246 82 67 57 
456 909 246 84 68 58 
456 909 247 85 69 58 
457 908 246 84 68 57 
457 909 246 86 69 59 
457 909 247 86 69 59 
458 908 246 85 68 57 
458 909 246 88 70 59 
458 909 247 88 68 58 
459 908 246 87 69 57 
459 908 247 87 68 57 
459 909 247 87 67 57 
460 905 245 73 59 52 
461 905 245 73 59 51 
460 905 246 80 63 55 
461 905 246 80 64 55 
461 905 247 85 67 56 
460 906 245 79 64 55 
460 906 246 82 66 56 
460 906 247 85 67 55 
460 907 246 85 69 56 
460 907 247 85 67 56 
461 906 247 86 68 57 
462 904 245 74 58 50 
462 905 245 74 59 50 
463 904 245 75 59 51 
463 905 245 78 61 51 
462 905 246 80 63 52 
462 905 247 85 67 56 
463 905 246 79 62 51 
463 905 247 83 65 53 
460 908 247 85 67 55 
456 910 248 85 68 57 
456 910 249 83 64 53 
457 910 248 87 69 59 
457 910 249 86 68 58 
456 910 250 83 65 54 
456 910 251 81 64 54 
457 910 250 84 65 55 
457 910 251 84 65 56 
458 909 248 88 68 58 
459 909 248 86 68 58 
459 909 249 84 65 57 
459 909 250 84 65 57 
459 909 251 82 65 57 
458 910 248 89 70 61 
458 910 249 87 68 59 
458 910 250 84 64 55 
458 910 251 82 63 54 
459 910 251 82 63 55 
456 910 252 82 65 55 
456 910 253 81 64 57 
457 910 252 81 63 55 
457 910 253 80 63 55 
456 910 254 82 64 58 
457 910 254 78 61 51 
457 910 255 78 61 52 
459 909 252 81 63 54 
459 909 253 81 63 53 
458 910 252 82 63 55 
458 910 253 80 62 51 
459 910 252 81 62 52 
459 910 253 80 63 52 
458 910 254 79 61 51 
458 910 255 78 61 50 
459 910 254 79 62 51 
459 910 255 79 62 50 
460 907 248 87 69 58 
461 906 248 88 69 58 
461 907 248 86 67 56 
461 907 249 85 67 55 
462 905 248 87 69 57 
463 905 248 88 69 57 
462 906 248 89 69 58 
462 906 249 92 71 59 
462 907 249 89 69 57 
463 906 248 90 70 58 
463 906 249 91 71 59 
462 907 250 86 68 55 
462 907 251 85 67 55 
463 906 250 92 70 59 
463 907 250 90 69 57 
463 907 251 87 68 56 
463 907 252 86 67 56 
463 907 253 84 65 55 
460 908 248 85 68 58 
460 908 249 84 66 56 
460 909 248 84 66 57 
460 909 249 84 66 57 
461 908 248 84 66 55 
461 908 249 84 67 55 
460 908 250 84 67 56 
460 909 250 83 66 57 
460 909 251 82 66 56 
461 908 250 84 67 56 
461 908 251 84 67 56 
462 908 251 84 67 55 
460 909 252 82 65 55 
460 909 253 82 66 55 
461 908 252 84 67 55 
461 909 252 82 66 54 
461 909 253 82 65 52 
460 909 254 80 64 52 
460 909 255 80 63 51 
461 909 254 80 64 53 
461 909 255 79 63 52 
462 908 252 84 67 55 
462 908 253 81 64 53 
463 908 253 83 64 53 
462 908 254 80 62 51 
462 909 254 79 62 51 
462 909 255 80 63 51 
463 908 254 81 63 51 
463 908 255 80 62 50 
463 909 255 80 63 50 
465 903 245 74 58 50 
467 901 245 74 60 50 
466 902 245 73 59 49 
466 903 245 74 58 49 
467 902 245 74 59 49 
467 903 245 73 57 46 
466 903 246 77 60 48 
467 903 246 75 58 46 
467 903 247 79 62 50 
470 899 245 82 67 56 
470 899 246 82 67 54 
471 898 246 86 70 58 
471 898 247 84 68 57 
471 899 246 83 68 57 
471 899 247 82 67 55 
468 900 245 78 64 55 
468 901 245 75 61 51 
469 900 245 80 65 54 
468 901 246 73 58 47 
469 900 246 79 64 52 
469 901 246 74 60 49 
469 901 247 75 59 48 
468 902 245 73 58 48 
468 902 246 74 57 46 
468 902 247 76 60 46 
468 903 246 75 57 45 
468 903 247 79 62 49 
469 902 247 77 60 47 
469 903 247 81 63 48 
470 900 246 79 63 51 
470 900 247 79 63 50 
470 901 247 77 60 49 
471 900 247 80 64 52 
470 902 247 77 60 47 
471 899 248 84 68 58 
470 901 248 77 60 49 
471 900 248 78 62 51 
471 901 248 78 61 49 
471 901 249 80 62 50 
470 902 248 79 61 48 
470 903 248 83 64 50 
471 902 248 81 62 49 
471 902 249 82 63 49 
471 903 248 85 65 50 
471 903 249 87 67 52 
464 904 245 74 58 51 
465 904 245 75 57 47 
464 904 246 77 60 51 
464 904 247 82 64 54 
464 905 246 79 61 52 
464 905 247 83 65 53 
465 904 246 77 59 48 
465 904 247 83 64 53 
466 904 246 77 59 47 
466 904 247 81 63 49 
467 904 247 82 64 50 
468 904 247 83 65 52 
464 905 248 87 68 55 
464 905 249 91 71 56 
465 905 248 88 69 55 
465 905 249 92 72 57 
464 906 249 91 71 58 
465 906 249 93 72 58 
464 906 250 92 71 60 
464 906 251 92 69 60 
464 907 251 93 70 60 
465 906 250 93 72 60 
465 906 251 93 70 61 
466 904 248 86 68 52 
466 905 248 90 70 55 
466 905 249 93 72 55 
467 904 248 85 67 52 
467 905 248 90 70 54 
467 905 249 93 71 55 
466 906 249 93 72 56 
467 906 249 93 71 56 
466 906 250 93 71 60 
466 906 251 93 71 60 
467 906 250 93 72 61 
467 906 251 96 72 61 
464 906 252 92 70 60 
464 907 252 87 67 57 
464 907 253 83 64 53 
465 906 252 92 69 60 
465 907 252 92 69 60 
465 907 253 90 69 58 
464 907 254 84 64 53 
465 907 254 85 66 53 
466 906 252 93 71 60 
466 907 252 93 70 59 
466 907 253 92 70 57 
467 906 252 92 72 61 
467 907 252 93 71 59 
467 907 253 92 70 56 
466 907 254 90 71 55 
467 907 254 91 71 56 
464 908 254 82 64 51 
464 908 255 82 62 50 
465 908 255 84 64 52 
466 908 255 87 68 54 
467 908 255 92 72 56 
468 904 248 87 68 53 
468 905 248 90 69 54 
468 905 249 94 71 56 
469 904 248 87 68 53 
469 905 248 91 71 56 
469 905 249 93 71 57 
468 906 249 94 72 60 
469 906 249 95 72 60 
468 906 250 94 71 61 
468 906 251 94 72 60 
468 907 251 94 71 60 
469 906 250 95 73 60 
469 907 251 96 71 61 
470 904 248 89 69 54 
470 905 248 91 71 57 
470 905 249 95 73 59 
471 904 249 92 72 56 
471 905 249 96 75 60 
471 905 250 98 74 60 
470 906 249 97 74 61 
470 906 250 97 74 62 
470 906 251 97 73 61 
470 907 251 98 74 61 
471 906 250 98 73 58 
471 906 251 98 74 58 
471 907 251 98 74 59 
468 907 252 93 69 59 
468 907 253 93 70 58 
469 907 252 95 70 60 
469 907 253 95 69 56 
468 907 254 93 72 56 
469 907 254 94 69 52 
470 907 252 96 71 58 
470 907 253 96 70 54 
471 907 252 97 72 55 
471 907 253 96 70 53 
468 908 254 93 72 54 
468 908 255 93 72 55 
469 908 254 94 68 51 
469 908 255 95 71 53 
471 908 253 96 71 53 
470 908 254 96 70 53 
470 908 255 98 72 54 
471 908 254 96 71 54 
471 908 255 96 71 54 
472 897 246 80 65 56 
473 897 246 78 63 54 
473 897 247 73 57 50 
472 898 246 84 68 57 
472 898 247 81 66 54 
473 898 247 72 57 49 
475 897 245 73 60 53 
474 897 246 77 64 57 
474 897 247 73 58 52 
475 897 246 71 61 52 
475 897 247 73 58 51 
474 898 247 71 57 50 
476 897 245 75 61 51 
477 896 245 81 66 54 
477 897 245 77 62 51 
476 897 246 75 59 51 
476 897 247 74 60 52 
477 897 246 76 60 51 
477 897 247 70 58 47 
478 896 245 80 66 55 
478 896 246 74 61 50 
478 896 247 72 61 52 
472 898 248 89 74 66 
472 899 248 85 69 63 
472 899 249 84 69 62 
473 898 248 81 67 60 
473 898 249 87 72 64 
473 899 249 84 69 61 
475 897 248 75 57 52 
474 898 248 68 53 47 
474 898 249 66 53 47 
474 899 249 84 68 60 
475 898 248 73 56 50 
475 898 249 70 57 50 
474 899 250 75 60 52 
475 898 250 71 57 49 
475 899 250 72 58 48 
472 900 249 81 64 56 
472 901 249 81 64 53 
473 900 249 83 65 56 
473 901 249 84 66 55 
473 901 250 85 67 54 
472 902 249 84 64 50 
472 903 249 90 69 54 
473 902 249 86 65 52 
473 902 250 86 66 50 
473 903 250 91 69 55 
474 900 250 87 68 59 
474 901 250 87 69 55 
475 900 250 75 60 49 
475 901 250 83 64 49 
474 902 250 89 69 51 
474 903 250 92 71 54 
475 902 250 92 72 56 
475 903 250 96 74 58 
476 897 248 69 57 48 
476 897 249 71 58 50 
477 897 248 68 57 48 
477 897 249 68 58 50 
476 897 250 71 57 49 
477 897 250 67 56 47 
477 897 251 71 57 49 
476 898 249 66 57 48 
476 898 250 70 58 50 
476 898 251 74 61 51 
476 899 251 76 62 50 
477 898 251 73 60 48 
477 899 251 76 63 50 
478 896 248 76 66 59 
478 896 249 81 70 63 
478 897 248 72 61 54 
478 897 249 68 59 51 
478 896 250 75 63 55 
478 896 251 71 59 50 
478 897 250 67 57 49 
478 897 251 68 56 48 
479 896 251 75 62 52 
478 898 251 75 62 51 
478 899 251 79 66 54 
478 897 252 74 62 52 
479 896 252 72 59 48 
479 897 252 74 62 51 
478 898 252 78 65 52 
478 899 252 82 68 53 
479 898 252 81 69 56 
479 899 252 83 69 55 
476 900 251 78 63 49 
476 901 250 81 62 47 
476 901 251 80 63 48 
477 900 251 78 64 49 
477 901 250 83 65 48 
477 901 251 81 65 47 
476 902 250 89 68 52 
476 903 250 95 74 58 
477 902 250 87 67 48 
477 903 250 95 74 58 
478 900 251 81 66 51 
478 901 251 81 64 46 
479 901 251 80 64 46 
478 902 250 87 66 48 
478 902 251 85 65 47 
478 903 250 92 71 55 
478 903 251 92 69 54 
479 902 251 84 64 46 
479 903 251 89 68 52 
478 900 252 84 69 53 
479 900 252 82 68 54 
472 904 249 95 73 59 
472 904 250 96 74 59 
472 905 250 99 76 62 
473 904 250 96 74 59 
473 905 250 100 78 62 
473 905 251 101 78 61 
472 906 251 98 73 56 
473 906 251 98 75 56 
474 904 250 98 77 60 
474 905 250 100 78 61 
474 905 251 103 79 63 
475 904 250 102 79 64 
475 904 251 104 81 65 
475 905 251 105 80 63 
474 906 251 102 77 60 
472 907 252 97 72 52 
473 906 252 97 72 52 
473 907 252 97 71 48 
473 907 253 97 71 45 
474 906 252 100 75 57 
474 907 252 98 73 54 
474 907 253 97 72 52 
475 906 252 103 78 61 
475 907 252 99 75 56 
475 907 253 99 73 55 
475 907 254 99 74 55 
472 908 253 96 72 52 
473 908 253 96 71 49 
472 908 254 96 71 53 
472 908 255 96 70 53 
473 908 254 96 72 50 
473 908 255 97 71 52 
474 908 253 97 72 52 
474 908 254 97 72 51 
474 908 255 97 72 54 
475 908 254 97 72 52 
475 908 255 97 73 54 
476 904 250 101 79 64 
476 904 251 103 80 66 
476 905 251 104 81 65 
477 904 251 101 79 64 
477 905 251 104 81 65 
478 904 251 100 77 63 
478 905 251 103 80 65 
479 904 251 97 75 59 
479 905 251 101 77 60 
476 905 252 102 78 65 
477 905 252 102 79 65 
476 906 252 100 75 60 
476 906 253 100 74 59 
476 907 253 99 73 57 
477 906 252 100 76 61 
477 906 253 99 74 58 
477 907 253 100 74 58 
476 907 254 101 76 59 
476 907 255 101 76 59 
477 907 254 99 73 56 
477 907 255 98 72 55 
478 905 252 103 80 63 
479 905 252 102 77 61 
478 906 252 101 77 59 
478 906 253 100 77 56 
479 906 252 101 76 57 
479 906 253 103 78 57 
478 907 254 98 74 54 
478 907 255 100 76 58 
479 907 254 101 76 55 
479 907 255 102 79 59 
476 908 255 98 74 56 
477 908 255 99 74 57 
480 896 252 73 59 48 
480 897 252 74 61 50 
480 897 253 78 65 53 
481 896 252 76 61 49 
481 896 253 78 64 51 
481 897 253 81 68 55 
480 898 253 83 70 59 
480 899 252 83 70 57 
480 899 253 83 70 59 
481 898 253 84 71 59 
481 899 253 84 71 58 
482 896 253 79 65 53 
482 897 253 83 69 58 
482 896 254 84 69 57 
482 897 254 88 73 61 
482 898 253 88 74 61 
482 899 253 88 74 60 
482 898 254 90 75 63 
482 899 254 91 75 62 
480 901 251 81 63 47 
481 901 251 79 62 45 
480 902 251 82 61 44 
480 903 251 86 64 46 
481 902 251 80 60 41 
481 903 251 87 65 46 
482 902 251 80 61 40 
482 903 251 85 63 41 
483 902 251 80 62 41 
483 903 251 85 64 40 
480 900 252 82 69 56 
480 901 252 80 65 51 
481 900 252 82 69 56 
481 900 253 83 69 56 
481 901 252 81 66 49 
482 900 253 89 73 57 
482 901 252 82 65 46 
482 901 253 88 71 53 
483 900 253 91 75 61 
483 901 252 86 68 52 
483 901 253 90 73 59 
482 902 252 80 62 41 
483 902 252 80 63 43 
484 903 250 82 60 36 
484 903 251 83 63 39 
485 902 251 86 66 48 
485 903 250 85 63 41 
485 903 251 87 66 46 
487 903 249 87 67 45 
486 902 251 85 65 45 
486 903 250 84 61 42 
486 903 251 87 65 46 
487 902 251 97 78 59 
487 903 250 89 70 50 
484 901 252 87 69 51 
485 901 252 88 69 50 
484 902 252 87 68 49 
485 902 252 93 74 56 
480 904 251 95 72 56 
480 905 251 101 77 59 
481 904 251 95 71 52 
481 905 251 102 77 56 
482 904 250 95 71 50 
482 904 251 92 68 48 
482 905 250 99 74 54 
482 905 251 101 76 58 
483 904 250 90 66 45 
483 905 250 96 71 52 
483 905 251 100 76 56 
482 906 251 101 77 60 
483 906 251 101 77 56 
480 905 252 104 78 60 
480 906 252 104 77 57 
480 906 253 105 78 57 
480 907 253 103 77 55 
481 906 252 104 79 59 
481 906 253 101 76 56 
481 907 253 100 74 54 
480 907 254 100 74 52 
480 907 255 102 78 59 
481 907 254 101 76 56 
482 906 252 102 77 60 
482 907 252 97 74 61 
482 907 253 103 78 59 
483 906 252 104 80 60 
483 907 252 106 82 61 
483 907 253 104 82 59 
482 907 254 105 80 58 
480 908 255 103 79 59 
483 908 253 107 85 60 
482 908 254 108 85 63 
484 904 250 86 59 41 
484 905 250 95 67 52 
484 905 251 100 74 57 
485 904 250 85 58 40 
485 905 250 93 65 50 
484 906 251 102 77 55 
485 906 250 99 73 52 
485 906 251 104 79 55 
485 907 251 105 82 58 
486 904 249 82 54 35 
486 905 249 90 61 43 
487 904 248 84 58 34 
487 904 249 84 60 36 
487 905 248 87 60 38 
487 905 249 83 55 34 
486 904 250 84 57 38 
486 906 249 94 70 47 
486 907 249 99 78 55 
487 906 248 93 70 50 
487 907 248 100 80 62 
486 906 250 98 72 50 
486 907 250 100 78 53 
484 906 252 104 80 59 
484 907 252 108 84 58 
485 907 252 109 85 60 
485 908 251 107 85 60 
486 908 249 98 79 57 
487 908 248 106 87 69 
487 908 249 101 83 64 
487 909 248 110 92 75 
487 909 249 106 87 69 
486 908 250 99 78 57 
486 908 251 102 81 59 
486 909 250 100 81 59 
486 909 251 100 79 56 
487 910 248 108 89 73 
487 910 249 110 90 72 
487 911 249 105 86 70 
486 910 250 104 84 63 
486 910 251 103 83 59 
486 911 251 107 86 65 
487 910 250 107 87 66 
487 911 250 105 85 68 
485 908 252 108 86 61 
485 909 252 104 83 61 
485 910 252 103 83 60 
485 911 252 105 85 61 
488 903 248 89 67 46 
488 903 249 91 69 48 
489 903 248 84 66 48 
489 903 249 104 82 63 
488 902 250 88 70 50 
488 903 250 105 83 63 
489 903 250 111 87 68 
490 903 248 86 71 55 
490 903 249 101 79 64 
491 903 248 93 73 59 
488 905 247 83 60 39 
489 905 246 80 62 46 
489 905 247 81 61 43 
488 906 247 88 68 54 
488 907 247 96 78 62 
489 906 246 81 65 49 
489 906 247 83 64 48 
489 907 246 86 70 57 
490 904 247 85 69 55 
490 905 246 83 66 51 
490 905 247 84 68 53 
491 904 247 89 71 55 
491 905 246 90 71 55 
490 907 245 85 67 58 
491 906 245 90 70 57 
491 907 245 91 71 60 
490 906 246 83 66 52 
490 907 246 84 69 58 
491 906 246 89 69 55 
488 908 246 99 78 57 
488 908 247 102 82 61 
488 909 247 102 82 63 
489 908 246 94 73 54 
489 909 246 95 74 57 
489 909 247 96 75 57 
489 910 247 98 77 59 
490 908 245 87 67 59 
491 908 245 95 73 61 
490 908 246 91 70 56 
490 909 246 95 75 61 
490 909 247 99 79 62 
491 908 246 100 78 64 
491 909 246 103 82 67 
491 909 247 104 83 67 
492 905 245 96 73 57 
492 906 245 98 75 58 
488 904 248 85 62 40 
488 905 248 84 58 37 
489 904 248 84 66 48 
489 905 248 83 62 42 
488 906 248 90 69 51 
490 904 248 94 76 60 
491 904 248 95 74 60 
488 909 248 105 85 69 
488 910 248 104 83 66 
488 910 249 105 85 70 
488 911 249 104 83 67 
489 910 248 100 79 60 
489 910 249 102 81 64 
488 911 250 106 85 69 
489 910 250 104 83 65 
489 911 250 104 83 65 
490 909 248 101 80 63 
490 910 248 101 80 63 
490 910 249 102 82 66 
486 912 251 106 84 65 
487 912 251 107 86 68 
457 910 256 80 64 55 
457 910 257 78 60 51 
458 910 256 78 60 49 
458 910 257 81 62 50 
459 910 256 75 56 46 
459 910 257 74 55 44 
458 910 258 80 63 52 
458 910 259 79 62 54 
459 910 258 78 59 49 
459 910 259 81 64 55 
459 910 260 80 63 55 
459 910 261 81 62 51 
460 909 256 78 61 51 
460 909 257 74 58 45 
461 909 256 78 62 51 
461 909 257 77 63 51 
460 909 258 76 61 48 
461 909 258 77 63 50 
461 909 259 79 64 53 
460 910 256 74 56 45 
460 910 257 72 53 41 
460 910 258 72 53 41 
460 910 259 79 61 50 
461 910 259 77 62 50 
462 909 256 79 63 51 
462 909 257 80 63 49 
463 909 256 81 64 52 
463 909 257 83 67 55 
462 909 258 80 63 51 
462 909 259 79 63 53 
463 909 258 84 66 55 
463 909 259 83 65 52 
460 910 260 81 64 54 
460 910 261 80 63 53 
461 910 260 79 62 49 
461 910 261 84 65 54 
460 910 262 85 64 53 
460 911 262 83 63 51 
461 910 262 85 66 55 
461 910 263 86 64 53 
461 911 263 85 63 53 
462 909 260 82 65 54 
463 909 260 83 67 56 
463 909 261 82 67 55 
463 909 262 83 67 55 
462 910 260 81 65 54 
462 910 261 84 65 53 
463 910 261 81 65 53 
462 910 262 84 65 52 
462 910 263 86 64 54 
463 910 262 85 66 53 
463 910 263 86 65 55 
461 911 264 86 63 54 
462 910 264 87 65 54 
462 911 264 86 65 53 
463 910 264 87 66 54 
464 908 256 82 62 51 
464 909 256 83 64 53 
464 909 257 85 65 53 
465 908 256 82 62 51 
465 909 256 84 63 53 
465 909 257 87 66 56 
464 909 258 84 66 56 
464 909 259 84 67 55 
465 909 258 84 65 54 
465 909 259 81 63 51 
466 908 256 86 65 53 
466 909 256 86 65 54 
466 909 257 89 68 56 
467 908 256 92 72 57 
467 909 257 92 71 58 
466 909 258 87 67 54 
466 909 259 83 64 51 
467 909 258 91 71 56 
467 909 259 84 64 50 
464 909 260 82 66 51 
464 909 261 84 67 54 
465 909 260 79 62 47 
465 909 261 84 65 50 
464 909 262 84 69 58 
464 909 263 83 68 55 
465 909 262 88 68 52 
465 909 263 84 68 53 
464 910 263 87 67 57 
466 909 260 82 65 51 
466 909 261 87 67 52 
467 909 260 87 67 53 
467 909 261 92 71 56 
466 909 262 90 70 54 
467 909 262 90 70 57 
468 908 256 94 74 58 
468 908 257 94 73 57 
468 909 257 94 73 59 
469 908 256 95 73 56 
469 908 257 93 70 54 
469 909 257 95 72 56 
468 909 258 94 72 58 
468 909 259 90 68 53 
469 909 258 95 71 56 
469 909 259 94 70 55 
470 908 256 97 74 55 
470 909 257 97 74 57 
471 908 256 96 73 54 
471 909 256 97 74 54 
471 909 257 97 75 57 
470 909 258 96 72 55 
470 909 259 95 70 53 
471 909 258 99 75 57 
471 909 259 98 73 57 
471 910 259 99 75 60 
468 909 260 93 69 55 
468 909 261 93 70 57 
469 909 260 95 68 55 
470 909 260 96 68 53 
470 910 260 95 70 55 
472 908 256 96 71 53 
472 909 256 95 72 53 
472 909 257 98 73 55 
473 908 256 97 71 54 
473 909 256 96 71 52 
473 909 257 98 71 51 
472 909 258 98 72 54 
472 909 259 100 73 58 
473 909 258 97 71 53 
472 910 259 101 75 61 
474 908 256 95 70 53 
474 909 256 94 70 49 
474 909 257 96 71 50 
475 908 256 95 71 51 
475 909 256 95 70 50 
475 909 257 95 70 50 
474 909 258 97 71 51 
476 908 256 98 73 54 
476 909 257 96 72 52 
477 908 256 100 76 57 
478 908 256 102 77 59 
483 894 254 73 60 47 
483 895 254 82 67 54 
483 895 255 86 69 55 
484 894 255 81 61 44 
484 895 255 91 70 55 
485 894 255 80 59 43 
490 891 255 84 66 48 
483 896 255 87 72 59 
483 897 254 96 78 65 
483 897 255 94 76 63 
483 898 254 93 74 62 
483 899 254 95 79 67 
483 900 254 92 76 66 
484 897 255 96 76 62 
485 897 255 94 75 59 
484 898 254 92 73 58 
484 898 255 94 74 59 
484 899 254 98 82 71 
485 898 255 96 76 62 
485 899 254 94 75 61 
485 899 255 96 75 63 
486 898 255 93 72 61 
486 899 255 87 66 55 
484 900 253 94 77 63 
484 901 253 91 73 58 
485 901 253 92 73 54 
484 900 254 95 79 66 
485 900 254 90 71 55 
486 901 253 103 84 65 
487 901 253 103 84 65 
486 900 254 99 80 65 
486 900 255 83 63 49 
486 901 254 96 76 60 
487 900 255 85 66 53 
487 901 254 100 81 64 
487 901 255 93 76 61 
486 902 252 99 79 59 
486 902 253 105 85 66 
487 902 252 104 84 65 
487 902 253 108 86 67 
481 907 255 100 77 59 
481 908 255 104 79 57 
482 908 255 106 83 59 
482 909 255 107 86 65 
483 908 254 110 87 63 
483 909 254 108 88 67 
483 909 255 109 90 71 
482 910 255 108 88 69 
483 910 254 108 89 70 
483 910 255 108 89 70 
483 911 255 106 87 67 
484 908 253 110 87 60 
484 909 253 106 84 61 
485 908 253 110 88 63 
485 909 253 106 84 61 
484 909 254 107 86 63 
485 910 253 105 85 64 
485 911 253 103 82 60 
484 910 254 105 85 66 
484 911 254 101 80 59 
484 911 255 102 82 62 
486 908 252 106 85 62 
486 909 252 103 82 59 
486 910 252 103 82 57 
486 911 252 107 86 61 
488 902 251 108 88 68 
489 902 251 109 85 68 
489 903 251 106 81 64 
490 903 250 94 72 58 
490 903 251 93 71 58 
488 901 254 97 80 64 
488 901 255 89 73 60 
489 901 255 93 74 60 
488 902 252 107 87 67 
488 902 253 122 96 77 
489 902 252 104 81 64 
489 902 253 104 81 70 
489 903 252 108 84 68 
489 903 253 115 91 76 
488 902 254 99 79 65 
489 902 254 96 75 68 
489 902 255 86 66 61 
488 911 251 108 86 69 
489 910 251 105 83 64 
489 911 251 106 84 66 
488 911 252 110 88 71 
489 910 252 105 82 63 
489 911 252 110 88 68 
483 912 255 103 84 65 
485 912 253 102 81 58 
485 913 253 109 88 71 
484 912 254 98 78 57 
484 912 255 99 79 58 
484 913 255 99 79 59 
485 912 254 101 80 60 
485 913 254 107 86 70 
485 913 255 106 84 68 
485 914 255 110 88 71 
486 912 252 107 85 64 
486 912 253 109 88 67 
486 913 253 111 89 70 
487 912 252 111 88 69 
487 913 252 112 89 70 
487 913 253 114 90 71 
486 913 254 112 89 73 
487 913 254 117 92 73 
486 914 254 115 91 73 
486 914 255 117 92 73 
487 914 254 118 93 74 
487 914 255 118 91 72 
488 912 251 109 86 69 
488 912 252 112 88 68 
488 912 253 115 88 68 
488 913 253 116 90 72 
488 912 254 117 92 74 
488 913 254 119 92 75 
485 893 256 73 57 43 
485 894 256 85 63 46 
485 895 256 90 70 55 
486 893 256 71 56 45 
486 893 257 74 57 46 
487 893 257 74 58 48 
486 894 256 84 62 45 
486 894 257 86 65 48 
486 895 256 89 68 53 
486 895 257 83 66 51 
487 894 257 88 68 49 
486 895 258 82 67 52 
487 895 258 89 70 53 
487 895 259 84 69 53 
488 892 257 75 57 49 
488 893 257 78 61 53 
489 892 256 83 62 45 
489 892 257 79 59 47 
489 893 256 86 64 46 
489 893 257 86 64 50 
488 894 257 86 66 45 
489 894 257 88 67 42 
488 894 258 90 71 53 
488 895 258 89 70 52 
488 895 259 87 69 52 
462 911 265 85 62 51 
463 910 265 86 67 54 
463 911 265 86 66 53 
462 911 266 82 62 50 
463 910 266 85 68 57 
463 911 266 84 65 53 
463 911 267 81 62 50 
463 911 268 76 59 48 
466 909 263 86 70 55 
467 909 263 86 68 53 
467 910 263 89 67 48 
469 909 261 94 70 58 
468 909 262 90 69 58 
469 910 261 94 68 57 
468 910 262 92 68 56 
468 910 263 92 67 51 
469 910 262 93 66 56 
469 910 263 91 66 53 
469 911 263 91 65 53 
470 910 261 96 68 55 
471 910 260 98 73 59 
471 910 261 96 70 57 
470 910 262 93 67 54 
470 910 263 91 63 54 
470 911 263 91 65 53 
471 910 262 93 67 51 
471 911 262 95 69 52 
471 911 263 94 69 54 
464 909 264 84 65 53 
465 909 264 82 65 47 
465 909 265 82 67 48 
464 910 264 87 67 56 
464 910 265 87 67 56 
465 910 265 88 65 52 
464 910 266 87 68 57 
464 910 267 87 67 56 
464 911 267 85 68 58 
465 910 266 86 67 54 
465 910 267 83 60 48 
466 909 264 82 65 43 
466 909 265 82 66 45 
466 910 264 84 66 41 
466 910 265 90 70 52 
467 910 264 92 70 50 
467 910 265 93 71 52 
466 910 266 88 67 51 
466 910 267 84 63 47 
467 910 266 91 70 53 
467 910 267 88 66 50 
467 911 266 90 68 52 
467 911 267 87 66 49 
464 910 268 82 64 54 
464 911 268 85 66 56 
464 911 269 83 63 52 
465 910 268 82 60 49 
465 911 269 81 61 51 
464 911 270 87 68 57 
465 911 270 83 63 54 
466 910 268 81 60 44 
466 911 268 82 60 45 
466 911 269 82 60 46 
467 911 268 86 64 50 
467 911 269 84 63 49 
466 911 270 82 60 49 
468 910 264 91 67 49 
468 910 265 91 67 50 
468 911 264 91 66 51 
468 911 265 90 66 51 
469 911 264 91 66 53 
469 911 265 90 67 54 
468 910 266 91 68 50 
468 911 266 89 67 51 
468 911 267 88 66 50 
469 911 266 90 68 54 
470 911 264 90 64 53 
470 911 265 89 64 52 
471 911 264 93 69 55 
473 909 259 99 71 53 
473 910 259 98 70 55 
474 909 259 97 71 52 
475 909 258 94 70 51 
475 909 259 95 71 53 
474 910 259 96 69 53 
475 910 259 96 71 55 
472 910 260 100 73 61 
472 910 261 98 70 58 
472 911 261 97 71 57 
473 910 260 97 68 55 
473 911 261 93 67 53 
472 911 262 95 69 55 
472 911 263 94 68 54 
474 910 260 95 67 53 
474 911 260 93 66 52 
474 911 261 91 67 52 
475 910 260 96 70 55 
475 911 260 96 70 56 
475 911 261 92 69 56 
477 908 257 100 76 56 
477 909 257 100 76 56 
476 909 258 97 73 53 
476 909 259 98 74 54 
477 909 258 100 76 56 
477 909 259 100 77 58 
476 910 259 99 74 57 
477 910 259 101 77 58 
477 911 259 101 76 57 
478 908 257 104 80 60 
478 909 257 106 83 63 
479 908 256 103 80 60 
479 908 257 104 81 58 
479 909 257 106 84 61 
478 909 258 106 83 63 
479 909 258 109 86 64 
478 910 258 107 84 63 
478 910 259 104 79 60 
478 911 258 109 86 64 
478 911 259 106 82 61 
479 910 258 109 86 63 
479 911 258 109 85 60 
476 910 260 99 73 57 
476 911 260 99 73 57 
477 911 260 101 75 58 
477 911 277 64 45 37 
476 911 279 70 54 45 
477 910 278 66 47 39 
477 910 279 71 55 47 
477 911 278 65 45 35 
477 911 279 68 50 42 
478 909 278 70 55 50 
478 909 279 69 54 47 
479 908 279 64 50 39 
479 909 278 68 51 48 
479 909 279 64 49 40 
478 910 277 66 46 44 
478 911 276 64 42 33 
478 911 277 65 45 40 
479 910 277 69 52 44 
479 911 276 69 50 42 
479 911 277 69 51 42 
478 910 278 67 48 44 
475 910 281 66 49 50 
475 911 281 62 43 42 
474 911 283 67 51 46 
475 910 282 65 49 46 
475 910 283 70 56 52 
475 911 282 63 46 44 
475 911 283 70 54 50 
475 909 284 66 53 50 
475 909 285 63 49 46 
475 909 286 60 44 44 
475 909 287 67 53 52 
474 910 285 62 50 47 
474 911 284 63 47 43 
474 911 285 60 47 46 
475 910 284 65 51 47 
475 910 285 64 51 48 
474 910 286 58 44 44 
474 910 287 60 45 47 
474 911 286 53 39 40 
474 911 287 55 38 43 
475 910 286 60 46 45 
475 910 287 62 47 48 
479 907 281 70 56 44 
478 907 282 66 50 47 
478 907 283 64 49 50 
479 907 282 63 47 47 
479 907 283 61 48 51 
477 907 285 63 46 47 
477 907 286 65 48 47 
477 907 287 62 47 45 
478 907 284 59 46 49 
478 907 285 63 48 50 
478 906 286 65 50 47 
478 907 286 65 48 46 
476 909 281 70 58 51 
477 909 280 70 55 47 
477 909 281 75 65 59 
476 909 282 70 56 53 
476 909 283 69 55 52 
477 908 282 67 53 52 
477 908 283 67 55 54 
477 909 282 65 51 49 
477 909 283 66 52 50 
476 910 280 70 57 47 
476 910 281 66 51 46 
476 911 280 65 48 41 
477 910 280 72 56 48 
476 910 282 66 51 50 
478 908 280 71 59 49 
478 908 281 73 63 51 
478 909 280 75 64 56 
478 909 281 76 66 57 
479 908 280 66 54 39 
479 908 281 68 56 41 
478 908 282 69 56 54 
478 908 283 67 53 54 
476 908 285 63 49 47 
476 909 284 66 55 53 
476 909 285 63 50 48 
477 908 284 60 47 48 
477 908 285 61 46 46 
476 908 286 63 47 45 
476 908 287 63 47 47 
476 909 286 59 44 40 
477 908 286 63 47 45 
477 908 287 63 48 46 
478 908 284 61 49 50 
471 912 263 96 70 57 
471 918 263 90 73 54 
471 919 263 91 74 57 
465 912 270 84 64 54 
465 912 271 86 67 54 
467 912 269 86 65 51 
467 913 269 92 73 59 
466 912 270 85 63 51 
466 912 271 85 65 51 
466 913 271 86 65 46 
467 912 270 85 64 50 
467 913 270 90 70 54 
466 914 271 93 73 53 
466 915 271 94 72 47 
467 914 270 95 75 59 
467 914 271 93 73 54 
467 915 270 97 75 54 
467 915 271 96 72 50 
467 916 269 93 73 52 
467 917 269 92 71 54 
466 916 271 92 72 52 
467 916 270 92 72 53 
467 917 270 86 67 52 
467 918 269 95 75 59 
467 919 269 100 82 65 
466 918 270 87 70 54 
467 918 270 87 69 53 
467 919 270 94 77 58 
467 919 271 88 71 51 
468 912 267 88 67 53 
469 912 266 89 68 56 
469 912 267 87 67 52 
469 915 267 100 81 62 
470 912 265 89 65 52 
471 912 264 95 71 57 
471 912 265 92 69 54 
470 912 266 89 66 52 
470 912 267 87 66 49 
470 913 267 91 73 56 
471 912 266 90 68 51 
471 913 266 88 68 49 
471 913 267 90 72 53 
470 914 267 95 79 61 
470 915 267 95 78 62 
471 914 267 90 73 53 
471 915 266 93 76 57 
471 915 267 93 76 57 
468 912 268 88 67 53 
468 912 269 88 68 54 
468 913 268 93 73 59 
468 913 269 93 74 60 
469 913 268 92 73 57 
468 914 268 95 76 59 
468 914 269 97 77 62 
468 915 268 101 81 61 
468 915 269 100 79 60 
469 914 268 96 77 58 
469 915 268 100 81 61 
470 914 268 96 80 63 
468 917 267 103 80 57 
469 916 267 100 79 55 
469 917 266 93 72 48 
469 917 267 99 76 48 
469 918 265 84 65 44 
469 919 265 87 69 48 
468 918 267 103 82 61 
468 919 267 100 80 60 
469 918 266 89 68 43 
469 918 267 100 77 53 
469 919 266 89 71 49 
469 919 267 95 75 53 
470 917 265 92 74 53 
471 916 265 95 78 59 
471 917 264 94 76 57 
471 917 265 94 76 57 
470 916 266 95 77 58 
470 916 267 95 77 60 
470 917 266 92 73 52 
471 916 266 94 76 57 
470 918 264 88 70 48 
470 918 265 88 70 49 
470 919 264 87 69 49 
470 919 265 87 69 49 
471 918 264 91 73 53 
471 919 264 88 71 54 
468 916 268 102 82 59 
468 916 269 97 76 54 
468 917 268 103 82 60 
468 917 269 97 77 57 
468 918 268 104 84 65 
468 918 269 100 80 63 
468 919 268 103 85 67 
468 919 269 106 89 72 
467 920 270 110 91 73 
467 920 271 97 78 57 
469 920 265 86 71 55 
469 920 266 87 72 57 
469 920 267 87 72 56 
469 921 267 85 72 60 
470 920 264 84 68 51 
470 920 265 84 68 51 
470 921 265 81 66 51 
471 920 264 89 72 58 
471 920 265 83 68 53 
471 921 265 88 72 59 
470 921 266 84 71 58 
470 921 267 86 73 61 
471 921 266 88 73 61 
471 921 267 86 70 59 
468 920 268 92 74 56 
468 920 269 99 81 65 
468 921 269 85 66 56 
469 920 268 86 69 56 
469 921 268 84 71 59 
469 921 269 82 67 59 
468 920 270 109 92 75 
468 921 270 96 75 60 
468 921 271 100 79 57 
469 921 270 80 63 58 
469 921 271 80 60 54 
470 921 268 85 72 59 
470 921 269 82 69 56 
471 921 268 85 69 58 
471 921 269 88 70 62 
470 921 270 83 69 58 
470 921 271 86 72 60 
471 921 270 89 75 65 
471 921 271 89 73 64 
472 912 263 90 64 49 
473 912 262 90 65 52 
473 912 263 86 63 48 
473 913 263 85 64 47 
473 915 263 91 74 60 
474 912 261 91 66 52 
475 912 260 94 70 56 
475 912 261 92 68 53 
475 913 261 91 68 48 
474 912 262 88 66 50 
474 913 262 86 68 48 
474 913 263 83 65 47 
475 913 262 88 67 48 
475 914 261 94 75 52 
475 915 261 100 82 63 
474 914 262 85 68 47 
474 914 263 84 67 50 
474 915 262 94 78 62 
474 915 263 88 72 58 
475 914 262 87 69 46 
475 915 262 95 77 59 
472 917 263 93 75 56 
473 916 263 93 76 59 
473 917 262 93 76 58 
473 917 263 93 76 58 
472 918 262 93 75 56 
472 918 263 91 73 54 
472 919 262 96 80 61 
472 919 263 96 79 62 
473 918 262 97 79 61 
473 918 263 92 74 54 
473 919 262 101 83 66 
473 919 263 102 84 68 
475 916 261 104 87 68 
474 916 262 94 78 62 
474 916 263 92 75 61 
474 917 262 97 81 65 
475 916 262 99 83 66 
475 917 262 104 88 71 
474 918 262 100 82 65 
474 919 262 103 84 67 
474 919 263 104 86 70 
475 918 262 106 87 70 
475 918 263 111 91 77 
475 919 263 113 93 79 
477 912 259 103 79 58 
478 912 259 105 82 62 
478 913 259 101 79 60 
479 912 258 109 84 58 
479 912 259 111 86 63 
479 913 259 105 80 57 
478 914 259 99 79 61 
478 915 259 102 84 69 
479 914 259 102 79 59 
479 915 259 101 81 63 
476 912 260 96 72 55 
476 913 260 94 70 48 
477 912 260 101 77 58 
477 913 260 97 74 52 
476 914 260 93 72 45 
476 914 261 94 74 50 
476 915 260 94 74 51 
476 915 261 100 81 61 
477 914 260 93 72 49 
477 915 260 93 75 57 
478 914 260 93 74 54 
478 915 260 94 74 62 
479 915 260 103 81 67 
476 916 261 104 86 67 
477 916 261 97 80 63 
477 917 261 97 82 66 
476 917 262 105 86 67 
477 917 262 101 84 66 
476 918 262 108 89 72 
476 918 263 111 89 71 
476 919 263 117 92 75 
477 918 263 110 89 70 
478 916 260 96 78 67 
478 916 261 97 81 67 
478 917 261 98 83 69 
479 916 260 102 83 66 
479 916 261 105 86 66 
478 917 262 103 85 71 
478 917 263 106 86 72 
479 917 262 109 86 69 
479 917 263 110 87 71 
478 918 263 108 88 73 
479 918 263 110 88 74 
472 912 264 88 63 45 
472 912 265 86 62 42 
472 913 264 85 62 43 
472 913 265 85 63 43 
473 913 264 86 67 49 
473 913 265 85 65 45 
472 913 266 86 64 43 
472 915 265 92 74 55 
473 914 264 84 64 46 
473 914 265 86 68 48 
473 915 264 91 73 57 
473 915 265 91 74 55 
472 914 266 87 70 48 
472 915 266 91 74 55 
472 916 264 95 77 59 
472 916 265 102 84 66 
472 917 264 96 79 60 
473 916 264 94 77 59 
474 919 264 107 89 72 
475 919 264 116 94 75 
475 919 265 114 92 75 
475 919 266 117 99 83 
476 919 264 114 91 75 
476 919 265 115 94 78 
477 918 264 112 93 76 
477 919 264 112 93 77 
477 919 265 112 93 79 
476 919 266 116 98 83 
476 919 267 113 94 79 
477 919 266 110 92 76 
477 919 267 112 91 76 
478 918 264 109 90 75 
478 918 265 110 90 77 
478 919 265 109 90 77 
479 918 264 111 89 73 
479 918 265 110 87 73 
478 918 266 111 89 79 
478 919 266 112 90 80 
478 919 267 106 82 74 
479 918 266 104 81 70 
479 918 267 99 78 66 
479 919 267 99 79 68 
476 919 268 115 94 81 
476 919 269 113 91 79 
477 919 268 111 88 76 
477 919 269 105 82 71 
477 919 270 101 79 69 
477 919 271 101 81 66 
478 919 268 101 79 69 
478 919 269 98 77 65 
479 918 268 99 78 67 
479 919 268 99 78 68 
479 919 269 99 79 69 
478 919 270 97 74 64 
478 919 271 99 79 65 
479 919 270 97 75 69 
479 919 271 99 80 70 
473 920 263 101 85 72 
472 920 264 97 81 67 
472 920 265 95 78 65 
472 921 265 93 75 62 
473 920 264 100 84 70 
473 920 265 102 85 71 
472 920 266 97 81 66 
472 921 266 97 81 67 
472 921 267 103 86 74 
473 920 266 107 90 77 
473 920 267 112 94 82 
474 920 264 107 90 75 
474 920 265 108 91 77 
475 920 265 114 94 77 
474 920 266 110 94 80 
474 920 267 108 92 80 
475 920 266 113 96 81 
475 920 267 113 95 82 
472 921 268 107 89 80 
472 921 269 103 84 78 
473 920 268 109 91 81 
473 920 269 106 86 81 
473 921 268 111 93 87 
473 921 269 108 88 85 
472 921 270 101 87 81 
472 921 271 99 83 77 
473 920 270 104 87 78 
473 921 270 101 85 77 
473 921 271 97 78 71 
474 920 268 108 91 82 
474 920 269 105 84 77 
475 920 268 113 94 83 
475 920 269 110 89 79 
474 920 270 105 87 77 
474 920 271 107 88 78 
474 921 271 106 87 78 
475 920 270 107 87 77 
475 920 271 107 89 79 
476 920 267 113 95 80 
476 920 268 114 94 81 
476 920 269 113 90 80 
476 920 270 105 84 75 
476 920 271 103 85 74 
477 920 271 104 84 72 
466 913 272 87 65 46 
466 914 272 93 71 52 
466 915 272 94 70 46 
468 921 272 111 89 62 
469 921 272 82 61 52 
468 922 272 93 68 42 
469 922 272 85 64 54 
469 922 273 91 68 56 
469 922 274 96 72 58 
470 921 272 90 75 61 
471 921 272 92 76 66 
471 921 273 99 80 69 
471 921 274 96 76 68 
470 922 272 89 74 58 
470 922 273 94 78 63 
470 922 274 96 77 65 
470 922 275 92 74 67 
471 922 274 95 76 68 
471 922 275 92 74 67 
470 922 276 98 79 67 
471 922 276 93 79 69 
471 922 277 98 83 74 
471 922 278 93 78 74 
477 912 277 64 48 38 
477 913 277 69 56 43 
476 912 278 68 52 40 
476 912 279 73 57 48 
476 913 279 78 59 50 
477 912 278 67 52 40 
477 913 278 74 59 48 
477 914 278 77 64 53 
477 914 279 79 65 52 
477 915 279 82 69 56 
478 912 276 66 49 41 
478 912 277 65 50 41 
478 913 276 72 57 45 
478 913 277 68 56 45 
479 912 276 68 52 43 
479 913 276 71 55 43 
478 914 277 75 63 52 
478 915 277 79 67 55 
479 914 276 75 61 47 
479 914 277 76 63 50 
479 915 277 81 67 54 
478 914 278 77 65 54 
478 915 278 82 68 56 
478 915 279 84 69 57 
479 915 278 84 68 54 
477 919 272 103 84 65 
477 919 275 103 82 68 
478 919 272 101 83 65 
478 919 273 104 86 68 
479 919 272 99 82 68 
479 919 273 103 85 69 
478 919 274 104 85 69 
478 919 275 102 81 66 
479 918 275 102 81 66 
479 919 274 104 84 68 
479 919 275 102 81 64 
477 919 276 102 81 68 
477 919 277 104 84 69 
476 919 278 103 83 67 
476 919 279 102 83 67 
477 918 279 100 79 63 
477 919 278 102 82 65 
477 919 279 101 81 65 
479 916 277 93 76 62 
479 917 277 99 78 63 
478 916 278 90 73 58 
478 916 279 89 72 58 
478 917 278 97 77 62 
478 917 279 95 76 61 
479 916 278 91 74 59 
479 917 278 98 77 60 
478 918 277 101 78 64 
478 919 276 102 82 68 
478 919 277 104 83 68 
479 918 276 101 79 63 
479 918 277 101 78 62 
478 918 278 100 78 62 
478 918 279 99 77 62 
478 919 278 101 80 64 
475 912 280 68 50 45 
475 912 281 64 45 44 
475 913 281 73 54 56 
474 912 282 61 43 42 
474 912 283 65 46 44 
475 912 282 62 43 43 
475 912 283 66 49 48 
475 913 282 67 50 51 
475 913 283 68 50 49 
475 914 281 74 59 54 
475 914 282 72 53 52 
475 914 283 70 52 50 
475 915 283 70 52 47 
473 912 287 52 36 41 
473 913 287 51 35 42 
474 912 284 61 41 39 
474 912 285 56 41 43 
474 913 284 61 42 43 
474 913 285 56 41 47 
475 913 284 64 44 42 
474 912 286 51 37 42 
474 912 287 51 34 40 
474 913 286 50 37 44 
474 914 285 60 48 46 
474 915 285 58 46 45 
475 914 284 63 49 43 
475 915 284 69 55 48 
475 915 285 63 51 48 
474 914 286 55 46 45 
474 914 287 52 42 42 
474 915 286 59 49 45 
474 915 287 58 46 41 
475 919 281 100 79 64 
474 919 283 103 82 68 
475 918 283 95 75 62 
475 919 282 99 78 64 
475 919 283 101 80 66 
474 917 285 85 68 57 
475 916 284 76 60 50 
475 916 285 73 58 52 
475 917 284 84 66 53 
475 917 285 82 65 54 
474 916 286 69 55 49 
474 916 287 68 51 44 
474 917 286 82 65 55 
474 918 285 91 72 58 
474 919 284 101 81 67 
474 919 285 98 79 65 
475 918 284 91 72 57 
475 918 285 87 69 54 
475 919 284 100 82 67 
474 918 286 90 71 59 
476 912 280 69 52 46 
476 913 280 78 61 59 
476 914 280 81 67 58 
476 914 281 78 65 57 
476 915 281 81 67 56 
477 914 280 81 67 55 
477 915 280 83 68 56 
477 915 281 84 68 57 
476 914 282 74 55 52 
476 915 282 80 61 55 
476 915 283 76 58 51 
476 915 284 71 55 45 
477 916 280 85 67 54 
477 916 281 85 69 57 
477 917 280 91 71 57 
477 917 281 90 71 58 
476 916 282 83 65 54 
476 916 283 82 64 52 
476 917 282 89 69 58 
476 917 283 88 68 56 
477 916 282 85 67 56 
477 917 282 87 68 57 
476 918 281 93 73 58 
476 919 280 102 82 68 
476 919 281 99 79 65 
477 918 280 96 75 60 
477 918 281 93 73 59 
477 919 280 101 80 65 
476 918 282 94 73 62 
476 918 283 93 73 61 
476 919 282 99 79 67 
478 916 280 85 68 54 
478 917 280 92 72 57 
476 916 284 79 62 51 
476 917 284 85 67 55 
472 921 272 95 77 69 
472 921 273 100 82 72 
473 921 272 93 75 67 
473 921 273 103 84 73 
472 921 274 97 80 71 
472 921 275 94 75 69 
473 921 274 100 82 72 
473 921 275 98 78 70 
474 920 272 108 90 80 
474 921 272 112 92 80 
474 921 273 106 89 78 
475 920 272 103 86 75 
475 920 273 107 90 79 
474 921 274 101 84 75 
474 921 275 98 79 72 
475 920 274 106 89 78 
475 920 275 102 82 74 
475 921 274 103 84 74 
475 921 275 101 81 73 
472 921 276 98 80 73 
472 921 277 102 84 78 
473 921 276 101 81 75 
473 921 277 104 85 79 
472 921 278 95 78 71 
472 921 279 97 78 67 
473 921 278 97 79 69 
473 921 279 98 80 68 
472 922 276 94 80 71 
472 922 277 101 84 77 
472 922 278 96 80 75 
474 921 276 101 82 75 
474 921 277 105 85 76 
475 920 276 104 83 73 
475 920 277 107 85 73 
475 921 276 103 82 73 
474 920 279 100 81 67 
474 921 278 100 81 70 
474 921 279 100 81 69 
475 920 278 104 84 70 
475 920 279 104 84 70 
476 920 272 105 87 74 
476 920 273 109 92 77 
477 920 272 103 84 69 
477 920 273 107 90 71 
476 920 274 108 91 78 
476 920 275 104 84 73 
477 920 274 107 88 73 
477 920 275 102 83 70 
476 920 276 104 82 70 
476 920 277 105 84 71 
477 920 276 102 81 68 
476 920 278 103 84 69 
476 920 279 103 84 69 
472 921 280 99 79 67 
473 920 281 101 81 66 
473 921 280 101 82 69 
473 921 281 104 85 71 
473 920 282 103 83 68 
473 920 283 104 83 68 
474 920 280 103 85 71 
474 920 281 103 83 69 
474 921 280 103 84 71 
475 920 280 104 85 70 
475 920 281 101 81 66 
474 920 282 102 80 65 
474 920 283 103 81 67 
475 920 282 99 78 64 
475 909 288 75 62 58 
475 909 289 58 41 49 
475 909 290 57 40 47 
474 910 288 59 43 47 
474 910 289 56 39 45 
474 911 288 57 40 45 
474 911 289 59 42 48 
475 910 288 60 44 48 
475 910 289 58 40 47 
474 911 290 56 38 45 
475 910 290 54 37 44 
475 910 291 57 44 48 
475 911 290 52 36 41 
475 911 291 58 44 48 
475 910 292 61 48 49 
475 910 293 65 52 49 
475 911 292 62 49 49 
477 907 288 62 48 48 
477 907 289 59 46 50 
476 908 288 63 48 50 
476 908 289 62 47 52 
476 909 289 60 45 50 
477 908 288 62 48 48 
476 908 290 61 47 51 
476 908 291 61 48 50 
476 909 290 58 44 49 
476 909 291 61 48 51 
476 910 291 61 49 52 
473 912 288 59 43 47 
483 896 256 102 83 69 
483 897 256 112 91 75 
483 897 257 105 84 69 
483 897 258 89 70 59 
483 898 258 87 67 58 
483 899 261 81 58 51 
483 899 262 73 47 54 
483 900 262 76 54 51 
483 900 263 75 52 54 
483 901 263 68 43 52 
484 896 256 95 77 61 
484 896 257 118 93 79 
484 897 256 113 91 73 
484 897 257 105 83 69 
485 896 256 88 70 57 
485 896 257 90 70 59 
485 897 256 96 75 60 
484 897 258 93 71 61 
485 897 258 75 55 53 
485 897 259 76 58 60 
485 898 256 107 81 73 
485 898 257 91 65 60 
484 898 258 78 58 54 
484 898 259 77 61 58 
485 898 258 72 52 53 
485 898 259 76 61 58 
485 899 259 75 63 56 
486 896 257 81 64 52 
486 896 258 79 63 50 
486 896 259 80 63 49 
486 897 259 80 60 57 
487 896 259 84 68 53 
486 898 256 82 64 53 
486 898 257 71 53 55 
486 899 256 78 58 52 
486 899 257 72 54 55 
487 899 256 68 55 54 
487 899 257 70 54 54 
486 898 258 74 55 54 
486 898 259 76 61 57 
486 899 258 73 55 53 
486 899 259 75 62 56 
487 899 258 72 55 52 
487 899 259 73 60 54 
484 898 260 72 58 51 
484 899 260 71 56 50 
484 899 261 73 52 49 
485 898 260 72 55 52 
485 898 261 69 51 46 
485 899 260 71 55 50 
485 899 261 69 49 48 
484 899 262 73 47 53 
484 899 263 76 52 56 
485 898 262 71 48 49 
485 899 262 71 49 51 
485 899 263 74 55 54 
486 897 260 70 49 47 
486 897 261 69 47 44 
487 896 260 79 64 49 
487 897 260 77 58 47 
487 897 261 69 48 45 
487 897 262 74 52 57 
486 898 260 74 53 53 
486 898 261 69 49 45 
486 899 260 71 55 51 
486 898 262 71 48 51 
486 898 263 72 53 52 
486 899 263 74 56 54 
487 898 262 73 51 55 
487 900 256 77 60 48 
487 900 259 75 60 56 
485 900 261 70 48 49 
484 900 262 75 50 54 
484 900 263 75 51 53 
484 901 263 66 42 51 
485 900 262 72 44 54 
485 901 262 68 39 52 
485 901 263 66 38 50 
485 902 263 64 41 50 
485 903 263 77 60 51 
486 900 260 69 51 49 
486 900 261 70 48 50 
487 900 260 71 53 52 
487 900 261 69 46 51 
487 901 261 69 44 52 
486 900 262 74 45 57 
486 901 262 69 39 53 
486 901 263 66 37 50 
486 902 262 79 61 49 
486 902 263 73 52 50 
486 903 263 79 60 50 
481 901 267 54 41 47 
483 900 264 74 54 56 
483 900 265 69 50 49 
483 901 264 66 46 52 
483 901 265 63 46 49 
482 901 266 52 43 41 
482 901 267 54 41 45 
483 900 266 65 51 49 
483 901 266 58 46 45 
483 901 267 56 41 46 
483 902 264 61 44 50 
483 902 265 62 46 52 
483 903 265 61 45 51 
482 902 266 52 45 42 
482 902 267 50 40 44 
482 903 266 53 44 42 
482 903 267 50 38 44 
483 903 266 56 45 43 
483 903 267 51 37 45 
481 901 268 53 37 45 
482 901 268 53 37 45 
483 901 268 55 37 44 
482 902 268 51 36 44 
482 902 269 55 41 45 
482 903 268 50 36 44 
482 903 269 65 51 45 
483 902 269 59 43 46 
483 903 268 50 36 44 
483 903 269 54 41 45 
482 902 270 59 44 48 
482 903 270 64 48 50 
482 903 271 64 48 48 
483 902 270 61 44 50 
483 903 270 61 47 49 
483 903 271 57 41 47 
484 899 264 78 57 56 
485 899 264 75 57 54 
485 899 265 74 57 53 
486 898 264 76 60 57 
486 899 264 76 59 55 
484 900 264 76 55 54 
484 900 265 71 53 51 
484 901 264 64 42 50 
485 900 265 74 57 52 
484 900 266 64 48 47 
484 901 266 59 43 44 
484 901 267 59 41 46 
485 900 266 68 49 48 
485 900 267 63 42 45 
484 902 264 62 42 49 
484 903 264 62 45 49 
484 903 265 63 47 50 
485 902 264 63 42 49 
485 903 264 63 45 48 
484 901 268 58 39 45 
484 901 269 61 44 46 
484 902 269 61 45 47 
484 903 268 50 36 43 
484 903 269 55 43 46 
480 908 256 103 79 57 
480 909 256 107 84 61 
480 909 257 105 82 60 
481 908 256 103 79 56 
481 909 256 106 83 61 
480 910 257 105 82 57 
480 911 257 104 81 58 
481 910 256 104 82 63 
481 910 257 104 83 62 
481 911 257 103 82 61 
480 911 258 103 79 53 
482 909 256 107 86 64 
482 910 256 105 86 67 
482 911 256 103 83 64 
482 911 257 104 83 62 
483 911 256 106 86 69 
483 904 265 60 41 46 
483 904 266 55 40 41 
483 904 267 53 38 45 
483 904 271 54 39 45 
484 904 265 64 45 44 
485 904 264 70 51 47 
485 904 265 63 44 45 
484 904 266 60 42 43 
484 904 267 58 41 47 
484 905 266 62 43 46 
485 905 266 71 52 49 
484 904 268 51 36 43 
488 896 259 89 73 57 
488 900 256 85 69 57 
488 900 257 77 62 53 
488 901 256 86 70 59 
488 900 258 68 56 50 
483 903 272 58 44 50 
483 904 272 58 43 49 
482 905 274 61 43 48 
482 905 275 64 45 49 
480 908 278 66 52 41 
480 908 279 65 51 40 
480 909 278 68 55 45 
480 910 277 70 55 43 
480 911 276 73 56 46 
481 911 276 72 55 44 
480 907 280 66 51 33 
480 908 280 67 54 39 
481 912 257 102 80 59 
480 912 258 103 78 54 
480 913 258 101 74 53 
480 913 259 99 72 47 
481 912 258 101 79 60 
481 913 258 99 76 59 
480 914 259 95 69 46 
480 915 259 95 71 50 
481 914 258 97 74 57 
481 914 259 96 72 55 
481 915 259 93 70 53 
482 912 256 103 82 60 
482 912 257 99 79 56 
482 913 257 99 77 56 
483 912 256 104 84 64 
483 913 256 98 79 58 
483 913 257 102 80 62 
482 913 258 98 76 56 
483 914 257 97 78 59 
482 914 258 96 74 55 
482 914 259 99 76 59 
482 915 259 102 79 61 
483 914 258 96 77 59 
483 914 259 103 81 66 
483 915 259 99 79 63 
480 915 260 98 75 53 
481 915 260 99 77 54 
482 915 260 106 83 67 
482 915 261 109 80 71 
483 915 260 109 83 72 
483 915 261 108 81 69 
480 916 260 99 77 52 
480 916 261 103 80 57 
481 916 261 104 80 64 
480 916 262 106 80 63 
480 917 262 106 81 63 
480 917 263 108 84 65 
481 916 262 105 80 65 
481 917 262 105 80 64 
481 917 263 106 82 66 
482 916 261 108 81 68 
483 916 261 107 80 68 
482 916 262 106 80 65 
482 916 263 105 80 67 
482 917 263 104 79 69 
483 916 262 106 79 65 
483 916 263 106 80 66 
484 913 256 96 77 57 
484 914 256 96 77 57 
484 914 257 95 77 58 
485 914 256 110 88 69 
485 914 257 103 84 63 
485 915 257 110 89 69 
484 914 258 97 79 61 
484 915 258 100 82 63 
484 915 259 104 84 67 
485 915 258 108 88 68 
485 915 259 111 89 69 
486 914 256 118 91 72 
486 915 256 118 91 71 
486 915 257 117 90 70 
487 914 256 115 87 69 
487 914 257 114 88 71 
487 915 257 114 87 71 
486 915 258 116 92 73 
486 915 259 116 91 73 
484 915 260 111 86 70 
484 915 261 110 87 69 
485 915 260 113 88 72 
485 915 261 116 91 71 
484 915 262 109 82 70 
485 915 262 116 90 71 
485 915 263 109 82 72 
486 915 260 111 86 74 
484 916 262 108 81 68 
484 916 263 107 81 70 
480 917 264 107 85 66 
481 917 264 102 78 67 
481 917 265 100 75 67 
480 918 264 107 84 65 
480 918 265 102 79 63 
481 918 265 99 76 64 
480 918 266 100 79 64 
480 918 267 99 78 64 
481 918 266 97 75 64 
481 918 267 96 75 62 
482 917 264 102 76 67 
482 917 265 98 72 65 
483 916 264 104 79 69 
483 916 265 99 75 66 
483 917 264 103 78 67 
483 917 265 99 74 65 
482 917 266 94 71 63 
482 917 267 93 71 63 
483 917 266 93 71 63 
483 917 267 93 72 65 
482 918 267 93 72 62 
480 918 268 99 79 66 
480 918 269 99 79 68 
481 918 268 95 76 63 
481 918 269 96 77 66 
480 918 270 94 74 65 
480 918 271 96 77 66 
480 919 270 96 74 66 
480 919 271 99 82 70 
481 918 270 94 75 64 
481 918 271 100 82 69 
482 917 268 94 75 67 
482 917 269 97 79 70 
483 917 268 96 76 69 
482 917 270 100 82 71 
482 917 271 105 87 74 
482 918 268 94 75 64 
482 918 269 95 78 67 
482 918 270 98 78 68 
482 918 271 103 85 72 
484 916 264 104 79 69 
484 916 265 98 74 67 
480 912 275 69 56 43 
480 913 275 72 56 44 
481 912 275 70 57 43 
481 913 275 71 54 40 
480 914 275 76 61 45 
481 914 275 74 59 43 
481 915 275 83 66 50 
480 912 276 68 52 40 
480 914 276 76 62 47 
480 915 276 82 68 54 
480 915 277 85 70 57 
480 917 275 100 76 60 
480 919 272 101 83 68 
480 919 273 104 85 69 
481 918 272 101 82 65 
481 918 273 104 85 68 
480 918 274 104 83 67 
480 918 275 102 79 63 
480 919 274 107 87 71 
481 918 274 105 84 68 
480 916 276 94 76 62 
480 916 277 93 76 61 
480 917 276 99 77 60 
480 917 277 99 78 63 
480 918 276 101 77 61 
