ply
format ascii 1.0
comment Created by CloudCompare v2.10.1 (Zephyrus)
comment Created 1/31/20 11:43 AM
obj_info Generated by CloudCompare!
element vertex 2134
property float x
property float y
property float z
property uchar red
property uchar green
property uchar blue
end_header
416 689 242 86 68 53 
417 688 243 87 71 55 
417 689 242 87 70 55 
417 689 243 87 70 55 
416 690 240 79 61 47 
417 690 240 80 62 48 
417 690 241 84 66 51 
417 691 240 80 62 48 
417 691 241 84 66 50 
417 691 242 86 67 52 
418 688 243 88 72 55 
418 689 243 88 71 55 
419 689 243 90 72 55 
418 690 241 87 69 54 
418 691 240 81 63 49 
419 691 241 87 68 54 
418 690 242 87 70 54 
418 690 243 88 71 55 
418 691 242 88 69 54 
419 690 243 91 74 57 
419 691 242 88 69 53 
419 691 243 89 71 54 
418 688 244 90 74 57 
419 688 244 93 76 58 
419 689 244 92 74 56 
417 692 240 77 59 46 
418 692 240 78 61 46 
418 692 241 85 66 51 
419 692 240 83 65 49 
419 692 241 87 68 52 
419 693 240 80 62 48 
418 692 242 87 68 53 
419 692 242 88 68 52 
419 692 243 87 69 53 
419 694 240 79 59 45 
420 690 243 91 73 55 
420 691 243 90 72 55 
421 691 243 92 72 55 
420 688 244 95 77 58 
420 688 245 95 78 59 
420 689 244 93 75 56 
421 688 244 97 79 60 
421 688 245 98 80 61 
421 689 244 95 77 57 
421 689 245 97 78 58 
420 690 244 92 73 54 
421 690 244 93 74 54 
421 691 244 94 74 55 
422 688 245 100 81 61 
422 689 244 96 77 57 
422 689 245 97 79 59 
423 688 245 103 83 62 
423 689 245 100 81 60 
423 688 246 105 85 62 
422 690 244 95 75 55 
422 691 244 94 74 54 
423 690 244 96 78 56 
423 690 245 99 80 58 
423 691 244 95 76 56 
420 692 241 87 67 51 
420 693 240 83 60 47 
420 693 241 86 65 49 
421 693 241 88 68 52 
420 692 242 88 68 52 
420 692 243 88 70 53 
420 693 242 89 68 53 
421 692 242 89 69 53 
421 692 243 90 71 53 
421 693 242 88 68 53 
421 693 243 90 70 54 
420 694 240 82 61 46 
420 694 241 86 64 49 
420 695 240 81 60 46 
421 694 240 82 63 48 
421 694 241 87 66 52 
421 695 240 82 61 47 
421 695 241 87 64 50 
421 694 242 88 68 52 
421 695 242 86 64 50 
422 692 243 92 72 54 
422 693 242 90 70 54 
422 693 243 91 71 54 
423 693 243 92 73 55 
422 694 241 87 64 50 
422 695 241 86 63 49 
423 695 241 88 64 51 
422 694 242 89 70 54 
422 694 243 90 70 54 
422 695 242 87 68 51 
423 694 242 91 75 56 
423 694 243 91 72 55 
423 695 242 89 69 52 
421 692 244 93 72 53 
422 692 244 92 73 54 
423 692 244 95 75 55 
420 696 240 81 58 44 
421 696 240 83 59 46 
421 697 240 83 57 44 
422 696 240 86 59 46 
422 696 241 86 62 49 
422 697 240 82 61 46 
423 696 240 86 60 46 
423 696 241 87 61 48 
423 697 240 85 61 47 
422 696 242 86 62 48 
424 689 245 104 84 62 
424 688 246 108 87 63 
424 688 247 111 89 64 
424 689 246 107 86 63 
425 688 247 113 90 64 
425 689 246 109 88 64 
425 689 247 112 89 63 
424 690 245 103 83 61 
424 691 244 98 79 58 
424 691 245 101 82 60 
425 690 245 105 85 62 
425 691 245 102 82 60 
425 690 246 108 88 64 
426 689 247 112 89 63 
426 690 245 107 87 64 
426 691 245 105 85 61 
426 690 246 110 88 64 
426 690 247 112 89 62 
426 691 246 108 88 64 
427 690 247 113 89 62 
427 691 246 110 89 63 
427 691 247 112 89 63 
424 693 243 95 75 56 
424 695 241 88 65 50 
424 694 243 93 74 55 
424 695 242 89 68 51 
424 695 243 94 77 57 
425 694 243 95 74 54 
425 695 242 90 69 51 
425 695 243 93 72 53 
426 694 243 95 75 54 
426 695 243 94 73 53 
427 694 243 96 77 56 
427 695 243 95 75 54 
424 692 244 96 77 57 
424 693 244 96 76 56 
425 692 244 98 79 58 
425 693 244 96 77 56 
426 692 244 100 80 58 
426 692 245 104 84 60 
426 693 244 98 79 57 
426 693 245 104 83 59 
427 692 245 109 87 63 
427 693 245 105 84 60 
427 692 246 110 88 63 
427 692 247 112 90 64 
426 694 244 97 77 56 
427 694 244 101 81 59 
427 694 245 106 85 60 
428 695 243 96 77 56 
428 692 247 114 90 63 
428 693 246 111 88 63 
428 693 247 113 90 63 
429 693 247 114 90 61 
428 694 244 102 82 60 
428 694 245 107 86 62 
428 695 244 101 81 59 
428 695 245 106 86 62 
429 694 245 108 87 63 
429 695 244 102 83 60 
429 695 245 108 87 63 
428 694 246 111 89 63 
429 694 246 111 89 63 
429 694 247 113 90 61 
429 695 246 111 89 64 
430 694 247 115 90 60 
430 695 246 112 90 63 
430 695 247 114 90 62 
425 688 248 115 90 62 
425 689 248 113 90 63 
426 688 249 115 89 58 
426 689 248 114 90 62 
426 689 249 114 89 58 
427 688 249 115 90 59 
427 689 248 114 89 59 
427 689 249 115 89 58 
427 688 250 117 91 60 
427 688 251 118 91 60 
427 689 250 116 90 59 
427 690 248 114 90 62 
428 688 251 119 92 61 
428 689 250 117 91 60 
428 689 251 119 92 60 
428 690 249 115 90 59 
428 691 248 115 91 62 
428 691 249 116 91 62 
429 691 249 118 93 63 
428 690 250 117 92 61 
429 690 250 118 92 61 
429 690 251 119 92 59 
429 691 250 119 93 62 
429 691 251 121 93 60 
430 691 251 121 94 60 
428 688 252 121 93 60 
428 688 253 122 92 59 
428 689 252 121 93 61 
429 688 253 122 93 60 
429 689 252 120 92 60 
429 689 253 122 93 60 
428 688 254 124 93 60 
429 688 254 125 93 61 
429 688 255 127 95 61 
429 689 254 125 93 60 
429 689 255 127 95 60 
429 690 252 121 92 59 
429 690 253 124 93 61 
429 690 254 126 93 60 
429 690 255 128 96 61 
430 690 253 124 93 61 
430 691 252 123 94 61 
430 691 253 124 94 61 
430 690 254 127 94 62 
430 691 254 126 94 61 
430 691 255 128 95 61 
428 692 248 115 91 61 
429 692 248 116 91 61 
429 692 249 118 93 63 
429 693 248 116 91 60 
430 692 249 119 94 62 
430 693 248 116 92 62 
430 693 249 119 93 63 
430 692 250 120 94 63 
430 692 251 122 95 61 
430 693 250 122 95 63 
430 693 251 122 95 62 
431 693 251 124 95 61 
430 694 248 116 91 60 
430 694 249 119 94 64 
430 695 248 116 91 61 
430 695 249 118 92 63 
431 695 248 116 90 60 
431 695 249 118 92 62 
430 694 250 121 94 63 
431 694 250 123 96 63 
431 694 251 123 95 61 
431 695 250 121 94 62 
431 695 251 124 95 61 
430 692 252 124 95 61 
430 692 253 125 95 61 
430 693 252 124 96 62 
430 693 253 126 96 62 
431 693 252 125 96 62 
431 693 253 126 97 62 
430 692 254 127 95 61 
430 692 255 128 95 61 
430 693 254 127 96 61 
430 693 255 128 95 61 
431 693 254 127 96 60 
431 694 252 125 96 61 
431 694 253 126 96 60 
431 694 254 127 96 59 
431 694 255 128 96 60 
431 695 254 127 97 60 
431 695 255 128 96 60 
424 696 241 87 62 49 
424 697 240 89 60 48 
425 696 241 87 63 48 
425 697 240 90 60 49 
425 697 241 88 60 47 
424 696 242 90 68 52 
425 696 242 89 67 51 
426 697 240 91 60 48 
426 697 241 90 62 47 
427 697 240 91 60 46 
427 697 241 90 62 46 
426 696 242 89 67 48 
427 696 242 91 70 51 
427 696 243 92 72 52 
427 697 242 90 66 48 
426 698 240 92 59 48 
427 698 240 92 58 46 
428 697 241 90 63 47 
428 696 242 92 71 51 
428 696 243 95 76 55 
428 697 242 91 67 48 
429 696 243 98 80 58 
429 697 242 93 71 49 
429 697 243 96 78 55 
428 698 240 92 57 46 
428 698 241 91 59 45 
429 698 240 92 57 46 
429 698 241 91 61 47 
429 699 240 93 57 47 
429 699 241 93 65 50 
429 698 242 91 64 46 
430 699 241 93 60 48 
430 698 242 92 69 49 
430 698 243 97 77 55 
430 699 242 91 65 47 
430 699 243 98 78 56 
431 699 242 92 69 48 
431 699 243 97 76 54 
429 696 244 103 83 60 
429 696 245 108 87 62 
429 697 244 104 84 61 
429 697 245 107 86 62 
429 696 246 111 89 64 
430 696 245 110 88 63 
430 697 244 102 83 61 
430 697 245 109 88 62 
430 696 246 112 90 63 
430 696 247 114 91 63 
430 697 246 112 89 63 
431 696 246 113 90 63 
431 696 247 115 90 61 
431 697 246 113 90 63 
431 697 247 115 91 62 
430 698 244 102 83 60 
431 698 244 103 84 60 
431 698 245 108 87 62 
431 699 244 102 82 60 
431 699 245 108 87 61 
431 698 246 112 90 63 
429 700 240 91 55 47 
430 700 240 92 55 47 
430 700 241 93 60 48 
430 701 240 91 54 44 
431 701 240 91 53 43 
431 701 241 91 58 45 
430 700 242 92 61 46 
431 700 242 91 64 46 
431 700 243 95 73 51 
431 701 242 92 64 46 
431 702 240 91 54 44 
431 702 241 92 58 45 
431 702 242 92 62 46 
431 700 244 99 79 56 
431 696 248 116 91 61 
431 696 249 118 92 62 
431 697 248 117 92 62 
432 703 238 90 40 39 
432 703 239 91 45 42 
432 695 251 122 94 59 
432 695 252 125 95 59 
432 695 253 126 96 60 
432 695 254 127 97 60 
432 695 255 128 96 60 
432 697 247 116 92 63 
432 699 245 109 87 62 
432 698 246 112 89 62 
432 698 247 115 91 62 
432 699 246 112 89 61 
432 699 247 114 90 61 
432 701 243 96 73 52 
432 702 240 89 52 43 
432 702 241 92 58 46 
432 703 240 92 50 43 
432 703 241 93 58 45 
432 702 242 93 64 49 
432 702 243 97 74 53 
432 703 242 95 67 48 
432 703 243 98 73 52 
433 703 243 101 78 55 
432 700 244 103 82 58 
432 700 245 108 87 61 
432 701 244 102 81 57 
432 701 245 107 86 60 
433 701 245 108 87 61 
432 700 246 111 88 60 
433 700 246 111 89 61 
433 700 247 115 90 62 
433 701 246 112 89 62 
433 701 247 115 91 62 
432 702 244 102 80 57 
433 702 244 104 82 59 
433 702 245 108 86 61 
433 703 244 104 82 58 
433 703 245 108 86 59 
433 702 246 111 89 61 
433 702 247 115 90 63 
433 703 246 112 89 60 
434 702 246 114 90 61 
434 702 247 117 91 62 
434 703 246 114 90 60 
434 703 247 116 91 61 
432 697 248 117 92 62 
432 697 249 118 92 62 
432 696 250 120 93 60 
432 696 251 123 94 58 
432 697 250 121 93 60 
432 697 251 123 94 59 
432 698 248 118 92 62 
432 698 249 118 92 62 
433 698 249 120 93 63 
433 699 248 118 92 60 
433 699 249 121 94 63 
433 698 250 121 93 62 
433 698 251 123 94 60 
433 699 250 122 94 62 
433 699 251 124 94 61 
432 696 252 124 95 59 
432 696 253 126 96 61 
432 697 252 124 94 60 
432 697 253 126 95 62 
432 696 254 128 97 62 
432 696 255 128 97 61 
432 697 254 128 96 62 
432 697 255 129 97 61 
432 698 253 126 95 61 
433 698 252 125 95 61 
433 698 253 126 95 61 
433 699 252 125 94 61 
433 699 253 127 95 62 
432 698 254 127 95 60 
432 698 255 128 95 58 
433 698 254 127 95 60 
433 698 255 127 95 58 
433 699 254 128 95 60 
433 699 255 128 95 59 
433 700 248 119 93 62 
433 700 249 122 94 63 
433 701 248 118 92 61 
433 701 249 121 94 62 
433 700 250 123 95 63 
433 700 251 125 94 61 
434 701 248 120 92 61 
434 701 249 122 94 62 
434 700 251 126 94 62 
434 701 250 124 95 62 
434 701 251 126 96 63 
434 702 248 121 93 62 
434 702 249 123 94 63 
434 703 248 120 92 62 
434 703 249 123 94 62 
435 703 248 120 93 61 
435 703 249 123 94 62 
434 702 250 125 95 62 
434 702 251 125 95 62 
435 702 250 125 95 62 
435 702 251 126 95 61 
435 703 250 125 95 61 
435 703 251 126 96 61 
433 700 252 126 94 61 
433 700 253 127 95 62 
433 700 254 128 95 61 
433 700 255 129 95 59 
433 701 254 128 95 60 
433 701 255 129 94 59 
434 700 252 126 94 61 
434 701 252 127 95 62 
434 701 253 128 95 61 
434 701 254 128 94 59 
434 701 255 129 94 58 
434 702 252 127 95 62 
434 702 253 127 95 60 
435 703 252 126 95 60 
435 703 253 128 96 60 
434 702 254 129 95 59 
434 702 255 129 95 59 
434 703 254 129 95 59 
434 703 255 130 96 59 
435 703 254 130 97 60 
435 703 255 130 96 59 
420 705 215 87 49 45 
420 706 215 87 49 46 
420 707 215 89 50 47 
421 706 215 90 51 47 
421 707 215 92 53 49 
422 707 215 94 55 49 
421 708 215 94 56 49 
421 709 215 93 56 47 
421 710 215 95 55 48 
421 711 215 97 55 50 
422 708 215 95 57 49 
422 709 215 94 57 48 
423 708 215 94 57 50 
423 709 215 93 57 49 
422 710 215 94 57 49 
422 711 215 97 58 51 
423 710 215 94 59 50 
423 711 215 96 62 51 
418 704 216 91 42 43 
419 704 216 89 44 43 
420 704 216 87 49 42 
420 704 217 88 47 42 
420 705 216 87 49 44 
421 704 217 88 52 42 
421 705 216 88 51 45 
421 705 217 87 52 45 
421 706 216 89 52 47 
422 704 217 89 55 44 
422 705 216 89 54 46 
422 705 217 89 54 47 
423 704 217 90 57 45 
423 705 217 92 59 48 
422 704 218 91 57 44 
423 704 218 91 57 45 
423 704 219 92 57 46 
422 706 216 92 54 49 
423 706 216 93 57 49 
423 706 217 93 61 53 
423 707 216 94 57 51 
423 708 216 94 57 51 
423 709 216 95 60 50 
421 712 215 101 58 49 
422 712 214 105 63 50 
422 712 215 102 62 51 
422 713 214 102 62 50 
422 713 215 103 65 51 
423 712 215 98 65 52 
423 713 215 101 66 54 
422 714 214 102 64 51 
423 714 214 103 66 52 
423 714 215 101 72 58 
423 715 214 102 68 55 
423 715 215 102 74 59 
422 717 214 98 69 59 
423 716 214 101 70 57 
423 716 215 105 75 60 
423 717 214 97 69 58 
423 717 215 96 69 60 
422 718 215 95 68 59 
422 719 214 91 64 57 
422 719 215 92 66 58 
423 718 214 95 67 59 
423 718 215 98 71 61 
423 719 214 94 67 59 
423 719 215 94 68 59 
423 713 216 100 70 56 
422 714 216 101 70 58 
423 714 216 101 73 59 
423 715 216 105 77 61 
422 719 216 94 68 59 
424 710 215 94 61 50 
424 711 215 97 65 52 
425 710 215 99 67 54 
425 711 215 100 67 54 
426 709 215 106 76 62 
427 708 215 106 74 56 
427 709 215 107 75 58 
426 710 215 104 73 58 
426 711 215 103 70 56 
427 710 215 108 78 63 
427 711 215 107 77 62 
428 708 215 108 76 58 
428 709 215 110 78 59 
429 708 215 111 79 60 
429 709 215 112 80 61 
428 710 215 110 78 58 
428 711 214 110 79 60 
429 710 215 112 81 61 
424 705 217 94 62 52 
425 705 217 96 63 50 
424 704 218 92 58 47 
424 704 219 92 57 47 
424 705 218 93 59 47 
425 704 218 93 60 48 
425 704 219 93 61 48 
425 705 218 95 61 49 
424 706 217 95 63 51 
424 707 216 94 60 51 
424 707 217 97 64 49 
425 706 217 97 63 49 
425 707 216 101 70 59 
425 707 217 99 69 58 
426 704 219 97 62 49 
426 705 218 97 64 49 
426 705 219 97 64 49 
427 704 219 99 63 48 
427 705 218 99 65 49 
427 705 219 100 65 49 
426 706 217 98 65 50 
426 707 216 102 70 56 
426 707 217 98 65 50 
427 706 217 101 67 50 
427 707 216 102 69 53 
426 706 218 98 65 49 
427 706 218 100 66 49 
426 704 220 97 61 48 
427 704 220 98 61 48 
427 704 221 99 59 48 
424 708 216 95 61 51 
424 709 216 96 63 51 
425 708 216 101 71 59 
425 709 216 101 69 56 
424 710 216 96 64 52 
425 710 216 100 67 54 
426 708 216 104 73 59 
426 709 216 104 74 60 
427 708 216 104 71 54 
428 705 218 100 66 49 
428 705 219 101 67 49 
429 705 218 102 68 49 
429 705 219 103 68 49 
428 706 217 102 67 51 
428 707 216 104 70 54 
429 706 217 101 66 50 
429 707 216 104 70 54 
429 707 217 102 68 51 
428 706 218 101 67 49 
429 706 218 102 68 50 
430 705 219 104 70 48 
430 706 217 107 72 53 
430 707 216 108 74 59 
430 707 217 106 71 54 
431 706 217 112 79 52 
431 707 217 112 81 56 
430 706 218 106 72 51 
430 706 219 105 71 49 
431 706 218 110 77 52 
431 706 219 108 74 50 
428 704 220 100 62 48 
428 704 221 100 60 48 
428 705 220 102 65 48 
429 704 220 101 63 48 
429 704 221 101 61 48 
429 705 220 103 67 48 
428 704 222 101 57 47 
428 704 223 103 54 47 
429 704 222 101 58 47 
429 704 223 102 56 47 
430 704 221 102 62 47 
430 705 220 104 68 48 
430 705 221 102 64 47 
431 705 220 105 70 48 
431 705 221 103 65 47 
430 704 222 101 60 47 
430 704 223 101 56 47 
430 705 222 102 61 47 
430 705 223 102 58 47 
431 705 222 102 62 47 
431 705 223 101 59 47 
428 708 216 106 74 56 
429 708 216 105 72 56 
430 708 216 111 77 62 
424 712 215 98 67 54 
424 713 215 101 72 59 
425 712 215 101 69 55 
425 713 215 105 77 63 
424 714 215 104 76 61 
424 715 215 105 77 61 
425 714 215 107 79 63 
425 715 215 108 79 62 
426 712 215 104 72 56 
426 713 215 107 78 62 
427 712 214 109 79 63 
427 712 215 107 76 60 
427 713 214 109 80 63 
427 713 215 107 78 62 
427 715 213 97 73 60 
426 714 215 109 80 63 
426 715 214 109 80 63 
426 715 215 109 80 63 
427 714 214 109 80 63 
427 715 214 107 79 63 
424 716 215 107 78 61 
424 717 215 104 75 61 
425 716 215 109 79 62 
425 717 215 101 75 64 
424 718 215 100 73 62 
424 719 215 99 73 62 
425 718 215 103 76 65 
425 719 215 101 74 63 
427 716 213 96 73 60 
427 717 213 104 78 67 
426 716 214 103 76 61 
426 716 215 100 74 60 
426 717 214 104 77 66 
426 717 215 101 75 64 
427 716 214 97 73 60 
427 717 214 104 77 66 
427 718 213 100 73 60 
427 719 213 99 71 56 
426 718 214 102 75 63 
426 718 215 103 76 64 
426 719 214 100 72 60 
426 719 215 101 74 62 
427 718 214 102 76 63 
427 719 214 99 71 58 
428 712 214 110 80 63 
428 713 214 110 81 64 
428 714 214 110 81 63 
424 713 216 103 76 61 
424 714 216 104 77 62 
424 715 216 105 77 61 
425 715 216 108 79 62 
424 716 216 108 79 62 
424 717 216 101 74 62 
425 716 216 109 79 62 
425 717 216 104 77 64 
424 718 216 101 74 63 
424 719 216 101 74 63 
425 718 216 102 75 63 
425 719 216 101 74 63 
422 720 214 90 64 57 
422 720 215 90 65 58 
422 721 214 90 57 47 
423 720 215 96 67 56 
423 721 214 89 57 46 
423 721 215 91 59 48 
423 722 214 85 54 44 
423 722 215 89 57 46 
423 720 216 98 64 51 
424 720 215 97 64 51 
424 721 215 93 60 49 
425 720 215 98 66 52 
425 721 215 88 58 46 
424 723 213 76 52 43 
424 722 215 89 57 46 
424 723 214 80 53 44 
424 723 215 81 57 47 
425 722 215 85 58 47 
425 723 215 81 57 48 
427 720 213 87 60 47 
426 720 214 98 70 57 
426 720 215 101 70 57 
426 721 215 88 60 48 
427 720 214 91 64 51 
427 721 214 86 60 48 
427 721 215 85 58 47 
426 722 215 83 58 49 
426 723 215 81 57 48 
427 722 215 82 58 48 
427 723 215 81 57 48 
424 724 213 74 51 43 
424 725 213 73 50 43 
425 725 213 75 52 45 
424 724 214 76 53 45 
425 724 214 76 53 45 
425 724 215 77 53 45 
425 725 214 74 50 43 
425 725 215 74 49 43 
425 726 213 71 47 41 
425 727 213 70 48 42 
425 726 214 71 47 41 
425 727 214 70 47 42 
426 724 215 78 54 46 
426 725 215 74 50 43 
426 726 215 73 48 42 
426 727 215 70 48 43 
428 722 214 82 58 48 
428 722 215 81 57 48 
429 722 215 80 56 48 
429 723 215 79 47 45 
424 720 216 98 68 56 
424 721 216 95 62 50 
425 720 216 98 66 52 
425 721 216 91 60 46 
426 723 216 80 56 48 
427 723 216 79 53 46 
427 723 222 89 32 43 
427 723 223 91 31 43 
426 724 216 71 48 42 
426 725 216 70 47 41 
427 724 216 72 49 42 
427 725 216 69 48 42 
427 725 217 72 47 43 
427 725 218 76 41 43 
427 725 219 81 44 43 
426 726 216 73 49 44 
426 727 216 72 50 44 
427 726 216 67 47 42 
427 726 217 71 43 42 
427 727 216 68 48 43 
427 727 217 68 40 40 
427 726 218 75 42 43 
427 726 219 78 45 44 
427 727 218 66 39 37 
427 727 219 73 43 42 
425 725 223 88 13 26 
425 726 223 88 30 40 
425 727 223 82 30 40 
426 725 221 82 35 39 
427 724 220 79 38 35 
427 724 221 88 39 42 
427 725 220 81 40 41 
427 725 221 84 37 41 
426 724 223 80 33 38 
426 725 222 84 25 32 
426 725 223 81 25 23 
427 724 222 87 32 41 
427 724 223 83 32 40 
426 726 220 77 37 41 
426 726 221 74 29 38 
426 727 220 54 18 29 
426 727 221 55 14 32 
427 726 220 78 37 41 
427 726 221 81 36 40 
427 727 220 73 42 40 
427 727 221 39 15 21 
426 726 222 74 36 28 
426 726 223 82 33 32 
426 727 222 73 39 45 
426 727 223 72 35 38 
427 727 222 55 24 39 
428 723 216 76 47 43 
429 723 216 80 48 46 
429 723 217 80 45 48 
429 723 219 83 38 45 
430 723 216 83 48 48 
430 723 217 81 45 47 
431 723 217 82 44 46 
430 723 218 80 41 44 
430 723 219 84 45 47 
431 723 218 81 42 45 
431 723 219 86 48 50 
428 723 221 91 41 46 
429 723 220 84 40 43 
429 723 221 93 48 50 
428 723 222 109 26 49 
428 723 223 110 28 51 
429 722 222 96 34 45 
429 722 223 113 20 49 
429 723 222 95 33 46 
429 723 223 124 21 55 
430 722 221 96 48 51 
430 723 220 89 48 49 
430 723 221 91 48 50 
431 722 221 97 47 51 
431 723 220 88 49 48 
431 723 221 91 48 48 
430 722 222 98 44 50 
430 722 223 98 33 44 
430 723 222 97 47 51 
431 722 222 98 47 51 
431 722 223 98 41 48 
431 723 223 99 48 51 
428 724 216 77 47 43 
428 724 217 75 45 43 
428 725 217 76 40 42 
429 724 217 79 45 47 
428 724 218 77 41 44 
428 724 219 84 41 44 
428 725 218 77 39 43 
428 725 219 81 44 43 
429 724 218 80 39 45 
429 724 219 81 39 45 
431 724 217 83 45 48 
431 725 217 82 45 48 
431 724 219 85 49 50 
428 724 220 85 41 42 
428 724 221 88 38 45 
425 728 213 69 47 42 
425 728 214 71 49 44 
426 728 212 67 44 39 
426 729 212 66 44 39 
426 729 213 67 45 40 
427 729 213 69 46 43 
426 728 214 70 48 44 
426 728 215 71 49 45 
426 729 214 68 47 42 
426 729 215 70 47 42 
427 729 215 67 47 41 
426 730 213 69 46 42 
427 730 213 72 48 45 
427 731 213 64 45 40 
426 730 214 69 48 43 
427 730 214 70 48 43 
427 730 215 65 47 40 
427 731 214 67 47 42 
427 731 215 63 45 39 
428 730 215 63 46 39 
428 731 214 61 43 40 
428 731 215 62 45 38 
429 731 215 62 45 40 
428 732 214 60 42 40 
429 732 215 59 42 40 
426 728 216 73 51 46 
427 728 216 67 47 41 
427 728 217 60 40 36 
427 729 216 65 46 40 
427 729 217 61 43 37 
427 728 218 61 40 36 
427 728 219 67 41 38 
426 728 221 56 37 37 
427 728 220 72 45 42 
427 728 221 54 39 34 
427 729 221 57 38 35 
426 728 222 53 16 34 
426 728 223 47 16 22 
427 728 222 50 2 37 
427 728 223 45 10 30 
427 729 222 59 38 40 
427 729 223 59 40 36 
428 729 217 60 41 35 
428 728 219 61 43 37 
428 729 218 59 41 37 
428 729 219 59 43 37 
429 729 218 62 43 40 
429 729 219 62 44 39 
428 730 216 65 47 40 
428 730 217 61 45 41 
429 730 216 64 46 40 
429 730 217 62 46 41 
429 731 216 64 46 41 
428 730 218 55 36 34 
429 730 218 63 44 42 
429 730 219 62 43 40 
430 730 217 66 51 48 
430 731 216 62 47 42 
430 731 217 65 49 46 
431 731 217 69 52 46 
430 730 218 72 54 50 
430 730 219 69 51 46 
431 730 218 73 53 47 
431 730 219 71 55 47 
431 731 219 74 57 47 
428 728 220 66 45 40 
428 728 221 67 46 42 
428 729 220 62 46 39 
428 729 221 69 54 48 
429 728 221 60 46 38 
429 729 220 67 47 45 
428 728 223 44 21 33 
428 729 223 71 54 48 
429 729 222 79 62 53 
429 729 223 81 63 53 
428 730 221 71 55 50 
429 730 220 67 46 44 
429 730 221 74 58 51 
428 730 222 75 58 50 
429 730 222 77 62 53 
431 729 221 80 62 51 
430 729 222 82 63 53 
430 729 223 84 63 52 
431 729 222 83 64 53 
431 729 223 84 63 52 
430 730 220 71 53 47 
430 730 221 76 61 54 
431 730 220 75 60 52 
431 730 221 77 61 50 
430 730 222 80 63 54 
430 732 216 60 44 39 
432 706 218 110 77 54 
432 706 219 109 75 53 
433 706 219 112 78 59 
432 705 220 106 71 48 
432 705 221 105 67 46 
433 705 220 107 70 49 
433 705 221 105 67 49 
432 705 222 103 63 48 
432 705 223 101 60 48 
433 705 222 102 63 49 
433 705 223 101 60 48 
432 706 220 108 73 51 
433 706 220 109 74 54 
433 706 221 106 69 52 
433 706 222 101 62 49 
433 706 223 99 59 48 
434 706 221 104 68 54 
434 706 222 100 63 51 
434 706 223 98 60 49 
435 707 222 98 62 51 
435 707 223 95 57 48 
436 707 223 92 55 48 
432 723 219 90 52 52 
432 722 221 89 48 46 
432 723 220 92 52 50 
432 723 221 89 50 48 
433 723 221 89 50 49 
432 722 222 94 47 49 
432 722 223 98 49 50 
432 723 222 88 49 48 
432 723 223 95 48 50 
433 723 222 87 51 48 
433 723 223 90 50 48 
432 724 218 85 47 50 
432 724 219 89 50 52 
432 725 218 85 49 51 
433 724 219 92 50 52 
433 725 219 87 49 50 
432 726 218 81 49 49 
433 726 219 83 49 48 
433 727 219 78 50 46 
433 724 220 92 51 52 
433 724 221 89 50 50 
433 725 220 89 49 51 
433 725 221 86 49 48 
433 724 222 88 50 49 
433 724 223 86 50 47 
433 725 222 84 49 47 
433 725 223 84 50 47 
433 726 220 86 52 50 
433 726 221 86 51 49 
433 727 220 77 52 45 
433 727 221 79 52 45 
433 726 222 84 51 48 
433 726 223 83 52 49 
433 727 222 86 51 49 
433 727 223 84 55 50 
432 729 219 81 54 48 
433 728 219 76 51 47 
433 729 219 79 52 48 
432 730 218 77 53 45 
432 730 219 77 56 48 
432 731 218 71 54 48 
432 728 221 79 53 46 
432 729 220 82 57 49 
432 729 221 81 61 51 
433 728 220 73 51 44 
433 728 221 78 52 45 
433 729 220 73 54 45 
432 728 222 83 62 52 
432 728 223 83 62 52 
432 729 222 83 63 52 
432 729 223 83 63 52 
433 728 222 82 57 49 
433 728 223 83 61 52 
432 730 220 76 57 46 
429 704 224 104 50 47 
429 704 225 104 47 46 
429 704 226 104 42 45 
429 704 227 103 36 44 
430 704 224 102 53 47 
430 704 225 102 48 46 
430 705 224 101 56 47 
431 704 225 99 49 46 
431 705 224 100 56 47 
431 705 225 99 51 46 
430 704 226 102 43 45 
430 704 227 102 34 44 
431 704 226 100 46 46 
431 704 227 100 36 44 
431 705 226 98 48 46 
431 705 227 97 42 45 
430 704 228 100 25 42 
430 704 229 99 24 41 
431 704 228 97 26 41 
431 704 229 98 24 41 
431 705 228 95 28 40 
431 704 230 99 20 39 
431 704 231 101 17 38 
431 704 232 102 17 36 
431 704 233 96 14 35 
431 704 234 96 17 35 
431 704 235 97 32 35 
426 723 224 83 31 41 
426 723 225 82 29 41 
427 723 224 88 31 42 
427 723 225 85 29 41 
426 723 226 80 29 40 
426 723 227 79 31 41 
427 722 227 81 31 40 
427 723 226 82 30 41 
427 723 227 82 32 42 
426 723 228 73 31 36 
426 723 229 71 33 36 
427 722 228 78 31 38 
427 722 229 71 35 35 
427 723 229 72 35 35 
426 723 230 67 31 36 
427 722 230 69 33 35 
427 722 231 59 28 33 
427 723 230 64 31 36 
427 723 231 59 32 37 
425 725 224 81 8 36 
425 725 225 78 20 39 
425 724 226 77 33 41 
425 724 227 75 31 39 
425 725 226 76 34 40 
425 725 227 76 32 41 
425 726 224 81 11 40 
425 726 225 77 5 39 
425 727 224 72 23 44 
425 727 225 73 8 39 
426 724 224 78 31 36 
426 724 225 79 33 40 
426 725 224 82 0 21 
426 725 225 77 27 40 
426 724 226 78 30 39 
426 724 227 74 34 40 
426 725 226 75 29 38 
426 725 227 76 33 41 
426 726 225 73 11 33 
426 727 224 69 27 38 
426 727 225 69 23 37 
426 726 226 68 11 27 
426 726 227 70 30 33 
426 727 226 72 35 35 
426 727 227 71 41 38 
427 727 227 73 48 43 
424 725 228 79 32 41 
425 724 228 74 34 39 
425 725 228 76 33 40 
426 724 228 73 36 39 
426 724 229 70 32 36 
426 725 228 75 34 39 
426 725 229 71 40 39 
427 725 228 72 45 39 
427 725 229 70 45 42 
426 724 230 68 31 38 
426 724 231 60 30 38 
426 725 230 69 35 35 
427 724 230 66 31 36 
427 724 231 66 31 33 
427 725 230 66 35 34 
427 725 231 64 31 32 
426 726 228 72 45 40 
426 726 229 71 43 41 
427 726 228 72 47 42 
427 726 229 69 47 43 
427 727 228 74 49 45 
427 726 230 65 39 37 
427 726 231 64 32 32 
428 722 224 125 12 44 
428 722 225 117 9 35 
428 723 224 105 23 43 
428 723 225 89 30 39 
429 722 224 131 11 47 
429 722 225 126 13 45 
429 723 224 134 14 56 
428 722 226 85 33 39 
428 722 227 83 31 40 
428 723 226 86 30 39 
429 722 226 114 18 41 
429 722 227 88 32 41 
430 722 224 98 34 41 
430 722 225 114 23 43 
431 722 224 98 34 41 
431 722 225 98 36 40 
430 722 226 110 27 42 
430 722 227 100 28 37 
431 722 226 99 35 42 
431 722 227 101 29 42 
429 721 229 73 30 34 
429 721 230 70 29 34 
429 721 231 60 31 33 
428 722 228 79 31 38 
428 722 229 73 34 34 
429 722 228 78 30 37 
429 722 229 74 31 35 
428 722 230 69 31 34 
428 722 231 60 29 32 
429 722 230 63 30 34 
429 722 231 60 30 32 
430 721 230 70 29 34 
430 721 231 61 30 33 
431 721 230 73 28 34 
431 721 231 66 31 33 
430 722 228 84 31 37 
430 722 229 77 30 33 
431 722 228 91 33 39 
431 722 229 82 31 35 
431 722 230 80 27 32 
428 725 230 64 34 33 
428 726 228 74 48 44 
428 726 229 68 45 42 
428 727 228 74 49 45 
428 727 229 72 48 45 
429 726 229 70 47 45 
429 727 229 71 48 44 
428 726 230 66 40 37 
428 726 231 64 35 34 
428 727 230 67 45 41 
429 726 230 65 42 38 
429 726 231 64 38 35 
429 727 230 67 45 40 
429 727 231 64 40 37 
430 727 228 72 51 46 
430 727 229 71 51 46 
431 727 228 68 51 45 
431 727 229 69 52 46 
430 726 230 65 43 39 
430 726 231 66 40 36 
430 727 230 67 45 41 
430 727 231 67 43 39 
431 726 231 66 44 39 
431 727 230 68 50 45 
431 727 231 67 47 41 
426 723 232 58 31 38 
427 722 232 56 28 33 
427 723 232 55 29 36 
427 724 232 60 28 34 
427 725 232 63 30 31 
428 722 232 57 29 34 
428 723 232 54 27 36 
428 723 233 54 27 36 
429 722 232 57 30 34 
429 722 233 52 27 34 
429 723 233 54 28 34 
430 721 232 63 32 34 
431 721 232 64 32 34 
431 721 233 62 31 34 
430 722 232 56 31 34 
430 722 233 57 29 33 
430 723 233 59 36 36 
431 722 233 63 34 35 
431 723 233 66 41 38 
431 722 234 66 40 38 
431 723 234 68 43 38 
428 724 232 58 27 33 
428 724 233 58 29 33 
428 725 232 63 32 32 
429 724 233 59 32 33 
429 725 232 63 34 33 
429 725 233 63 33 34 
428 726 232 63 35 34 
429 726 232 66 38 35 
430 724 233 62 38 35 
430 725 233 65 38 36 
431 724 233 64 42 37 
431 725 233 65 41 37 
431 724 234 66 45 37 
430 726 232 67 40 36 
431 726 232 66 42 38 
426 728 224 53 24 24 
426 728 225 54 26 28 
427 728 224 54 44 28 
427 728 225 63 54 41 
427 729 224 65 54 43 
427 728 226 72 50 45 
427 728 227 73 49 45 
427 728 228 74 50 45 
428 729 224 61 47 41 
428 729 225 72 56 50 
429 729 224 79 60 51 
429 729 225 73 53 49 
428 728 226 72 51 47 
428 728 227 73 50 46 
428 729 226 72 53 48 
428 729 227 73 50 47 
429 728 226 72 52 48 
429 728 227 73 51 47 
429 729 226 72 52 49 
429 729 227 73 51 47 
430 729 224 84 62 51 
430 729 225 82 60 51 
431 729 224 84 62 52 
431 729 225 84 62 52 
430 728 227 73 51 48 
430 729 226 75 54 49 
431 728 226 77 56 50 
431 728 227 73 52 47 
431 729 226 81 60 51 
428 728 228 73 49 45 
429 728 228 73 50 46 
430 728 228 72 51 46 
430 728 229 72 49 45 
431 728 228 72 52 47 
432 705 224 99 55 47 
432 705 225 98 53 47 
433 705 225 97 51 47 
432 705 226 97 49 47 
432 705 227 95 43 45 
433 705 226 97 50 47 
433 705 227 95 46 46 
433 706 224 98 55 47 
433 706 225 97 52 47 
433 706 226 96 50 48 
433 706 227 95 46 46 
434 706 224 96 55 47 
434 706 225 96 53 48 
434 707 224 94 53 46 
434 707 225 94 51 47 
435 706 224 94 54 47 
435 707 224 93 54 46 
435 707 225 92 50 45 
434 706 226 94 50 47 
434 706 227 93 46 46 
434 707 226 93 51 47 
435 706 227 90 43 44 
435 707 226 91 48 45 
435 707 227 89 44 43 
432 705 228 95 33 42 
432 705 229 94 26 40 
433 705 228 94 37 44 
433 705 229 93 29 41 
432 704 230 98 21 40 
432 704 231 99 18 38 
432 705 230 100 22 42 
432 705 231 99 18 39 
433 705 230 97 23 42 
433 705 231 99 19 41 
433 706 228 94 37 44 
433 706 230 95 25 42 
433 706 231 99 21 41 
434 706 228 91 39 44 
434 706 229 89 32 43 
435 706 228 87 33 41 
435 706 229 87 33 43 
435 707 228 88 39 43 
435 707 229 86 35 43 
434 706 230 91 27 42 
434 706 231 96 23 40 
435 706 230 87 30 42 
435 706 231 92 28 40 
435 707 230 87 30 42 
435 707 231 89 26 38 
436 707 224 90 51 45 
436 707 225 89 49 44 
437 707 224 87 50 44 
437 707 225 86 47 43 
436 707 226 88 45 43 
436 707 227 86 41 40 
437 707 226 85 42 40 
437 707 227 83 37 38 
438 707 225 84 46 43 
438 707 226 82 40 40 
436 707 228 84 35 38 
436 707 229 85 36 44 
437 707 228 81 30 35 
437 707 229 83 36 43 
436 707 230 83 31 41 
436 707 231 82 27 38 
437 707 230 81 29 40 
437 708 227 80 33 35 
438 708 225 82 43 42 
438 708 226 79 35 39 
438 708 227 79 31 36 
439 708 226 75 32 37 
439 708 227 74 28 34 
437 708 228 79 28 34 
437 708 229 80 27 37 
436 708 231 78 19 32 
437 708 230 79 23 36 
437 708 231 77 18 32 
437 709 231 77 17 32 
438 708 228 77 25 34 
438 708 229 77 23 35 
438 709 229 77 23 35 
439 708 228 74 24 33 
439 708 229 76 21 33 
439 709 228 72 23 33 
439 709 229 75 22 33 
438 708 230 79 21 36 
438 709 230 76 17 33 
438 709 231 77 20 32 
439 709 230 76 21 34 
438 710 231 75 23 33 
439 710 230 75 24 33 
439 710 231 73 24 32 
439 711 231 73 27 34 
432 704 232 101 19 36 
432 704 233 97 13 35 
432 705 232 99 16 37 
432 705 233 99 16 36 
433 705 232 99 17 38 
433 705 233 94 16 35 
432 704 234 98 24 36 
432 704 235 96 26 34 
432 705 234 97 24 35 
432 705 235 96 30 35 
433 705 234 96 23 35 
433 705 235 99 28 37 
433 706 232 99 18 38 
433 706 235 100 30 34 
434 706 232 97 19 37 
434 706 233 92 24 36 
435 707 232 89 23 36 
435 707 233 85 27 36 
434 706 234 95 24 34 
434 706 235 99 28 34 
434 707 234 90 31 34 
434 707 235 99 32 35 
435 707 234 87 27 35 
435 707 235 97 34 36 
432 704 236 94 37 37 
432 704 237 93 39 38 
432 705 236 98 33 38 
433 705 236 100 31 36 
433 705 237 98 33 36 
432 704 238 93 39 39 
432 704 239 94 43 41 
432 705 239 93 46 42 
433 705 238 97 37 38 
433 705 239 95 42 41 
433 706 239 96 38 40 
434 706 236 102 33 35 
434 706 237 101 35 36 
434 707 236 101 35 36 
434 707 237 102 35 36 
435 707 236 102 37 40 
435 707 237 102 37 38 
434 706 238 98 37 38 
434 706 239 96 39 41 
434 707 238 98 36 36 
434 707 239 94 38 38 
435 707 238 99 36 36 
435 707 239 96 37 37 
435 708 233 78 27 35 
435 708 234 88 25 33 
435 708 235 96 35 36 
435 708 236 99 39 38 
435 708 237 100 39 38 
435 708 238 99 36 35 
435 708 239 98 37 36 
436 707 233 85 24 34 
436 708 232 79 18 32 
436 708 233 75 21 32 
436 709 233 72 32 34 
437 708 232 77 18 32 
437 709 232 77 18 33 
437 709 233 74 27 35 
436 708 234 81 26 32 
436 708 235 87 32 34 
436 709 234 76 31 33 
436 709 235 86 39 36 
437 710 232 74 32 34 
437 710 233 75 31 34 
437 711 233 72 38 36 
436 710 234 79 33 33 
436 710 235 85 42 37 
437 710 234 75 38 34 
437 710 235 81 47 39 
437 711 234 75 41 36 
437 711 235 86 47 40 
438 710 232 75 25 33 
438 711 232 74 37 37 
438 711 233 73 38 38 
439 711 232 73 33 37 
436 709 236 95 42 37 
436 709 237 100 39 37 
436 709 238 100 37 36 
436 709 239 100 37 37 
436 710 236 95 44 38 
436 710 237 100 41 38 
437 710 236 98 42 38 
437 710 237 102 40 39 
437 711 236 94 46 39 
437 711 237 98 43 38 
436 710 238 100 37 38 
436 710 239 99 37 38 
437 710 238 101 39 39 
437 711 238 100 41 40 
437 711 239 98 38 38 
438 711 237 99 42 39 
438 711 238 99 45 42 
438 711 239 98 40 40 
437 719 231 67 35 37 
438 718 231 72 37 37 
438 719 231 70 34 37 
439 718 231 71 36 36 
439 719 231 71 34 37 
433 719 233 72 39 35 
433 719 234 70 45 38 
433 719 235 72 48 39 
435 717 233 73 35 34 
434 717 234 71 37 34 
434 717 235 75 49 40 
435 716 234 74 42 37 
435 716 235 83 49 41 
435 717 234 71 35 34 
435 717 235 83 50 41 
434 718 233 73 35 34 
434 719 233 73 38 35 
435 718 232 76 37 38 
435 718 233 72 34 35 
435 719 232 75 38 37 
434 718 234 73 43 37 
434 718 235 74 49 40 
434 719 235 73 51 41 
435 717 236 83 50 41 
435 717 237 84 50 41 
434 718 236 77 54 41 
434 719 236 78 55 41 
435 718 236 83 50 41 
435 718 237 82 51 40 
435 719 236 78 56 40 
435 719 237 82 57 40 
437 712 234 81 46 41 
437 712 235 88 47 42 
437 713 235 84 49 42 
437 715 233 78 43 39 
436 715 235 83 46 43 
437 714 234 79 43 39 
437 714 235 84 48 42 
437 715 234 80 42 39 
437 715 235 84 47 42 
438 712 233 74 41 39 
439 712 232 71 38 38 
439 712 233 72 38 39 
439 713 233 73 43 39 
438 713 234 79 45 39 
438 714 233 76 47 41 
438 715 233 75 45 40 
439 714 233 75 47 41 
439 715 232 71 44 38 
439 715 233 71 43 38 
438 714 234 79 46 39 
438 715 234 79 44 40 
437 712 236 93 47 40 
437 713 236 87 52 42 
437 714 236 86 49 42 
437 715 236 87 49 43 
438 712 236 93 47 39 
438 712 237 95 46 40 
438 713 236 88 50 42 
438 713 237 92 50 42 
439 713 237 95 48 43 
438 712 238 98 44 40 
438 712 239 98 40 39 
439 712 238 96 48 41 
439 712 239 96 44 40 
439 713 238 95 49 44 
438 714 236 87 50 42 
438 714 237 90 50 43 
438 715 236 90 47 42 
438 715 237 90 48 42 
439 714 237 91 49 43 
439 715 237 90 48 42 
439 714 238 90 53 44 
439 715 238 90 48 42 
436 716 233 69 35 34 
436 717 233 71 36 36 
437 716 233 70 35 36 
437 717 232 71 38 36 
437 717 233 70 36 36 
436 716 234 78 40 38 
436 716 235 84 48 42 
436 718 232 72 37 37 
436 718 233 71 36 37 
436 719 232 71 36 36 
437 718 232 69 37 37 
437 719 232 69 37 36 
438 716 232 70 37 36 
438 716 233 70 34 37 
438 717 232 72 40 37 
439 716 232 70 39 37 
439 717 232 70 38 35 
438 718 232 70 38 35 
436 716 236 85 51 43 
436 716 237 85 52 42 
436 717 236 84 50 41 
436 717 237 84 50 41 
437 716 236 85 51 45 
437 716 237 85 52 44 
437 717 237 84 51 40 
437 717 238 86 50 40 
436 718 237 85 53 42 
436 719 237 84 55 41 
437 718 237 86 53 42 
436 719 238 89 55 43 
437 718 238 88 53 42 
437 719 238 90 55 43 
438 716 237 87 51 44 
438 717 237 86 52 41 
439 716 237 88 50 43 
438 716 238 86 50 42 
438 717 238 88 53 43 
439 716 238 88 51 43 
439 717 238 89 52 42 
439 717 239 91 56 44 
438 718 238 91 55 44 
438 719 238 93 55 43 
438 719 239 91 55 43 
439 718 239 93 55 44 
439 719 239 93 54 44 
440 708 227 70 30 34 
440 709 227 68 28 33 
440 709 228 70 27 32 
440 709 229 72 26 33 
441 709 228 69 29 33 
441 709 229 69 28 32 
440 710 229 72 25 32 
441 710 228 72 39 41 
441 710 229 75 41 42 
440 710 230 73 25 33 
440 710 231 72 25 32 
440 711 231 73 29 35 
441 710 230 77 40 42 
441 711 230 77 39 40 
441 711 231 73 30 36 
442 710 229 74 42 42 
442 711 229 76 41 41 
442 710 230 77 41 42 
442 711 230 76 38 39 
442 711 231 78 40 41 
443 711 230 76 40 40 
440 711 232 72 27 36 
441 712 231 72 27 35 
441 715 231 74 39 36 
442 712 231 73 32 37 
442 713 231 71 32 36 
443 712 230 75 37 37 
443 712 231 73 36 37 
443 713 231 73 35 38 
442 714 231 69 32 36 
442 715 231 70 35 34 
443 714 231 69 36 36 
443 715 231 68 33 33 
440 717 231 69 36 33 
441 716 231 71 36 33 
441 717 231 71 34 32 
440 718 231 71 34 35 
440 719 230 72 34 37 
440 719 231 71 34 37 
441 718 230 71 35 37 
441 718 231 70 35 35 
441 719 230 72 34 39 
442 716 231 69 39 33 
442 717 230 70 32 34 
442 717 231 70 35 33 
443 716 231 70 35 34 
443 717 230 68 35 34 
443 717 231 67 36 33 
442 718 230 70 34 35 
442 719 230 72 33 36 
443 718 230 69 34 34 
443 719 230 70 32 35 
444 713 231 70 35 36 
444 714 231 67 35 35 
444 715 231 63 33 31 
444 716 231 62 36 32 
440 712 232 71 36 38 
440 713 232 72 42 40 
440 713 233 73 47 41 
441 712 232 73 28 37 
441 713 232 72 39 38 
440 714 232 72 46 39 
440 714 233 73 47 40 
440 715 232 70 42 38 
441 714 232 71 46 39 
441 715 232 70 42 39 
442 713 232 71 31 35 
442 714 232 70 37 38 
440 713 238 93 51 45 
440 713 239 93 51 45 
440 714 238 89 53 44 
440 715 238 89 50 42 
441 714 238 88 54 43 
441 714 239 92 53 46 
441 715 238 88 51 42 
441 715 239 91 53 43 
440 716 232 70 39 35 
440 717 232 70 39 34 
441 716 232 70 40 34 
440 716 238 89 51 42 
440 716 239 90 53 42 
440 717 239 90 54 42 
441 716 239 91 54 43 
441 717 239 90 54 42 
440 718 239 93 56 44 
432 704 240 92 49 42 
432 704 241 92 59 43 
433 705 240 92 47 41 
433 705 241 92 57 45 
432 704 242 96 69 50 
433 704 242 97 70 50 
433 704 243 99 75 52 
433 705 242 94 66 49 
433 705 243 98 74 52 
433 706 240 90 48 42 
433 706 241 92 54 43 
433 706 242 96 68 48 
433 706 243 99 75 53 
434 706 241 95 60 46 
434 707 240 92 42 38 
434 707 241 93 53 41 
435 707 240 94 39 38 
434 706 242 97 68 50 
434 706 243 101 76 53 
434 707 242 97 70 49 
434 707 243 100 77 54 
433 704 244 104 81 57 
433 704 245 108 85 58 
433 705 244 102 80 56 
434 704 245 109 86 59 
434 705 244 105 82 57 
434 705 245 108 85 58 
434 704 246 113 89 60 
434 704 247 116 91 60 
434 705 246 113 90 60 
434 705 247 116 91 60 
435 704 247 117 91 60 
435 705 247 117 92 60 
434 706 244 106 84 58 
434 706 245 110 87 59 
434 707 244 106 84 58 
435 707 244 107 85 59 
435 707 245 110 88 59 
434 706 246 111 88 59 
435 706 246 114 90 60 
435 706 247 117 91 61 
435 707 246 114 90 60 
435 708 240 95 40 36 
435 708 241 95 45 37 
435 709 240 97 37 37 
435 709 241 93 43 34 
435 708 242 96 62 43 
435 708 243 101 79 54 
435 709 242 96 64 43 
435 709 243 103 82 57 
435 708 244 106 85 59 
435 708 245 109 87 59 
436 706 247 117 91 59 
436 707 246 114 90 60 
436 707 247 117 91 60 
436 709 241 93 44 37 
436 709 242 95 63 43 
436 709 243 102 81 56 
436 710 240 97 36 38 
436 710 241 90 46 36 
437 710 240 96 39 37 
437 710 241 96 35 36 
437 711 240 97 37 37 
437 711 241 94 41 35 
436 710 242 95 62 42 
436 710 243 100 76 52 
437 711 242 93 59 41 
437 711 243 99 72 49 
438 711 240 97 36 36 
438 711 241 92 38 34 
436 708 244 108 86 58 
436 708 245 111 88 59 
436 709 244 106 85 58 
436 709 245 110 87 58 
436 708 246 113 90 60 
436 708 247 117 91 61 
436 709 246 114 89 60 
436 709 247 116 91 60 
437 709 247 117 91 60 
436 710 244 107 84 58 
436 710 245 110 87 59 
436 711 244 106 83 58 
437 710 245 111 88 60 
437 711 244 106 83 56 
437 711 245 110 88 60 
436 710 246 113 88 58 
437 710 246 114 89 59 
437 710 247 118 91 60 
437 711 246 113 89 60 
437 711 247 117 91 60 
438 711 246 115 90 60 
438 711 247 118 92 59 
435 704 248 120 93 62 
435 704 249 123 94 61 
435 705 248 120 93 62 
435 705 249 122 94 61 
435 704 250 125 95 60 
435 704 251 126 96 60 
435 705 250 124 95 60 
435 706 248 119 93 61 
435 704 252 127 96 61 
435 704 253 129 97 60 
435 704 254 130 97 61 
435 704 255 130 96 59 
435 705 254 129 96 58 
435 705 255 130 95 58 
436 705 250 124 95 61 
436 705 251 126 96 59 
436 706 248 120 93 61 
436 706 249 123 95 62 
436 707 248 120 93 60 
436 707 249 122 94 61 
436 706 250 124 96 61 
436 706 251 126 96 59 
436 707 250 124 95 61 
436 707 251 126 96 60 
437 707 250 124 95 61 
437 707 251 126 96 61 
436 705 252 128 96 60 
436 705 253 129 96 60 
436 705 254 129 96 58 
436 706 252 128 96 59 
436 706 253 129 95 58 
436 707 252 128 96 59 
436 707 253 130 96 60 
437 707 252 127 96 59 
437 707 253 130 97 60 
436 706 254 129 95 59 
436 706 255 130 96 59 
436 707 254 130 97 60 
436 707 255 131 97 61 
436 708 248 121 93 61 
436 708 249 122 94 61 
437 708 248 121 94 61 
437 708 249 123 95 61 
437 709 248 122 93 62 
437 709 249 123 93 60 
437 708 250 124 95 61 
437 708 251 126 97 61 
437 709 250 124 95 60 
437 709 251 127 97 61 
437 710 248 121 93 60 
437 710 249 124 93 62 
437 711 248 121 93 60 
437 710 250 125 95 61 
437 710 251 126 96 60 
438 710 249 124 94 61 
438 711 248 122 93 60 
438 711 249 125 95 62 
438 710 250 125 96 62 
438 710 251 127 96 60 
438 711 250 126 96 62 
438 711 251 127 96 61 
437 708 252 128 97 60 
437 708 253 130 97 60 
437 709 252 128 97 60 
437 709 253 130 98 60 
436 708 254 131 97 60 
436 708 255 131 97 59 
437 708 254 131 97 60 
437 708 255 131 97 60 
437 709 254 131 97 60 
437 709 255 131 97 60 
437 710 252 128 97 60 
437 710 253 130 98 61 
437 710 254 131 98 61 
437 710 255 132 97 60 
437 711 255 132 97 61 
438 710 252 128 96 59 
438 710 253 130 98 61 
438 711 252 129 96 60 
438 711 253 130 96 60 
438 711 254 131 96 60 
438 711 255 132 96 60 
437 712 242 94 55 41 
437 712 243 101 74 52 
438 712 240 96 36 37 
438 712 241 96 43 38 
439 712 240 95 40 38 
439 712 241 97 50 41 
439 713 240 94 42 39 
439 713 241 95 52 41 
438 712 242 96 56 43 
438 712 243 102 74 52 
438 713 242 96 60 43 
438 713 243 101 74 51 
439 713 242 97 58 42 
439 713 243 100 69 48 
439 714 242 100 64 45 
439 714 243 102 73 50 
437 712 244 107 85 57 
437 712 245 110 87 57 
437 712 246 114 89 60 
438 712 244 108 86 57 
438 712 245 110 87 57 
438 713 244 107 84 56 
438 713 245 111 88 57 
438 712 246 113 90 59 
438 712 247 118 91 59 
438 713 246 115 90 58 
438 713 247 117 91 59 
439 713 247 118 91 59 
438 714 245 111 88 58 
439 714 244 106 82 55 
439 714 245 111 87 57 
439 715 244 108 84 56 
439 715 245 112 88 57 
438 714 246 114 89 58 
439 714 246 115 90 58 
439 714 247 119 92 60 
439 715 246 115 90 58 
439 715 247 120 93 61 
439 719 240 92 56 43 
438 712 248 121 92 58 
438 712 249 125 94 59 
438 713 248 121 93 60 
439 713 248 121 94 61 
439 713 249 124 94 61 
438 712 250 126 95 58 
438 712 251 128 97 60 
439 713 250 126 96 59 
439 713 251 127 97 59 
439 714 248 121 93 61 
439 714 249 124 94 62 
439 715 248 122 94 61 
439 715 249 124 95 62 
439 714 250 126 97 63 
439 714 251 128 98 62 
439 715 250 127 96 63 
439 715 251 129 97 63 
438 712 252 129 97 61 
438 712 253 130 96 61 
438 713 252 131 97 64 
438 713 253 131 97 63 
439 713 252 130 97 62 
439 713 253 131 97 64 
438 712 254 131 96 60 
438 712 255 133 96 60 
438 713 254 132 96 60 
438 713 255 134 97 61 
439 713 254 132 96 62 
439 714 252 131 96 62 
439 714 253 132 96 64 
439 715 252 131 97 62 
439 715 253 133 97 63 
439 714 254 133 97 64 
439 714 255 134 98 64 
439 715 254 134 98 66 
439 715 255 135 98 66 
439 716 252 131 97 60 
439 716 253 133 98 62 
439 716 254 134 99 64 
439 716 255 136 100 66 
439 717 255 136 101 64 
440 713 240 94 47 40 
440 713 241 97 57 43 
441 713 240 94 51 44 
440 714 241 95 60 43 
441 714 240 95 59 45 
441 714 241 96 61 44 
441 715 240 95 62 47 
441 715 241 97 64 46 
440 714 242 98 64 47 
440 714 243 101 68 47 
440 715 242 99 67 48 
440 715 243 102 72 49 
441 715 242 100 68 47 
441 715 243 101 71 48 
440 715 244 107 81 54 
440 715 245 112 88 58 
440 715 246 116 91 58 
440 715 247 119 92 60 
441 716 240 94 62 47 
441 716 241 98 66 48 
441 717 240 95 62 47 
441 717 241 97 67 48 
441 716 242 101 70 48 
441 716 243 103 73 49 
441 717 242 103 72 48 
441 717 243 105 74 50 
440 718 240 94 57 44 
440 718 241 99 66 48 
440 719 240 93 57 43 
440 719 241 98 65 48 
441 718 241 97 65 47 
440 718 242 103 72 50 
440 718 243 106 77 53 
440 719 242 102 72 51 
440 719 243 106 79 55 
441 718 242 103 71 48 
441 718 243 106 76 52 
440 716 244 107 80 55 
440 716 245 113 88 58 
440 717 244 110 82 55 
440 717 245 113 87 57 
440 716 246 117 91 58 
440 716 247 120 92 59 
440 717 246 117 91 59 
440 717 247 120 93 59 
440 718 244 110 82 55 
440 718 245 113 87 59 
440 719 244 110 84 56 
440 719 245 115 88 59 
440 718 246 119 91 59 
440 718 247 122 94 60 
440 719 246 119 92 60 
440 719 247 122 94 60 
440 715 248 123 94 61 
440 715 249 125 96 63 
440 715 250 127 96 63 
440 716 248 123 95 61 
440 716 249 125 96 63 
440 717 248 123 94 59 
440 717 249 126 97 62 
440 716 250 128 97 64 
440 716 251 129 97 63 
440 717 250 128 97 63 
440 717 251 130 97 63 
440 718 248 124 94 60 
440 718 249 126 97 62 
440 719 248 124 94 60 
440 719 249 127 96 62 
440 718 250 128 97 63 
440 718 251 130 97 64 
440 719 250 129 97 62 
440 719 251 131 97 64 
440 716 252 130 96 60 
440 717 252 132 97 62 
440 717 253 134 98 62 
440 717 254 135 100 62 
440 717 255 137 102 63 
440 718 252 133 97 64 
440 718 253 136 98 65 
440 719 252 134 98 64 
440 719 253 136 98 64 
440 718 254 137 101 65 
440 718 255 138 103 66 
440 719 254 137 101 67 
440 719 255 139 102 67 
432 722 224 98 38 45 
432 722 225 101 34 44 
432 723 224 98 49 49 
432 723 225 100 33 44 
433 722 225 105 32 46 
433 723 224 94 49 48 
433 723 225 97 42 45 
432 722 226 100 33 42 
432 722 227 96 34 43 
432 723 227 96 35 43 
433 723 226 95 37 44 
433 723 227 95 36 44 
434 723 225 92 53 51 
434 723 226 95 40 47 
434 723 227 90 36 44 
432 721 230 79 28 34 
432 721 231 71 30 32 
433 721 230 83 31 38 
433 721 231 73 32 35 
432 722 228 95 32 41 
432 722 229 88 32 38 
433 722 228 92 33 40 
433 722 229 95 32 40 
433 723 228 96 33 40 
432 722 230 83 27 34 
433 722 230 83 35 39 
434 720 231 76 32 37 
434 721 230 80 34 37 
434 721 231 78 34 37 
435 720 231 76 32 36 
435 721 230 71 33 36 
435 721 231 75 33 35 
434 722 229 89 33 37 
434 723 228 91 35 42 
435 722 229 90 34 37 
435 723 228 97 34 41 
435 723 229 89 33 38 
435 722 230 77 34 35 
433 724 224 86 51 48 
433 724 225 90 51 49 
433 725 224 84 52 48 
433 725 225 86 52 49 
433 725 226 90 54 51 
433 726 224 82 52 48 
433 726 225 82 56 50 
433 727 224 76 40 49 
433 727 225 66 13 44 
432 727 227 76 55 49 
433 726 226 88 64 54 
433 726 227 82 53 48 
433 727 226 73 39 46 
433 727 227 79 57 50 
434 724 225 91 52 50 
434 724 226 95 36 49 
434 724 227 106 29 53 
434 725 226 88 46 48 
434 725 227 87 39 45 
434 726 226 92 65 55 
434 726 227 90 51 48 
432 727 228 69 51 46 
432 727 229 67 51 45 
433 726 228 75 50 46 
433 727 228 70 52 46 
433 727 229 64 46 41 
432 726 230 66 49 45 
432 726 231 64 43 38 
432 727 230 66 49 44 
432 727 231 65 46 40 
433 726 230 63 45 40 
433 726 231 64 44 39 
433 727 230 64 47 42 
434 724 228 88 36 43 
434 725 228 79 40 43 
435 724 228 90 36 42 
435 724 229 73 38 37 
435 725 229 70 42 39 
434 726 228 78 45 44 
434 726 229 66 35 39 
434 727 229 63 46 41 
435 726 229 69 39 40 
434 726 230 64 45 40 
434 726 231 65 45 39 
434 727 230 62 45 40 
435 726 230 68 43 41 
435 726 231 69 49 42 
436 720 231 68 32 34 
436 721 230 73 36 37 
436 721 231 67 35 35 
437 720 231 68 34 36 
437 721 230 76 36 39 
436 722 229 81 36 41 
436 723 229 77 31 36 
437 722 229 80 32 40 
437 723 229 75 29 35 
436 722 230 77 35 38 
437 722 230 81 31 41 
437 723 230 78 29 37 
438 720 230 73 35 36 
438 720 231 71 35 36 
438 721 230 75 36 38 
439 720 230 72 35 38 
439 720 231 72 35 37 
439 721 230 73 29 35 
438 722 230 77 26 37 
438 723 230 74 37 38 
439 722 230 74 34 36 
439 723 230 73 43 41 
436 724 229 70 43 38 
436 724 230 74 42 38 
436 725 230 75 41 40 
437 724 230 76 40 38 
437 725 230 76 41 41 
437 725 231 79 41 40 
436 726 230 73 40 40 
436 726 231 73 44 41 
437 726 230 75 41 42 
437 726 231 78 43 40 
438 724 230 70 49 42 
438 725 231 72 46 42 
439 724 230 71 52 43 
438 726 230 75 48 43 
438 726 231 76 44 39 
439 726 230 76 49 43 
439 726 231 75 46 40 
432 720 232 68 34 34 
432 720 233 65 36 36 
432 721 232 65 32 33 
432 721 233 63 34 35 
433 720 232 72 34 34 
433 720 233 68 36 33 
432 720 234 66 41 38 
432 721 234 66 40 37 
433 720 234 68 44 39 
433 720 235 71 49 39 
433 721 234 68 43 38 
433 721 235 69 47 37 
432 722 234 68 43 38 
432 723 234 69 45 40 
433 722 234 68 43 38 
433 722 235 71 48 40 
433 723 234 68 47 40 
433 723 235 70 48 41 
434 720 232 73 34 36 
435 720 232 74 34 37 
434 720 235 72 50 39 
434 721 235 73 52 41 
434 722 235 74 52 41 
434 723 235 70 50 41 
435 723 235 72 54 43 
434 720 236 75 54 41 
434 721 236 76 55 42 
435 720 236 79 57 41 
435 720 237 82 58 41 
435 721 236 78 57 43 
435 721 237 82 59 42 
435 722 236 77 56 43 
435 723 236 75 57 44 
432 725 233 67 45 39 
433 725 233 68 47 41 
432 724 234 66 46 38 
433 724 234 68 47 40 
433 725 234 69 47 40 
432 726 232 67 45 39 
433 726 232 67 47 40 
433 726 233 68 48 41 
434 725 233 69 49 42 
435 725 233 71 51 43 
434 724 234 69 48 41 
