ply
format ascii 1.0
comment Created by CloudCompare v2.10.1 (Zephyrus)
comment Created 1/30/20 11:43 AM
obj_info Generated by CloudCompare!
element vertex 2157
property float x
property float y
property float z
property uchar red
property uchar green
property uchar blue
end_header
246 403 201 113 90 64 
247 402 200 114 91 64 
247 402 201 115 91 64 
246 402 202 113 90 64 
246 402 203 113 90 63 
246 403 202 112 90 65 
246 403 203 112 89 64 
246 400 204 114 90 62 
246 400 205 114 90 62 
246 401 204 113 90 62 
246 401 205 112 89 62 
246 400 206 114 90 63 
246 400 207 113 90 63 
246 401 206 111 89 63 
246 401 207 111 89 63 
246 402 204 112 89 62 
246 402 205 111 88 62 
246 403 204 111 89 63 
246 403 205 109 87 62 
246 402 206 110 88 62 
246 402 207 110 88 62 
246 403 206 108 87 62 
246 403 207 108 87 62 
245 405 200 110 89 64 
245 405 201 109 88 64 
245 405 202 109 87 63 
245 405 203 107 86 63 
245 406 200 109 88 64 
245 406 201 108 87 63 
245 407 200 108 88 64 
245 407 201 106 86 64 
244 406 203 104 84 62 
244 407 202 103 84 63 
244 407 203 102 83 62 
245 406 202 107 86 63 
245 406 203 105 85 62 
245 407 202 105 86 64 
246 404 200 112 89 64 
246 404 201 111 89 63 
246 405 200 111 89 64 
246 405 201 110 88 64 
246 404 202 111 89 64 
246 404 203 110 88 64 
246 405 202 110 88 63 
246 405 203 109 87 63 
245 405 204 106 86 62 
245 405 205 105 85 62 
245 405 206 104 84 62 
245 405 207 103 83 61 
244 407 204 102 82 61 
244 407 205 100 81 61 
245 406 204 104 84 62 
245 406 205 103 83 62 
244 407 206 98 80 61 
244 407 207 97 80 61 
245 406 206 101 82 62 
245 406 207 101 82 61 
246 404 204 109 87 63 
246 404 205 108 86 62 
246 405 204 108 87 63 
246 404 206 106 85 61 
246 404 207 106 85 61 
246 405 207 104 84 62 
243 411 197 89 77 64 
243 410 198 95 80 63 
243 410 199 94 79 63 
243 411 198 91 77 64 
243 411 199 90 77 63 
243 413 195 67 55 45 
243 415 193 64 28 31 
243 414 194 59 32 30 
243 414 195 58 39 34 
243 415 194 57 26 29 
243 415 195 53 30 29 
241 415 199 52 37 30 
243 412 196 81 70 59 
243 412 197 85 73 62 
243 413 196 71 60 50 
243 413 197 72 62 53 
242 413 198 67 59 50 
242 413 199 69 61 51 
243 412 198 85 74 63 
243 412 199 85 74 63 
243 413 198 72 63 54 
242 414 197 51 43 35 
242 415 196 45 32 28 
242 415 197 45 36 32 
243 414 196 56 45 39 
243 414 197 59 50 42 
243 415 196 47 32 30 
242 414 198 56 48 40 
242 414 199 57 48 40 
242 415 198 46 36 33 
242 415 199 49 37 33 
245 409 195 106 87 67 
245 411 192 89 74 55 
245 411 193 91 77 61 
244 411 195 91 78 65 
245 410 194 98 82 66 
245 410 195 100 84 67 
245 411 194 91 78 63 
245 411 195 92 79 66 
246 408 193 110 90 67 
246 409 192 104 87 67 
246 409 193 107 88 67 
247 408 192 109 89 67 
247 409 192 105 87 67 
246 408 194 111 90 67 
246 408 195 109 89 67 
246 409 194 107 87 66 
246 409 195 106 87 67 
246 410 192 99 83 66 
246 410 193 100 84 66 
246 411 192 91 76 58 
246 410 194 104 86 67 
245 408 196 108 88 66 
245 408 197 107 87 65 
245 409 196 104 85 65 
245 409 197 104 85 64 
244 409 198 101 83 62 
244 409 199 101 82 62 
245 408 198 105 86 64 
245 408 199 104 85 64 
245 409 198 102 83 63 
244 410 196 96 80 64 
244 410 197 97 81 63 
244 411 196 92 78 64 
244 411 197 93 78 64 
245 410 196 100 83 65 
245 410 197 101 83 64 
244 410 198 98 81 63 
244 410 199 98 81 63 
244 413 193 69 45 35 
245 412 192 81 61 44 
245 412 193 78 62 47 
245 413 192 77 40 30 
245 413 193 74 48 37 
244 412 194 78 66 52 
244 412 195 82 71 59 
244 413 194 66 51 41 
244 413 195 71 59 48 
245 412 194 83 72 57 
244 414 192 76 25 26 
244 414 193 64 33 28 
244 415 192 81 26 28 
244 415 193 68 28 28 
245 414 192 80 30 28 
244 414 194 59 36 31 
244 412 196 83 72 60 
243 411 200 89 76 62 
243 411 201 88 75 61 
243 411 202 86 74 61 
243 411 203 85 72 60 
243 409 207 87 72 55 
243 410 205 86 72 57 
243 411 204 84 71 57 
243 411 205 84 71 58 
243 410 206 86 71 56 
243 410 207 86 72 56 
243 411 206 84 71 58 
243 411 207 83 70 57 
241 413 201 72 59 46 
241 413 202 75 62 49 
241 413 203 75 63 52 
240 415 201 64 44 30 
241 414 200 63 51 40 
241 414 201 66 52 38 
241 415 200 59 42 29 
241 415 201 64 48 34 
240 414 202 66 53 40 
240 414 203 67 54 41 
240 415 202 67 48 35 
240 415 203 66 52 38 
241 414 202 69 55 42 
241 414 203 69 59 46 
242 412 201 84 73 61 
242 413 200 73 63 52 
242 413 201 77 66 54 
243 412 200 84 73 62 
243 412 201 84 73 61 
242 412 202 83 71 59 
242 412 203 82 70 58 
242 413 202 78 66 54 
243 412 202 85 73 61 
243 412 203 84 72 59 
242 414 200 64 54 44 
241 413 204 74 63 51 
241 413 205 74 63 52 
241 413 206 74 63 52 
241 413 207 75 64 52 
240 414 204 67 57 45 
240 414 205 68 58 48 
240 415 204 62 52 42 
240 415 205 65 56 45 
241 414 204 67 57 46 
241 414 205 71 60 49 
240 414 206 67 58 49 
240 414 207 70 59 49 
240 415 207 65 55 45 
241 414 206 71 61 51 
241 414 207 71 61 50 
242 412 204 82 70 57 
242 412 205 80 68 56 
242 413 204 80 69 56 
242 413 205 79 68 55 
243 412 204 83 71 58 
243 412 205 83 70 58 
242 412 206 80 69 57 
242 412 207 80 69 56 
243 412 206 82 70 58 
243 412 207 81 69 57 
244 408 200 103 84 63 
244 408 201 102 84 64 
244 409 200 100 82 62 
244 409 201 98 81 63 
245 408 200 104 85 64 
244 408 202 100 82 63 
244 408 203 98 81 61 
244 409 202 96 80 63 
244 409 203 94 78 61 
244 410 200 95 79 62 
244 410 201 93 78 61 
244 410 202 91 76 61 
244 410 203 88 74 59 
244 411 202 86 73 60 
244 411 203 83 71 58 
244 408 204 98 80 61 
244 408 205 96 79 60 
244 409 204 94 77 60 
244 409 205 92 76 58 
244 408 206 95 78 60 
244 408 207 95 78 60 
244 409 206 90 74 56 
244 409 207 89 74 57 
244 410 204 87 73 57 
244 410 205 87 72 57 
248 400 192 115 93 68 
248 400 193 114 92 66 
248 401 192 115 92 67 
248 401 193 115 92 67 
248 400 194 115 92 66 
248 402 192 114 92 66 
248 403 192 114 91 66 
248 404 192 113 91 66 
246 400 208 112 89 62 
246 400 209 111 88 62 
246 401 208 111 88 63 
246 401 209 109 87 62 
246 400 210 110 87 61 
246 400 211 109 87 61 
246 401 210 108 86 60 
246 401 211 107 85 60 
246 402 208 109 87 62 
246 402 209 108 86 62 
246 403 208 108 86 62 
246 403 209 106 85 62 
246 402 210 106 85 61 
246 402 211 104 83 59 
246 403 210 105 85 61 
246 403 211 103 83 59 
245 403 213 98 79 57 
245 403 214 97 78 58 
245 403 215 96 78 57 
246 400 212 107 85 59 
246 400 213 105 83 58 
246 401 212 106 84 59 
246 401 213 104 82 57 
246 400 214 105 83 59 
246 400 215 103 82 58 
246 401 214 102 81 58 
246 401 215 102 81 58 
247 400 215 103 82 58 
246 402 212 103 82 58 
246 402 213 101 81 57 
246 403 212 101 81 59 
246 403 213 100 80 58 
246 402 214 100 80 58 
246 402 215 99 80 58 
245 405 208 101 82 62 
245 404 211 100 81 59 
245 405 210 100 82 61 
245 405 211 99 80 61 
244 407 208 96 79 61 
245 406 208 99 81 61 
245 406 209 98 80 61 
245 407 208 97 79 60 
245 407 209 95 78 61 
245 406 210 97 80 61 
245 406 211 96 78 60 
245 407 210 93 78 61 
245 407 211 92 76 60 
246 404 208 106 85 62 
246 404 209 104 84 62 
246 405 208 103 84 62 
246 405 209 101 82 61 
246 404 210 103 83 61 
246 404 211 101 82 60 
246 405 210 100 81 61 
245 404 212 99 80 59 
245 404 213 96 78 58 
245 405 212 97 79 59 
245 405 213 94 77 58 
245 404 214 95 77 58 
245 404 215 94 76 58 
245 405 214 92 75 57 
245 405 215 91 75 57 
245 406 212 94 77 59 
245 406 213 92 75 58 
245 407 212 90 74 57 
245 407 213 88 73 56 
245 406 214 88 72 56 
245 406 215 88 72 57 
245 407 214 86 71 55 
245 407 215 85 71 56 
246 404 212 100 81 59 
245 403 216 95 76 55 
245 403 217 95 77 57 
246 401 216 102 82 58 
246 401 217 101 81 58 
247 400 216 104 83 59 
247 400 217 104 83 60 
247 401 217 101 81 58 
247 400 218 104 83 59 
247 400 219 104 83 60 
247 401 218 101 80 58 
247 401 219 101 80 58 
246 402 216 98 79 57 
246 402 217 99 79 58 
246 403 217 95 77 56 
246 402 218 98 79 58 
246 402 219 97 78 59 
246 403 218 95 77 57 
246 403 219 95 77 58 
247 402 218 99 79 58 
247 402 219 98 79 59 
247 403 219 94 77 58 
247 400 220 104 83 59 
247 401 220 101 81 59 
247 402 220 96 78 58 
247 403 220 93 76 57 
245 404 216 93 76 58 
245 404 217 93 76 57 
245 405 216 89 74 57 
245 405 217 88 73 56 
245 404 218 91 75 57 
245 405 218 87 71 55 
245 406 216 87 72 57 
245 406 217 84 70 55 
245 407 216 83 69 55 
245 407 217 82 68 55 
245 406 218 83 70 55 
245 407 218 80 68 55 
245 407 219 78 65 53 
246 404 218 93 76 58 
246 404 219 90 73 56 
246 405 219 84 70 54 
246 406 219 82 68 54 
246 407 219 78 65 53 
246 404 220 89 73 55 
246 405 220 85 70 54 
247 404 220 89 73 55 
247 405 220 84 69 53 
247 406 220 81 67 53 
247 407 220 76 64 51 
243 410 208 86 71 56 
243 410 209 85 71 57 
243 411 208 84 70 56 
243 411 209 83 70 57 
242 411 210 80 68 55 
242 411 211 80 68 56 
243 410 210 83 70 57 
243 410 211 81 69 57 
243 411 210 81 69 56 
243 411 211 80 69 56 
242 411 212 78 66 55 
243 410 212 81 69 57 
243 410 213 79 68 56 
243 411 212 79 67 55 
243 411 213 77 66 54 
243 410 214 78 66 54 
243 410 215 76 65 53 
243 411 214 76 65 54 
243 411 215 74 63 52 
241 413 208 74 63 52 
241 413 209 74 63 52 
241 413 210 75 64 53 
241 413 211 75 64 53 
240 414 208 67 58 49 
240 414 209 69 60 50 
240 415 208 64 55 46 
240 415 209 69 59 48 
241 414 208 74 62 50 
241 414 209 73 62 51 
240 414 211 73 62 52 
240 415 210 72 61 49 
240 415 211 72 61 49 
241 414 210 74 64 54 
241 414 211 73 63 52 
242 412 208 80 67 55 
242 412 209 80 67 54 
242 413 208 78 67 54 
242 413 209 78 66 55 
243 412 208 82 69 55 
242 412 210 79 67 55 
242 412 211 77 66 54 
242 413 210 77 66 54 
241 413 212 73 62 51 
241 413 213 73 62 51 
241 413 214 72 62 52 
241 413 215 71 61 50 
240 414 212 71 60 50 
240 414 213 71 60 50 
240 415 212 71 60 49 
240 415 213 70 59 49 
241 414 212 71 60 49 
241 414 213 71 61 50 
240 414 214 70 60 50 
240 414 215 69 59 50 
240 415 214 69 59 49 
241 414 214 71 60 50 
241 414 215 70 60 50 
242 412 212 76 65 54 
242 412 213 75 64 53 
242 412 214 74 63 53 
242 412 215 72 62 50 
244 408 208 93 77 60 
244 408 209 91 76 59 
244 409 208 89 74 57 
244 409 209 88 73 58 
244 408 210 90 75 59 
244 408 211 89 75 59 
244 409 210 88 74 59 
244 409 211 87 73 58 
245 408 210 90 75 60 
245 408 211 90 75 59 
244 410 210 86 72 58 
244 410 211 84 71 58 
244 408 212 87 72 57 
244 409 212 85 71 58 
244 409 213 84 70 56 
245 408 212 88 74 58 
245 408 213 85 71 55 
244 408 215 82 68 54 
244 409 214 82 69 54 
244 409 215 79 66 53 
245 408 214 83 69 54 
245 408 215 82 68 54 
244 410 212 83 70 58 
244 410 213 81 68 55 
244 410 214 80 67 54 
244 410 215 77 65 53 
243 411 216 72 61 50 
243 411 217 70 60 50 
243 411 218 68 59 50 
243 411 219 65 57 50 
241 413 216 70 60 49 
241 413 217 68 58 48 
241 413 218 66 57 47 
241 413 219 63 55 46 
240 414 216 70 59 49 
240 414 217 68 58 48 
241 414 216 70 60 49 
241 414 217 69 59 48 
240 414 218 66 57 47 
240 414 219 65 56 47 
241 414 219 63 54 46 
242 412 216 70 59 49 
242 412 217 67 58 48 
242 413 216 70 59 49 
242 413 217 68 58 48 
243 412 216 71 61 50 
243 412 217 68 59 49 
242 412 218 66 58 49 
242 412 219 64 56 48 
242 413 218 66 57 48 
242 413 219 64 56 48 
243 412 218 67 58 50 
243 412 219 65 56 49 
241 413 220 62 53 45 
241 413 221 62 54 45 
240 413 222 62 54 44 
240 413 223 62 53 45 
241 413 222 62 54 45 
241 413 223 62 53 45 
240 414 220 62 54 46 
240 414 221 62 54 46 
240 414 222 62 54 45 
240 414 223 63 54 45 
242 412 220 62 54 47 
242 412 221 62 54 46 
242 413 220 62 54 46 
242 413 221 62 53 46 
243 412 220 63 55 47 
243 412 221 63 54 45 
242 412 222 62 54 46 
242 412 223 62 53 45 
242 413 222 62 53 45 
243 412 222 62 54 45 
243 412 223 61 52 44 
244 409 216 78 65 53 
244 409 217 75 63 51 
245 408 216 80 67 54 
245 408 217 78 66 53 
245 409 217 76 64 51 
244 409 218 74 62 50 
245 408 218 77 65 52 
245 409 218 73 62 50 
245 409 219 71 59 49 
244 410 216 75 63 52 
244 410 217 73 62 51 
244 410 218 70 60 50 
244 410 219 68 59 49 
244 411 218 70 59 49 
244 411 219 65 57 49 
245 410 219 69 58 48 
246 408 219 75 63 51 
246 409 219 71 60 49 
247 408 219 73 61 50 
246 410 219 69 58 48 
244 411 220 65 56 47 
244 411 221 64 55 46 
245 410 220 67 57 47 
245 410 221 66 56 46 
245 411 220 65 56 46 
245 411 221 64 55 45 
244 411 222 63 54 45 
244 411 223 63 54 45 
245 411 222 64 55 45 
245 411 223 63 54 45 
246 409 220 69 59 48 
247 408 220 71 60 50 
247 409 220 68 58 48 
246 410 220 68 58 48 
246 410 221 66 56 47 
246 411 221 65 56 46 
247 410 221 66 57 47 
246 410 222 65 56 46 
246 411 222 64 55 46 
246 411 223 64 55 46 
247 410 222 64 55 47 
247 410 223 63 54 46 
244 412 221 64 55 46 
244 412 222 62 54 45 
244 412 223 62 53 44 
248 400 220 103 83 59 
248 400 221 103 83 58 
248 401 220 100 81 59 
248 401 221 100 81 58 
248 400 222 103 83 58 
248 401 222 101 80 59 
249 400 222 104 82 58 
249 400 223 103 82 58 
249 401 222 100 80 59 
249 401 223 99 79 56 
248 402 220 96 78 58 
248 402 221 95 77 57 
248 403 220 93 76 57 
248 403 221 92 75 58 
248 402 222 96 77 57 
248 403 222 92 75 57 
249 402 222 94 76 57 
249 402 223 95 76 56 
249 403 222 90 73 56 
249 403 223 90 72 53 
250 403 223 89 72 54 
248 404 220 89 72 54 
248 404 221 88 72 55 
248 405 220 83 68 52 
248 405 221 83 68 53 
249 404 221 87 71 54 
249 405 221 82 67 52 
249 404 222 86 71 54 
248 406 220 80 66 52 
248 406 221 81 67 52 
248 407 220 76 64 51 
249 406 221 78 64 50 
249 407 221 73 61 48 
250 404 222 84 69 54 
250 404 223 86 70 53 
250 405 222 80 66 52 
251 404 223 84 69 53 
251 405 222 79 65 51 
251 405 223 79 65 50 
250 406 221 76 62 48 
250 407 221 73 60 47 
250 406 222 74 61 48 
250 407 222 69 58 46 
251 406 222 74 61 48 
251 406 223 73 61 47 
251 407 222 68 57 44 
251 407 223 68 56 43 
252 404 223 84 69 52 
252 405 223 80 66 51 
252 406 223 75 61 47 
252 407 223 69 56 43 
248 408 220 70 59 49 
248 408 221 68 58 48 
248 409 220 68 58 47 
248 409 221 66 56 46 
249 408 221 68 58 47 
249 408 222 67 56 45 
249 409 222 66 55 45 
249 409 223 63 53 43 
248 410 221 66 57 47 
248 410 222 64 55 46 
248 410 223 63 54 45 
249 410 222 64 55 46 
249 410 223 63 53 43 
250 408 222 67 56 44 
250 408 223 64 53 42 
250 409 223 63 53 42 
251 408 222 66 55 43 
251 408 223 65 54 42 
235 415 228 61 52 44 
235 415 229 59 51 43 
234 415 231 61 52 43 
235 415 230 61 53 44 
235 415 231 60 51 41 
236 415 225 61 52 43 
237 415 224 61 53 44 
237 415 225 62 53 45 
236 415 226 62 53 45 
236 415 227 61 53 45 
237 415 226 62 53 46 
237 415 227 60 52 44 
238 414 225 62 54 46 
238 415 224 62 54 45 
238 415 225 63 54 46 
239 414 224 63 54 45 
239 414 225 61 53 46 
238 414 226 60 52 45 
238 414 227 60 51 43 
238 415 226 61 53 46 
239 414 226 61 52 44 
239 414 227 60 52 43 
236 415 228 59 51 43 
236 415 229 60 51 43 
237 414 228 60 51 43 
237 414 229 60 52 44 
237 415 228 59 51 43 
237 415 229 60 51 43 
236 414 230 60 51 42 
236 414 231 59 51 42 
236 415 230 60 51 42 
236 415 231 60 50 41 
237 414 230 60 51 42 
237 414 231 60 51 41 
239 413 230 59 50 41 
239 413 231 59 50 40 
238 414 228 60 52 44 
238 414 229 60 51 43 
239 414 228 60 52 43 
239 414 229 60 51 41 
238 414 230 60 51 41 
238 414 231 60 50 41 
239 414 230 60 50 41 
239 414 231 60 51 41 
234 415 232 60 52 43 
234 415 233 60 51 43 
235 414 232 60 51 41 
235 414 233 59 50 41 
235 415 232 60 51 41 
235 415 233 60 51 41 
234 415 234 60 50 40 
234 415 235 59 50 39 
235 414 234 60 51 41 
235 414 235 61 51 40 
235 415 234 60 51 41 
234 415 236 60 49 38 
234 415 237 59 49 38 
235 414 236 59 50 39 
235 414 237 59 50 41 
235 415 236 60 50 39 
235 415 237 59 50 40 
234 415 238 59 49 39 
235 414 238 58 49 39 
235 415 238 58 50 41 
235 415 239 57 49 39 
237 413 235 58 48 39 
236 414 232 59 50 41 
236 414 233 59 50 41 
237 414 232 59 50 41 
237 414 233 59 50 41 
236 414 234 59 50 41 
236 414 235 59 49 39 
237 414 234 58 49 40 
237 414 235 58 49 40 
238 413 233 59 49 39 
239 413 232 59 50 40 
239 413 233 59 50 40 
238 413 234 59 49 40 
238 413 235 59 50 40 
239 413 234 58 49 40 
239 413 235 58 49 40 
238 414 232 60 50 40 
238 414 233 60 50 40 
239 414 232 59 50 40 
238 414 234 59 50 40 
237 413 236 58 49 39 
237 413 237 58 49 39 
237 413 238 57 47 38 
237 413 239 55 46 35 
236 414 236 57 48 38 
236 414 237 58 48 38 
237 414 236 57 48 38 
237 414 237 57 47 37 
236 414 238 58 48 38 
236 414 239 56 47 38 
237 414 238 56 47 37 
237 414 239 56 47 37 
238 413 236 58 49 40 
238 413 237 57 48 39 
239 412 237 58 49 39 
239 413 236 57 49 40 
239 413 237 57 48 40 
238 413 238 55 46 36 
238 413 239 56 46 35 
239 412 238 58 49 38 
239 412 239 57 48 37 
239 413 238 57 48 38 
239 413 239 57 47 37 
234 415 241 58 47 36 
235 414 241 55 45 33 
235 415 240 56 47 38 
235 415 241 57 47 38 
234 415 242 58 48 36 
234 415 243 58 47 33 
235 414 242 55 44 32 
235 414 243 55 44 32 
235 415 242 57 46 33 
235 415 243 55 45 33 
233 415 245 55 46 36 
232 415 246 55 47 39 
232 415 247 55 47 41 
233 415 246 56 48 39 
233 415 247 56 49 41 
234 415 244 57 46 34 
234 415 245 56 46 37 
235 414 244 55 46 36 
235 414 245 54 46 38 
235 415 244 55 46 35 
234 414 246 52 44 37 
234 414 247 53 45 36 
234 415 246 55 46 39 
234 415 247 53 44 36 
235 414 246 53 45 38 
235 414 247 55 46 36 
239 411 243 57 47 35 
239 411 244 57 47 35 
239 411 245 57 46 35 
238 411 246 56 46 34 
238 411 247 56 46 34 
239 411 246 57 46 34 
239 411 247 56 45 33 
237 413 240 55 44 32 
237 413 241 57 45 34 
237 413 242 55 45 36 
237 413 243 54 46 38 
236 414 240 56 46 35 
236 414 241 56 45 32 
237 414 240 56 45 33 
237 414 241 57 45 33 
236 414 242 56 44 33 
236 414 243 55 46 37 
237 414 242 55 46 37 
237 414 243 54 47 39 
238 413 240 57 47 36 
238 413 241 55 46 35 
239 412 240 55 46 36 
239 412 241 56 46 36 
239 413 240 57 47 37 
239 413 241 55 46 35 
238 412 243 57 46 35 
238 413 242 54 45 35 
238 413 243 56 46 36 
239 412 242 57 47 36 
239 412 243 57 47 36 
237 412 245 56 45 33 
237 413 244 55 46 37 
237 413 245 55 46 35 
236 413 246 56 46 38 
236 413 247 57 47 36 
237 412 246 56 46 33 
237 412 247 56 45 34 
237 413 246 56 46 35 
237 413 247 56 46 34 
236 414 244 54 46 38 
236 414 245 54 46 38 
236 414 246 55 46 38 
236 414 247 57 48 38 
238 412 244 56 46 35 
238 412 245 57 47 35 
238 413 244 55 45 34 
239 412 244 57 47 36 
238 412 246 57 47 36 
238 412 247 57 47 36 
232 415 248 55 47 40 
232 415 249 55 45 35 
233 415 248 54 45 36 
233 415 249 55 43 30 
232 415 250 53 43 29 
233 415 250 56 41 28 
233 415 251 55 42 28 
235 413 249 57 46 35 
235 413 250 55 44 32 
234 414 248 56 46 36 
234 414 249 57 46 34 
234 415 248 54 44 32 
234 415 249 58 45 30 
235 414 248 58 48 38 
235 414 249 58 48 37 
234 414 250 57 45 33 
234 414 251 57 46 34 
234 415 250 58 41 30 
234 415 251 57 45 32 
235 414 250 57 46 34 
235 414 251 55 44 33 
233 415 252 55 45 33 
233 415 253 54 45 33 
233 415 254 53 44 33 
233 415 255 53 43 31 
234 415 252 56 46 35 
234 415 253 55 45 35 
235 414 252 55 45 34 
235 414 253 55 45 34 
235 415 253 56 46 35 
234 415 254 53 44 33 
234 415 255 52 43 31 
235 414 254 55 44 34 
235 414 255 53 43 33 
235 415 254 54 43 31 
235 415 255 54 41 33 
238 411 248 56 44 32 
238 411 249 55 44 31 
239 411 248 55 45 33 
239 411 249 54 44 32 
238 411 250 54 43 31 
238 411 251 54 42 33 
239 411 250 54 43 32 
239 411 251 52 42 31 
239 411 252 51 42 30 
239 411 253 51 41 32 
239 411 254 52 41 33 
239 411 255 53 42 32 
236 413 248 57 47 36 
236 413 249 55 45 33 
237 412 248 56 45 34 
237 412 249 56 45 35 
236 413 250 54 43 31 
236 413 251 54 43 31 
237 412 250 55 45 35 
237 412 251 54 44 35 
237 413 250 56 45 34 
237 413 251 55 45 34 
238 412 248 56 45 34 
238 412 249 55 44 34 
238 412 250 55 44 32 
238 412 251 53 44 34 
236 413 252 53 42 32 
236 413 253 53 43 34 
237 412 252 53 44 33 
237 412 253 52 42 32 
237 413 252 53 44 34 
237 413 253 52 42 33 
236 413 254 52 43 35 
236 413 255 51 41 35 
237 412 254 50 41 33 
237 413 254 52 42 34 
237 413 255 51 40 34 
236 414 252 53 42 30 
236 414 253 54 42 31 
236 414 254 54 44 33 
236 414 255 53 43 35 
238 412 252 53 43 32 
238 412 253 51 42 32 
238 412 254 51 41 33 
238 412 255 51 40 34 
255 387 224 112 84 62 
253 391 224 112 87 63 
254 388 224 112 85 62 
254 389 224 112 86 62 
255 388 224 112 85 63 
255 388 225 113 85 64 
255 389 224 112 85 63 
255 389 225 114 86 64 
254 390 224 112 87 62 
254 390 225 113 87 63 
254 391 224 113 87 63 
254 391 225 113 88 64 
255 390 225 114 87 63 
255 391 225 113 87 63 
254 391 226 112 88 64 
255 390 226 114 87 64 
255 391 226 113 86 65 
255 391 227 112 85 64 
255 391 228 111 85 65 
251 394 224 112 87 64 
251 395 224 111 85 62 
250 397 224 109 85 62 
251 396 224 110 85 63 
251 397 224 108 85 63 
250 398 224 106 84 61 
250 399 224 103 82 60 
251 398 224 106 84 61 
251 398 225 105 83 62 
251 399 224 103 82 60 
251 399 225 103 83 62 
252 392 224 111 86 64 
252 393 224 111 86 64 
253 392 224 111 86 63 
253 392 225 112 87 63 
253 393 224 111 87 64 
253 393 225 112 88 65 
252 394 224 111 87 63 
252 394 225 111 87 63 
252 395 224 111 86 63 
252 395 225 111 87 64 
253 394 225 111 87 63 
253 395 225 111 87 64 
253 395 226 110 86 64 
254 392 225 113 89 65 
254 392 226 112 87 65 
254 393 226 112 87 64 
255 392 226 112 85 67 
255 392 227 111 85 66 
255 393 226 112 86 65 
255 393 227 110 85 64 
254 394 226 112 86 63 
254 394 227 111 85 63 
254 395 226 110 85 63 
254 395 227 109 85 63 
255 394 227 110 85 64 
255 395 227 109 84 64 
255 392 228 110 84 63 
255 392 229 110 84 64 
255 393 228 111 85 64 
255 393 229 111 85 64 
255 394 228 110 84 64 
255 394 229 110 84 64 
255 395 228 109 84 63 
255 395 229 109 84 63 
252 396 225 110 86 64 
252 397 225 108 85 63 
253 396 225 110 85 64 
253 396 226 108 85 63 
253 397 226 107 83 63 
252 398 225 104 83 62 
252 399 225 104 83 63 
252 398 226 104 82 63 
252 399 226 104 83 62 
253 398 226 106 82 63 
253 398 227 107 82 62 
253 399 226 103 80 61 
253 399 227 104 79 61 
254 396 226 109 85 63 
254 396 227 108 84 63 
254 397 227 108 83 63 
254 398 227 107 81 62 
254 399 227 103 79 62 
254 396 228 109 84 64 
254 397 228 107 82 63 
255 396 228 109 84 63 
255 396 229 108 82 63 
255 397 228 107 82 62 
255 397 229 107 80 61 
254 398 228 105 81 62 
254 399 228 103 80 62 
255 398 228 105 80 62 
255 398 229 104 78 61 
255 399 228 101 79 61 
255 399 229 101 78 60 
250 399 255 71 59 44 
251 399 254 71 59 45 
251 399 255 72 59 45 
253 397 255 75 63 50 
252 399 253 71 59 46 
253 399 253 72 60 47 
252 398 254 73 61 47 
252 398 255 73 61 48 
252 399 254 72 59 46 
252 399 255 72 60 46 
253 398 254 73 61 48 
253 398 255 74 62 49 
254 396 255 76 64 51 
254 397 254 74 62 50 
254 397 255 75 64 51 
255 396 255 77 65 52 
255 397 254 75 63 51 
255 397 255 76 64 51 
254 398 253 73 61 48 
254 399 252 72 60 47 
254 399 253 73 61 48 
255 398 252 73 61 49 
255 398 253 74 62 49 
255 399 252 73 61 48 
254 398 254 74 62 49 
255 398 254 75 63 50 
240 413 224 62 53 44 
240 413 225 62 53 44 
241 413 224 63 53 45 
241 413 225 62 53 44 
240 413 226 62 53 44 
240 413 227 61 52 44 
241 413 226 61 52 44 
241 413 227 60 52 43 
240 414 224 62 53 45 
240 414 225 62 53 45 
240 414 226 61 52 44 
240 414 227 61 52 44 
242 412 224 63 53 44 
242 412 225 63 53 44 
242 413 224 63 53 44 
242 413 225 62 53 44 
243 412 224 63 54 45 
243 412 225 62 53 44 
242 412 226 60 51 42 
242 412 227 61 52 43 
242 413 226 60 52 43 
242 413 227 61 52 43 
243 412 226 61 52 43 
243 412 227 60 51 42 
240 413 228 60 51 42 
240 413 229 60 51 41 
241 413 228 61 52 42 
241 413 229 59 50 41 
240 413 230 59 50 40 
240 413 231 59 50 40 
241 412 230 59 49 40 
241 412 231 58 49 39 
241 413 230 59 50 40 
241 413 231 59 49 39 
242 412 228 60 51 42 
242 412 229 59 50 41 
242 413 228 61 52 43 
243 412 228 60 50 40 
243 412 229 59 50 40 
242 412 230 58 49 40 
242 412 231 58 48 39 
243 412 230 58 49 39 
243 412 231 58 49 39 
244 411 224 63 54 46 
244 411 225 62 53 44 
245 411 224 63 55 46 
245 411 225 62 53 44 
244 411 227 60 51 42 
245 411 226 60 51 42 
245 411 227 61 51 42 
246 411 224 63 54 46 
246 411 225 61 52 43 
247 410 224 62 53 44 
247 410 225 61 52 43 
247 411 225 62 52 43 
246 411 226 61 52 42 
246 411 227 61 51 42 
247 410 226 60 50 41 
247 410 227 59 50 40 
247 411 226 60 51 41 
247 411 227 60 50 41 
244 411 228 60 51 42 
244 411 229 60 50 40 
245 411 228 60 51 42 
245 411 229 59 49 40 
244 411 230 58 49 40 
244 411 231 58 50 42 
245 411 230 59 49 40 
245 411 231 59 50 40 
246 411 228 59 50 41 
246 411 229 59 50 40 
247 411 228 59 50 41 
247 411 229 59 49 40 
246 411 230 59 50 40 
246 411 231 60 50 40 
247 410 231 59 49 38 
247 411 230 59 50 40 
247 411 231 59 49 39 
244 412 224 63 54 45 
244 412 225 62 54 44 
244 412 226 61 52 42 
244 412 227 60 51 41 
244 412 228 60 51 41 
244 412 229 60 51 41 
244 412 231 57 49 41 
243 411 234 58 49 40 
243 411 235 57 48 38 
241 411 237 59 51 42 
241 411 238 58 49 39 
241 411 239 55 46 35 
242 411 236 59 50 41 
242 411 237 58 49 40 
243 411 236 57 48 38 
243 411 237 57 48 38 
242 411 238 57 48 37 
242 411 239 57 47 37 
243 410 238 58 49 39 
243 410 239 57 48 38 
243 411 238 57 48 38 
240 413 232 59 50 40 
240 413 233 59 49 39 
241 412 232 58 48 38 
241 412 233 58 49 40 
241 413 232 59 49 39 
241 413 233 58 49 39 
240 412 234 57 49 42 
240 412 235 58 50 41 
240 413 234 58 49 39 
240 413 235 58 48 39 
241 412 234 58 49 40 
241 412 235 58 49 39 
241 413 234 58 48 38 
242 412 232 58 48 39 
242 412 233 57 49 41 
243 412 232 59 49 38 
243 412 233 59 49 39 
242 412 234 58 50 41 
242 412 235 59 49 39 
243 412 234 59 50 41 
240 412 236 58 50 41 
240 412 237 58 49 40 
240 413 236 58 49 41 
241 412 236 58 49 40 
241 412 237 58 50 40 
240 412 238 58 49 39 
240 412 239 57 48 38 
241 412 238 59 50 42 
241 412 239 58 49 40 
242 412 236 58 48 37 
244 411 232 59 50 41 
244 411 233 58 50 40 
245 411 232 59 50 41 
245 411 233 59 50 41 
244 410 235 59 50 41 
244 411 234 58 49 39 
244 411 235 57 47 37 
245 410 234 58 49 38 
245 410 235 58 49 38 
245 411 234 58 48 38 
247 409 235 57 48 39 
246 410 232 59 49 39 
246 410 233 59 50 40 
246 411 232 59 50 40 
246 411 233 59 50 40 
247 410 232 59 49 38 
247 410 233 58 48 38 
246 410 234 58 48 37 
246 410 235 58 48 38 
247 410 234 58 48 38 
247 410 235 58 48 39 
244 409 237 59 50 40 
245 409 237 59 49 39 
244 409 238 58 48 39 
244 409 239 57 48 38 
245 408 239 56 46 36 
245 409 238 57 48 38 
245 409 239 56 47 37 
244 410 236 59 49 39 
244 410 237 59 50 40 
244 411 236 57 47 36 
245 410 236 58 48 38 
244 410 238 58 48 38 
244 410 239 57 48 37 
246 409 236 57 48 38 
246 409 237 56 47 38 
247 409 236 57 48 38 
247 409 237 56 47 38 
246 408 238 56 47 37 
246 408 239 56 46 37 
246 409 238 56 47 38 
247 408 238 57 47 38 
247 408 239 56 47 37 
247 409 238 57 47 37 
246 410 236 57 48 38 
244 412 232 57 49 41 
249 400 224 103 81 58 
249 401 224 98 78 57 
249 402 224 94 75 55 
250 400 224 101 81 59 
250 401 224 98 79 57 
250 401 225 96 78 58 
251 400 225 101 81 60 
251 401 225 97 77 58 
250 402 224 94 75 57 
250 403 224 90 73 55 
251 402 225 92 75 58 
251 403 224 91 74 56 
251 403 225 90 74 58 
251 404 224 87 71 54 
252 400 225 100 80 59 
252 401 225 96 78 59 
252 400 226 101 80 60 
252 401 226 96 77 58 
253 400 226 100 79 60 
253 401 226 96 77 58 
252 402 225 93 76 58 
252 403 224 88 72 55 
252 403 225 89 73 56 
253 402 225 92 75 57 
253 403 224 86 71 54 
253 403 225 89 72 55 
253 402 226 93 76 58 
254 400 227 100 78 60 
254 401 226 96 77 58 
254 401 227 96 76 59 
255 400 227 98 76 58 
255 401 227 95 74 56 
254 402 225 90 73 55 
254 403 225 87 70 54 
255 403 225 83 67 53 
254 402 226 92 74 56 
254 403 226 89 71 54 
255 402 226 91 73 56 
255 402 227 92 73 55 
255 403 226 85 69 53 
254 400 228 101 78 60 
255 400 228 98 76 57 
252 404 224 85 70 54 
252 405 224 79 65 50 
253 404 224 83 68 52 
253 405 224 77 63 48 
252 406 224 72 59 45 
252 407 224 69 57 43 
253 406 224 73 60 45 
253 406 225 68 56 42 
253 407 224 69 56 43 
253 407 225 66 54 40 
254 404 224 85 70 54 
254 404 225 81 66 52 
254 405 225 77 63 48 
255 404 225 81 66 53 
255 405 225 76 62 47 
255 404 226 81 66 52 
255 405 226 75 61 47 
254 406 225 72 59 44 
254 407 225 67 55 41 
255 406 225 70 57 42 
254 407 226 66 53 39 
255 406 226 69 56 42 
255 407 226 67 54 39 
249 407 239 55 46 37 
250 407 239 56 46 37 
251 407 239 56 47 37 
252 407 239 56 47 36 
253 407 238 57 47 36 
253 407 239 57 46 35 
254 407 238 57 47 36 
254 407 239 57 46 35 
255 407 238 58 47 35 
255 407 239 57 46 35 
249 409 224 61 52 42 
248 410 224 61 52 42 
248 410 225 60 51 41 
249 410 224 62 52 42 
249 410 225 61 51 42 
248 410 226 59 50 41 
248 410 227 59 49 40 
249 410 226 60 50 41 
249 410 227 59 49 39 
250 409 224 62 52 42 
250 409 225 61 52 42 
251 408 224 64 53 42 
251 409 224 63 52 41 
251 409 225 62 52 40 
251 409 226 61 50 38 
251 409 227 60 49 38 
250 410 225 60 51 41 
250 410 226 61 50 40 
250 410 227 60 50 40 
251 410 227 60 50 39 
248 411 228 59 50 40 
248 411 229 59 49 40 
249 410 228 59 49 39 
249 411 228 59 49 39 
249 411 229 59 49 39 
248 410 231 59 49 38 
248 411 230 59 49 39 
248 411 231 59 49 38 
249 411 230 59 49 38 
249 411 231 59 49 38 
250 410 228 59 49 39 
250 411 228 59 49 39 
250 411 229 60 49 38 
251 410 228 60 50 39 
251 410 229 59 49 38 
251 411 229 59 49 38 
250 411 230 59 49 38 
250 411 231 58 48 37 
251 411 230 59 49 38 
251 411 231 58 48 37 
252 408 224 66 54 41 
252 408 225 64 52 40 
252 409 225 63 52 39 
253 408 225 65 54 40 
252 409 226 62 51 39 
252 409 227 60 50 38 
253 408 226 63 52 40 
253 409 226 62 51 39 
253 409 227 61 51 38 
252 410 227 60 49 38 
254 408 225 65 53 40 
254 408 226 64 52 39 
254 408 227 62 51 38 
254 409 226 62 50 37 
254 409 227 61 50 38 
255 408 226 66 53 39 
255 408 227 64 52 39 
255 409 227 61 50 37 
253 409 228 60 49 37 
252 410 228 60 50 38 
252 410 229 59 49 38 
253 410 228 59 49 38 
253 410 229 59 48 37 
252 410 230 58 48 37 
252 410 231 58 48 37 
253 410 230 58 48 37 
253 410 231 58 47 37 
254 409 228 59 48 37 
254 409 229 59 48 36 
255 409 228 59 48 36 
255 409 229 58 47 36 
254 410 229 59 48 37 
255 410 229 58 47 36 
254 410 230 57 47 36 
254 410 231 57 47 37 
255 410 230 58 48 37 
255 410 231 59 48 37 
248 409 235 57 48 39 
249 409 235 57 48 38 
248 410 232 58 49 38 
248 410 233 58 48 38 
249 410 232 58 48 38 
249 410 233 58 49 39 
248 410 234 58 48 39 
249 410 234 58 48 39 
250 409 234 57 48 38 
250 409 235 57 48 38 
251 409 234 57 48 38 
251 409 235 57 48 38 
250 410 232 58 48 38 
250 410 233 58 48 38 
251 410 232 57 48 38 
251 410 233 57 48 38 
251 411 232 58 48 38 
250 410 234 57 48 38 
251 410 234 57 48 38 
248 408 237 57 48 38 
248 409 236 57 48 38 
248 409 237 57 48 38 
249 408 237 57 48 38 
249 409 236 57 48 38 
249 409 237 57 48 38 
248 408 238 57 47 38 
248 408 239 56 46 37 
249 408 238 56 47 38 
249 408 239 55 46 37 
250 408 237 57 48 38 
250 409 236 57 48 38 
251 408 237 56 47 38 
251 409 236 57 48 38 
250 408 238 56 47 37 
250 408 239 56 47 37 
251 408 238 56 47 37 
251 408 239 56 47 37 
252 409 235 57 48 38 
253 409 234 57 48 38 
253 409 235 57 48 37 
252 410 232 57 48 37 
252 410 233 57 48 38 
253 410 232 58 47 37 
253 410 233 58 48 38 
252 410 234 57 48 38 
253 410 234 58 48 38 
254 409 234 57 47 37 
254 409 235 57 47 37 
255 409 234 58 48 37 
255 409 235 57 47 37 
254 410 232 58 48 37 
254 410 233 58 48 38 
255 410 232 58 48 37 
255 410 233 58 48 37 
254 410 234 58 48 37 
255 410 234 57 47 37 
252 408 237 56 47 37 
252 409 236 57 47 38 
253 408 236 57 47 37 
253 408 237 57 47 37 
253 409 236 57 47 37 
252 408 238 56 47 37 
253 408 238 57 47 37 
254 408 236 57 47 37 
254 408 237 57 47 37 
254 409 236 57 47 37 
255 408 236 57 47 36 
255 408 237 58 47 36 
255 409 236 57 47 37 
254 408 238 57 47 36 
255 408 238 58 47 35 
245 407 242 55 46 36 
245 407 243 55 45 35 
246 407 241 55 46 36 
247 407 240 55 46 37 
247 407 241 55 45 36 
246 407 242 55 45 35 
246 407 243 55 45 34 
247 406 243 55 45 34 
247 407 242 55 45 35 
247 407 243 55 45 34 
245 407 244 55 45 34 
245 407 245 55 45 33 
244 407 246 55 45 33 
244 407 247 54 44 33 
245 406 246 54 44 33 
245 406 247 54 44 33 
245 407 246 54 44 33 
245 407 247 54 44 33 
247 405 245 55 45 34 
247 405 246 55 45 34 
247 405 247 55 45 34 
246 406 244 55 45 34 
246 406 245 55 45 33 
246 407 244 55 45 33 
246 407 245 55 45 33 
247 406 244 55 45 34 
247 406 245 55 45 34 
246 406 246 54 44 33 
246 406 247 54 44 33 
247 406 246 54 44 34 
243 407 249 53 43 32 
243 407 250 53 43 32 
243 407 251 54 43 32 
243 407 252 55 43 32 
243 407 253 56 44 32 
243 406 255 59 45 33 
243 407 254 57 44 32 
243 407 255 57 44 32 
247 403 252 61 48 36 
247 403 253 62 49 36 
246 403 254 63 49 36 
246 403 255 64 50 36 
247 402 255 66 52 38 
247 403 254 63 50 37 
247 403 255 65 51 37 
245 405 251 57 45 33 
244 407 248 54 44 32 
244 407 249 54 43 32 
245 406 248 54 44 33 
245 406 249 54 44 33 
245 407 248 54 43 32 
244 406 251 56 44 32 
244 407 250 55 44 32 
244 407 251 55 44 32 
245 406 250 56 45 33 
245 406 251 56 45 33 
246 405 248 56 45 33 
246 405 249 56 45 33 
247 404 249 57 46 34 
247 405 248 55 45 33 
247 405 249 56 45 34 
246 405 250 57 45 34 
246 405 251 57 46 34 
247 404 250 58 47 35 
247 404 251 59 47 35 
247 405 250 58 46 34 
246 406 248 55 44 33 
245 405 252 58 46 34 
245 405 253 59 46 34 
244 405 254 60 46 34 
244 405 255 61 46 34 
245 404 254 61 48 35 
245 404 255 62 48 35 
245 405 254 60 47 34 
245 405 255 62 47 35 
244 406 252 57 44 33 
244 406 253 57 45 33 
244 407 252 56 44 32 
245 406 252 57 45 33 
245 406 253 58 45 33 
244 406 254 59 46 33 
244 406 255 60 46 34 
246 404 252 59 47 34 
246 404 253 60 47 35 
246 405 252 58 46 34 
247 404 252 60 47 35 
247 404 253 61 48 36 
246 404 254 62 48 35 
246 404 255 63 49 36 
240 411 241 57 47 36 
241 411 240 55 45 34 
241 411 241 56 46 35 
240 411 242 57 47 36 
240 411 243 56 46 35 
241 410 242 56 47 36 
241 410 243 57 47 36 
241 411 242 57 47 36 
241 411 243 57 47 36 
243 409 240 55 46 36 
243 409 241 56 47 37 
242 409 242 56 46 36 
242 409 243 56 46 35 
243 409 242 56 47 36 
243 409 243 55 46 35 
242 410 240 57 48 38 
242 410 241 56 47 36 
242 411 240 57 47 37 
243 410 240 56 47 37 
243 410 241 56 46 36 
242 410 242 56 47 36 
242 410 243 56 45 34 
241 409 245 55 45 34 
241 409 246 55 45 34 
241 409 247 55 45 35 
240 410 245 57 46 34 
240 411 244 57 46 35 
240 411 245 57 46 34 
241 410 244 56 46 35 
241 410 245 56 46 35 
240 410 246 56 46 34 
240 410 247 55 45 34 
240 411 246 57 46 34 
240 411 247 56 46 34 
241 410 246 55 46 35 
241 410 247 55 45 34 
242 409 244 55 45 35 
242 409 245 54 45 34 
243 408 244 54 45 35 
243 408 245 54 45 34 
243 409 244 54 45 35 
243 409 245 54 45 34 
242 409 246 54 44 34 
242 409 247 54 44 33 
243 408 246 55 44 33 
243 408 247 55 44 33 
240 412 240 56 47 37 
240 412 241 57 47 37 
244 408 241 56 46 36 
244 409 240 56 47 37 
244 409 241 56 47 37 
245 408 240 56 46 36 
245 408 241 55 46 36 
244 408 242 55 45 36 
244 408 243 55 45 35 
244 409 242 55 46 36 
245 408 242 55 46 36 
245 408 243 55 45 35 
246 408 240 56 46 37 
246 408 241 55 46 37 
247 408 240 55 46 37 
244 408 244 55 45 35 
244 408 245 55 45 34 
245 408 244 55 45 35 
244 408 246 55 44 33 
244 408 247 54 44 33 
241 409 248 54 44 33 
241 409 249 54 44 32 
241 409 250 53 43 32 
241 409 251 53 43 32 
240 410 248 54 43 33 
240 410 249 52 43 33 
240 411 249 53 42 32 
240 410 250 52 42 34 
240 410 251 52 42 32 
241 410 250 53 43 33 
241 410 251 53 43 32 
242 408 248 54 44 32 
242 408 249 54 44 32 
242 409 248 54 43 32 
242 409 249 54 44 32 
243 408 248 54 44 33 
243 408 249 54 43 32 
242 408 250 53 43 32 
242 408 251 53 43 31 
242 409 250 53 43 32 
243 408 250 53 43 32 
243 408 251 53 43 31 
241 409 252 53 43 32 
241 409 253 52 42 31 
241 408 255 53 42 31 
241 409 254 52 42 31 
241 409 255 53 41 31 
240 410 252 52 42 31 
240 410 253 52 42 31 
241 410 252 53 43 32 
240 410 254 51 41 31 
240 410 255 53 42 29 
242 408 252 53 42 31 
242 408 253 54 43 31 
242 408 254 55 43 32 
242 408 255 55 43 32 
250 403 247 59 48 36 
251 403 247 59 48 37 
248 407 240 55 46 36 
248 407 241 55 45 35 
249 406 241 56 46 35 
249 407 240 55 46 36 
249 407 241 55 46 35 
248 406 242 56 45 34 
248 406 243 55 45 34 
248 407 242 55 45 35 
249 406 242 56 46 34 
249 406 243 55 45 35 
250 405 243 56 46 35 
251 405 243 56 46 35 
250 406 241 56 46 35 
250 407 240 56 46 36 
250 407 241 56 46 35 
251 406 240 56 46 35 
251 406 241 56 46 35 
251 407 240 56 46 36 
250 406 242 56 46 35 
250 406 243 55 45 35 
251 406 242 56 46 35 
251 406 243 56 46 35 
248 405 244 55 45 35 
248 405 245 55 45 34 
249 405 244 55 45 35 
249 405 245 55 45 35 
248 404 247 56 46 34 
248 405 246 55 45 34 
248 405 247 55 45 34 
249 404 247 57 46 35 
249 405 246 55 45 34 
248 406 244 55 45 34 
250 404 245 56 46 35 
250 405 244 56 46 35 
250 405 245 56 46 35 
251 404 245 57 47 36 
251 405 244 56 46 35 
251 405 245 56 46 35 
250 404 246 56 46 35 
250 404 247 57 47 35 
250 405 246 56 46 35 
251 404 246 58 47 36 
251 404 247 58 48 36 
250 406 244 55 45 35 
252 403 246 59 48 37 
252 403 247 59 49 37 
253 403 246 60 49 38 
253 403 247 61 50 39 
254 403 245 60 49 38 
255 403 245 60 49 38 
254 402 247 64 53 41 
254 403 246 61 50 39 
254 403 247 62 51 39 
255 402 247 64 53 41 
255 403 246 62 51 39 
252 405 242 56 46 35 
252 405 243 56 46 36 
253 405 242 57 46 36 
253 405 243 57 47 36 
252 406 240 56 46 35 
252 406 241 56 46 35 
252 407 240 56 46 36 
253 406 240 56 46 35 
253 406 241 56 46 35 
252 406 242 56 46 35 
253 406 242 56 46 35 
254 405 242 57 47 36 
254 405 243 58 47 36 
255 404 243 58 48 37 
255 405 242 58 47 36 
255 405 243 58 47 36 
254 406 240 56 46 35 
254 406 241 57 46 36 
255 406 240 57 46 36 
255 406 241 57 47 36 
254 406 242 57 46 36 
252 404 244 57 47 36 
252 404 245 58 47 36 
252 405 244 57 47 36 
253 404 244 58 47 36 
253 404 245 59 48 37 
252 404 246 58 48 36 
254 404 244 59 48 37 
254 404 245 59 49 37 
255 404 244 59 48 37 
255 404 245 60 49 38 
249 403 249 59 48 36 
248 403 250 60 48 36 
248 403 251 60 48 36 
249 402 250 62 50 38 
249 402 251 62 50 38 
249 403 250 61 49 37 
249 403 251 61 49 37 
251 401 251 65 53 40 
250 403 248 59 48 37 
250 403 249 61 49 38 
251 402 249 62 51 39 
251 403 248 60 49 37 
251 403 249 62 50 38 
250 402 250 62 50 38 
250 402 251 63 52 39 
250 403 250 61 50 37 
251 402 250 63 51 39 
251 402 251 65 53 40 
249 401 253 67 54 41 
248 401 254 67 53 39 
248 401 255 67 53 39 
249 400 255 70 57 42 
249 401 254 67 54 40 
249 401 255 69 55 41 
248 402 253 64 51 38 
248 403 252 61 49 36 
248 403 253 63 50 37 
249 402 252 63 51 38 
249 402 253 65 53 39 
249 403 252 62 50 37 
248 402 254 65 52 38 
248 402 255 67 53 39 
248 403 254 64 51 38 
250 400 253 68 55 42 
250 401 252 65 53 40 
250 401 253 67 55 41 
251 400 253 69 57 43 
251 401 252 66 54 41 
251 401 253 68 56 42 
250 400 254 69 56 42 
250 400 255 71 58 43 
250 401 254 68 55 41 
251 400 254 70 58 44 
250 402 252 64 52 39 
248 404 248 57 46 34 
248 404 249 58 46 35 
248 405 248 56 46 34 
249 404 248 58 47 35 
249 404 249 58 47 35 
248 404 250 59 47 35 
248 404 251 60 48 36 
250 404 248 58 48 36 
253 401 249 66 55 43 
252 401 250 65 53 41 
252 401 251 67 55 42 
253 400 251 69 58 45 
253 401 250 67 55 43 
253 401 251 68 56 43 
252 402 248 63 51 39 
252 402 249 63 51 39 
252 403 248 61 50 39 
253 402 248 64 52 40 
253 402 249 65 53 41 
253 403 248 62 51 39 
252 402 250 64 52 40 
253 402 250 65 54 41 
254 401 248 66 54 42 
254 401 249 67 56 43 
255 400 249 70 58 46 
255 401 248 67 55 43 
255 401 249 69 57 45 
254 400 250 70 58 45 
254 400 251 71 59 46 
254 401 250 68 57 44 
255 400 250 71 59 47 
255 400 251 72 60 47 
254 402 248 65 54 42 
255 402 248 66 55 43 
252 400 252 69 57 44 
252 400 253 70 58 45 
252 401 252 68 56 43 
253 400 252 70 58 45 
253 400 253 70 58 45 
254 400 252 71 59 46 
255 400 252 72 60 48 
231 425 207 72 35 38 
231 426 207 63 29 28 
231 427 207 47 33 28 
231 428 207 40 31 27 
231 429 206 42 28 29 
231 429 207 36 32 31 
231 431 205 43 33 31 
230 430 207 35 33 34 
230 431 207 35 34 34 
231 430 206 42 30 32 
231 430 207 36 33 33 
231 431 206 38 32 31 
231 431 207 37 33 34 
239 418 199 66 30 36 
239 419 199 56 26 30 
237 423 199 82 31 41 
238 421 199 64 34 32 
239 420 198 51 28 35 
239 420 199 54 30 29 
239 421 198 73 31 39 
239 421 199 61 33 34 
239 422 197 90 17 35 
239 423 197 89 17 28 
238 422 199 81 32 40 
238 423 198 95 24 45 
238 423 199 94 34 52 
239 422 198 89 25 43 
239 423 198 93 17 32 
233 419 206 41 25 26 
233 419 207 36 24 24 
235 417 206 45 35 33 
235 417 207 42 34 30 
234 419 204 43 29 30 
234 419 205 47 22 32 
235 418 204 39 26 24 
235 418 205 45 27 31 
235 419 204 43 29 27 
235 419 205 43 26 29 
234 418 206 42 24 28 
234 418 207 35 26 25 
234 419 206 45 22 29 
234 419 207 37 23 24 
235 418 206 45 29 31 
235 418 207 42 30 29 
235 420 203 50 27 30 
235 421 203 54 26 35 
235 423 201 52 37 38 
234 422 203 56 34 41 
234 423 203 48 38 36 
235 422 202 56 31 33 
235 422 203 56 31 39 
235 423 202 51 37 38 
235 423 203 51 37 36 
233 420 205 52 26 35 
233 421 205 53 31 36 
233 420 206 50 28 32 
233 420 207 49 32 32 
233 421 206 57 31 34 
233 421 207 62 39 40 
233 422 204 50 35 34 
233 422 205 48 31 32 
233 423 204 46 36 33 
233 423 205 47 29 30 
232 422 207 66 35 37 
232 423 207 72 35 35 
233 422 206 60 28 31 
233 422 207 70 39 38 
233 423 206 57 25 29 
234 420 204 50 29 35 
234 420 205 52 23 35 
234 421 204 57 34 41 
235 420 204 47 28 30 
234 422 204 56 38 40 
234 423 204 48 39 36 
237 417 203 61 35 27 
237 419 201 100 39 45 
236 418 203 56 32 26 
236 419 203 60 29 28 
237 418 202 86 34 37 
237 418 203 65 33 27 
237 419 202 88 36 40 
238 417 201 86 31 33 
239 416 201 76 34 31 
239 417 200 75 27 32 
239 417 201 79 30 31 
238 416 202 76 42 36 
238 416 203 69 44 33 
238 417 202 82 35 36 
238 417 203 67 40 32 
239 416 202 75 42 37 
239 416 203 65 48 36 
239 417 202 79 38 36 
238 418 200 87 23 34 
238 418 201 92 33 39 
238 419 200 83 27 36 
238 419 201 92 32 39 
239 418 200 76 22 34 
239 419 200 70 25 32 
238 418 202 96 31 38 
236 417 204 48 34 27 
236 417 205 48 35 29 
237 416 205 53 42 31 
237 417 204 57 40 30 
237 417 205 54 42 31 
236 417 206 49 36 32 
236 417 207 48 39 33 
237 416 206 51 41 32 
237 416 207 54 46 37 
236 418 204 44 31 25 
236 418 205 44 30 26 
236 419 204 46 30 24 
237 418 204 49 33 23 
238 416 204 60 46 34 
238 416 205 58 46 34 
239 416 204 58 46 34 
238 416 206 58 48 38 
238 416 207 59 51 42 
236 421 201 75 29 32 
237 420 201 97 45 48 
237 421 200 74 42 35 
237 421 201 83 40 38 
236 420 202 72 25 32 
236 420 203 61 24 30 
236 421 202 70 23 30 
237 420 202 88 36 41 
236 422 200 58 34 30 
236 422 201 59 31 27 
236 423 200 52 25 29 
236 423 201 50 33 31 
237 422 200 66 38 31 
237 423 200 60 30 30 
236 422 202 61 29 30 
238 420 200 78 34 31 
238 420 201 96 37 40 
238 421 200 70 37 29 
238 422 200 67 39 30 
235 428 199 49 32 34 
235 429 199 66 32 36 
235 430 199 81 29 39 
239 427 195 38 28 28 
237 424 199 76 27 34 
237 425 198 80 33 29 
237 425 199 66 33 28 
236 426 199 48 34 36 
236 427 199 46 31 33 
237 426 198 75 26 30 
237 426 199 60 32 31 
237 427 198 73 23 34 
237 427 199 56 28 31 
238 424 197 89 23 23 
238 425 197 84 30 24 
239 424 196 76 34 26 
239 424 197 83 27 24 
239 425 196 68 34 27 
239 425 197 79 35 24 
238 424 198 90 20 32 
238 425 198 85 32 29 
238 426 196 73 33 28 
238 426 197 82 25 31 
238 427 196 68 29 29 
238 427 197 83 29 41 
239 426 196 56 29 26 
239 427 196 51 28 26 
239 428 195 31 31 34 
239 429 194 32 34 36 
239 429 195 30 32 36 
239 431 193 56 27 28 
238 430 195 31 34 33 
238 431 195 38 33 30 
239 430 194 38 32 32 
239 430 195 30 32 34 
239 431 194 44 30 30 
239 431 195 38 31 30 
237 428 197 69 33 37 
237 429 197 57 35 31 
236 428 198 55 29 28 
236 428 199 51 33 32 
236 429 198 60 28 29 
236 429 199 66 30 35 
237 428 198 64 26 31 
237 429 198 56 31 27 
237 430 197 48 33 27 
237 431 196 42 32 29 
237 431 197 50 31 30 
236 430 198 67 33 33 
236 430 199 77 34 40 
236 431 198 69 32 31 
236 431 199 78 33 32 
237 430 198 58 32 29 
237 431 198 62 33 32 
238 428 196 50 28 29 
238 428 197 70 33 38 
238 429 196 39 32 28 
238 429 197 52 35 31 
238 430 196 35 35 32 
238 431 196 37 33 31 
233 425 203 37 33 35 
233 426 203 33 29 36 
233 427 203 35 30 37 
235 424 201 45 35 35 
235 425 201 41 32 34 
234 424 203 43 35 34 
234 425 202 39 33 33 
234 425 203 38 34 35 
235 424 202 45 35 33 
235 425 202 40 34 34 
234 427 201 34 34 37 
235 426 200 39 34 36 
235 426 201 36 35 37 
235 427 200 38 32 34 
235 427 201 36 35 36 
234 426 202 34 33 36 
234 426 203 34 31 35 
234 427 202 32 32 35 
232 425 205 57 41 33 
233 424 204 41 35 33 
233 424 205 44 30 28 
233 425 204 39 33 35 
233 425 205 48 35 31 
232 424 206 64 29 28 
232 424 207 73 30 33 
232 425 206 67 39 33 
232 425 207 74 37 37 
233 424 206 53 25 25 
232 426 205 58 40 37 
232 427 204 41 36 36 
232 427 205 53 41 37 
233 426 204 39 31 35 
233 426 205 48 37 35 
233 427 204 38 31 36 
232 426 206 67 43 37 
232 426 207 65 35 32 
232 427 206 58 38 34 
232 427 207 54 35 31 
234 424 204 44 37 34 
233 428 202 44 31 31 
233 428 203 40 30 33 
233 429 202 59 34 32 
233 429 203 52 34 32 
232 431 203 68 34 32 
233 430 202 71 37 35 
233 430 203 63 36 32 
233 431 202 76 33 36 
233 431 203 70 32 34 
234 428 201 49 32 35 
234 429 201 66 32 33 
235 428 200 53 31 34 
235 429 200 73 35 39 
234 428 202 41 32 33 
234 430 201 77 32 33 
234 431 200 85 30 36 
234 431 201 86 31 37 
235 430 200 83 30 37 
235 431 200 85 32 37 
234 431 202 82 31 33 
232 428 204 41 35 32 
232 428 205 48 34 32 
232 429 204 44 35 29 
232 429 205 45 31 30 
233 428 204 38 33 33 
233 429 204 47 35 31 
232 428 206 48 30 30 
232 429 206 44 27 30 
232 430 204 54 35 32 
232 430 205 46 34 32 
232 431 204 59 33 32 
232 431 205 50 34 32 
236 424 200 49 29 31 
236 424 201 46 33 34 
236 425 200 43 32 33 
236 425 201 41 34 34 
237 424 200 54 26 28 
236 426 200 40 34 36 
231 421 211 54 36 36 
231 423 209 58 29 32 
230 423 210 58 29 32 
230 423 211 57 31 35 
231 422 210 54 32 31 
231 422 211 57 35 37 
231 423 210 57 30 31 
231 423 211 56 30 35 
229 423 215 53 37 29 
231 421 212 56 39 36 
231 421 213 55 36 33 
231 421 214 52 36 30 
231 421 215 51 40 31 
230 422 212 62 38 40 
230 422 213 60 37 35 
230 423 212 59 36 36 
230 423 213 62 39 36 
231 422 212 61 38 39 
231 422 213 59 36 34 
230 422 214 56 36 31 
230 422 215 51 34 31 
230 423 214 58 37 32 
230 423 215 53 36 29 
231 422 214 54 35 31 
231 422 215 52 39 32 
231 419 222 64 54 45 
231 419 223 64 54 44 
229 423 216 56 40 31 
229 423 217 58 43 34 
229 422 219 65 52 40 
229 423 218 62 46 35 
229 423 219 65 50 37 
231 421 216 57 47 36 
231 421 217 61 50 41 
230 421 218 64 52 44 
230 421 219 66 54 43 
231 420 218 64 54 43 
231 420 219 65 53 41 
231 421 218 63 53 43 
231 421 219 67 55 42 
230 422 216 52 38 30 
230 422 217 58 45 35 
230 423 216 54 40 31 
230 423 217 60 47 36 
231 422 216 53 41 33 
230 422 218 64 50 41 
230 422 219 68 53 44 
230 423 218 63 50 38 
229 421 223 67 53 41 
228 423 221 67 49 37 
229 422 220 67 54 41 
229 422 221 65 51 40 
229 423 220 66 51 39 
229 423 221 65 49 38 
228 423 222 64 47 36 
228 423 223 64 45 35 
229 422 222 65 51 40 
229 422 223 65 50 39 
229 423 222 63 48 38 
230 421 220 68 55 43 
230 421 221 66 54 42 
231 420 220 65 54 41 
231 420 221 65 54 44 
231 421 220 67 55 41 
230 420 223 64 54 45 
230 421 222 65 54 44 
230 421 223 65 55 45 
231 420 222 63 53 44 
231 420 223 63 53 44 
230 422 220 68 54 43 
230 422 221 67 54 42 
230 422 222 66 54 43 
230 422 223 66 53 42 
227 429 214 39 33 33 
227 429 215 43 36 32 
227 431 213 38 34 34 
227 430 214 39 34 34 
227 430 215 40 34 33 
227 431 214 38 33 33 
227 431 215 38 32 32 
229 427 211 44 33 28 
230 425 209 64 32 33 
231 424 209 62 31 29 
231 425 208 68 32 35 
231 425 209 65 33 33 
230 424 210 60 33 33 
230 424 211 60 34 36 
230 425 210 62 30 32 
230 425 211 58 29 30 
231 424 210 59 33 31 
230 426 209 57 27 29 
230 427 208 38 32 30 
230 427 209 43 32 30 
231 426 208 59 29 28 
231 427 208 44 32 29 
230 426 210 53 26 29 
230 426 211 53 28 31 
230 427 210 45 32 31 
230 427 211 49 30 30 
229 424 213 62 42 36 
229 425 212 60 38 35 
229 425 213 61 42 36 
229 424 214 60 40 34 
229 424 215 56 40 32 
229 425 214 61 44 35 
229 425 215 57 43 36 
229 426 212 55 32 34 
229 426 213 57 38 33 
229 427 212 46 33 27 
229 427 213 47 35 28 
228 426 215 55 43 34 
228 427 214 48 36 32 
228 427 215 50 38 33 
229 426 214 57 41 31 
229 426 215 56 42 34 
229 427 214 52 37 31 
230 424 212 59 36 33 
230 424 213 61 39 35 
230 425 212 57 32 31 
229 428 210 39 32 30 
229 428 211 40 32 29 
229 429 210 37 32 33 
229 429 211 37 33 33 
229 430 209 33 32 35 
229 431 209 32 31 35 
