ply
format ascii 1.0
comment Created by CloudCompare v2.10.1 (Zephyrus)
comment Created 1/31/20 11:43 AM
obj_info Generated by CloudCompare!
element vertex 2168
property float x
property float y
property float z
property uchar red
property uchar green
property uchar blue
end_header
381 861 188 70 66 67 
381 861 189 69 65 67 
381 860 190 66 61 63 
381 860 191 66 61 62 
381 861 190 66 61 62 
381 861 191 66 61 62 
381 862 188 70 66 68 
381 862 189 68 64 64 
381 862 190 66 61 62 
381 862 191 67 62 62 
382 860 191 65 61 63 
382 862 188 67 63 65 
382 862 189 65 61 62 
382 863 188 66 63 64 
382 863 189 64 59 61 
383 862 188 69 63 63 
383 862 189 65 59 60 
383 863 188 64 60 61 
383 863 189 64 58 60 
382 862 190 64 58 60 
382 862 191 64 58 60 
383 862 190 64 57 60 
383 862 191 64 58 60 
383 863 190 64 57 60 
383 863 191 63 57 60 
367 875 171 62 57 60 
367 876 171 63 57 59 
367 877 171 63 58 60 
367 878 171 60 55 58 
367 876 172 61 57 58 
367 877 172 62 57 59 
367 881 171 61 56 57 
367 882 171 61 57 58 
365 883 172 62 57 57 
367 881 172 62 57 58 
367 881 173 60 56 57 
367 881 174 60 56 58 
367 881 175 60 56 57 
366 882 172 61 56 56 
366 882 173 62 57 56 
366 883 172 62 56 56 
366 883 173 62 57 57 
367 882 172 62 58 57 
367 882 173 61 57 56 
366 882 175 64 59 62 
366 883 174 61 57 58 
366 883 175 61 57 58 
367 882 174 62 58 58 
367 882 175 64 59 61 
364 885 173 65 60 61 
365 884 172 62 56 58 
365 884 173 62 56 58 
365 885 172 62 55 58 
365 885 173 63 58 59 
365 884 174 60 55 56 
365 884 175 60 56 58 
365 885 174 64 59 60 
365 885 175 62 59 62 
364 886 173 65 60 62 
364 887 173 64 60 62 
365 886 173 65 59 60 
364 886 174 65 60 61 
364 887 174 61 57 59 
365 886 174 65 60 62 
365 886 175 62 58 61 
365 887 174 60 56 58 
365 887 175 61 57 60 
366 884 172 64 57 58 
366 884 173 63 57 59 
366 884 174 59 54 55 
366 884 175 60 56 58 
363 890 173 61 56 57 
363 891 173 61 56 57 
363 892 173 61 57 58 
363 893 173 61 57 58 
363 894 173 64 59 61 
362 895 174 64 59 59 
363 894 174 65 59 61 
363 895 174 65 60 61 
363 895 175 66 59 59 
364 888 173 61 57 59 
364 889 173 60 55 56 
364 888 174 62 57 59 
364 889 174 62 57 58 
365 888 174 62 56 59 
365 888 175 62 57 60 
365 889 174 62 57 59 
365 889 175 61 57 59 
364 890 173 61 56 57 
364 891 173 61 57 58 
364 890 174 61 56 58 
364 891 174 62 57 58 
365 890 174 64 59 60 
365 890 175 63 59 60 
365 891 174 63 59 61 
366 889 175 62 58 58 
366 890 175 61 57 58 
366 891 175 64 59 60 
364 892 173 62 59 61 
364 892 174 64 60 61 
364 893 174 63 58 60 
365 892 174 64 60 61 
365 893 174 64 59 60 
365 893 175 63 57 59 
364 894 174 64 59 60 
364 894 175 64 58 59 
364 895 174 64 59 60 
364 895 175 65 58 58 
365 894 174 64 59 60 
365 894 175 64 58 59 
366 892 175 63 58 59 
366 893 175 63 58 60 
366 894 175 62 56 57 
367 881 176 61 57 59 
367 881 177 61 57 58 
366 883 176 62 58 61 
366 883 177 65 60 63 
367 882 176 63 59 61 
367 882 177 63 59 60 
367 883 177 67 62 64 
367 882 178 61 57 58 
367 883 178 64 60 62 
365 885 176 60 56 60 
365 886 176 62 58 61 
365 887 176 63 59 61 
366 884 176 60 56 59 
366 884 177 65 61 64 
366 885 176 62 57 61 
366 885 177 62 57 60 
367 884 177 65 60 64 
367 884 178 62 58 60 
367 885 178 62 58 59 
366 886 176 62 58 61 
366 886 177 61 57 59 
366 887 176 61 57 59 
366 887 177 62 57 59 
366 886 178 61 56 58 
366 887 178 62 57 59 
367 886 178 61 57 59 
367 887 178 60 56 59 
365 888 176 59 55 57 
365 889 176 60 56 58 
366 888 176 61 57 59 
366 888 177 62 57 60 
366 889 176 61 57 59 
366 889 177 60 56 60 
367 889 177 60 57 60 
366 888 178 60 56 60 
366 889 178 63 57 61 
367 888 178 60 56 60 
367 888 179 58 55 58 
367 889 178 61 58 61 
367 889 179 59 55 59 
366 890 176 61 57 59 
366 891 176 62 57 59 
367 890 177 61 57 60 
367 891 176 63 59 61 
367 891 177 63 59 63 
367 890 178 61 58 61 
367 890 179 60 56 58 
367 891 178 62 59 61 
367 891 179 62 59 60 
364 895 176 65 57 58 
365 895 176 64 58 58 
365 895 177 64 59 59 
366 892 176 64 59 60 
366 893 176 63 58 60 
367 892 176 63 59 61 
367 892 177 65 60 63 
367 893 176 65 60 61 
367 893 177 65 61 62 
367 892 178 64 60 62 
367 892 179 63 59 59 
367 893 178 63 58 59 
367 893 179 62 57 58 
366 894 176 65 59 60 
366 894 177 64 60 60 
366 895 176 65 60 61 
366 895 177 65 60 60 
367 894 177 64 59 60 
366 894 178 61 56 57 
366 895 178 62 57 57 
367 894 178 62 57 58 
367 894 179 62 57 58 
367 895 179 59 55 55 
367 894 180 60 54 54 
367 895 180 60 55 56 
371 867 169 56 50 56 
369 870 170 63 59 61 
369 871 170 60 56 59 
371 868 169 56 51 56 
371 869 169 58 53 58 
370 869 170 61 57 61 
370 869 171 54 48 51 
371 868 170 55 50 56 
371 869 170 55 49 54 
371 869 171 57 50 54 
370 870 170 62 58 60 
370 870 171 60 56 58 
370 871 170 63 58 60 
370 871 171 61 57 59 
371 870 171 60 55 57 
370 870 172 60 55 57 
370 871 172 60 56 59 
371 870 172 59 54 57 
371 871 172 59 55 58 
371 871 173 57 53 55 
373 864 168 52 48 52 
373 865 168 54 50 53 
373 865 169 53 50 53 
372 866 169 55 51 56 
372 867 169 57 53 58 
373 866 169 54 51 55 
372 867 170 58 55 60 
373 866 170 54 52 56 
373 866 171 55 52 56 
373 867 170 56 54 58 
373 867 171 55 51 56 
374 864 168 54 50 53 
374 864 169 51 48 51 
374 865 168 49 45 47 
374 865 169 50 47 50 
375 864 168 53 50 53 
375 864 169 53 50 53 
374 865 170 51 48 52 
375 864 170 54 52 54 
375 865 170 53 51 53 
375 865 171 53 50 53 
374 866 170 52 49 52 
374 866 171 53 50 54 
375 866 171 55 51 54 
373 867 172 53 48 53 
374 866 172 53 49 53 
374 867 172 54 49 52 
374 867 173 54 49 53 
375 866 172 55 51 53 
375 867 172 52 48 51 
375 867 173 53 48 52 
372 868 170 55 49 55 
372 868 171 55 49 53 
372 869 171 59 54 58 
372 868 172 54 49 53 
372 869 172 57 52 56 
372 869 173 59 54 57 
373 868 172 56 52 56 
373 868 173 54 49 52 
373 869 173 57 52 54 
373 869 174 58 52 56 
372 870 173 58 54 56 
372 870 174 59 55 58 
372 870 175 58 53 55 
372 871 174 57 53 56 
372 871 175 56 52 55 
373 870 174 58 53 57 
373 870 175 58 53 57 
373 871 175 58 52 56 
374 868 173 55 49 53 
374 868 174 54 49 53 
374 868 175 56 52 55 
374 869 174 57 51 55 
374 869 175 57 52 55 
375 868 174 53 48 52 
375 868 175 56 51 55 
375 869 175 57 54 56 
374 870 175 59 54 57 
369 872 170 58 54 58 
369 872 171 61 56 59 
369 873 170 58 54 58 
369 873 171 61 56 59 
368 874 171 59 52 58 
368 875 171 61 55 59 
370 872 171 61 56 58 
369 873 172 62 57 60 
368 874 172 60 54 58 
368 874 173 62 56 60 
368 875 172 61 56 58 
368 875 173 63 57 59 
369 874 172 62 57 61 
369 874 173 60 54 58 
368 875 174 62 57 60 
369 874 174 60 54 58 
369 874 175 59 54 57 
369 875 174 62 57 60 
369 875 175 58 53 56 
370 872 172 60 56 59 
370 872 173 59 55 59 
370 873 172 62 58 61 
370 873 173 60 56 59 
371 872 173 58 54 57 
370 873 174 59 55 58 
370 873 175 60 56 58 
371 872 174 57 53 57 
371 872 175 57 54 57 
371 873 174 59 55 58 
371 873 175 58 54 58 
370 874 174 60 55 58 
370 874 175 60 55 58 
370 875 175 58 53 55 
368 878 171 59 54 57 
368 879 171 59 54 57 
368 876 172 60 56 57 
368 876 173 61 56 58 
368 877 172 60 56 58 
368 877 173 59 55 57 
368 876 174 62 58 60 
368 876 175 63 59 60 
368 877 174 62 58 59 
368 877 175 61 58 59 
369 876 175 60 56 58 
368 878 172 60 56 58 
368 878 173 60 56 57 
368 879 172 62 57 59 
368 879 173 62 58 59 
368 878 174 59 55 56 
368 878 175 61 58 60 
368 879 174 59 56 57 
368 879 175 60 57 58 
372 872 175 56 52 56 
376 864 169 49 45 48 
376 864 170 53 50 52 
376 865 171 55 52 54 
377 864 170 52 48 51 
377 864 171 53 49 52 
377 865 171 54 50 53 
376 866 171 55 51 54 
378 864 170 53 49 52 
378 864 171 52 48 51 
378 865 171 52 48 51 
379 864 171 52 47 50 
376 866 172 54 48 52 
376 866 173 54 48 53 
376 867 173 53 48 51 
377 866 172 55 50 54 
377 866 173 55 49 54 
377 867 173 53 49 52 
376 867 174 54 50 52 
377 867 174 53 50 52 
377 867 175 54 50 51 
378 865 172 53 48 52 
378 865 173 54 47 52 
379 864 172 52 46 50 
379 865 172 53 46 51 
379 865 173 53 45 50 
379 864 174 57 52 55 
379 864 175 58 54 56 
379 865 174 55 48 53 
379 865 175 56 51 54 
378 866 172 55 49 54 
378 866 173 55 48 54 
378 866 174 54 49 53 
378 866 175 53 48 51 
378 867 174 51 48 50 
378 867 175 53 50 51 
379 866 174 55 47 53 
379 866 175 54 49 52 
376 868 174 54 50 53 
376 868 175 56 52 54 
377 868 175 56 52 54 
380 864 172 50 44 49 
380 864 173 54 48 52 
380 864 174 58 53 57 
380 864 175 58 55 58 
380 865 175 56 52 55 
372 871 176 58 53 57 
373 870 176 58 54 57 
373 871 176 59 54 56 
373 871 177 58 55 56 
373 871 178 58 54 54 
374 869 176 58 53 56 
375 869 176 57 53 55 
375 869 177 59 54 56 
374 870 176 59 55 57 
374 870 177 59 55 57 
374 871 177 58 54 54 
375 870 177 60 56 59 
374 871 178 59 55 56 
375 870 178 60 55 57 
375 871 178 57 53 54 
375 871 179 55 52 54 
371 872 176 55 50 56 
371 873 176 57 52 57 
371 873 177 57 53 57 
370 874 176 59 54 58 
370 875 176 57 53 55 
370 875 177 59 56 58 
371 874 176 58 53 57 
371 874 177 57 53 57 
371 875 177 60 56 58 
368 877 176 61 57 58 
369 876 176 59 55 57 
369 876 177 60 57 59 
369 877 176 61 57 59 
369 877 177 61 57 59 
368 878 176 62 59 59 
368 878 177 63 58 59 
368 879 176 62 58 59 
368 879 177 63 59 59 
369 878 177 62 58 59 
369 879 177 63 59 59 
369 878 178 62 58 59 
369 879 178 62 58 59 
370 876 176 58 55 58 
370 876 177 61 57 59 
370 877 177 61 57 59 
371 876 177 61 57 60 
370 876 178 60 55 56 
370 877 178 60 56 57 
371 876 178 59 54 57 
371 877 178 58 53 55 
371 877 179 56 52 53 
370 878 178 60 56 57 
370 878 179 58 53 53 
370 879 178 60 56 57 
370 879 179 59 54 55 
371 878 178 58 53 55 
371 878 179 57 52 53 
371 879 179 57 52 52 
371 878 180 55 51 52 
371 879 180 55 49 50 
372 872 176 57 53 57 
372 872 177 59 55 57 
372 873 177 59 54 57 
373 872 177 59 55 56 
372 873 178 60 55 56 
373 872 178 58 55 54 
373 873 178 58 54 54 
372 874 177 60 55 59 
372 874 178 60 54 56 
372 875 178 58 53 55 
373 874 178 56 51 52 
373 874 179 54 49 50 
373 875 178 54 51 52 
373 875 179 52 48 50 
374 872 178 57 54 53 
374 872 179 57 53 53 
374 873 179 57 52 52 
375 872 179 55 52 53 
374 874 179 53 49 48 
374 875 179 52 47 49 
374 873 180 55 51 51 
375 872 180 54 52 54 
375 873 180 54 50 52 
374 874 180 54 48 49 
374 875 180 52 46 49 
375 874 180 52 49 50 
375 874 181 51 48 50 
375 875 180 52 48 51 
375 875 181 52 50 53 
372 876 178 57 52 56 
372 876 179 55 51 54 
372 877 179 55 51 53 
373 876 179 54 50 53 
372 877 180 55 50 52 
373 876 180 52 47 50 
373 877 180 54 50 51 
372 878 180 55 51 52 
372 879 180 54 49 50 
372 879 181 53 49 50 
373 878 180 53 49 50 
373 878 181 55 52 54 
373 879 181 54 50 52 
374 876 180 52 48 51 
374 877 180 51 47 49 
374 877 181 54 51 55 
375 876 180 52 49 53 
375 876 181 52 50 54 
375 877 181 53 51 55 
374 878 181 56 53 56 
374 879 181 56 53 55 
375 878 181 54 52 56 
374 879 182 55 52 54 
375 878 182 55 53 55 
375 879 182 56 54 55 
377 867 176 56 53 54 
377 867 177 55 53 53 
378 864 177 57 53 56 
378 865 176 57 54 57 
378 865 177 56 52 54 
379 864 176 58 54 57 
379 864 177 57 53 56 
379 865 176 57 52 55 
379 865 177 55 51 54 
378 864 178 55 50 53 
378 864 179 57 52 54 
378 865 178 55 51 53 
378 865 179 56 52 54 
379 864 178 56 51 53 
379 864 179 57 52 55 
379 865 178 55 50 53 
379 865 179 56 52 55 
378 866 176 54 50 53 
378 866 177 56 52 55 
378 867 176 54 50 52 
378 867 177 55 53 54 
379 866 177 56 52 54 
379 867 176 55 52 54 
379 867 177 58 55 56 
378 866 178 55 52 54 
378 866 179 56 54 56 
378 867 178 55 52 53 
378 867 179 57 54 56 
379 866 178 55 51 53 
379 867 178 59 55 56 
379 867 179 57 52 54 
378 864 180 57 52 54 
378 864 181 58 54 57 
378 865 180 56 52 54 
378 865 181 57 53 56 
379 864 180 57 52 55 
379 864 181 60 55 58 
379 865 180 56 53 56 
379 865 181 59 56 59 
378 865 182 59 56 59 
379 864 182 64 59 62 
379 865 182 62 58 61 
379 865 183 64 59 62 
378 866 180 58 55 57 
378 866 181 59 56 58 
378 867 180 61 57 59 
378 867 181 59 56 58 
379 866 180 57 53 56 
379 866 181 60 58 60 
379 867 180 60 55 57 
379 867 181 60 56 59 
378 866 182 61 58 62 
378 867 182 59 56 59 
379 866 182 62 58 62 
379 866 183 63 60 62 
379 867 182 60 57 60 
379 867 183 61 58 60 
376 868 176 56 52 52 
376 869 176 56 52 53 
376 869 177 57 53 54 
377 868 176 56 53 54 
377 868 177 55 52 53 
377 869 177 55 52 54 
376 869 178 59 55 57 
377 868 178 53 51 53 
377 869 178 56 52 56 
377 869 179 55 52 56 
376 870 178 56 53 55 
376 871 179 55 52 55 
377 870 178 57 53 57 
377 870 179 57 55 57 
377 871 179 56 54 56 
378 868 178 55 52 54 
378 868 179 59 55 59 
378 869 179 56 52 55 
379 868 178 58 54 56 
379 868 179 58 53 56 
378 870 179 57 53 56 
377 871 180 58 55 57 
377 871 181 61 57 58 
378 868 180 60 56 59 
378 868 181 60 55 59 
378 869 180 58 54 57 
378 869 181 61 55 59 
379 868 180 59 53 56 
379 868 181 60 56 61 
379 869 181 60 57 61 
378 868 182 59 55 58 
378 869 182 60 56 59 
378 869 183 60 56 58 
379 868 182 59 55 58 
379 868 183 59 55 57 
379 869 182 60 57 59 
379 869 183 59 55 56 
378 870 180 58 53 56 
378 870 181 58 54 57 
378 871 181 61 57 59 
378 870 182 61 58 61 
378 870 183 62 59 62 
378 871 182 63 60 61 
378 871 183 64 61 63 
379 870 183 61 56 57 
379 871 183 60 56 57 
380 864 176 58 55 58 
380 864 177 58 54 58 
380 865 176 58 54 57 
380 865 177 59 55 58 
380 864 178 56 51 55 
380 864 179 58 53 56 
380 865 178 57 53 55 
380 865 179 57 53 56 
381 865 179 57 54 57 
380 866 177 56 52 55 
380 867 177 58 55 56 
380 866 178 55 51 52 
380 866 179 56 54 56 
380 867 178 57 54 56 
380 867 179 60 55 58 
381 866 179 57 53 56 
380 864 180 61 56 60 
380 864 181 62 58 61 
381 864 180 61 56 59 
381 864 181 63 58 61 
381 865 180 59 55 58 
381 865 181 60 56 58 
380 864 182 65 60 63 
380 864 183 65 61 64 
380 865 182 63 59 61 
380 865 183 65 60 62 
380 867 180 59 55 58 
381 866 180 61 57 60 
381 866 181 61 57 59 
381 867 180 60 56 60 
381 867 181 59 55 58 
382 865 181 63 58 59 
382 864 182 64 59 60 
382 865 182 63 59 59 
383 864 182 66 61 62 
383 864 183 65 61 61 
383 865 182 64 60 61 
383 865 183 65 60 61 
382 867 181 58 55 56 
382 866 182 61 58 58 
382 867 182 59 55 57 
383 866 182 62 58 60 
383 866 183 64 60 61 
383 867 182 60 57 59 
383 867 183 62 57 59 
380 868 179 58 53 55 
380 868 180 59 54 58 
380 868 181 58 54 59 
380 869 181 59 56 61 
381 868 180 58 54 59 
381 868 181 57 54 57 
381 869 181 59 56 58 
380 869 182 62 59 63 
381 869 182 60 56 57 
380 870 181 60 57 60 
381 870 181 60 57 58 
380 870 182 61 57 58 
380 870 183 60 55 56 
380 871 182 61 58 59 
380 871 183 61 58 60 
381 870 182 58 54 56 
381 871 182 63 60 61 
382 868 181 58 55 56 
382 868 182 60 55 57 
382 869 182 59 56 57 
383 868 183 61 56 58 
383 869 182 60 56 58 
383 869 183 61 56 57 
382 870 181 64 60 61 
382 870 182 60 56 57 
382 870 183 57 54 56 
382 871 182 56 53 54 
382 871 183 55 51 53 
383 870 183 56 53 55 
383 871 183 54 51 53 
379 865 184 65 61 62 
379 866 184 65 61 62 
379 866 185 65 61 62 
379 867 184 64 60 62 
378 869 184 61 57 59 
379 869 184 61 57 59 
378 870 184 61 58 61 
378 871 184 61 58 60 
379 870 184 60 57 58 
379 870 185 58 55 56 
379 871 184 58 55 56 
379 871 185 56 53 53 
379 871 186 54 51 51 
379 871 187 52 49 51 
379 871 188 52 49 51 
379 871 189 52 48 50 
380 864 184 66 62 64 
380 864 185 67 62 64 
380 865 184 65 61 62 
380 865 185 66 62 63 
381 864 184 66 63 65 
381 864 185 68 64 64 
380 864 186 66 62 64 
380 865 186 65 61 63 
380 865 187 65 61 63 
381 864 186 68 63 64 
380 866 184 65 62 63 
380 866 185 65 61 63 
380 866 186 64 61 62 
380 866 187 65 61 62 
380 866 188 65 60 61 
380 866 189 63 59 60 
380 866 190 65 60 61 
380 866 191 67 61 60 
380 870 184 58 54 56 
376 872 179 54 53 54 
376 872 180 56 54 56 
376 873 180 55 53 55 
376 873 181 53 52 54 
377 872 180 56 54 56 
377 872 181 59 57 59 
377 873 181 55 53 55 
377 872 182 62 59 61 
377 872 183 65 62 64 
377 873 182 54 52 55 
377 873 183 55 53 56 
376 874 181 50 48 51 
376 875 181 49 47 49 
376 874 182 52 50 52 
376 875 182 50 48 50 
377 874 182 52 51 54 
377 874 183 53 52 55 
377 875 182 51 50 52 
377 875 183 54 52 54 
378 872 182 64 61 61 
378 872 183 64 61 63 
379 872 183 57 54 55 
379 873 182 53 50 52 
379 873 183 53 50 51 
378 874 183 51 49 51 
378 875 183 56 53 55 
379 874 182 54 52 54 
379 874 183 53 51 53 
379 875 182 56 53 55 
379 875 183 59 56 58 
376 876 181 52 50 53 
376 877 181 53 51 53 
376 876 182 53 51 52 
376 877 182 53 51 52 
377 876 182 53 51 53 
377 876 183 55 52 54 
377 877 182 54 51 52 
377 877 183 56 53 53 
376 878 182 54 52 53 
376 879 182 54 52 54 
376 879 183 53 49 51 
377 878 182 53 51 52 
377 878 183 55 52 53 
377 879 183 55 52 54 
378 876 183 60 57 59 
378 877 183 60 56 57 
379 876 183 60 58 59 
379 877 183 59 55 56 
378 878 183 61 58 59 
378 879 183 58 56 58 
379 878 183 57 54 55 
379 879 183 56 53 55 
380 872 182 59 55 57 
380 872 183 59 55 57 
380 873 182 55 51 52 
380 873 183 56 52 53 
381 872 182 59 55 57 
381 873 182 55 51 53 
380 874 182 55 52 53 
380 875 182 57 54 56 
380 875 183 57 54 56 
381 874 182 56 53 55 
381 874 183 54 51 53 
381 875 182 56 53 55 
381 875 183 54 51 53 
382 872 182 55 51 53 
382 872 183 54 50 52 
382 873 183 53 50 53 
383 872 183 54 51 52 
383 873 183 53 50 53 
382 874 183 53 50 52 
382 875 183 52 49 52 
383 874 183 54 51 53 
380 876 183 57 54 56 
380 877 183 56 53 54 
381 876 183 55 52 55 
381 877 183 55 52 54 
380 878 183 57 53 55 
380 879 183 56 53 55 
382 876 183 55 52 55 
377 873 184 54 52 54 
377 873 185 50 47 49 
377 874 184 55 53 55 
377 874 185 56 54 56 
377 875 184 57 55 57 
377 875 185 57 55 56 
376 874 187 55 53 54 
377 874 186 57 54 56 
377 874 187 55 52 54 
377 875 186 56 53 54 
377 875 187 56 53 55 
378 872 184 61 59 61 
378 872 185 60 58 59 
378 873 184 55 52 53 
378 873 185 53 50 52 
379 872 184 59 55 56 
379 872 185 56 53 53 
379 873 184 53 50 51 
379 873 185 53 50 51 
378 873 186 54 51 54 
379 872 186 53 50 51 
379 872 187 52 49 51 
379 873 186 54 51 53 
378 874 184 52 49 51 
378 874 185 54 51 54 
378 875 184 53 50 52 
378 875 185 55 52 53 
379 874 184 51 48 50 
378 874 186 54 52 54 
378 874 187 55 52 55 
378 875 186 56 53 55 
378 875 187 56 53 56 
377 874 188 55 52 55 
377 875 188 55 52 55 
377 875 189 54 51 54 
377 875 190 53 51 54 
377 875 191 50 47 49 
379 872 188 52 49 51 
379 872 189 51 49 51 
383 873 184 53 50 52 
382 875 184 55 52 56 
383 874 184 54 50 52 
383 875 184 55 51 53 
381 877 184 56 53 55 
380 878 184 57 53 55 
380 879 184 56 53 55 
381 878 184 57 53 55 
381 879 184 59 55 56 
382 876 184 55 52 55 
382 877 184 56 53 55 
383 876 184 55 52 53 
383 877 184 56 52 55 
383 877 185 56 52 55 
382 878 184 58 54 56 
382 879 184 61 56 58 
382 879 185 59 55 57 
383 878 184 56 52 55 
383 878 185 56 52 55 
383 879 185 58 54 55 
368 880 171 61 56 57 
368 881 171 61 56 57 
368 880 172 62 58 59 
368 880 173 61 57 59 
368 881 172 62 58 58 
368 881 173 61 57 57 
368 880 174 60 56 58 
368 880 175 61 58 59 
368 881 174 60 57 58 
368 881 175 59 56 57 
368 880 176 62 59 60 
368 880 177 62 58 58 
368 881 176 61 58 59 
368 881 177 62 59 59 
368 881 178 59 55 56 
369 880 178 61 57 58 
369 881 178 60 56 57 
369 881 179 60 56 57 
368 882 177 64 60 60 
368 882 178 62 58 60 
368 883 178 62 57 60 
368 883 179 61 57 59 
369 882 178 59 55 56 
369 882 179 58 55 56 
369 883 179 59 55 57 
370 880 179 57 53 54 
370 881 179 56 52 54 
371 880 179 54 48 49 
370 882 179 55 51 53 
370 883 179 55 51 52 
370 881 180 54 50 52 
371 880 180 54 48 50 
371 881 180 55 50 51 
370 882 180 55 51 52 
370 883 180 53 49 50 
371 882 180 53 50 51 
371 883 180 51 47 47 
371 883 181 50 46 47 
368 884 178 62 57 60 
368 884 179 60 57 59 
368 885 178 62 58 61 
368 885 179 59 56 59 
369 884 179 57 53 56 
369 885 179 55 52 54 
368 886 178 62 58 60 
368 886 179 59 55 58 
368 887 179 57 54 56 
369 886 179 55 51 54 
370 884 179 53 50 50 
370 885 179 53 49 50 
369 885 180 53 50 52 
368 887 180 57 54 58 
369 886 180 53 51 53 
369 887 180 55 52 55 
370 884 180 52 48 48 
370 885 180 51 48 50 
371 884 180 51 46 46 
371 884 181 49 45 46 
371 885 180 49 46 47 
371 885 181 50 46 46 
370 886 180 53 50 53 
370 887 180 54 51 54 
370 887 181 55 52 55 
371 886 180 53 50 51 
371 886 181 52 49 51 
371 887 181 55 53 55 
372 880 180 54 48 50 
372 880 181 54 50 52 
372 881 181 54 51 53 
373 880 181 54 51 53 
373 881 181 54 51 53 
372 882 180 51 47 49 
372 882 181 53 49 52 
372 883 181 50 46 47 
373 882 181 55 51 53 
373 883 181 51 47 48 
374 880 182 56 53 55 
374 881 182 57 54 55 
375 880 182 55 52 54 
375 881 182 54 52 53 
374 882 182 55 52 54 
374 883 182 53 50 52 
375 882 182 53 49 52 
375 883 182 54 50 52 
372 884 181 49 46 46 
372 885 181 49 45 46 
373 884 181 50 46 47 
373 885 181 53 49 50 
373 884 182 49 45 45 
373 885 182 57 54 55 
372 886 181 54 52 54 
372 887 181 55 53 57 
372 887 182 57 54 57 
373 886 182 58 55 56 
373 887 182 60 57 59 
374 884 182 53 48 50 
374 885 182 56 51 52 
375 884 182 56 52 54 
375 885 182 57 53 55 
374 886 182 58 55 57 
374 887 182 60 57 59 
374 887 183 60 57 59 
375 886 182 58 54 56 
375 886 183 58 54 56 
375 887 183 61 57 60 
368 888 179 56 52 55 
368 889 179 59 56 58 
368 890 179 61 58 59 
368 891 179 61 56 56 
368 888 180 58 54 58 
368 889 180 58 54 56 
369 888 180 56 52 56 
369 888 181 56 52 54 
369 889 180 57 53 56 
369 889 181 57 54 57 
368 890 180 58 54 56 
368 891 180 60 55 56 
368 891 181 61 57 60 
369 890 181 59 56 58 
369 891 181 62 58 61 
369 891 182 62 58 61 
370 888 181 55 52 54 
370 889 181 57 53 55 
371 888 181 57 55 57 
371 889 181 57 53 55 
371 888 182 59 56 58 
371 889 182 59 56 58 
370 890 181 59 55 57 
370 890 182 60 56 57 
370 891 182 61 57 59 
371 890 182 60 57 58 
371 891 182 61 57 58 
371 891 183 60 56 58 
368 892 179 60 56 56 
368 893 179 60 54 55 
368 892 180 60 55 56 
368 892 181 62 58 60 
368 893 180 62 56 58 
368 893 181 64 59 61 
369 892 181 63 59 61 
369 893 181 64 59 61 
369 892 182 63 60 61 
369 893 182 64 60 62 
368 894 180 62 56 57 
368 894 181 62 57 58 
368 895 180 60 54 56 
368 895 181 61 54 56 
369 894 181 64 59 61 
369 894 182 64 59 60 
369 895 182 61 56 57 
370 892 182 63 59 61 
370 892 183 62 57 59 
370 893 182 64 59 60 
370 893 183 63 58 60 
371 892 183 61 57 59 
371 893 183 62 57 60 
370 894 182 63 59 60 
370 894 183 63 58 61 
370 895 182 61 57 58 
371 894 183 62 58 62 
371 895 183 61 59 62 
372 888 182 58 56 58 
372 889 182 59 56 58 
372 889 183 60 56 58 
373 888 182 61 58 60 
373 889 182 60 57 60 
373 889 183 61 58 60 
372 890 182 60 56 58 
372 890 183 60 56 58 
372 891 183 59 56 58 
373 890 183 60 57 60 
373 891 183 59 57 58 
374 888 183 61 57 60 
374 889 183 62 59 61 
375 888 183 62 58 61 
374 890 183 61 58 60 
374 891 183 59 56 58 
372 892 183 61 58 61 
372 893 183 62 58 62 
373 892 183 60 57 60 
373 893 183 60 57 60 
372 894 183 63 60 63 
372 895 183 63 60 64 
373 895 183 60 56 60 
374 889 184 62 59 61 
375 888 184 62 58 60 
375 889 184 60 57 60 
374 890 184 61 58 61 
374 891 184 59 57 60 
375 890 184 60 57 60 
375 891 184 60 56 59 
373 893 184 59 57 60 
373 894 184 60 57 61 
373 895 184 61 56 60 
374 892 184 59 57 60 
374 893 184 60 57 60 
375 892 184 61 57 60 
375 892 185 61 57 59 
375 893 184 61 58 60 
375 893 185 62 58 60 
374 894 184 60 58 61 
374 895 184 64 61 64 
375 894 184 62 59 62 
375 894 185 62 59 61 
375 895 184 63 60 63 
375 895 185 60 57 59 
376 880 182 53 50 52 
376 880 183 52 50 52 
376 881 182 53 51 52 
376 881 183 54 51 53 
377 880 183 55 53 56 
377 881 183 56 53 56 
376 882 182 53 49 51 
376 882 183 54 50 52 
376 883 182 55 52 53 
376 883 183 57 53 54 
377 882 183 57 53 54 
377 883 183 59 56 58 
378 880 183 56 54 56 
378 881 183 56 53 55 
379 880 183 57 55 57 
379 881 183 56 53 55 
378 882 183 59 56 57 
378 883 183 59 55 57 
379 882 183 59 55 56 
379 883 183 59 55 57 
376 884 182 59 55 57 
376 884 183 61 58 60 
376 885 182 59 55 56 
376 885 183 60 58 61 
377 884 183 61 58 60 
377 885 183 60 58 61 
376 886 183 59 57 58 
376 887 183 61 56 58 
377 886 183 60 58 61 
378 884 183 59 56 58 
379 881 184 54 51 53 
379 882 184 60 56 57 
379 883 184 60 56 58 
377 885 184 59 56 57 
376 887 184 61 57 59 
377 886 184 59 55 57 
377 887 184 62 58 59 
378 884 184 59 56 59 
378 885 184 59 55 58 
379 884 184 59 55 58 
379 885 184 59 54 56 
378 886 184 59 55 57 
378 887 184 61 57 57 
378 887 185 60 56 57 
379 886 184 59 54 56 
379 886 185 58 54 55 
379 887 185 58 54 55 
380 880 184 58 55 57 
380 881 184 57 54 57 
381 880 184 61 57 59 
381 881 184 61 57 59 
381 881 185 59 56 57 
380 882 184 59 56 57 
380 883 184 60 55 57 
381 882 184 59 55 57 
381 882 185 59 55 56 
381 883 184 59 55 56 
381 883 185 58 54 56 
382 880 184 61 57 59 
382 880 185 59 54 56 
382 881 185 58 55 56 
383 880 185 58 54 55 
383 881 185 58 54 55 
383 881 186 57 54 55 
382 882 185 58 54 56 
382 883 185 58 54 56 
383 882 185 58 54 55 
382 883 186 57 54 56 
383 882 186 57 54 55 
383 883 186 56 53 55 
380 884 184 59 54 57 
380 885 184 58 53 56 
380 885 185 57 52 55 
381 884 184 58 53 55 
381 884 185 58 53 55 
381 885 185 58 54 56 
380 886 185 59 54 56 
380 887 185 59 55 56 
381 886 185 58 54 55 
381 887 185 58 55 56 
381 886 186 57 53 55 
381 887 186 57 53 55 
382 884 185 57 54 55 
382 885 185 57 54 55 
382 884 186 57 54 55 
382 885 186 57 53 55 
383 884 186 57 55 57 
383 884 187 57 54 57 
383 885 186 58 54 58 
383 885 187 57 53 57 
382 886 186 57 53 55 
382 886 187 57 53 57 
382 887 186 56 52 55 
382 887 187 56 51 55 
383 886 187 57 53 57 
383 887 187 57 52 57 
383 887 188 57 53 56 
376 888 184 62 57 58 
376 889 184 62 58 60 
377 888 184 61 57 58 
377 888 185 61 57 58 
377 889 184 61 57 57 
377 889 185 62 58 60 
376 890 184 61 57 59 
376 890 185 62 58 60 
376 891 185 61 56 58 
377 890 185 61 57 60 
377 891 185 59 55 57 
377 891 186 59 54 57 
378 888 185 61 56 57 
378 889 185 61 58 59 
379 888 185 59 55 57 
379 889 185 61 57 59 
378 889 186 61 57 59 
379 889 186 61 57 59 
378 890 186 60 55 59 
378 891 186 58 53 57 
379 890 186 59 55 58 
379 891 186 58 53 56 
379 891 187 59 54 58 
376 892 185 62 57 59 
376 893 185 62 57 59 
377 892 185 59 55 56 
377 893 185 59 55 56 
377 892 186 59 54 56 
377 893 186 59 54 56 
376 894 185 60 57 58 
376 895 185 59 56 58 
377 894 186 58 53 55 
377 895 186 58 54 56 
378 892 186 59 54 57 
378 893 186 57 53 55 
378 893 187 57 53 57 
379 892 187 58 54 58 
379 893 187 57 53 57 
378 894 186 57 53 55 
378 894 187 57 53 56 
378 895 186 58 53 56 
378 895 187 58 53 55 
379 894 187 57 52 55 
379 895 187 58 53 55 
379 894 188 58 53 55 
379 895 188 58 52 54 
380 888 185 59 55 56 
380 888 186 58 54 55 
380 889 186 59 55 56 
381 888 186 58 53 55 
381 888 187 56 52 54 
381 889 186 57 52 55 
381 889 187 57 53 55 
380 890 186 60 56 59 
380 890 187 59 55 58 
380 891 187 59 55 58 
381 890 187 59 55 58 
381 891 187 58 54 57 
382 888 187 56 52 56 
382 889 187 57 54 56 
381 890 188 58 54 57 
381 891 188 57 53 55 
382 888 188 57 53 55 
382 889 188 56 52 54 
383 888 188 56 52 54 
383 888 189 55 51 52 
383 889 188 55 51 53 
383 889 189 55 51 53 
382 890 188 55 51 53 
382 891 188 55 50 52 
383 890 188 53 50 51 
383 890 189 55 51 53 
383 891 189 55 50 52 
380 892 187 59 54 57 
380 893 187 57 52 56 
381 892 187 59 54 57 
380 893 188 57 52 56 
381 892 188 58 53 55 
381 893 188 55 51 53 
380 894 188 58 53 56 
380 895 188 57 51 54 
381 894 188 56 51 52 
381 894 189 56 50 52 
381 895 188 56 50 52 
381 895 189 56 50 52 
382 892 188 56 51 52 
382 892 189 57 52 53 
382 893 188 56 50 52 
382 893 189 56 51 53 
383 892 189 55 50 51 
383 893 189 55 50 51 
382 894 189 57 52 53 
382 895 189 57 51 52 
383 894 189 55 50 50 
383 895 189 54 48 46 
383 894 190 54 48 47 
383 895 190 55 49 48 
383 857 192 65 57 60 
383 857 193 64 59 62 
382 858 192 64 62 63 
382 859 192 65 61 63 
382 859 193 62 62 65 
383 858 192 65 60 62 
383 858 193 63 59 61 
382 859 194 61 63 67 
383 858 194 63 59 61 
383 859 194 62 59 62 
383 859 195 67 64 67 
383 859 196 74 71 72 
381 860 192 66 61 62 
381 861 192 65 60 61 
381 862 192 65 60 60 
382 860 192 65 60 63 
382 860 193 65 63 66 
382 861 192 63 58 59 
382 861 193 62 58 59 
382 860 194 64 65 68 
382 861 194 62 59 61 
383 860 194 64 64 67 
383 860 195 67 66 68 
383 861 194 62 62 66 
383 861 195 64 62 65 
382 862 192 63 57 59 
382 862 193 61 56 57 
383 862 192 61 56 57 
383 862 193 60 55 57 
383 863 192 61 56 58 
383 863 193 60 55 57 
383 862 194 63 58 61 
383 862 195 65 60 62 
383 860 196 70 66 67 
383 860 197 68 64 65 
383 861 196 67 63 64 
383 857 207 52 49 49 
383 858 206 58 55 55 
383 858 207 53 51 51 
383 859 206 58 55 55 
383 859 207 55 52 52 
383 860 205 63 60 60 
383 860 206 61 58 58 
383 860 207 55 53 53 
383 855 215 33 31 30 
381 855 217 33 31 30 
381 855 218 33 30 29 
381 855 219 32 30 29 
382 855 216 33 31 30 
382 855 217 32 30 29 
383 855 216 32 30 29 
383 855 217 31 29 28 
382 855 218 32 29 29 
382 855 219 32 29 28 
383 855 218 31 29 27 
383 855 219 31 28 26 
382 855 220 33 28 27 
382 855 221 35 30 29 
383 854 220 33 29 28 
383 854 221 35 30 29 
383 855 220 32 28 26 
383 855 221 35 29 29 
383 854 222 35 30 30 
383 855 222 36 30 30 
383 857 208 51 48 49 
383 857 209 49 46 46 
382 857 211 41 39 39 
383 856 210 43 41 41 
383 856 211 42 39 39 
383 857 210 46 43 43 
383 857 211 42 40 40 
382 858 209 48 46 46 
382 859 209 49 46 47 
383 858 208 51 49 49 
383 858 209 49 46 47 
383 859 208 52 50 50 
383 859 209 51 48 49 
382 858 210 45 42 42 
382 858 211 42 40 40 
382 859 210 47 44 45 
382 859 211 43 41 41 
383 858 210 46 44 44 
381 857 213 38 36 35 
381 857 214 37 35 35 
381 857 215 36 34 34 
380 859 213 39 36 36 
381 858 212 40 38 37 
381 858 213 39 36 36 
381 859 212 40 38 38 
381 859 213 39 37 37 
380 858 214 38 35 35 
380 858 215 38 35 35 
380 859 214 38 36 35 
380 859 215 38 35 35 
381 858 214 38 36 35 
381 858 215 37 35 34 
381 859 214 39 36 36 
382 856 213 38 35 35 
382 857 212 39 37 36 
382 857 213 38 35 35 
383 856 212 38 36 35 
383 856 213 36 34 33 
383 857 212 40 37 37 
382 856 214 36 34 33 
382 856 215 35 33 32 
383 856 214 35 32 32 
383 856 215 34 32 31 
382 858 212 40 38 38 
382 859 212 41 39 39 
382 860 209 49 47 47 
383 860 208 53 50 51 
383 860 209 51 48 49 
383 861 208 55 52 53 
383 861 209 52 50 50 
382 860 210 47 45 46 
382 860 211 44 42 42 
382 861 211 47 44 45 
383 860 210 49 46 47 
383 861 210 49 47 47 
383 861 211 47 45 45 
383 862 210 50 48 48 
383 862 211 48 46 46 
381 860 212 41 39 39 
381 860 213 40 38 38 
381 861 213 41 39 39 
380 860 215 39 36 36 
381 860 214 39 37 37 
381 861 214 41 39 38 
381 861 215 40 38 38 
381 862 215 41 39 39 
382 860 212 42 40 40 
382 861 212 43 41 41 
382 861 213 42 40 40 
383 861 212 45 42 43 
382 861 214 41 39 39 
383 862 212 46 44 44 
383 862 213 45 43 43 
382 862 214 42 40 40 
382 862 215 42 40 41 
383 862 214 43 41 41 
383 863 214 43 41 42 
383 863 215 43 41 41 
379 862 219 39 34 33 
379 863 219 39 34 34 
381 856 216 34 32 31 
381 856 217 33 31 30 
381 857 216 35 32 32 
381 857 217 34 32 31 
381 856 218 32 30 30 
381 856 219 32 29 29 
381 857 218 33 31 30 
381 857 219 31 31 30 
380 858 216 37 34 33 
380 858 217 36 34 33 
380 859 216 37 35 34 
380 859 217 37 34 33 
381 858 216 36 34 33 
381 858 217 36 33 32 
380 858 218 36 33 32 
380 858 219 36 33 32 
380 859 218 37 33 32 
380 859 219 37 33 32 
381 858 218 35 33 32 
381 858 219 34 32 31 
382 856 216 34 31 31 
383 856 216 33 31 30 
382 856 219 31 29 28 
381 856 220 32 29 28 
381 856 221 34 30 29 
381 857 220 31 30 30 
381 857 221 34 30 29 
380 858 220 36 32 31 
380 859 220 37 33 31 
381 858 220 34 32 31 
381 858 221 32 31 31 
382 856 220 32 29 28 
382 856 221 36 30 29 
380 860 216 38 36 35 
380 860 217 38 35 34 
380 861 216 39 36 36 
380 861 217 38 35 34 
381 861 216 40 37 37 
380 860 218 37 34 33 
380 860 219 37 33 31 
380 861 218 38 34 33 
380 861 219 38 33 31 
380 862 216 39 37 36 
380 862 217 39 37 36 
381 862 216 41 39 39 
381 862 217 41 38 38 
381 863 217 42 40 40 
380 862 218 39 36 34 
380 862 219 38 34 32 
380 863 218 41 38 38 
380 863 219 40 37 36 
381 863 218 42 40 41 
382 862 216 42 40 40 
382 863 216 42 41 41 
382 863 217 42 41 41 
383 863 216 43 41 41 
383 863 217 42 41 41 
382 863 218 44 43 44 
383 863 218 40 39 39 
380 860 220 38 33 31 
380 861 220 39 33 30 
380 862 220 38 31 30 
377 875 192 49 44 47 
377 875 193 51 46 49 
377 875 194 51 46 49 
377 875 195 48 44 48 
377 875 196 47 44 45 
377 875 197 46 43 43 
377 875 198 46 44 44 
377 875 199 36 34 34 
377 876 192 50 46 50 
377 876 193 52 47 50 
377 876 194 50 45 48 
377 876 195 48 44 46 
377 877 194 49 44 46 
377 877 195 51 48 49 
377 876 196 49 46 46 
377 876 197 46 43 44 
377 877 196 53 49 49 
377 877 197 46 44 44 
377 876 198 45 43 43 
377 876 199 36 34 34 
377 877 198 43 40 40 
377 877 199 36 34 34 
377 875 200 36 34 34 
377 875 201 36 34 34 
377 875 202 36 34 34 
377 875 203 36 34 34 
377 875 204 36 34 33 
377 875 205 36 34 33 
377 875 206 36 34 33 
377 875 207 36 34 33 
377 876 200 36 34 34 
377 876 201 36 34 34 
377 877 200 36 34 34 
377 877 201 36 34 34 
377 876 202 36 34 34 
377 876 203 36 34 34 
377 877 202 36 34 34 
377 876 204 36 34 33 
380 864 219 41 39 39 
381 864 219 43 42 43 
383 864 217 43 41 41 
382 864 219 44 42 42 
383 864 218 44 41 41 
383 864 219 45 42 42 
380 864 220 41 39 39 
381 864 220 43 42 42 
381 864 221 43 40 39 
382 864 220 42 40 40 
382 864 221 42 39 39 
383 864 220 45 42 41 
383 864 221 46 43 41 
383 864 222 47 44 42 
377 875 208 36 34 33 
377 875 209 36 34 33 
377 874 210 36 34 33 
377 874 211 36 34 33 
377 874 212 36 34 33 
377 874 213 36 35 33 
377 874 214 36 35 32 
377 874 215 36 35 32 
377 873 216 36 34 32 
377 873 217 36 34 32 
377 874 216 36 35 32 
377 874 217 36 34 32 
351 924 180 86 78 79 
351 925 180 85 78 79 
350 926 180 87 79 80 
350 927 180 87 79 79 
351 926 180 85 78 78 
351 927 180 85 78 78 
341 935 185 96 87 88 
341 935 186 97 88 88 
343 933 184 99 90 90 
342 935 185 98 89 89 
343 934 184 99 90 90 
343 935 184 99 91 91 
343 935 185 99 90 91 
341 936 186 97 88 88 
342 936 185 95 86 86 
343 936 185 98 89 89 
342 936 186 97 87 87 
342 937 186 96 87 88 
342 937 187 96 87 88 
343 936 186 97 87 87 
343 937 186 95 86 86 
343 937 187 96 87 87 
343 938 188 96 87 86 
346 930 182 92 85 85 
346 931 182 91 83 84 
347 931 182 89 82 83 
344 932 183 96 86 87 
344 933 183 95 86 86 
345 932 183 93 85 86 
345 933 183 94 85 86 
346 932 182 90 83 85 
346 932 183 91 83 85 
346 933 183 91 83 84 
347 932 182 89 81 83 
347 932 183 89 80 83 
347 933 183 89 80 82 
348 928 181 89 81 81 
348 929 181 89 81 82 
349 928 181 91 83 84 
349 929 181 91 82 83 
348 930 181 91 83 83 
348 931 181 90 82 82 
349 930 181 91 83 83 
349 931 181 90 82 82 
348 931 182 90 82 83 
349 931 182 91 82 83 
350 928 180 89 81 80 
350 928 181 89 81 81 
350 929 181 90 81 81 
351 928 180 87 78 78 
351 928 181 87 79 79 
351 929 181 88 79 79 
351 929 182 88 79 78 
350 930 181 91 82 82 
350 931 181 91 83 83 
351 930 181 90 81 80 
350 930 182 89 81 81 
350 931 182 90 81 82 
351 930 182 89 80 79 
351 931 182 89 81 80 
351 931 183 89 81 81 
348 932 182 89 81 83 
348 932 183 89 81 83 
348 933 183 89 81 82 
349 932 182 91 83 84 
349 932 183 90 83 84 
350 932 182 89 81 82 
350 932 183 89 81 82 
350 933 183 88 80 81 
351 932 183 88 81 81 
351 933 183 88 80 81 
344 933 184 95 86 87 
345 933 184 93 84 85 
344 934 184 95 86 86 
344 935 184 97 89 88 
344 935 185 97 88 88 
345 934 184 94 85 86 
345 935 184 95 86 86 
345 935 185 95 86 87 
346 933 184 91 83 85 
347 933 184 89 80 82 
346 934 184 92 84 85 
346 934 185 93 85 86 
346 935 185 93 84 86 
347 934 184 88 81 82 
347 934 185 89 81 83 
347 935 185 91 82 84 
347 934 186 89 80 82 
347 935 186 90 79 81 
347 935 187 87 77 78 
348 933 184 89 80 82 
348 933 185 89 81 82 
349 933 184 91 83 84 
349 933 185 90 82 83 
348 934 185 89 80 81 
349 934 185 91 82 84 
348 934 186 89 81 83 
348 935 187 88 78 80 
349 934 186 91 83 85 
349 935 186 91 82 84 
349 935 187 88 78 78 
350 933 184 86 79 80 
350 933 185 86 78 80 
351 932 184 87 80 80 
351 933 184 86 78 80 
351 933 185 85 77 79 
350 934 185 86 79 80 
351 934 185 84 77 78 
350 934 186 86 78 77 
350 935 186 90 81 81 
350 935 187 87 77 76 
351 934 186 85 77 78 
351 935 187 84 76 76 
344 936 185 95 86 85 
345 936 185 94 86 86 
344 936 186 95 86 85 
344 937 186 95 86 86 
344 937 187 95 86 86 
345 936 186 95 86 86 
345 937 186 93 84 84 
345 937 187 92 83 82 
346 936 185 94 85 86 
346 936 186 92 82 83 
346 936 187 89 79 79 
346 937 186 91 82 82 
346 937 187 87 79 79 
347 936 186 91 81 82 
347 936 187 85 75 75 
344 938 188 95 85 84 
344 939 189 92 84 81 
345 938 188 90 82 80 
345 938 189 89 80 79 
345 939 188 90 81 79 
345 939 189 89 80 79 
346 937 188 87 78 78 
347 937 188 83 74 74 
346 938 188 86 77 76 
346 938 189 85 77 76 
346 939 189 86 77 77 
347 938 188 85 75 75 
347 938 189 86 76 76 
347 939 189 85 75 75 
347 939 190 85 75 76 
346 940 190 84 75 75 
347 940 190 84 74 76 
347 941 191 84 74 76 
348 936 187 82 73 73 
349 936 187 84 74 74 
350 936 187 83 73 73 
351 936 187 85 77 77 
348 936 188 82 71 72 
348 937 188 81 71 71 
349 936 188 82 71 72 
349 937 188 81 71 72 
348 938 188 82 73 73 
348 938 189 83 73 74 
348 939 189 82 73 73 
349 938 188 81 71 72 
349 938 189 81 71 71 
349 939 189 79 70 69 
348 939 190 83 74 74 
349 939 190 81 72 71 
349 939 191 81 71 71 
350 936 188 82 72 72 
350 937 188 81 71 72 
351 936 188 83 74 74 
351 937 188 81 73 73 
351 937 189 82 72 73 
350 938 189 81 71 71 
351 938 189 82 73 74 
350 938 190 82 71 72 
350 939 190 81 71 72 
350 939 191 83 73 73 
351 938 190 80 71 72 
351 938 191 81 73 75 
351 939 191 82 73 75 
348 940 190 83 74 74 
348 941 191 84 75 74 
349 940 190 81 72 71 
349 940 191 81 73 71 
349 941 191 83 74 73 
350 940 191 81 71 72 
359 900 175 67 62 62 
359 901 175 68 63 62 
361 896 174 63 58 58 
361 897 174 63 59 58 
361 897 175 65 59 58 
360 898 175 66 60 60 
360 899 175 65 60 60 
361 898 175 67 61 60 
362 896 174 64 59 58 
362 896 175 65 59 59 
362 897 175 66 60 60 
363 896 175 66 59 59 
360 900 175 67 62 62 
359 901 176 66 61 61 
358 903 176 66 61 61 
359 902 176 67 62 62 
359 902 177 66 60 61 
359 903 176 66 61 61 
359 903 177 67 61 62 
355 910 178 71 63 63 
355 911 178 72 65 65 
357 905 177 68 61 63 
356 907 177 69 63 64 
357 906 177 68 62 63 
357 907 177 68 62 63 
357 907 178 67 61 62 
358 904 176 68 62 63 
358 904 177 68 61 63 
358 905 177 68 62 64 
359 904 177 68 62 63 
358 905 178 70 65 66 
359 904 178 70 64 66 
359 905 178 71 65 67 
359 905 179 69 63 65 
358 906 177 67 61 62 
358 906 178 67 61 63 
358 906 179 68 62 63 
358 907 178 67 61 62 
358 907 179 67 62 63 
359 906 179 69 63 65 
359 907 179 68 63 64 
359 907 180 68 62 63 
356 908 177 69 63 66 
356 909 177 69 62 64 
357 908 177 68 62 64 
356 909 178 68 62 62 
357 908 178 67 62 63 
357 908 179 68 63 64 
357 909 178 67 62 63 
357 909 179 69 64 64 
356 910 178 70 62 63 
356 910 179 71 65 65 
356 911 178 70 63 63 
356 911 179 71 64 65 
357 910 179 70 65 65 
357 911 179 71 65 65 
358 908 179 69 63 64 
358 909 179 69 64 65 
356 911 180 72 66 66 
357 910 180 70 64 65 
357 911 180 71 65 65 
357 911 181 72 65 67 
358 908 180 69 65 65 
358 909 180 70 65 66 
359 908 180 69 64 65 
359 908 181 67 63 64 
359 909 180 70 65 67 
359 909 181 68 64 65 
359 909 182 66 62 63 
358 910 180 71 65 67 
358 910 181 70 65 66 
358 911 181 71 64 66 
359 910 181 70 65 66 
358 911 182 72 66 68 
359 910 182 68 63 65 
359 911 182 71 65 67 
359 911 183 70 64 66 
361 897 176 65 59 58 
360 899 176 68 62 62 
361 898 176 68 62 61 
361 899 176 68 62 62 
361 899 177 67 61 62 
362 897 176 67 60 61 
362 897 177 67 61 62 
363 896 176 67 59 61 
363 897 176 67 60 61 
363 897 177 66 59 60 
362 898 176 66 60 60 
362 898 177 65 60 60 
362 899 177 65 59 60 
363 898 177 66 60 61 
362 899 178 67 61 62 
363 898 178 67 62 63 
363 899 178 68 63 64 
363 899 179 69 64 65 
360 900 176 67 62 63 
360 901 176 66 59 61 
360 901 177 66 60 62 
361 900 176 70 64 65 
361 900 177 69 62 65 
361 901 177 67 61 64 
361 901 178 67 61 64 
360 902 177 67 60 62 
360 902 178 66 61 63 
360 903 178 66 61 63 
361 902 178 67 62 64 
361 902 179 70 64 66 
361 903 178 66 61 64 
361 903 179 68 63 65 
362 900 177 66 60 62 
362 900 178 68 62 64 
362 901 178 68 62 65 
362 901 179 68 62 65 
363 900 178 68 62 64 
363 900 179 67 62 63 
363 901 179 68 62 64 
362 902 178 69 63 65 
362 902 179 68 62 64 
361 903 180 70 65 66 
363 901 180 68 63 64 
362 902 180 69 63 65 
362 903 180 69 64 65 
362 903 181 67 62 63 
363 902 180 67 62 64 
363 902 181 68 63 64 
363 903 181 67 62 63 
364 896 176 65 57 59 
364 896 177 65 58 59 
364 897 177 65 57 58 
365 896 177 65 60 61 
364 897 178 67 62 63 
365 896 178 69 64 65 
365 897 178 68 62 64 
365 897 179 67 62 63 
364 898 178 68 62 63 
364 898 179 68 62 64 
364 899 179 69 63 65 
365 898 179 66 61 63 
366 896 178 65 61 61 
366 896 179 61 57 58 
366 897 179 64 59 60 
367 896 179 59 55 55 
365 898 180 63 58 60 
365 899 180 63 58 61 
365 899 181 60 54 57 
366 897 180 61 56 57 
367 896 180 60 56 57 
367 896 181 59 55 56 
367 897 180 61 57 58 
367 897 181 59 55 57 
366 898 180 60 56 58 
366 898 181 59 55 56 
366 899 181 58 53 56 
367 898 181 59 55 57 
367 899 181 59 55 57 
367 899 182 60 57 59 
364 900 179 68 62 65 
364 900 180 67 62 64 
364 901 180 67 62 64 
364 901 181 63 57 60 
365 900 180 62 57 60 
365 900 181 59 53 57 
365 901 181 59 53 57 
365 901 182 58 52 56 
364 902 180 66 61 63 
364 902 181 64 58 61 
364 903 181 65 60 63 
365 902 181 59 53 57 
364 902 182 60 54 58 
364 903 182 61 55 58 
365 902 182 59 52 56 
365 903 182 57 51 55 
365 903 183 58 52 55 
366 900 181 58 52 55 
366 900 182 58 53 55 
366 901 182 58 52 55 
367 900 182 60 57 59 
367 901 182 58 53 56 
367 901 183 62 58 61 
366 902 182 57 52 53 
366 902 183 58 53 53 
366 903 183 57 52 54 
367 902 183 63 59 61 
367 903 183 59 55 56 
367 903 184 59 54 56 
360 904 178 66 61 62 
360 904 179 67 61 64 
360 905 179 67 62 63 
361 904 179 69 63 65 
360 906 179 67 61 62 
360 905 180 70 64 66 
361 904 180 71 66 67 
361 905 180 70 64 66 
361 905 181 68 63 66 
360 906 180 67 61 62 
360 907 180 66 62 63 
360 907 181 67 62 63 
361 906 180 68 63 64 
361 906 181 68 63 65 
361 907 181 67 63 64 
361 907 182 67 63 65 
362 904 180 70 64 65 
362 904 181 66 61 62 
362 905 181 65 60 62 
363 904 181 66 61 62 
362 905 182 64 59 60 
363 904 182 64 59 60 
363 905 182 63 57 59 
363 905 183 61 55 56 
362 906 181 64 60 62 
362 906 182 64 59 61 
362 907 182 64 60 61 
362 907 183 63 59 60 
363 906 182 61 56 57 
363 906 183 59 54 54 
363 907 183 60 56 57 
360 908 181 66 62 63 
360 909 181 67 62 63 
360 909 182 67 62 63 
361 908 182 66 63 64 
361 908 183 65 61 63 
361 909 182 67 63 64 
361 909 183 67 63 64 
360 910 182 67 62 65 
360 910 183 67 62 64 
360 911 183 69 63 65 
361 910 183 67 62 64 
361 911 183 66 61 62 
362 908 183 64 59 61 
362 909 183 64 59 62 
363 908 183 62 57 59 
362 910 183 66 62 64 
364 904 182 60 55 57 
364 904 183 59 54 56 
364 905 183 59 54 56 
365 904 183 57 52 55 
365 905 183 56 52 54 
364 906 183 56 52 53 
366 904 183 58 54 56 
361 911 184 68 63 64 
362 909 184 62 57 59 
363 908 184 62 56 58 
363 909 184 62 56 59 
363 909 185 62 56 58 
362 910 184 64 59 61 
362 911 184 66 62 64 
362 911 185 65 60 62 
363 910 184 63 58 60 
363 910 185 63 58 59 
363 911 185 63 58 60 
363 911 186 64 59 60 
365 905 184 56 51 53 
364 906 184 55 50 51 
364 907 184 58 53 54 
364 907 185 60 54 55 
365 906 184 57 52 53 
365 907 184 59 54 55 
365 907 185 61 56 57 
366 904 184 58 54 55 
366 905 184 58 54 55 
366 905 185 59 54 53 
367 904 184 58 54 55 
367 904 185 58 53 53 
367 905 185 60 55 54 
366 906 184 60 54 55 
366 906 185 59 53 54 
366 907 185 61 56 56 
367 906 185 62 56 57 
367 907 185 60 54 55 
366 907 186 61 56 57 
367 906 186 63 58 58 
367 907 186 61 56 57 
367 907 187 62 57 58 
364 908 184 60 55 56 
364 908 185 61 55 56 
364 909 185 62 56 57 
365 908 185 62 56 57 
365 909 185 63 57 57 
365 908 186 62 57 58 
365 909 186 63 58 59 
364 910 185 63 57 59 
364 910 186 64 59 61 
364 911 186 64 58 61 
364 911 187 63 57 59 
365 910 186 64 59 62 
365 910 187 66 61 64 
365 911 187 64 59 62 
366 908 186 62 57 58 
366 908 187 62 57 59 
366 909 187 65 59 62 
367 908 186 61 56 58 
367 908 187 62 56 58 
367 909 187 64 58 61 
366 910 187 66 61 64 
365 911 188 64 59 62 
366 909 188 66 60 63 
367 909 188 63 58 59 
367 909 189 63 57 58 
366 910 188 65 59 62 
366 911 188 65 59 62 
366 911 189 65 61 62 
367 910 189 64 59 60 
367 911 189 65 60 61 
367 911 190 65 61 60 
354 912 178 72 65 64 
354 913 178 73 65 66 
355 912 178 73 66 66 
355 912 179 71 65 66 
355 913 178 72 65 66 
355 913 179 72 66 67 
354 914 178 74 67 67 
354 914 179 76 69 70 
354 915 178 75 68 69 
354 915 179 77 70 72 
355 914 179 74 68 69 
355 915 179 75 68 70 
355 913 180 71 65 67 
355 914 180 72 66 68 
355 915 180 74 69 71 
355 915 181 73 67 69 
353 917 179 80 73 74 
352 919 179 83 75 77 
353 918 179 80 72 74 
353 919 179 82 73 75 
354 916 179 78 72 74 
354 917 179 78 72 73 
353 918 180 78 70 72 
353 919 180 79 71 73 
354 916 180 79 73 75 
354 917 180 78 72 73 
355 916 180 77 72 73 
355 916 181 75 69 70 
355 917 180 78 72 73 
355 917 181 75 69 70 
354 918 180 78 72 73 
354 919 180 77 71 71 
354 919 181 77 71 71 
355 918 180 80 74 74 
355 918 181 76 70 71 
355 919 181 78 72 72 
355 919 182 77 71 72 
356 912 179 70 64 64 
356 912 180 73 67 67 
356 912 181 72 66 67 
356 913 180 71 65 67 
356 913 181 72 67 68 
357 912 181 72 66 67 
357 913 181 73 67 68 
357 912 182 72 66 68 
357 913 182 72 66 67 
356 914 181 73 67 69 
356 915 181 72 66 68 
356 914 182 73 67 68 
356 915 182 73 66 68 
357 914 182 73 67 68 
357 914 183 72 66 67 
357 915 182 74 67 68 
357 915 183 73 66 68 
358 912 181 71 65 67 
358 912 182 71 65 67 
358 912 183 70 65 66 
358 913 183 71 64 66 
359 912 182 70 65 67 
359 912 183 69 64 67 
359 913 183 71 66 68 
358 914 183 71 65 66 
358 915 183 71 65 67 
356 916 181 75 68 69 
356 916 182 74 66 68 
356 917 182 75 67 69 
357 916 183 73 66 68 
357 917 183 73 66 68 
356 918 182 75 69 69 
356 918 183 73 66 68 
356 919 182 76 69 70 
356 919 183 74 68 68 
357 918 183 74 67 69 
357 919 183 73 67 68 
359 913 184 71 66 68 
358 914 184 72 66 67 
358 915 184 71 65 67 
359 914 184 72 66 68 
359 915 184 70 64 67 
359 915 185 70 65 67 
357 919 184 73 67 69 
358 916 184 72 66 68 
358 917 184 72 65 68 
359 916 184 71 65 68 
359 916 185 70 65 68 
359 917 184 71 64 67 
359 917 185 70 65 68 
358 918 184 73 66 69 
358 918 185 72 65 68 
358 919 184 73 67 70 
358 919 185 72 66 68 
359 918 184 71 63 68 
359 918 185 71 65 68 
359 919 185 72 66 69 
359 919 186 72 66 70 
352 920 179 83 75 76 
352 921 179 84 75 77 
352 922 179 85 76 78 
352 923 179 85 77 79 
352 920 180 82 74 75 
352 921 180 83 75 75 
353 920 180 81 73 74 
353 920 181 78 71 71 
353 921 181 81 73 73 
353 921 182 80 72 73 
352 922 180 85 76 77 
352 922 181 84 75 76 
352 923 180 85 77 79 
352 923 181 86 77 78 
353 922 181 84 76 76 
353 923 181 84 76 76 
353 922 182 81 73 75 
353 923 182 83 74 75 
354 920 181 77 70 70 
354 920 182 79 71 72 
354 921 182 80 71 73 
355 920 182 79 72 73 
355 920 183 76 70 70 
355 921 182 79 71 73 
355 921 183 79 71 73 
354 922 182 80 72 74 
354 922 183 79 72 75 
354 923 182 81 72 75 
354 923 183 81 73 76 
355 922 183 80 72 75 
355 923 183 80 72 77 
352 924 180 85 77 78 
352 924 181 87 78 79 
352 925 180 84 77 79 
352 925 181 84 77 78 
353 924 181 86 77 78 
353 924 182 84 76 77 
353 925 182 83 75 76 
353 925 183 83 74 76 
352 926 180 85 78 79 
352 926 181 84 76 79 
352 927 180 85 78 79 
352 927 181 85 78 80 
353 926 181 83 76 77 
353 927 181 82 75 77 
352 927 182 84 77 79 
353 926 182 81 74 76 
353 927 182 83 76 78 
353 927 183 82 75 76 
354 924 183 82 73 75 
354 925 183 83 74 76 
354 926 183 83 75 76 
354 927 183 83 75 77 
356 920 183 76 69 69 
356 921 183 76 69 70 
357 920 183 74 67 68 
355 922 184 80 72 75 
355 923 184 80 72 76 
354 925 184 82 74 75 
355 924 184 80 73 76 
355 925 184 80 72 75 
355 925 185 82 75 77 
354 926 184 82 74 76 
354 927 184 82 75 76 
354 927 185 82 75 76 
355 926 184 80 73 75 
355 926 185 81 73 75 
355 927 185 81 74 76 
355 927 186 81 73 75 
356 921 184 76 70 71 
357 920 184 74 68 69 
357 921 184 75 68 69 
356 922 184 77 71 72 
356 923 184 78 71 74 
357 922 184 75 68 69 
357 922 185 75 69 70 
357 923 185 76 69 70 
358 920 184 73 67 68 
358 920 185 73 67 68 
358 921 184 74 68 69 
358 921 185 74 68 69 
359 920 185 72 66 68 
359 920 186 72 66 69 
359 921 186 72 67 68 
358 922 185 73 67 68 
358 923 185 75 69 70 
358 922 186 72 67 68 
358 923 186 74 69 70 
359 922 186 72 67 68 
359 923 186 73 67 69 
359 923 187 71 66 67 
356 924 184 79 72 74 
