ply
format ascii 1.0
comment Created by CloudCompare v2.10.1 (Zephyrus)
comment Created 2/3/20 1:25 PM
obj_info Generated by CloudCompare!
element vertex 2218
property float x
property float y
property float z
property uchar red
property uchar green
property uchar blue
end_header
263 492 87 56 28 35 
263 493 87 50 24 25 
258 488 89 45 38 32 
259 488 88 49 32 39 
259 488 89 43 36 34 
259 489 89 43 36 32 
258 488 90 41 31 34 
258 488 91 64 24 31 
258 489 90 35 21 34 
258 489 91 32 28 34 
259 488 90 43 33 37 
259 489 90 36 28 33 
259 490 89 81 30 24 
258 490 90 41 18 25 
258 490 91 41 31 33 
258 491 91 61 32 31 
259 490 90 65 28 28 
259 491 90 119 36 52 
259 491 91 87 27 39 
258 488 92 104 21 40 
258 488 93 129 21 41 
258 489 92 73 21 44 
258 489 93 106 18 37 
258 488 94 142 19 47 
258 488 95 147 10 51 
258 489 94 129 7 38 
258 489 95 141 6 49 
259 489 95 140 5 50 
258 490 92 34 26 31 
258 490 93 82 19 26 
258 491 92 47 31 25 
258 491 93 65 21 27 
259 491 92 56 33 30 
259 491 93 58 26 31 
258 490 94 114 12 37 
258 490 95 133 7 49 
258 491 94 91 26 32 
259 490 95 134 13 50 
259 491 94 92 31 38 
259 491 95 120 15 42 
259 492 90 129 22 42 
259 492 91 109 10 40 
259 492 92 71 27 34 
259 492 93 53 29 35 
259 493 92 78 30 33 
259 493 93 64 27 31 
259 492 94 58 26 29 
259 492 95 93 21 32 
259 493 94 65 23 25 
259 493 95 92 8 25 
260 488 88 53 34 38 
260 489 88 58 39 30 
260 490 88 90 36 27 
260 490 89 88 31 23 
260 491 88 127 50 61 
260 491 89 143 32 64 
261 490 88 90 40 38 
261 491 88 109 22 41 
260 491 90 148 32 64 
262 491 88 82 14 29 
260 492 89 145 7 49 
261 492 88 109 6 27 
261 492 89 130 5 27 
261 493 89 144 12 37 
260 492 90 136 12 36 
260 493 90 144 7 29 
260 493 91 124 15 42 
261 493 90 152 9 31 
261 494 89 171 17 60 
260 494 90 154 5 31 
260 494 91 147 8 38 
261 494 90 166 9 46 
261 495 90 175 9 44 
261 495 91 177 9 51 
262 492 88 94 13 32 
262 493 88 136 27 50 
263 493 88 98 22 39 
262 494 88 163 8 57 
262 494 89 164 16 58 
262 495 89 175 5 40 
263 494 88 128 7 41 
263 495 88 162 4 44 
262 495 90 174 8 30 
260 493 92 98 21 30 
260 493 93 85 21 24 
260 493 94 85 11 29 
260 493 95 106 2 36 
260 494 92 133 9 33 
260 494 93 130 4 39 
260 495 92 167 5 52 
260 495 93 175 6 53 
261 495 92 180 9 52 
261 495 93 180 0 35 
260 494 94 136 5 50 
260 494 95 143 8 62 
260 495 94 173 3 48 
260 495 95 164 4 49 
261 495 94 178 2 36 
264 480 83 48 36 36 
264 481 83 49 30 34 
265 480 83 45 36 37 
265 481 83 51 34 39 
264 482 83 62 33 35 
264 483 83 69 34 32 
265 482 83 68 34 39 
265 483 83 87 42 46 
266 480 83 46 35 38 
266 481 83 53 40 43 
267 480 83 45 34 41 
267 481 83 53 36 40 
266 482 83 62 38 38 
266 483 83 73 34 33 
267 482 83 53 35 36 
264 483 84 77 38 36 
265 483 84 92 44 48 
266 483 84 93 35 39 
267 483 84 65 27 25 
264 484 84 94 36 34 
264 485 84 100 16 24 
265 484 84 119 33 45 
265 485 84 133 17 37 
264 486 84 110 18 28 
264 487 85 113 27 37 
265 486 84 133 10 37 
265 487 84 131 5 37 
265 487 85 122 18 37 
266 484 84 128 26 51 
266 485 84 152 18 53 
267 484 84 118 8 38 
267 485 84 153 6 48 
266 486 84 151 7 42 
266 487 84 141 3 39 
266 487 85 137 4 39 
267 486 84 155 0 32 
267 487 84 148 0 33 
267 487 85 144 8 36 
268 480 83 44 36 39 
268 481 83 51 32 35 
269 480 83 48 39 41 
269 481 83 52 32 39 
268 482 83 54 31 41 
270 480 83 50 39 43 
270 481 83 52 32 47 
271 480 83 50 37 39 
268 482 84 55 30 42 
268 483 84 65 23 31 
269 482 84 62 34 43 
269 483 84 84 34 40 
270 481 84 49 33 43 
271 480 84 52 34 42 
271 481 84 45 37 38 
270 482 84 61 34 38 
270 483 84 93 32 40 
271 482 84 57 33 31 
271 483 84 94 19 36 
268 484 84 113 7 31 
268 485 84 151 5 42 
269 484 84 120 12 32 
269 485 84 151 0 34 
268 486 84 156 0 30 
268 487 85 149 8 33 
269 486 84 158 0 35 
269 486 85 157 0 29 
269 487 85 151 3 34 
270 484 84 135 17 44 
270 485 84 154 8 36 
270 485 85 158 1 26 
271 484 84 140 20 54 
271 484 85 154 20 56 
271 485 85 158 14 37 
270 486 85 158 0 28 
270 487 85 152 1 40 
271 486 85 158 4 26 
271 487 85 152 6 42 
264 488 85 103 37 41 
264 489 85 77 34 34 
265 488 85 103 28 33 
265 489 85 63 29 25 
264 489 86 69 36 35 
265 489 86 52 36 29 
264 490 86 56 34 41 
264 491 86 64 40 41 
264 491 87 65 37 42 
265 490 86 48 31 40 
265 491 86 59 39 40 
265 491 87 56 41 42 
266 488 85 107 11 35 
267 488 85 115 15 36 
266 489 86 50 29 31 
267 489 86 53 33 31 
266 490 86 40 33 40 
266 491 86 48 36 42 
266 491 87 47 35 35 
267 490 86 36 36 42 
267 491 86 50 35 42 
267 491 87 54 36 36 
264 492 87 51 31 38 
264 493 87 56 33 35 
265 492 87 53 38 40 
265 493 87 54 28 29 
264 494 87 86 35 44 
265 494 87 83 26 36 
265 495 87 105 21 45 
266 492 87 53 34 33 
266 493 87 56 30 31 
267 492 87 74 42 46 
267 493 87 85 48 53 
266 494 87 57 29 30 
266 495 87 65 26 33 
267 494 87 70 40 43 
267 495 87 43 34 39 
268 488 85 121 15 35 
269 488 85 127 17 40 
268 489 86 59 33 31 
269 488 86 100 20 30 
269 489 86 58 35 33 
268 490 86 42 28 41 
268 491 86 49 30 45 
268 491 87 54 35 42 
269 490 86 41 32 42 
269 491 86 48 33 44 
269 491 87 52 37 42 
270 488 85 131 12 43 
271 488 85 139 17 49 
270 488 86 96 19 24 
270 489 86 51 35 27 
271 488 86 115 24 40 
271 489 86 54 38 34 
270 490 86 33 40 41 
270 491 86 47 41 41 
270 491 87 54 43 43 
271 490 86 40 37 39 
271 491 87 48 39 42 
268 492 87 69 39 42 
268 493 87 76 44 41 
269 492 87 59 35 40 
269 493 87 59 37 33 
268 494 87 66 38 33 
268 495 87 43 30 39 
269 494 87 53 38 27 
269 495 87 48 33 36 
270 492 87 58 34 44 
270 493 87 53 32 40 
271 492 87 51 36 43 
271 493 87 49 33 40 
270 494 87 47 37 35 
270 495 87 51 37 38 
271 494 87 48 40 40 
271 495 87 44 40 38 
264 494 88 100 23 38 
264 495 88 147 20 45 
265 495 88 133 23 55 
266 495 88 89 16 33 
267 495 88 38 35 32 
269 495 88 49 35 40 
270 495 88 51 34 42 
271 495 88 45 34 46 
261 496 91 178 10 44 
262 496 89 173 6 22 
263 496 88 175 7 56 
263 496 89 176 5 45 
263 497 89 173 6 32 
262 496 90 173 8 29 
262 496 91 175 10 41 
262 497 90 170 6 30 
262 497 91 172 9 40 
263 497 90 173 6 15 
263 498 89 170 6 33 
262 498 90 169 6 40 
262 498 91 171 7 43 
263 498 90 169 5 36 
263 498 91 173 8 50 
263 499 90 172 7 45 
263 499 91 174 9 47 
261 496 92 178 9 38 
261 496 93 177 3 32 
261 497 92 176 10 38 
261 497 93 178 7 41 
261 496 94 174 0 44 
261 496 95 168 0 37 
261 497 94 176 2 47 
261 497 95 170 1 45 
261 498 94 177 6 43 
261 498 95 172 0 52 
262 497 92 176 10 41 
262 498 92 175 9 43 
262 498 93 178 8 45 
262 499 92 176 9 42 
262 499 93 179 9 46 
263 499 92 176 9 39 
262 498 94 177 3 48 
262 498 95 174 0 56 
262 499 94 179 5 47 
262 499 95 175 0 51 
263 500 91 173 8 40 
262 500 93 179 10 38 
263 500 92 176 9 35 
263 500 93 178 9 35 
263 501 92 176 9 32 
263 501 93 180 10 43 
262 500 94 179 7 44 
262 500 95 176 2 42 
262 501 95 179 0 47 
263 500 94 179 11 42 
263 501 94 181 9 46 
263 501 95 180 7 48 
263 502 93 179 10 44 
263 502 94 181 10 44 
263 502 95 181 10 49 
263 503 94 181 10 45 
263 503 95 180 9 47 
263 504 95 181 11 47 
264 496 88 173 6 52 
264 497 88 174 4 42 
264 497 89 174 6 45 
265 496 88 156 13 50 
265 497 88 167 4 38 
264 498 89 170 5 34 
264 499 89 168 4 27 
265 498 88 171 1 33 
265 498 89 170 2 30 
265 499 89 167 2 28 
264 499 90 169 5 31 
266 496 88 105 12 32 
266 497 88 130 7 39 
267 496 88 42 32 30 
267 497 88 78 21 27 
266 498 88 159 2 44 
266 499 88 167 0 47 
266 499 89 168 0 38 
267 498 88 127 11 40 
267 499 88 161 8 58 
267 499 89 168 9 47 
265 500 89 166 4 37 
264 500 90 169 6 35 
264 500 91 171 8 39 
264 501 90 169 6 35 
264 501 91 171 7 40 
265 500 90 168 5 41 
265 501 90 168 5 39 
264 502 91 171 6 43 
265 502 90 169 5 35 
265 502 91 171 5 38 
265 503 91 172 4 41 
266 500 89 165 0 22 
266 501 89 165 1 30 
267 500 89 168 4 28 
267 501 89 166 0 30 
266 501 90 165 3 35 
267 502 89 166 0 34 
266 502 90 166 2 38 
266 503 90 166 0 38 
266 503 91 169 1 38 
267 502 90 165 1 41 
267 503 90 164 0 35 
264 501 92 174 8 33 
264 502 92 174 8 35 
264 502 93 178 9 37 
264 503 92 175 7 33 
264 503 93 177 9 31 
265 503 92 173 6 39 
264 503 94 179 11 42 
268 496 88 31 35 42 
268 497 88 38 30 29 
269 496 88 39 33 43 
269 497 88 33 32 36 
268 498 88 93 22 32 
268 499 88 156 13 56 
269 498 88 64 23 28 
269 499 88 140 15 46 
270 496 88 46 29 45 
270 497 88 35 31 41 
271 496 88 43 30 49 
271 497 88 33 32 46 
270 498 88 44 30 28 
270 499 88 107 20 34 
270 499 89 123 15 42 
271 498 88 32 30 34 
271 499 88 75 22 23 
271 499 89 98 10 31 
268 500 89 170 2 41 
268 501 89 168 0 33 
269 500 89 170 12 52 
269 501 89 170 0 41 
268 502 89 165 0 31 
269 502 89 165 0 28 
268 502 90 163 0 28 
268 503 90 163 0 29 
269 502 90 163 0 26 
269 503 90 164 0 28 
270 500 89 160 17 53 
270 501 89 170 0 41 
271 500 89 150 6 40 
271 501 89 168 0 38 
270 502 89 166 0 24 
271 502 89 166 0 23 
270 502 90 164 0 23 
270 503 90 163 0 26 
271 502 90 164 0 21 
271 503 90 163 0 25 
266 504 91 169 2 35 
266 505 91 170 5 33 
267 504 90 165 0 34 
267 504 91 166 0 32 
267 505 91 166 1 31 
266 506 91 171 5 37 
267 506 91 168 2 35 
264 504 93 177 9 31 
265 504 92 173 7 35 
265 504 93 177 8 25 
265 505 92 176 7 35 
265 505 93 178 8 31 
264 504 94 180 10 42 
264 504 95 181 10 47 
264 505 94 180 9 39 
264 505 95 180 10 49 
265 505 94 180 10 34 
265 506 93 177 8 30 
264 506 95 179 9 47 
265 506 94 178 8 30 
265 506 95 178 8 44 
265 507 94 178 9 33 
265 507 95 179 8 44 
266 505 92 173 6 38 
266 506 92 174 6 40 
266 506 93 176 8 36 
266 507 92 174 6 41 
266 507 93 177 9 43 
267 506 92 169 2 38 
267 507 92 171 5 39 
266 507 94 177 8 31 
265 508 95 178 7 42 
267 508 92 172 5 40 
267 508 93 176 8 43 
267 509 93 176 7 43 
266 508 94 176 8 38 
266 508 95 177 7 38 
266 509 94 176 8 37 
266 509 95 178 7 43 
267 509 94 177 8 40 
266 510 95 177 7 47 
266 511 95 175 7 34 
267 510 94 177 9 34 
267 510 95 176 8 40 
267 511 94 178 9 26 
267 511 95 176 9 29 
268 504 90 165 0 34 
268 505 90 165 0 35 
268 505 91 165 0 32 
269 504 90 165 0 29 
269 505 90 165 0 35 
269 505 91 165 0 32 
268 506 91 164 0 26 
269 506 91 164 0 26 
269 507 91 166 0 34 
270 504 90 164 0 31 
270 505 90 165 0 35 
270 505 91 164 0 35 
271 504 90 164 0 37 
271 505 90 164 0 39 
271 505 91 163 0 37 
270 506 91 164 0 26 
270 507 91 166 0 30 
271 506 91 163 0 29 
271 507 91 164 0 26 
268 507 92 167 2 37 
269 507 92 168 0 39 
270 508 91 165 0 29 
271 508 91 165 0 29 
268 508 92 170 3 31 
268 509 92 170 3 26 
268 509 93 173 5 33 
269 508 92 169 0 43 
269 509 92 170 1 36 
269 509 93 172 3 31 
268 510 93 175 7 31 
268 511 93 175 7 27 
269 510 93 173 4 29 
269 511 93 173 4 32 
268 510 94 176 8 29 
268 511 94 177 8 23 
270 508 92 167 0 36 
270 509 92 168 0 32 
271 508 92 165 0 29 
271 509 92 165 0 26 
270 510 92 170 0 27 
270 510 93 171 0 25 
270 511 93 171 0 34 
271 510 92 168 0 22 
271 510 93 170 0 26 
271 511 93 168 0 37 
272 480 84 56 34 38 
272 481 84 49 37 40 
273 480 84 73 39 38 
273 481 84 56 34 38 
272 482 84 51 32 32 
272 483 84 90 18 37 
273 482 84 45 32 35 
273 482 85 56 31 36 
273 483 84 68 23 28 
273 483 85 73 21 31 
274 480 84 90 46 51 
274 481 84 68 31 36 
274 481 85 59 30 31 
275 480 84 87 41 50 
275 480 85 85 40 51 
275 481 85 68 34 33 
274 482 85 53 30 30 
274 483 85 66 26 28 
275 482 85 65 36 32 
275 483 85 78 30 30 
272 484 84 127 22 56 
272 484 85 140 23 54 
272 485 85 155 18 41 
273 484 85 117 23 39 
273 485 85 144 31 42 
272 486 85 157 9 36 
272 487 85 152 11 45 
273 486 85 151 16 38 
272 487 86 147 14 51 
273 486 86 143 22 35 
273 487 86 138 19 45 
274 484 85 93 24 31 
274 485 85 121 37 45 
275 484 85 90 29 32 
274 485 86 117 40 43 
275 484 86 94 29 33 
275 485 86 93 32 34 
274 486 86 113 31 34 
274 487 86 94 21 35 
275 486 86 74 32 25 
275 487 86 53 29 28 
276 480 85 74 33 40 
276 481 85 72 39 35 
277 480 85 66 27 29 
277 481 85 65 32 30 
276 482 85 83 37 31 
276 483 85 103 39 42 
277 482 85 92 32 32 
277 483 85 116 36 43 
276 483 86 120 43 54 
277 482 86 102 36 38 
277 483 86 126 37 48 
278 480 85 71 24 28 
278 481 85 48 30 34 
279 480 85 88 27 35 
279 481 85 39 29 35 
278 482 85 68 36 37 
279 482 85 40 32 31 
278 482 86 86 35 34 
278 483 86 109 35 41 
279 482 86 51 34 32 
279 483 86 85 38 36 
276 484 86 110 30 40 
276 485 86 89 32 36 
277 484 86 129 30 52 
277 485 86 103 40 47 
276 486 86 64 40 32 
276 487 86 44 38 30 
276 487 87 46 35 32 
277 486 86 73 34 34 
277 486 87 72 29 35 
277 487 87 62 34 39 
278 484 86 121 38 53 
278 485 86 100 39 47 
278 485 87 77 25 33 
279 484 86 91 33 38 
279 485 87 67 25 39 
278 486 87 64 26 36 
278 487 87 65 34 44 
279 486 87 54 29 39 
279 487 87 59 34 38 
272 488 86 114 22 39 
272 489 86 52 37 37 
273 488 86 96 30 39 
273 489 86 48 38 42 
272 490 86 41 36 43 
272 491 87 41 37 44 
273 490 86 44 36 47 
273 490 87 46 34 48 
273 491 87 40 37 46 
274 488 86 60 27 34 
274 489 86 40 35 36 
274 489 87 40 36 40 
275 488 86 37 29 34 
275 488 87 32 32 42 
275 489 87 34 35 45 
274 490 87 42 36 46 
274 491 87 42 38 40 
275 490 87 37 34 41 
275 491 87 52 37 33 
272 492 87 42 35 44 
272 493 87 42 34 43 
273 492 87 44 31 42 
273 493 87 44 33 43 
272 494 87 44 41 43 
273 494 87 33 38 41 
274 492 87 66 39 34 
274 493 87 80 38 40 
275 492 87 90 43 32 
276 488 87 43 33 39 
276 489 87 39 32 44 
277 488 87 65 36 50 
277 489 87 56 31 34 
276 490 87 47 36 36 
276 491 87 60 37 29 
277 490 87 70 40 35 
277 491 87 75 48 37 
278 488 87 66 38 49 
278 489 87 58 24 28 
279 488 87 59 34 39 
278 490 87 76 26 28 
276 492 87 86 38 23 
272 495 88 40 37 43 
273 494 88 39 38 39 
273 495 88 36 33 38 
274 493 88 99 38 44 
275 493 88 120 38 50 
274 494 88 89 32 38 
274 495 88 89 25 30 
275 494 88 129 26 47 
275 495 88 133 16 40 
277 491 88 88 40 39 
278 489 88 62 24 24 
279 488 88 60 34 39 
279 489 88 65 30 30 
278 490 88 87 31 31 
278 491 88 112 37 53 
279 490 88 88 20 27 
279 491 88 128 34 53 
276 492 88 99 27 26 
276 493 88 132 21 48 
277 492 88 97 15 25 
277 493 88 132 9 44 
276 494 88 147 15 50 
276 495 88 150 0 37 
277 494 88 150 11 42 
277 495 88 152 6 34 
277 495 89 153 3 31 
278 492 88 116 16 36 
278 493 88 136 0 35 
279 492 88 131 5 31 
279 493 88 135 3 29 
279 493 89 143 0 37 
278 494 88 148 10 40 
278 494 89 151 12 35 
278 495 89 154 5 26 
279 494 89 150 4 37 
279 495 89 155 5 29 
280 480 85 105 38 52 
280 481 85 46 32 34 
281 480 85 111 37 55 
281 481 85 67 26 30 
280 482 86 32 36 36 
280 483 86 52 32 34 
281 482 86 36 35 36 
281 483 86 34 33 42 
282 480 85 105 34 51 
282 481 85 87 36 43 
283 480 85 92 33 39 
283 481 85 89 43 51 
282 482 86 47 32 33 
282 483 86 38 35 43 
283 482 86 50 32 32 
283 483 86 39 36 40 
280 484 86 63 28 31 
280 484 87 66 28 39 
280 485 87 58 30 41 
281 484 86 48 31 44 
281 484 87 60 33 45 
281 485 87 59 34 41 
280 486 87 48 39 37 
280 487 87 53 38 32 
281 486 87 50 38 34 
281 487 87 51 39 33 
282 484 86 49 35 41 
282 484 87 60 38 41 
282 485 87 59 35 37 
283 484 87 53 39 37 
283 485 87 58 29 34 
282 486 87 57 33 39 
283 486 87 64 25 40 
284 480 85 83 25 29 
284 481 85 73 28 34 
285 480 85 89 32 44 
285 481 85 73 23 31 
284 482 86 55 30 33 
284 483 86 50 32 39 
285 482 86 66 27 36 
285 483 86 65 33 49 
286 480 85 86 39 47 
286 481 85 88 39 41 
287 480 84 65 33 38 
287 480 85 74 31 38 
287 481 85 90 38 40 
287 482 85 93 40 44 
286 482 86 79 30 36 
286 483 86 66 34 42 
287 482 86 87 39 43 
287 483 86 60 32 33 
284 484 86 57 35 43 
284 484 87 58 34 36 
284 485 87 63 26 31 
285 484 86 60 34 45 
285 484 87 60 30 34 
285 485 87 76 25 26 
285 486 87 108 29 33 
286 484 86 52 33 37 
286 484 87 57 27 27 
286 485 87 96 39 41 
287 484 86 40 32 31 
287 484 87 50 29 28 
287 485 87 102 45 52 
286 486 87 127 43 55 
287 486 87 138 42 58 
281 487 88 59 34 29 
282 486 88 64 30 37 
282 487 88 80 30 36 
283 486 88 74 25 40 
283 487 88 99 29 42 
284 486 88 85 21 31 
284 487 88 114 17 31 
285 486 88 112 19 32 
285 487 88 142 15 36 
286 486 88 140 35 52 
286 487 88 156 29 46 
287 487 88 153 11 33 
280 488 87 57 33 35 
280 488 88 61 32 40 
280 489 88 71 30 41 
281 488 88 65 30 31 
281 489 88 74 24 33 
280 490 88 99 17 35 
280 491 88 138 25 51 
281 490 88 104 17 33 
281 491 88 141 19 44 
281 491 89 151 17 44 
282 488 88 98 42 50 
282 489 88 81 19 28 
283 488 88 116 45 54 
283 489 88 88 16 23 
282 490 88 102 15 32 
282 491 88 133 22 46 
282 491 89 145 23 46 
283 490 88 89 13 25 
283 490 89 91 18 27 
283 491 89 134 18 45 
280 492 88 141 18 38 
280 492 89 140 21 37 
280 493 89 139 8 30 
281 492 89 145 15 33 
281 493 89 131 3 21 
280 494 89 149 2 38 
280 495 89 158 4 34 
281 494 89 142 1 43 
281 495 89 155 2 46 
281 495 90 160 2 36 
282 492 89 150 18 44 
282 493 89 129 9 26 
283 492 89 155 24 53 
283 493 89 139 10 36 
282 494 89 134 4 36 
282 495 89 151 4 45 
283 494 89 130 0 28 
282 495 90 157 9 42 
283 495 90 151 6 43 
284 488 88 138 43 50 
284 489 88 111 23 33 
285 488 88 159 21 43 
285 489 88 143 25 51 
284 490 88 71 18 23 
284 490 89 87 24 25 
284 491 89 114 15 32 
285 490 89 106 15 38 
285 491 89 106 4 25 
286 488 88 168 11 41 
286 489 88 157 21 57 
287 488 88 168 0 35 
287 489 88 160 6 49 
286 490 89 122 16 42 
286 491 89 117 4 30 
287 490 89 132 3 34 
287 491 89 133 0 37 
284 492 89 152 10 43 
284 493 89 152 17 40 
285 492 89 150 4 35 
285 493 89 160 18 34 
284 494 89 135 9 33 
284 494 90 133 9 32 
284 495 90 137 8 38 
285 494 90 145 15 43 
285 495 90 129 9 30 
286 492 89 153 0 41 
286 493 89 164 1 35 
287 492 89 157 0 44 
287 493 89 166 0 40 
286 493 90 165 0 30 
287 493 90 167 0 35 
286 494 90 155 17 42 
286 495 90 131 4 26 
287 494 90 162 8 39 
287 495 90 147 7 36 
272 496 88 37 35 45 
272 497 88 27 36 43 
273 496 88 37 33 37 
273 497 88 42 31 32 
272 498 88 36 30 32 
272 498 89 63 13 22 
272 499 89 105 9 30 
273 498 88 56 24 22 
273 498 89 94 14 26 
273 499 89 133 13 41 
274 496 88 101 16 29 
274 497 88 106 17 29 
274 497 89 127 13 35 
275 496 88 142 8 47 
275 497 88 141 15 44 
275 497 89 151 8 41 
274 498 89 132 10 35 
274 499 89 160 4 52 
275 498 89 156 0 42 
275 499 89 165 0 44 
272 500 89 153 12 42 
272 501 89 167 0 34 
273 500 89 161 11 44 
273 501 89 167 0 31 
272 502 89 165 0 24 
273 502 89 166 0 32 
272 502 90 164 0 25 
272 503 90 164 0 32 
273 502 90 164 0 33 
273 503 90 163 0 37 
274 500 89 166 0 42 
274 501 89 166 0 31 
275 500 89 166 0 38 
275 501 89 165 0 33 
275 501 90 164 0 31 
274 502 90 163 0 36 
274 503 90 158 0 31 
275 502 90 162 0 39 
275 503 90 157 0 36 
276 496 88 153 0 44 
276 496 89 156 6 41 
276 497 89 157 3 33 
277 496 89 155 0 36 
277 497 89 157 0 29 
276 498 89 161 0 30 
276 499 89 163 0 31 
277 498 89 158 0 33 
277 499 89 160 0 34 
277 499 90 161 0 35 
278 496 89 155 0 29 
278 497 89 155 0 33 
279 496 89 156 0 25 
279 497 89 155 0 29 
279 497 90 155 0 33 
278 498 89 157 0 41 
278 498 90 158 0 45 
278 499 90 161 0 36 
279 498 90 157 0 36 
279 499 90 161 0 30 
276 500 89 164 0 34 
277 500 89 162 0 33 
276 500 90 163 0 34 
276 501 90 163 0 29 
277 500 90 162 0 27 
277 501 90 162 0 25 
276 502 90 162 0 40 
276 503 90 157 2 45 
277 502 90 160 0 35 
277 503 90 154 10 46 
277 503 91 145 18 51 
278 500 90 162 0 27 
278 501 90 162 0 30 
279 500 90 162 0 29 
279 501 90 160 0 36 
279 501 91 157 4 39 
278 502 90 158 0 37 
278 502 91 150 6 46 
278 503 91 136 13 50 
279 502 91 142 1 41 
279 503 91 118 6 37 
272 504 90 164 0 40 
272 505 90 163 0 40 
272 505 91 162 0 37 
273 504 90 161 0 37 
273 505 90 159 0 38 
273 505 91 159 0 38 
272 506 91 161 0 28 
272 507 91 163 0 31 
273 506 91 159 0 32 
273 507 91 162 0 36 
274 504 90 151 0 19 
274 505 90 149 0 21 
274 505 91 148 0 22 
275 504 90 148 1 25 
275 505 91 145 8 27 
274 506 91 155 1 40 
274 507 91 160 0 43 
275 506 91 148 12 43 
275 507 91 152 0 41 
272 508 91 165 0 34 
273 508 91 163 0 36 
274 508 91 163 0 35 
272 508 92 165 0 35 
272 509 92 165 0 33 
273 508 92 164 0 36 
273 509 92 164 0 34 
272 510 92 167 0 30 
272 510 93 168 0 32 
272 511 93 166 0 43 
273 510 92 166 3 31 
273 510 93 166 0 34 
273 511 93 163 11 42 
274 508 92 162 0 37 
274 509 92 163 0 32 
275 508 92 154 4 38 
275 509 92 150 10 36 
274 510 92 160 4 26 
274 510 93 159 0 29 
274 511 93 157 11 43 
275 510 92 151 0 21 
275 510 93 137 9 25 
275 511 93 141 19 49 
276 504 90 151 17 46 
276 504 91 143 22 40 
276 505 91 134 16 31 
277 504 91 128 13 35 
277 505 91 102 12 23 
276 506 91 126 11 31 
276 507 91 122 7 29 
277 506 91 76 19 26 
277 507 91 78 20 25 
278 504 91 113 16 39 
278 505 91 80 22 27 
279 504 91 102 27 36 
279 505 91 76 36 34 
278 506 91 54 26 33 
279 506 91 57 36 34 
277 507 92 65 23 30 
278 506 92 43 31 34 
278 507 92 49 34 36 
279 506 92 47 33 32 
279 507 92 43 33 35 
276 508 92 127 19 37 
276 509 92 124 30 45 
277 508 92 81 26 38 
277 509 92 93 39 50 
277 509 93 78 27 34 
276 510 93 103 16 24 
276 511 93 109 19 44 
277 510 93 76 19 25 
277 511 93 82 20 30 
277 511 94 86 23 29 
278 508 92 56 30 34 
278 509 92 77 30 38 
278 509 93 97 37 46 
279 508 92 57 30 36 
279 509 92 76 28 36 
279 509 93 111 36 51 
278 510 93 108 32 42 
278 511 93 113 21 32 
279 510 93 139 28 53 
279 511 93 139 25 45 
278 511 94 114 14 26 
279 511 94 145 17 41 
280 496 90 157 0 27 
280 497 90 156 0 31 
281 496 90 160 0 33 
281 497 90 157 0 36 
281 497 91 158 0 39 
280 498 90 157 0 33 
280 499 90 161 0 29 
280 499 91 161 0 30 
281 498 90 156 0 36 
281 498 91 158 0 35 
281 499 91 161 0 33 
282 496 90 161 5 38 
282 497 90 159 0 36 
282 497 91 159 1 35 
283 496 90 160 8 40 
283 497 91 160 4 34 
282 498 91 160 0 34 
282 499 91 161 0 24 
283 498 91 161 0 31 
283 499 91 161 0 28 
280 500 91 161 0 34 
280 501 91 152 8 42 
281 500 91 159 0 41 
281 501 91 145 0 36 
280 502 91 125 4 36 
280 503 91 102 2 27 
281 502 91 119 0 25 
281 503 91 104 10 33 
282 500 91 160 0 32 
282 501 91 149 0 29 
283 500 91 161 0 31 
282 502 91 134 0 24 
281 503 92 128 15 44 
283 500 92 161 0 33 
283 501 92 157 0 33 
282 502 92 140 0 29 
282 503 92 151 8 40 
283 502 92 152 0 29 
283 503 92 157 2 33 
284 496 90 148 4 39 
284 496 91 155 2 39 
284 497 91 161 0 38 
285 496 90 137 0 30 
285 496 91 148 0 35 
285 497 91 160 0 46 
284 498 91 161 0 35 
284 499 91 160 0 31 
285 498 91 160 0 39 
286 496 91 136 0 23 
286 497 91 158 2 44 
287 496 91 142 0 20 
287 497 91 159 0 38 
286 498 91 162 0 43 
284 498 92 157 0 34 
284 499 92 158 0 26 
285 498 92 155 0 29 
285 499 92 155 1 23 
286 498 92 158 0 34 
286 499 92 154 1 28 
287 498 92 162 0 40 
287 499 92 154 0 24 
284 500 92 161 0 33 
284 501 92 162 0 36 
285 500 92 159 1 36 
285 501 92 162 0 35 
284 502 92 160 0 34 
284 503 92 160 0 32 
285 502 92 164 0 38 
285 503 92 162 2 37 
285 503 93 161 6 36 
286 500 92 157 2 33 
286 501 92 163 0 37 
287 500 92 155 1 23 
287 501 92 161 0 34 
287 501 93 163 0 36 
286 502 92 166 0 39 
286 502 93 166 0 38 
286 503 93 163 0 32 
287 502 93 166 0 35 
287 503 93 166 0 31 
280 504 91 95 21 33 
280 505 91 81 30 30 
280 505 92 79 33 33 
281 504 92 125 29 51 
281 505 92 116 26 43 
280 506 92 51 31 29 
280 507 92 32 31 37 
281 506 92 83 22 26 
281 507 92 52 28 30 
281 507 93 79 27 30 
282 504 92 156 19 42 
282 505 92 153 17 38 
283 504 92 159 3 36 
283 505 92 158 0 33 
283 505 93 159 0 36 
282 506 92 141 4 26 
282 506 93 140 4 34 
282 507 93 139 5 41 
283 506 93 159 0 39 
283 507 93 161 0 44 
280 508 92 43 25 32 
280 508 93 54 22 33 
280 509 93 96 21 35 
281 508 93 80 16 35 
281 509 93 116 6 27 
280 510 93 146 23 52 
281 510 93 147 12 43 
280 511 94 157 13 41 
281 510 94 157 11 43 
281 511 94 162 8 36 
282 508 93 144 0 42 
282 509 93 150 4 35 
283 508 93 162 0 41 
283 509 93 161 0 40 
282 509 94 158 6 38 
283 509 94 162 0 36 
282 510 94 162 3 41 
282 511 94 164 0 33 
283 510 94 163 0 32 
283 511 94 162 0 32 
284 504 92 161 0 36 
284 504 93 160 0 33 
284 505 93 159 0 31 
285 504 93 159 2 31 
285 505 93 158 0 27 
284 506 93 161 0 36 
284 507 93 163 0 36 
285 506 93 160 0 32 
284 507 94 161 0 29 
285 506 94 160 0 31 
285 507 94 160 0 30 
286 504 93 162 0 36 
286 505 93 160 0 30 
287 504 93 164 0 32 
286 505 94 160 0 28 
287 504 94 164 0 28 
287 505 94 162 0 30 
286 506 94 160 0 30 
286 507 94 161 0 35 
287 506 94 163 0 37 
287 507 94 163 0 36 
287 507 95 164 0 39 
284 508 94 162 1 33 
284 509 94 160 0 30 
285 508 94 161 0 32 
285 509 94 158 0 22 
285 509 95 160 0 28 
284 510 94 161 0 34 
284 511 94 162 0 38 
284 511 95 161 0 41 
285 510 94 161 0 34 
285 510 95 161 0 34 
285 511 95 161 0 35 
286 508 94 162 0 34 
286 508 95 162 0 31 
286 509 94 160 0 24 
286 509 95 162 0 27 
287 508 95 164 0 36 
287 509 95 165 0 28 
286 510 95 162 0 29 
286 511 95 161 0 29 
287 510 95 165 0 30 
287 511 95 164 0 32 
258 480 96 54 21 27 
258 481 96 37 24 27 
259 480 96 70 22 31 
259 480 97 90 13 40 
259 481 96 51 21 25 
259 481 97 68 27 29 
258 482 96 49 17 32 
258 483 96 95 6 32 
259 482 96 55 12 26 
259 482 97 69 13 26 
259 483 96 93 2 26 
259 483 97 101 2 27 
258 484 96 135 4 48 
258 485 96 146 3 41 
259 484 96 135 2 48 
259 484 97 137 0 52 
259 485 96 145 3 40 
259 485 97 145 1 43 
258 486 96 146 9 41 
258 487 96 147 6 42 
259 486 96 145 8 39 
259 486 97 145 4 39 
259 487 96 147 6 41 
259 487 97 146 0 42 
260 480 97 102 7 42 
260 481 97 83 18 30 
260 480 98 111 2 41 
260 481 98 94 11 33 
261 480 98 121 5 44 
261 481 98 107 8 34 
260 482 97 89 10 26 
260 483 97 115 1 31 
260 482 98 92 10 27 
261 482 98 110 5 35 
261 483 98 127 0 41 
262 480 98 128 8 43 
262 481 98 121 3 33 
263 480 98 133 0 43 
263 480 99 134 0 43 
263 481 98 132 0 41 
263 481 99 135 0 42 
262 482 98 122 6 36 
262 483 98 135 4 41 
263 482 98 134 1 39 
263 482 99 138 0 43 
263 483 98 138 1 44 
263 483 99 138 0 44 
260 484 97 140 0 51 
260 485 97 144 0 47 
261 484 98 140 0 50 
261 485 98 143 0 47 
260 486 97 143 1 43 
260 487 97 143 2 40 
261 486 98 141 1 45 
261 487 98 141 2 42 
262 484 98 141 0 44 
262 485 98 141 0 47 
263 484 98 140 0 43 
263 484 99 138 0 42 
263 485 98 140 0 44 
263 485 99 138 0 44 
262 486 98 140 0 47 
262 487 98 140 0 44 
263 486 98 139 0 43 
263 486 99 138 0 42 
263 487 98 139 0 43 
263 487 99 137 0 42 
259 488 96 147 5 47 
259 488 97 145 3 43 
259 489 96 143 5 49 
259 489 97 142 5 45 
259 490 96 139 14 46 
259 490 97 141 10 48 
259 491 96 131 12 42 
259 492 96 117 20 36 
260 488 97 142 0 42 
260 489 97 140 5 44 
261 488 98 140 0 43 
261 489 98 138 0 43 
260 490 97 140 10 46 
260 491 96 129 19 40 
260 491 97 139 9 45 
261 490 98 139 0 43 
261 491 98 141 1 44 
262 488 98 139 0 44 
262 489 98 137 0 41 
263 488 98 138 0 43 
263 488 99 135 0 41 
263 489 99 136 0 42 
262 490 98 137 0 41 
262 490 99 138 0 40 
262 491 98 140 0 43 
262 491 99 140 0 43 
263 490 99 137 0 43 
263 491 99 138 0 42 
263 491 100 137 0 42 
260 492 96 120 14 34 
260 492 97 136 9 38 
260 493 96 131 6 42 
260 493 97 142 13 44 
261 492 98 143 3 46 
261 493 98 144 7 48 
260 494 96 149 8 56 
260 494 97 147 6 48 
260 495 96 158 1 47 
260 495 97 151 0 43 
261 495 97 147 0 45 
261 494 98 144 1 47 
261 494 99 142 2 43 
261 495 98 144 0 46 
261 495 99 142 2 44 
262 492 99 141 0 43 
262 493 99 141 2 40 
263 492 99 139 0 41 
262 494 99 142 1 42 
262 495 99 142 1 43 
263 492 100 138 0 39 
263 493 100 139 1 36 
263 494 100 140 3 39 
263 495 100 141 1 41 
264 480 99 134 0 41 
264 481 99 136 0 40 
265 480 99 136 0 41 
265 481 99 136 0 40 
264 482 99 137 0 39 
264 483 99 137 0 40 
265 482 99 137 0 40 
266 480 99 137 0 41 
265 482 100 137 0 44 
265 483 100 136 0 41 
266 480 100 137 0 43 
266 480 101 136 0 42 
266 481 100 136 0 45 
266 481 101 137 0 42 
267 480 101 138 0 43 
267 481 101 138 0 42 
267 480 102 139 0 42 
267 481 102 139 0 42 
266 482 100 137 0 46 
266 482 101 136 0 41 
266 483 101 136 0 43 
267 482 101 137 0 40 
267 482 102 138 0 42 
267 483 102 136 0 43 
267 483 103 137 0 42 
264 484 99 137 0 42 
264 485 99 137 0 42 
264 486 99 137 0 43 
264 487 99 136 0 43 
265 487 99 133 0 44 
265 484 100 135 0 42 
265 485 100 135 0 43 
265 486 100 135 0 45 
265 487 100 134 0 44 
266 484 101 135 0 42 
266 485 101 135 0 44 
267 485 101 135 0 44 
267 484 102 135 0 41 
267 485 102 135 0 43 
266 486 100 135 0 45 
266 486 101 134 0 44 
266 487 100 133 0 42 
266 487 101 133 0 42 
267 486 101 134 0 44 
267 487 101 134 0 44 
267 486 102 135 0 43 
267 487 102 134 0 42 
268 480 102 140 0 44 
268 480 103 140 0 45 
268 481 102 139 0 43 
268 481 103 139 0 43 
269 480 103 139 0 42 
269 481 103 139 0 41 
268 482 103 139 0 43 
268 483 103 138 0 42 
269 483 103 138 0 42 
268 484 103 136 0 39 
268 485 102 136 0 42 
268 485 103 137 0 42 
269 484 103 136 0 38 
269 485 103 136 0 41 
268 486 102 136 0 43 
268 486 103 137 0 44 
268 487 102 135 0 42 
269 486 103 137 0 45 
269 487 103 136 0 43 
270 487 103 137 0 45 
269 480 104 139 0 40 
269 481 104 139 0 41 
269 482 104 140 0 42 
269 483 104 138 6 43 
270 480 104 139 0 41 
270 480 105 138 0 44 
270 481 104 139 0 44 
270 481 105 140 0 46 
271 480 105 137 0 44 
271 481 105 139 0 42 
271 480 106 136 0 45 
270 482 104 139 1 43 
270 482 105 139 5 44 
270 483 104 136 9 43 
271 482 105 138 2 39 
271 483 105 130 9 44 
269 484 104 136 2 40 
270 484 104 124 2 36 
270 485 104 123 0 40 
271 484 105 104 8 33 
271 485 105 98 9 36 
270 486 104 130 5 49 
270 487 104 134 14 53 
271 486 105 110 7 41 
271 487 104 124 3 44 
271 487 105 113 3 37 
264 488 99 134 0 42 
264 489 99 134 0 42 
264 490 99 134 0 41 
265 488 100 134 0 42 
265 489 100 133 0 41 
264 490 100 135 0 40 
264 491 100 135 0 40 
265 490 100 133 0 39 
265 491 100 134 0 39 
266 488 100 132 0 41 
266 488 101 133 0 41 
266 489 100 133 0 40 
266 489 101 131 0 41 
267 488 101 133 0 41 
267 489 101 132 0 41 
266 490 100 132 0 38 
266 490 101 133 0 42 
266 491 100 132 0 39 
266 491 101 133 0 41 
267 490 101 133 0 42 
267 491 101 130 0 40 
264 492 100 136 0 41 
264 493 100 138 0 41 
265 492 100 135 0 40 
265 493 100 137 0 44 
265 493 101 135 0 43 
264 494 100 138 1 40 
264 494 101 137 3 40 
264 495 100 139 2 40 
264 495 101 138 2 41 
265 494 101 136 1 42 
265 495 101 137 1 42 
266 492 100 132 0 36 
266 492 101 133 0 38 
266 493 101 133 0 41 
267 492 101 131 0 40 
267 493 101 132 0 40 
266 494 101 134 0 42 
266 495 101 135 0 42 
267 494 101 133 0 42 
267 495 101 133 0 43 
267 495 102 132 0 42 
268 488 101 134 0 41 
268 489 101 133 0 41 
268 488 102 135 0 43 
268 489 102 134 0 44 
269 488 102 136 0 46 
269 488 103 136 0 43 
269 489 102 134 0 43 
269 489 103 134 0 43 
268 490 101 133 0 42 
268 491 101 134 0 43 
268 490 102 134 0 44 
269 490 102 134 0 44 
269 491 102 132 0 44 
270 488 103 137 0 44 
270 489 103 136 0 41 
270 490 103 135 0 38 
270 491 102 132 0 43 
270 491 103 135 0 41 
268 492 101 131 0 42 
268 493 101 130 0 41 
268 493 102 130 0 41 
269 492 102 132 0 41 
269 493 102 133 0 42 
268 494 101 131 0 42 
268 494 102 132 0 42 
268 495 102 133 0 41 
269 494 102 134 0 43 
269 495 102 133 0 42 
269 495 103 133 0 42 
270 492 102 132 0 42 
270 492 103 135 0 43 
270 493 102 135 0 43 
270 493 103 134 0 44 
270 494 103 134 0 44 
270 495 103 134 0 42 
270 488 104 138 0 45 
270 489 104 138 0 35 
271 488 104 137 5 43 
271 488 105 129 6 43 
271 489 104 138 0 35 
271 489 105 138 2 38 
270 490 104 136 0 34 
271 490 104 136 0 36 
271 490 105 137 2 38 
271 491 104 135 0 45 
271 491 105 136 0 44 
271 492 104 135 0 45 
271 493 104 136 0 45 
270 495 104 134 0 41 
271 494 104 135 0 41 
271 495 104 134 0 40 
271 495 105 134 0 41 
261 496 96 161 0 44 
261 496 97 152 0 47 
261 497 96 163 0 46 
261 497 97 153 0 43 
261 496 98 146 0 46 
261 497 98 148 3 45 
261 498 96 164 0 48 
261 498 97 154 0 41 
262 496 99 143 1 43 
262 497 98 146 4 47 
262 497 99 145 2 45 
263 496 99 143 0 42 
263 497 99 144 0 43 
262 498 96 167 0 51 
262 498 97 154 0 42 
262 499 96 168 0 48 
262 499 97 158 0 40 
262 498 98 148 0 43 
262 498 99 146 2 44 
262 499 98 151 0 39 
263 498 99 144 2 42 
263 499 99 146 4 44 
263 496 100 142 1 42 
263 497 100 142 0 42 
263 498 100 141 3 41 
263 499 100 142 2 42 
262 500 96 170 0 42 
262 500 97 161 0 44 
262 501 96 173 0 44 
262 501 97 165 0 47 
262 500 98 153 0 41 
262 501 98 155 0 43 
263 500 99 148 0 47 
263 501 98 155 0 45 
263 501 99 151 0 47 
262 502 97 167 0 48 
263 502 96 176 4 42 
263 502 97 171 3 46 
263 503 96 178 6 44 
263 503 97 174 3 44 
263 502 98 160 0 46 
263 502 99 154 0 46 
263 503 98 164 0 44 
263 503 99 157 0 41 
263 500 100 144 2 44 
263 501 100 145 3 45 
263 501 101 141 9 43 
263 502 100 148 1 44 
263 502 101 143 2 44 
263 503 100 152 0 43 
263 503 101 147 2 44 
263 504 96 179 9 48 
263 504 97 175 5 41 
263 505 97 174 4 43 
263 504 98 170 0 46 
263 504 99 161 0 40 
263 505 98 171 0 48 
263 505 99 164 0 43 
263 504 100 154 0 45 
263 504 101 150 0 47 
263 505 100 156 0 47 
264 496 100 141 0 43 
264 496 101 140 0 43 
264 497 100 141 0 43 
265 496 101 138 1 43 
265 497 101 139 0 44 
264 498 100 142 0 42 
264 498 101 141 0 41 
264 499 100 141 1 41 
264 499 101 141 0 41 
265 498 101 140 0 42 
265 499 101 140 0 42 
266 496 101 136 2 42 
266 497 101 137 4 43 
266 497 102 136 0 42 
267 496 102 135 0 42 
267 497 102 134 0 42 
266 498 101 138 2 42 
266 499 101 138 0 41 
266 498 102 137 0 42 
266 499 102 138 0 41 
267 498 102 135 0 43 
267 499 102 137 0 44 
264 500 100 141 0 42 
264 500 101 141 4 42 
264 501 101 141 6 42 
265 500 101 140 0 41 
265 500 102 140 0 41 
265 501 102 140 0 41 
264 502 101 143 2 45 
264 503 101 145 6 45 
264 502 102 141 0 45 
264 503 102 143 2 44 
264 503 103 141 0 45 
265 502 102 140 0 44 
265 502 103 140 0 44 
265 503 103 139 0 43 
266 500 102 139 0 42 
266 501 102 138 0 42 
266 501 103 136 0 43 
267 500 102 134 0 41 
267 500 103 133 0 42 
267 501 103 135 0 43 
266 502 103 138 0 43 
267 502 103 134 0 43 
268 496 102 133 0 41 
268 497 102 133 0 40 
269 496 102 133 0 41 
269 496 103 133 0 40 
269 497 103 133 0 38 
268 498 102 135 0 42 
268 498 103 133 0 40 
268 499 102 133 0 43 
268 499 103 134 0 40 
269 498 103 133 0 38 
269 499 103 133 0 38 
270 496 103 133 0 40 
270 497 103 133 0 38 
268 500 103 132 0 40 
268 501 103 133 0 40 
269 500 103 131 0 38 
266 502 104 136 0 43 
266 503 104 137 0 42 
267 502 104 135 0 42 
267 503 104 136 0 43 
269 498 104 132 0 37 
269 499 104 132 0 37 
270 496 104 133 0 39 
270 497 104 133 0 39 
271 496 104 134 0 39 
271 496 105 135 0 41 
271 497 105 135 0 40 
270 498 104 133 0 39 
270 498 105 134 0 41 
270 499 104 133 0 39 
270 499 105 134 0 41 
271 498 105 134 0 40 
271 499 105 134 0 40 
271 499 106 133 0 39 
268 501 104 129 0 37 
269 500 104 132 0 39 
269 501 104 131 0 40 
269 501 105 132 0 41 
268 502 104 132 0 39 
268 503 104 136 0 43 
268 503 105 135 0 41 
269 502 104 131 0 39 
269 502 105 133 0 41 
269 503 105 132 0 39 
270 500 104 132 0 40 
270 500 105 133 0 42 
270 501 105 132 0 41 
271 500 105 133 0 42 
271 501 105 132 0 42 
271 500 106 134 0 41 
271 501 106 133 0 42 
270 502 105 132 0 41 
270 503 105 132 0 40 
270 502 106 132 0 41 
270 503 106 132 0 41 
271 502 106 133 0 42 
271 502 107 133 0 41 
271 503 107 133 0 42 
271 503 108 134 0 43 
264 504 96 180 12 53 
264 505 96 180 8 50 
264 505 97 177 4 42 
264 505 98 174 0 49 
264 505 99 166 0 46 
264 506 96 179 8 49 
264 506 97 178 4 44 
264 507 97 178 1 44 
265 506 96 179 9 44 
265 507 96 180 8 44 
265 507 97 179 3 46 
264 506 98 175 3 46 
264 506 99 169 0 49 
264 507 98 176 0 44 
264 507 99 171 0 50 
264 504 101 146 4 45 
264 505 100 160 0 46 
264 505 101 149 0 45 
264 504 102 143 0 44 
264 504 103 142 0 44 
264 505 102 144 2 44 
264 505 103 143 1 44 
265 504 103 140 0 44 
265 505 103 141 0 43 
264 506 100 162 0 46 
264 506 101 152 0 45 
264 507 100 164 0 46 
264 507 101 156 0 44 
264 506 102 146 4 44 
264 506 103 143 0 43 
264 507 102 148 0 45 
265 506 103 142 2 43 
265 507 103 143 3 42 
265 508 96 179 7 45 
265 508 97 179 6 44 
265 509 96 179 7 46 
265 509 97 178 5 44 
264 508 98 175 3 44 
264 508 99 171 3 47 
265 508 98 177 5 43 
265 509 98 176 2 42 
265 509 99 171 2 43 
265 510 97 178 4 45 
265 511 97 179 6 47 
265 510 98 176 1 46 
265 510 99 172 1 41 
265 511 98 176 1 45 
265 511 99 174 2 40 
266 509 96 179 7 48 
266 510 96 179 6 51 
266 510 97 179 2 46 
266 511 96 177 6 45 
266 511 97 179 5 46 
264 508 100 166 0 43 
264 508 101 158 0 43 
264 509 100 167 2 45 
264 509 101 159 1 46 
265 509 100 167 3 44 
265 509 101 161 1 45 
264 508 102 152 0 47 
265 508 102 147 0 44 
265 508 103 143 1 43 
265 509 102 153 0 48 
265 509 103 146 0 45 
265 510 100 168 0 44 
265 510 101 162 0 44 
265 511 100 170 1 45 
265 511 101 164 0 46 
265 510 102 154 0 46 
265 510 103 149 0 46 
265 511 102 155 0 45 
265 511 103 150 0 47 
265 504 104 139 0 42 
265 505 104 140 0 43 
265 506 104 141 0 42 
265 507 104 141 5 42 
266 504 104 138 0 41 
266 505 104 138 0 41 
266 505 105 138 0 41 
267 504 104 137 0 42 
267 504 105 136 0 42 
267 505 105 137 0 43 
266 506 104 140 0 43 
266 506 105 140 0 44 
266 507 105 141 0 42 
267 506 105 138 0 43 
267 507 105 139 0 41 
267 506 106 138 0 42 
267 507 106 139 0 42 
265 508 104 141 4 42 
265 509 104 140 4 41 
265 510 104 142 5 42 
265 511 104 144 3 43 
266 508 105 142 0 42 
266 509 105 142 1 41 
267 508 106 141 0 42 
267 509 106 141 0 41 
266 510 105 141 2 41 
266 511 105 141 5 43 
266 511 106 143 0 44 
267 510 106 141 0 43 
267 511 106 142 0 43 
268 504 105 136 0 42 
268 505 105 136 0 43 
269 504 105 134 0 40 
268 505 106 136 0 43 
269 504 106 133 0 40 
269 505 106 133 0 40 
269 505 107 134 0 40 
268 506 106 136 0 43 
268 507 106 137 0 43 
268 507 107 136 0 42 
269 506 106 135 0 42 
269 506 107 134 0 42 
269 507 107 134 0 40 
270 504 106 133 0 42 
270 504 107 132 0 41 
270 505 107 132 0 40 
271 504 107 132 0 41 
269 506 108 133 0 41 
269 507 108 134 0 41 
270 505 108 134 0 42 
271 504 108 134 0 42 
271 505 108 133 0 41 
271 505 109 135 0 41 
270 506 108 133 0 41 
270 506 109 134 0 40 
270 507 108 134 0 42 
270 507 109 134 0 41 
271 506 109 135 0 42 
271 507 109 135 0 42 
271 506 110 136 0 41 
271 507 110 135 1 41 
268 508 106 139 0 43 
268 508 107 137 0 40 
268 509 107 137 0 43 
269 508 107 135 0 39 
268 510 107 138 0 46 
268 511 107 139 0 43 
269 511 107 137 0 42 
269 508 108 134 0 41 
269 509 108 134 0 43 
269 510 108 135 0 44 
269 511 108 136 0 41 
270 508 108 133 0 41 
270 508 109 133 0 40 
270 509 109 133 0 41 
270 509 110 134 0 42 
271 508 110 134 0 41 
271 509 110 134 0 40 
270 510 108 134 0 44 
270 510 109 132 0 41 
270 511 108 134 0 43 
270 511 109 132 0 40 
271 511 109 132 0 40 
271 510 110 133 0 39 
271 511 110 132 0 39 
272 480 106 137 0 44 
272 481 106 139 0 44 
273 480 107 137 0 39 
273 481 106 138 0 44 
273 481 107 138 0 41 
272 482 105 135 0 35 
272 483 105 116 10 36 
272 482 106 136 2 39 
272 483 106 123 12 36 
273 482 106 132 9 43 
273 482 107 132 9 44 
273 483 106 100 10 34 
273 483 107 93 4 29 
274 482 107 123 7 43 
274 483 107 87 11 29 
273 480 108 136 0 35 
274 480 108 136 0 38 
274 480 109 136 0 39 
274 481 108 138 0 41 
274 481 109 140 0 44 
275 480 109 138 0 40 
275 481 109 138 3 47 
275 480 110 139 0 39 
275 480 111 138 0 37 
275 481 110 138 3 43 
274 482 108 124 12 46 
274 483 108 80 18 29 
275 482 109 119 20 42 
275 483 108 76 21 25 
275 483 109 71 21 24 
275 482 110 116 12 39 
272 484 105 73 13 23 
272 485 105 65 20 26 
273 484 106 49 16 28 
273 485 106 34 23 31 
273 485 107 23 25 32 
272 486 105 87 24 36 
272 487 105 101 16 36 
272 486 106 67 21 29 
272 487 106 90 16 34 
273 486 106 41 21 28 
273 486 107 35 24 28 
273 487 106 72 10 25 
273 487 107 68 8 23 
274 484 107 34 22 26 
274 485 107 19 32 31 
274 486 107 38 27 29 
274 487 107 75 16 29 
274 484 108 29 26 23 
274 485 108 19 31 27 
275 484 108 27 27 24 
275 484 109 29 26 25 
275 485 108 24 32 31 
275 485 109 29 29 31 
274 486 108 43 25 28 
274 487 108 86 26 40 
275 486 108 49 25 29 
275 486 109 51 24 29 
275 487 109 89 27 35 
275 486 110 52 23 36 
275 487 110 87 33 41 
276 480 111 137 12 41 
276 481 111 136 5 44 
277 481 111 132 12 50 
276 482 110 115 12 41 
276 482 111 114 17 44 
276 483 110 69 19 27 
276 483 111 87 22 38 
277 482 111 118 13 47 
277 483 111 94 22 39 
276 484 110 33 26 27 
276 484 111 47 27 27 
276 485 110 35 22 34 
276 485 111 45 17 35 
277 484 111 57 31 28 
277 485 111 48 13 33 
276 486 110 52 19 40 
276 486 111 49 22 36 
276 487 110 69 22 33 
276 487 111 63 27 31 
272 488 105 122 8 42 
272 489 105 136 19 48 
272 488 106 118 4 43 
272 489 106 130 12 43 
273 488 106 109 1 39 
273 488 107 107 4 33 
273 489 106 126 11 42 
273 489 107 124 0 38 
272 490 105 136 3 42 
272 491 105 136 0 42 
273 490 106 134 9 40 
273 490 107 131 10 41 
273 491 106 137 0 40 
273 491 107 138 0 45 
274 490 107 133 11 43 
274 491 107 136 5 48 
274 488 108 114 21 44 
274 489 108 122 0 34 
275 488 109 119 31 51 
275 489 109 122 23 43 
275 488 110 111 36 49 
275 489 110 117 36 53 
275 489 111 102 32 46 
274 490 108 124 4 36 
274 491 108 130 14 47 
275 490 109 117 14 34 
275 491 109 114 15 41 
275 490 110 103 24 38 
275 490 111 87 27 41 
275 491 110 95 29 48 
275 491 111 70 26 42 
272 492 105 136 4 40 
272 493 104 136 1 44 
272 493 105 137 3 42 
273 492 106 137 9 36 
273 492 107 138 6 40 
273 493 106 137 6 39 
273 493 107 137 3 43 
272 494 105 135 0 41 
272 495 105 136 0 41 
273 494 106 137 0 42 
273 494 107 136 0 42 
273 495 106 137 0 41 
273 495 107 136 0 39 
274 492 107 136 10 45 
274 493 107 134 2 44 
274 494 107 131 0 40 
274 495 107 134 0 39 
274 492 108 131 25 52 
274 493 108 124 4 40 
275 492 109 113 22 50 
275 493 109 98 9 30 
275 492 110 79 16 39 
275 492 111 51 27 33 
275 493 110 69 12 24 
275 493 111 60 22 21 
274 494 108 120 0 36 
274 495 108 131 0 41 
274 495 109 126 6 42 
275 494 109 101 4 22 
275 495 109 127 7 43 
275 494 110 92 7 29 
275 494 111 103 24 39 
275 495 110 131 4 46 
275 495 111 137 8 49 
276 488 111 85 33 34 
276 489 111 93 38 53 
276 490 111 71 25 37 
276 491 111 49 25 33 
276 492 111 31 22 29 
276 493 111 46 28 21 
276 480 112 132 19 44 
277 480 112 120 9 35 
277 480 113 106 10 38 
277 481 112 124 21 51 
277 482 112 114 17 50 
277 483 112 95 20 38 
278 480 113 97 20 37 
278 481 112 115 19 55 
278 481 113 100 12 44 
278 480 114 89 23 40 
278 480 115 72 17 34 
278 481 114 95 6 45 
279 480 115 69 17 41 
279 481 114 93 6 50 
279 481 115 86 16 47 
278 482 112 106 25 40 
278 482 113 97 10 30 
278 483 112 93 29 36 
278 483 113 89 21 25 
279 482 113 87 23 22 
279 483 113 87 16 34 
279 482 114 85 20 40 
279 482 115 89 22 42 
279 483 114 82 8 33 
279 483 115 86 12 31 
279 480 116 47 28 36 
279 480 117 31 25 26 
279 481 116 73 23 36 
279 481 117 65 24 32 
279 480 118 38 25 24 
279 480 119 44 23 24 
279 481 118 58 13 35 
279 481 119 51 26 28 
277 484 112 69 34 33 
277 485 112 63 13 37 
276 487 112 48 28 28 
277 486 112 53 23 29 
277 487 112 44 35 25 
277 487 113 43 37 33 
278 484 112 84 31 43 
278 484 113 88 17 42 
278 485 112 75 17 45 
278 485 113 86 22 50 
279 484 113 93 9 43 
279 485 113 94 28 47 
279 484 114 86 11 36 
279 485 114 89 23 40 
278 486 113 76 30 41 
278 487 113 51 27 28 
279 486 114 81 21 37 
279 487 114 72 29 34 
279 487 115 76 43 51 
273 480 126 47 33 33 
273 481 126 46 29 29 
273 482 126 44 32 31 
273 483 126 41 31 30 
274 480 125 54 36 35 
274 481 125 43 30 29 
275 480 125 54 39 35 
275 481 125 46 30 25 
274 480 126 49 34 35 
274 481 126 41 27 28 
274 482 125 37 32 32 
274 483 125 34 30 33 
275 482 125 38 30 27 
275 483 125 32 29 27 
274 482 126 37 31 29 
274 483 126 36 32 33 
273 484 126 38 33 32 
273 485 126 35 33 32 
273 486 126 35 35 35 
273 486 127 36 33 32 
273 487 126 36 37 37 
273 487 127 36 36 36 
274 484 125 32 31 34 
274 485 125 34 35 37 
275 484 125 32 32 33 
275 485 125 35 34 36 
274 484 126 34 33 35 
274 485 126 33 34 35 
274 486 125 33 35 37 
274 487 125 35 35 37 
275 486 125 33 33 35 
275 487 125 35 33 34 
274 486 126 33 35 36 
274 487 126 36 36 38 
277 480 123 42 24 28 
277 481 123 35 28 31 
277 482 123 31 28 29 
277 483 123 31 28 30 
279 480 120 43 29 26 
279 480 121 41 34 27 
279 481 120 45 34 29 
279 481 121 37 33 30 
278 480 122 37 29 24 
278 480 123 39 26 24 
278 481 123 32 29 30 
279 480 122 39 33 28 
279 481 122 31 34 33 
279 482 120 61 47 45 
279 482 121 48 29 35 
279 483 121 45 24 29 
278 482 123 32 29 31 
278 483 123 31 26 29 
279 482 122 37 27 34 
279 483 122 39 24 30 
276 480 124 46 30 33 
276 480 125 50 37 35 
276 481 124 40 28 32 
276 481 125 44 29 28 
277 480 124 43 25 29 
277 481 124 37 30 30 
276 482 124 35 34 32 
276 482 125 36 30 28 
276 483 124 31 31 31 
276 483 125 32 30 29 
277 482 124 34 32 30 
277 483 124 31 29 31 
277 484 123 31 32 32 
277 485 123 33 33 35 
277 486 123 31 30 35 
277 487 123 34 30 33 
279 484 121 47 24 28 
279 485 121 50 23 30 
278 484 122 36 32 32 
278 484 123 33 30 31 
278 485 122 35 33 32 
278 485 123 33 31 32 
279 484 122 36 30 29 
279 485 122 37 33 28 
279 486 121 49 21 28 
279 487 121 44 23 28 
278 486 122 35 35 33 
278 486 123 31 30 33 
278 487 122 32 31 30 
278 487 123 34 31 34 
279 486 122 39 32 29 
279 487 122 34 27 28 
276 484 124 33 32 33 
276 484 125 34 33 31 
276 485 124 35 33 34 
277 484 124 32 30 33 
277 485 124 33 32 35 
276 486 124 34 30 33 
276 487 124 34 28 32 
277 486 124 31 31 34 
277 487 124 32 29 32 
275 495 112 140 11 44 
276 488 112 60 34 30 
276 489 112 67 17 41 
277 488 112 41 31 25 
277 488 113 35 25 36 
277 489 112 50 11 37 
277 489 113 45 18 34 
276 490 112 53 24 32 
276 491 112 37 26 32 
277 490 112 39 19 25 
277 490 113 38 31 30 
277 491 112 40 27 33 
277 491 113 36 27 29 
278 488 113 35 25 27 
278 489 113 40 23 39 
278 488 114 38 23 26 
278 489 114 37 18 47 
279 488 114 52 24 34 
279 488 115 54 28 36 
279 489 114 35 18 42 
279 489 115 31 18 33 
278 490 114 35 32 40 
278 491 114 50 22 21 
279 490 114 39 28 39 
279 490 115 46 22 24 
279 491 114 49 26 19 
279 491 115 75 26 23 
276 492 112 40 20 30 
276 493 112 78 24 30 
276 493 113 120 25 53 
277 492 113 62 13 23 
277 493 113 97 12 37 
277 492 114 77 16 21 
277 493 114 119 27 52 
276 494 112 121 16 43 
276 494 113 133 15 52 
276 495 112 139 9 46 
276 495 113 138 5 43 
277 494 113 131 21 56 
276 495 114 129 14 36 
277 494 114 128 13 52 
277 494 115 121 0 51 
277 495 114 127 9 39 
277 495 115 103 11 39 
278 492 114 85 12 25 
278 492 115 101 26 39 
278 493 114 115 39 55 
278 493 115 107 21 45 
279 492 115 96 28 38 
279 493 115 97 28 40 
278 494 115 106 7 40 
277 495 116 63 27 27 
277 495 117 38 25 26 
277 495 118 47 27 33 
277 495 119 70 23 34 
279 492 116 90 29 41 
279 493 116 86 21 34 
279 493 117 71 18 28 
278 493 119 79 18 33 
279 492 119 82 25 35 
279 493 118 67 23 28 
279 493 119 77 25 35 
278 494 116 79 29 32 
278 494 117 51 27 23 
278 495 116 71 32 30 
278 495 117 41 29 24 
279 494 117 57 26 25 
278 494 118 49 26 25 
278 494 119 73 24 33 
278 495 118 41 28 29 
278 495 119 65 21 29 
279 494 118 50 25 20 
273 488 126 35 34 34 
273 488 127 34 33 33 
273 489 126 38 35 34 
273 489 127 38 35 35 
273 490 126 37 33 32 
273 490 127 37 35 34 
273 491 126 38 34 33 
274 488 125 37 35 35 
274 489 125 37 35 33 
275 488 125 37 33 32 
275 489 124 38 33 33 
275 489 125 37 34 33 
274 488 126 36 35 35 
274 489 126 39 36 34 
274 490 125 37 31 34 
274 491 125 37 32 34 
275 490 124 38 32 36 
275 490 125 39 32 37 
275 491 124 34 31 31 
275 491 125 36 32 34 
274 491 126 38 33 33 
275 493 123 39 27 27 
275 494 123 52 29 33 
275 495 122 90 28 40 
275 495 123 63 29 36 
273 492 126 37 33 32 
273 493 126 37 34 34 
273 494 126 36 35 35 
273 495 126 35 34 36 
273 495 127 38 33 35 
274 492 125 35 30 31 
274 493 125 36 34 33 
275 492 124 34 30 30 
275 493 124 35 30 29 
274 494 124 37 32 32 
274 494 125 34 35 35 
274 495 124 39 31 34 
274 495 125 33 34 35 
275 494 124 41 30 32 
275 495 124 47 31 36 
274 495 126 34 35 38 
277 488 123 36 29 30 
277 489 123 37 34 34 
276 491 123 34 29 29 
277 490 123 36 32 33 
277 491 122 42 23 26 
277 491 123 35 27 27 
279 488 121 31 29 22 
279 489 121 43 29 24 
278 488 122 34 28 31 
278 488 123 35 29 33 
278 489 122 39 29 30 
278 489 123 39 29 33 
279 488 122 32 25 27 
279 489 122 40 29 26 
278 491 121 71 25 32 
279 490 121 62 32 31 
279 491 120 76 21 32 
279 491 121 70 24 31 
278 490 122 44 29 29 
278 491 122 53 28 30 
279 490 122 48 29 27 
276 488 124 36 32 33 
276 489 124 36 32 35 
277 488 124 37 30 31 
277 489 124 36 31 33 
276 490 124 34 32 35 
276 491 124 33 31 31 
277 493 121 83 15 35 
276 492 123 35 27 26 
276 493 123 48 27 27 
277 492 122 53 26 25 
277 492 123 42 26 25 
277 493 122 72 26 34 
276 495 120 90 19 34 
276 495 121 98 10 41 
277 494 120 95 22 40 
277 494 121 94 16 44 
277 495 120 93 22 35 
277 495 121 98 16 45 
276 494 122 77 18 34 
276 494 123 59 26 28 
276 495 122 89 18 36 
276 495 123 70 26 31 
277 494 122 83 13 36 
278 492 121 79 20 35 
278 493 120 88 22 40 
278 493 121 84 14 36 
279 492 120 83 20 32 
279 492 121 81 12 35 
278 492 122 68 28 32 
