ply
format ascii 1.0
comment Created by CloudCompare v2.10.1 (Zephyrus)
comment Created 1/31/20 11:55 AM
obj_info Generated by CloudCompare!
element vertex 2041
property float x
property float y
property float z
property uchar red
property uchar green
property uchar blue
end_header
402 493 329 143 113 98 
402 492 330 139 111 95 
402 493 330 146 115 99 
403 492 330 142 113 97 
403 492 331 148 117 101 
403 493 330 152 119 103 
403 493 331 160 124 109 
402 494 329 152 120 105 
402 495 329 164 129 113 
402 494 330 156 123 107 
402 495 330 167 131 115 
403 494 330 162 127 110 
403 494 331 168 130 114 
403 495 330 172 133 119 
403 495 331 175 135 120 
404 488 331 103 79 67 
404 489 331 119 96 80 
405 488 331 109 85 72 
405 489 331 123 99 82 
404 490 331 128 103 85 
404 491 331 140 110 93 
405 490 331 134 106 88 
405 491 331 144 113 96 
405 488 332 112 88 74 
405 489 332 127 101 85 
405 490 332 137 108 91 
405 491 332 148 115 98 
406 488 332 115 88 75 
406 488 333 120 91 77 
406 489 332 131 103 87 
406 489 333 135 105 88 
407 488 333 125 95 81 
407 489 333 139 107 91 
406 490 332 140 110 93 
406 490 333 146 113 96 
406 491 332 155 119 102 
406 491 333 160 122 107 
407 490 333 151 117 101 
407 491 333 165 125 110 
404 492 331 154 119 103 
404 493 331 164 126 111 
405 492 331 160 123 107 
405 493 331 168 129 113 
404 494 331 172 132 116 
404 495 331 179 136 122 
405 494 331 176 133 119 
405 495 331 182 137 123 
405 492 332 163 125 109 
405 493 332 170 130 115 
405 494 332 178 135 120 
405 495 332 184 137 123 
406 492 332 167 127 111 
406 492 333 171 129 114 
406 493 332 174 132 117 
406 493 333 178 133 118 
407 492 333 176 131 117 
407 493 333 181 135 120 
406 494 332 181 136 121 
406 494 333 184 137 121 
406 495 332 187 138 123 
406 495 333 187 139 123 
407 494 333 187 138 123 
407 495 333 191 139 125 
408 485 334 86 58 50 
408 486 334 108 81 68 
408 487 334 118 90 77 
408 488 334 132 101 85 
408 489 334 146 111 96 
409 488 335 146 110 95 
409 489 335 157 119 104 
408 490 334 161 123 107 
408 491 334 172 129 114 
409 490 335 167 127 112 
409 491 334 176 132 116 
408 492 333 181 134 119 
408 493 333 186 137 123 
408 492 334 180 133 118 
408 493 334 187 138 124 
409 492 334 184 135 120 
409 493 334 188 137 122 
408 494 333 190 138 124 
408 495 333 192 138 124 
409 495 333 192 136 122 
408 494 334 190 138 123 
409 494 334 190 136 122 
409 495 334 192 136 122 
410 494 335 190 134 119 
400 501 327 194 144 130 
400 502 327 198 145 131 
400 503 326 205 149 134 
400 503 327 203 148 132 
401 502 327 204 148 132 
401 503 327 206 149 133 
402 503 327 208 150 133 
403 503 327 210 152 134 
400 496 328 165 131 115 
400 497 328 173 138 121 
401 496 329 170 134 118 
401 497 329 177 139 123 
400 498 328 182 143 126 
400 499 328 188 144 128 
401 498 329 185 143 127 
401 499 328 189 144 127 
401 499 329 190 142 126 
402 496 329 174 137 121 
402 497 329 182 143 127 
402 496 330 177 138 123 
402 497 330 183 142 126 
403 496 330 181 139 125 
403 497 330 186 142 127 
402 498 329 187 141 126 
402 499 329 192 142 126 
402 498 330 185 141 126 
403 498 330 190 141 125 
403 499 330 195 143 127 
400 500 328 191 145 129 
400 501 328 195 146 130 
401 500 328 194 146 129 
401 500 329 193 144 127 
401 501 328 199 149 132 
400 502 328 198 147 131 
401 502 328 202 149 133 
402 500 329 197 145 129 
402 501 328 202 150 133 
402 501 329 201 148 131 
403 500 329 199 145 129 
403 501 329 204 148 131 
403 500 330 200 146 129 
402 502 328 205 150 133 
403 502 328 208 150 133 
403 502 329 207 150 132 
403 503 328 210 153 136 
404 496 331 186 141 126 
404 497 331 189 142 126 
405 496 331 188 141 125 
405 497 331 191 142 125 
404 498 330 193 141 124 
404 498 331 193 141 125 
404 499 330 198 144 127 
405 498 331 196 144 126 
405 499 331 200 145 128 
406 498 331 197 143 126 
406 499 331 199 144 126 
407 499 331 195 139 121 
405 496 332 188 140 125 
406 496 332 191 140 126 
406 497 332 194 141 126 
407 496 332 193 140 125 
407 496 333 193 140 125 
407 497 332 194 140 124 
407 497 333 194 140 125 
406 498 332 195 141 125 
407 498 332 194 138 122 
407 499 332 193 137 119 
404 501 329 206 150 132 
404 500 330 201 146 128 
404 501 330 205 149 132 
405 500 330 203 147 130 
405 500 331 202 147 130 
405 501 330 205 148 131 
404 502 328 210 152 136 
404 502 329 208 150 133 
404 503 328 211 153 136 
405 502 329 207 149 132 
405 503 328 209 149 133 
405 502 330 205 147 131 
406 500 330 202 147 129 
406 500 331 200 144 126 
406 501 330 202 146 129 
406 501 331 199 143 125 
407 500 331 194 138 119 
407 501 330 197 140 122 
407 501 331 195 138 120 
406 502 329 202 142 126 
406 503 328 204 143 126 
406 503 329 203 141 125 
407 502 329 198 138 120 
407 503 328 200 138 120 
407 503 329 199 137 119 
406 502 330 200 142 125 
407 502 330 197 138 119 
400 507 323 210 151 131 
401 507 323 208 148 127 
402 507 323 205 146 123 
400 505 325 213 156 136 
401 505 325 215 157 137 
400 504 326 208 151 134 
401 504 326 210 153 135 
401 505 326 214 157 137 
400 506 324 213 154 134 
400 506 325 214 156 136 
401 506 324 213 153 133 
401 506 325 215 157 137 
401 507 324 210 150 130 
402 505 325 214 157 137 
402 504 326 213 156 137 
402 504 327 211 153 136 
402 505 326 215 158 138 
403 504 327 213 155 137 
403 505 326 213 154 135 
402 506 324 210 150 129 
402 506 325 214 156 135 
402 507 324 205 146 124 
403 506 324 208 149 127 
403 506 325 209 149 128 
403 507 324 202 142 118 
403 506 326 209 149 129 
400 509 321 205 145 125 
401 509 321 204 143 123 
400 508 322 208 150 129 
400 508 323 208 149 129 
400 509 322 206 146 126 
401 508 322 206 147 126 
401 508 323 205 146 125 
401 509 322 205 144 124 
400 510 320 205 144 123 
400 510 321 205 145 124 
400 511 320 204 143 121 
401 510 321 204 143 122 
401 511 320 204 142 120 
402 508 323 204 144 122 
402 509 322 204 142 121 
403 508 323 202 141 117 
403 509 322 203 140 118 
403 509 323 202 140 118 
402 510 321 204 142 120 
402 511 320 204 141 119 
402 511 321 204 141 119 
403 510 321 205 142 119 
403 511 320 205 141 116 
403 511 321 205 142 117 
403 510 322 204 141 118 
404 504 327 212 153 135 
404 505 326 209 149 130 
404 505 327 209 149 131 
405 504 327 209 149 131 
405 505 326 205 145 125 
405 505 327 207 147 127 
404 506 325 204 145 122 
404 507 324 200 140 116 
405 506 325 201 142 118 
405 507 324 199 138 113 
405 507 325 199 140 115 
404 506 326 206 147 126 
405 506 326 203 143 121 
406 504 327 205 144 125 
406 505 327 202 142 122 
407 505 327 197 137 115 
406 506 325 198 140 115 
406 507 324 199 137 112 
406 507 325 197 138 112 
407 507 325 198 138 113 
406 506 326 198 139 115 
407 506 326 195 136 111 
407 506 327 194 135 110 
404 508 323 202 139 115 
404 509 322 203 139 116 
404 509 323 202 138 114 
405 508 323 202 137 112 
405 509 322 204 139 115 
405 509 323 203 137 113 
404 510 321 205 143 115 
404 511 320 205 143 113 
404 511 321 205 144 114 
405 510 321 205 143 112 
405 511 321 205 143 109 
404 510 322 204 141 116 
405 510 322 205 141 114 
406 508 323 203 137 112 
406 509 322 207 141 113 
406 509 323 205 138 112 
406 511 321 203 140 104 
406 510 322 206 142 111 
404 508 324 201 138 114 
405 508 324 201 138 114 
406 508 324 201 139 112 
407 508 324 203 140 112 
405 504 328 207 147 129 
406 504 328 203 143 124 
407 504 328 198 137 117 
408 496 333 193 138 124 
408 497 333 193 138 122 
409 496 333 192 137 122 
409 497 333 192 136 119 
409 496 334 193 137 122 
408 498 332 192 135 118 
408 498 333 192 136 120 
408 499 332 190 132 114 
409 498 333 190 133 115 
409 499 332 188 130 112 
409 499 333 188 130 111 
410 497 334 190 134 116 
410 498 334 189 133 114 
408 500 331 192 135 116 
408 501 331 193 136 116 
409 501 331 193 136 115 
408 503 329 197 136 115 
408 502 330 196 138 118 
408 502 331 195 138 117 
409 502 331 195 139 117 
409 503 330 195 134 112 
408 500 332 191 133 114 
409 500 332 190 132 113 
409 501 332 193 135 115 
410 500 333 189 131 110 
408 505 327 194 134 110 
408 506 327 193 133 107 
408 504 328 195 134 112 
408 505 328 194 134 109 
377 512 301 139 32 50 
377 513 301 125 15 39 
377 512 302 134 31 50 
377 514 301 128 15 36 
377 515 300 145 27 47 
378 513 301 108 9 34 
379 512 301 97 9 29 
379 513 301 96 7 29 
378 512 302 115 14 37 
379 512 302 102 9 31 
378 514 301 109 11 31 
378 515 300 120 27 40 
378 515 301 121 20 34 
379 514 300 102 4 28 
379 514 301 100 8 30 
379 515 300 107 14 33 
377 518 299 63 20 26 
377 519 299 130 30 52 
377 516 300 141 39 62 
377 517 300 80 14 32 
377 518 300 66 20 25 
378 516 300 120 38 52 
378 517 300 81 17 28 
379 516 300 107 32 46 
379 517 300 87 20 31 
378 518 300 101 24 37 
378 519 300 152 36 60 
379 518 300 120 33 50 
379 519 300 156 36 63 
382 512 299 86 4 28 
382 513 299 88 8 25 
383 512 299 84 11 26 
383 513 299 89 5 29 
382 514 299 92 9 27 
382 515 299 98 10 31 
383 514 299 94 7 31 
383 515 299 97 9 32 
380 512 301 91 9 31 
380 513 300 92 10 28 
380 513 301 90 6 26 
381 512 300 88 5 32 
381 512 301 89 5 35 
381 513 300 90 10 28 
380 514 300 98 10 27 
380 515 300 102 9 34 
381 514 300 96 9 28 
381 515 300 101 4 33 
382 512 300 88 5 30 
382 513 300 88 13 26 
382 514 300 95 11 28 
382 515 300 100 7 31 
382 516 299 101 10 35 
383 516 299 100 6 34 
383 517 299 103 3 34 
380 516 300 103 22 41 
380 517 300 100 21 34 
381 516 300 102 14 38 
381 517 300 106 23 37 
380 518 300 129 29 49 
380 519 300 149 26 53 
381 518 300 126 24 42 
381 519 300 137 16 44 
382 516 300 103 12 35 
382 517 300 107 11 35 
383 517 300 106 2 33 
382 518 300 116 11 36 
382 519 300 124 11 38 
383 518 300 109 2 33 
383 519 300 114 5 35 
378 527 295 82 26 30 
377 520 299 163 42 66 
377 521 298 110 23 41 
377 521 299 145 35 58 
377 523 297 89 29 41 
377 522 298 57 17 27 
377 522 299 94 16 36 
377 523 298 61 19 29 
378 520 299 172 32 62 
378 521 299 158 30 59 
379 521 299 158 38 66 
378 522 299 106 15 38 
378 523 298 61 17 26 
378 523 299 64 15 27 
379 522 299 135 26 53 
379 523 299 97 10 35 
378 520 300 173 28 58 
379 520 300 169 26 54 
379 521 300 167 34 57 
377 524 297 138 34 53 
377 525 297 158 32 57 
377 524 298 111 20 40 
377 526 296 142 29 54 
378 525 297 164 26 58 
378 524 298 111 25 46 
378 525 298 161 29 60 
379 524 299 98 14 35 
379 525 298 153 28 58 
379 525 299 129 19 45 
378 526 296 144 25 53 
378 526 297 159 22 54 
378 527 296 108 26 41 
378 527 297 129 20 48 
379 527 297 140 20 51 
379 526 298 170 24 58 
379 527 298 158 23 56 
380 522 299 144 28 48 
380 523 299 133 25 46 
381 523 299 151 29 55 
380 520 300 156 17 49 
380 521 300 159 27 51 
381 520 300 143 14 43 
381 521 300 151 15 47 
380 522 300 155 37 52 
381 522 300 153 29 50 
381 523 300 154 32 51 
382 520 300 130 11 39 
382 521 300 137 13 40 
383 520 300 120 9 38 
383 521 300 125 11 39 
382 522 300 145 14 42 
382 523 300 150 25 44 
383 522 300 131 11 41 
383 523 300 137 13 37 
380 524 299 116 11 31 
380 525 299 140 17 44 
381 524 299 153 21 54 
381 525 299 160 28 57 
380 526 298 168 23 59 
380 526 299 166 27 58 
380 527 298 161 29 58 
380 527 299 168 33 59 
381 526 299 168 33 57 
381 527 299 164 30 56 
382 524 299 158 25 48 
382 525 299 164 30 59 
383 524 299 144 18 41 
383 525 299 151 24 55 
382 526 299 165 31 57 
382 527 299 164 34 58 
383 526 299 155 26 54 
383 527 299 156 23 47 
378 531 291 43 27 33 
378 529 292 43 26 28 
378 529 293 43 28 30 
378 528 294 47 30 31 
378 528 295 54 29 29 
378 529 294 47 27 31 
378 529 295 47 27 31 
379 529 295 47 26 31 
378 530 292 44 26 29 
378 530 293 46 27 30 
378 531 292 44 28 32 
378 531 293 45 29 31 
379 531 293 47 30 28 
378 530 294 50 26 30 
379 530 294 52 28 29 
379 530 295 50 28 31 
379 531 294 53 31 29 
379 531 295 57 29 33 
379 533 288 73 24 36 
379 533 289 59 19 29 
379 532 290 46 24 31 
379 532 291 43 26 34 
379 533 290 48 22 28 
379 533 291 45 22 32 
379 534 288 80 32 37 
379 534 289 79 32 35 
379 535 288 78 26 30 
379 535 289 94 38 44 
379 534 290 62 26 26 
379 534 291 48 25 27 
379 535 290 80 30 33 
379 535 291 71 27 28 
379 532 292 43 27 32 
379 532 293 48 27 30 
379 533 292 46 24 32 
379 533 293 51 28 32 
379 532 294 55 28 30 
379 532 295 57 25 29 
379 533 294 56 31 32 
379 534 292 47 26 27 
379 534 293 50 28 28 
379 535 292 64 21 27 
379 535 293 58 21 25 
379 534 294 55 32 32 
380 532 295 58 28 29 
380 533 294 60 30 31 
380 533 295 59 31 30 
380 535 293 67 19 28 
380 534 294 56 28 34 
380 534 295 55 30 32 
380 535 294 60 25 34 
380 535 295 58 25 30 
378 528 296 62 26 28 
379 528 296 47 27 28 
379 528 297 74 19 29 
379 529 296 44 29 30 
379 529 297 45 30 29 
379 530 296 51 28 32 
379 531 296 57 26 34 
380 528 297 100 15 33 
380 529 297 48 29 30 
380 528 298 118 18 42 
380 529 298 67 23 29 
381 528 298 111 19 34 
381 528 299 138 27 48 
381 529 298 83 19 31 
380 530 297 52 27 32 
380 531 296 57 28 32 
380 531 297 55 28 31 
381 531 297 57 27 30 
381 530 298 67 23 34 
381 531 298 62 25 31 
382 528 299 143 31 53 
382 529 299 101 28 37 
383 528 299 151 35 59 
383 529 299 127 33 55 
382 530 298 59 24 25 
382 530 299 76 18 24 
382 531 298 62 28 30 
383 530 298 67 26 26 
383 530 299 86 24 29 
383 531 298 61 25 33 
380 532 296 58 30 30 
380 532 297 56 31 29 
380 533 296 57 31 31 
381 532 296 57 31 30 
381 532 297 57 29 31 
381 533 296 56 30 30 
381 533 297 54 27 31 
380 534 296 53 31 32 
380 535 296 50 31 32 
381 534 296 50 28 33 
381 534 297 49 27 33 
381 535 296 61 25 29 
382 532 297 57 29 33 
382 533 297 52 24 30 
382 532 298 58 29 32 
382 533 298 53 24 29 
383 532 298 53 22 35 
383 533 298 52 24 29 
382 534 297 49 22 32 
382 535 296 88 19 31 
382 535 297 83 18 36 
383 535 297 109 23 42 
383 534 298 70 23 27 
379 536 288 77 19 28 
379 536 289 88 25 37 
379 537 289 76 18 28 
379 536 290 94 34 46 
379 536 291 95 34 44 
379 537 290 77 19 31 
379 537 291 88 25 39 
378 538 289 66 25 28 
378 539 289 58 24 25 
378 538 290 69 28 32 
378 539 290 70 26 32 
378 539 291 69 23 31 
379 538 290 63 20 28 
379 538 291 63 15 27 
379 539 291 63 21 28 
379 536 292 102 35 50 
379 537 292 104 33 48 
379 537 293 114 31 48 
379 538 292 80 16 29 
379 538 293 99 22 39 
379 539 292 65 16 28 
379 539 293 81 16 31 
377 542 291 97 8 33 
377 543 291 106 4 34 
378 540 289 57 23 28 
378 540 290 74 19 34 
378 540 291 85 23 37 
378 541 290 87 19 40 
378 541 291 94 17 37 
377 543 292 113 8 35 
378 540 292 85 17 31 
378 541 292 94 15 33 
378 541 293 99 11 35 
379 540 292 72 13 30 
379 540 293 80 14 31 
379 541 293 96 15 33 
379 541 294 119 18 40 
378 542 292 106 12 35 
378 542 293 111 10 36 
378 543 292 111 6 35 
378 543 293 125 11 39 
379 542 293 116 16 38 
379 543 293 133 18 44 
379 542 294 128 24 45 
380 536 293 102 21 42 
380 537 293 121 30 54 
380 536 294 100 20 38 
380 536 295 97 19 31 
380 537 294 130 31 53 
381 536 295 99 18 30 
381 537 295 135 26 52 
380 538 293 108 21 41 
380 539 293 102 15 36 
380 538 294 127 22 46 
380 539 294 114 14 37 
381 538 295 137 21 47 
381 539 295 128 14 36 
380 540 293 93 10 33 
380 540 294 111 10 33 
380 541 294 114 15 36 
380 541 295 128 17 40 
381 540 295 130 16 35 
381 541 295 136 21 42 
380 542 294 131 22 44 
380 542 295 133 23 46 
380 543 294 138 25 47 
381 542 295 133 27 51 
381 543 294 120 26 43 
381 543 295 116 24 43 
383 541 295 115 26 45 
382 542 295 121 28 48 
382 543 294 83 25 38 
382 543 295 91 22 38 
383 542 295 87 24 36 
383 543 294 69 27 33 
383 543 295 77 24 36 
381 536 296 103 16 31 
381 537 296 140 22 51 
381 538 296 146 19 46 
382 536 296 123 16 43 
382 536 297 129 22 50 
382 537 296 153 19 55 
383 536 297 151 28 58 
383 537 297 163 27 54 
382 538 296 151 18 45 
382 539 296 146 19 41 
383 538 296 158 20 44 
383 538 297 159 25 48 
383 539 296 155 25 49 
382 540 296 148 23 45 
382 541 296 145 30 51 
383 540 296 147 27 51 
383 541 296 127 27 47 
377 557 287 40 22 28 
377 558 287 42 21 28 
377 559 286 37 25 28 
377 559 287 40 24 27 
378 556 287 44 27 27 
378 557 287 40 24 26 
379 556 287 50 26 29 
379 557 286 50 26 26 
379 557 287 48 25 27 
379 559 285 47 26 26 
378 558 286 37 23 27 
378 558 287 39 23 28 
378 559 286 39 25 29 
379 558 286 46 29 26 
381 555 287 58 27 29 
382 555 287 64 32 32 
383 555 287 73 40 39 
381 557 285 63 27 34 
380 556 286 58 24 29 
380 556 287 55 23 31 
380 557 286 57 28 30 
381 556 286 65 34 35 
381 556 287 62 29 31 
381 557 286 61 28 31 
380 558 285 56 28 25 
380 559 285 55 26 26 
381 558 285 60 27 28 
381 559 284 61 29 33 
381 559 285 59 27 29 
380 558 286 55 29 27 
382 557 285 63 27 30 
382 556 286 72 36 32 
382 556 287 69 35 32 
382 557 286 71 33 34 
383 556 286 71 33 38 
383 556 287 73 34 37 
383 557 286 69 31 34 
382 558 285 59 27 28 
382 559 285 59 32 31 
383 558 285 71 38 37 
383 559 285 77 47 44 
379 564 278 56 23 29 
379 564 279 54 24 29 
380 563 277 64 22 27 
380 564 276 86 22 36 
380 564 277 78 24 33 
380 565 276 90 26 41 
380 565 277 78 27 35 
381 565 277 74 26 34 
380 564 278 73 22 31 
380 564 279 70 24 31 
380 565 278 76 26 35 
380 565 279 76 28 36 
381 565 278 69 25 32 
381 565 279 57 24 27 
380 566 276 78 21 34 
380 567 276 55 19 27 
381 566 277 59 24 29 
381 567 277 45 24 27 
381 566 278 55 26 28 
382 565 279 48 27 27 
382 567 277 36 25 25 
382 566 278 46 27 28 
382 566 279 48 30 30 
382 567 278 37 26 26 
383 566 279 46 31 30 
383 567 278 40 27 27 
383 567 279 43 29 30 
378 562 283 44 28 28 
378 563 282 42 27 31 
378 563 283 41 27 31 
379 562 283 51 28 29 
379 563 282 52 25 29 
379 563 283 52 25 28 
377 560 286 39 26 25 
377 561 286 41 28 26 
377 562 285 35 26 26 
378 560 285 41 26 27 
378 561 284 45 25 27 
378 561 285 43 27 28 
379 560 285 46 23 25 
379 561 284 49 26 28 
379 561 285 47 25 27 
378 560 286 40 26 27 
378 562 284 40 26 26 
379 562 284 51 28 30 
378 564 281 44 28 28 
379 564 280 56 23 28 
379 564 281 52 25 28 
378 564 282 40 26 28 
381 561 283 57 24 30 
380 562 283 57 28 30 
380 563 282 54 24 28 
381 562 283 57 31 31 
381 563 282 52 27 27 
382 561 283 65 39 39 
382 562 283 72 45 42 
382 563 282 77 50 44 
382 563 283 58 35 31 
383 562 283 86 53 50 
383 563 282 79 52 47 
380 560 284 55 26 29 
380 560 285 56 27 29 
380 561 284 54 26 29 
381 560 284 61 29 33 
381 561 284 57 23 27 
382 560 284 59 31 30 
382 561 284 58 29 30 
383 560 284 90 59 50 
383 560 285 90 57 51 
383 561 284 89 56 51 
380 564 280 67 24 31 
380 564 281 59 25 28 
380 565 280 71 26 34 
381 564 281 54 26 29 
381 565 280 56 26 29 
382 564 280 53 28 30 
382 564 281 50 29 29 
382 565 280 51 30 31 
383 564 281 58 38 36 
383 565 280 52 32 32 
383 566 280 48 33 32 
379 572 275 37 24 26 
379 573 275 37 27 26 
379 574 275 36 24 25 
380 568 275 34 24 24 
380 569 275 32 26 27 
380 570 275 31 25 29 
380 571 275 32 25 28 
381 571 275 33 25 29 
380 568 276 40 21 24 
380 569 276 33 25 29 
381 568 276 36 24 26 
381 568 277 31 26 26 
381 569 276 33 27 29 
380 570 276 30 24 30 
381 570 276 33 26 30 
381 571 276 32 26 29 
382 568 277 35 26 26 
382 569 276 36 27 28 
382 569 277 35 26 27 
383 568 277 37 27 26 
383 569 277 37 27 27 
383 568 278 39 29 27 
383 569 278 41 29 27 
382 570 276 35 25 28 
382 570 277 34 25 27 
382 571 276 35 26 28 
383 570 277 39 28 27 
383 571 276 39 29 27 
383 571 277 41 29 28 
380 572 275 35 27 28 
380 573 275 38 28 26 
381 572 275 35 25 26 
381 573 275 46 27 27 
380 574 274 53 24 25 
380 574 275 38 24 23 
380 575 274 73 23 30 
381 574 274 67 29 33 
381 574 275 63 31 34 
381 575 274 85 30 41 
382 572 275 37 25 26 
382 573 275 45 25 26 
382 574 275 59 26 30 
382 575 275 75 28 35 
383 575 275 67 30 32 
382 572 276 38 26 28 
382 573 276 46 26 28 
383 572 276 43 29 27 
383 572 277 43 31 29 
383 573 276 48 30 28 
383 574 276 53 31 28 
383 575 276 63 33 30 
377 544 292 124 10 37 
377 545 292 136 12 39 
377 545 293 142 15 42 
377 546 292 147 15 43 
377 546 293 154 17 47 
377 547 292 157 16 45 
377 547 293 166 18 52 
378 544 293 136 14 42 
378 545 293 149 15 44 
379 544 293 148 20 50 
379 545 293 160 19 50 
379 544 294 146 21 50 
378 546 293 163 18 50 
378 547 293 172 19 55 
379 546 293 168 21 53 
379 547 293 169 26 57 
377 551 291 163 30 61 
378 550 291 150 31 57 
378 551 291 134 25 50 
379 550 291 123 24 47 
379 551 290 79 20 30 
379 551 291 96 20 36 
377 548 292 167 17 51 
377 549 292 174 21 57 
376 550 292 173 20 58 
376 551 292 173 25 62 
377 550 292 174 27 62 
377 551 292 173 32 67 
378 548 292 174 22 58 
378 548 293 175 24 58 
378 549 292 171 29 61 
379 548 292 164 34 61 
379 548 293 172 31 63 
379 549 292 151 30 58 
378 550 292 163 32 61 
380 545 293 145 25 52 
381 545 293 93 33 41 
380 544 294 140 23 48 
380 545 294 144 21 49 
381 544 294 100 26 42 
381 545 294 103 33 46 
380 546 293 148 32 56 
380 547 293 147 30 55 
381 546 293 97 30 44 
381 547 292 98 34 47 
381 547 293 108 30 50 
382 545 293 74 30 37 
383 544 293 65 23 30 
383 545 292 65 27 28 
383 545 293 69 27 32 
382 544 294 76 31 38 
382 545 294 77 33 40 
383 544 294 68 27 33 
382 546 292 72 28 31 
382 546 293 75 28 35 
382 547 292 75 28 33 
383 546 292 74 31 34 
383 547 292 75 26 35 
380 549 291 109 23 39 
381 549 291 83 23 32 
380 550 291 93 25 35 
380 551 290 75 27 32 
380 551 291 84 27 34 
381 550 291 80 24 33 
381 551 290 76 24 33 
381 551 291 80 26 34 
382 548 291 74 32 35 
382 549 291 74 27 32 
383 548 291 78 35 39 
383 549 291 75 33 35 
382 550 290 73 25 31 
382 550 291 75 27 33 
382 551 290 73 29 34 
383 550 290 75 36 36 
383 550 291 77 36 37 
383 551 290 72 36 36 
380 548 292 137 28 51 
380 549 292 115 23 43 
381 548 292 93 26 39 
381 549 292 95 22 36 
382 548 292 73 29 33 
377 552 290 120 25 41 
377 552 291 142 28 51 
377 553 290 109 26 38 
377 554 289 73 20 28 
377 555 289 69 23 32 
377 554 290 88 28 35 
379 553 289 65 27 33 
378 552 290 92 22 35 
378 552 291 120 24 44 
378 553 290 77 23 29 
379 552 290 69 24 31 
379 553 290 64 25 30 
378 554 289 66 25 28 
378 555 288 55 26 32 
378 555 289 61 24 30 
379 554 288 55 27 32 
379 554 289 63 29 35 
379 555 288 54 27 30 
379 555 289 57 29 30 
377 556 288 51 22 27 
377 556 289 61 22 32 
377 557 288 45 22 27 
377 558 288 44 24 29 
378 556 288 46 25 28 
378 557 288 38 23 24 
379 556 288 50 26 31 
380 553 289 65 27 33 
381 553 289 65 28 34 
380 552 290 66 26 33 
380 553 290 64 24 33 
381 552 290 70 25 33 
380 554 288 59 27 32 
380 554 289 63 28 33 
380 555 288 57 26 33 
381 554 288 61 27 29 
381 554 289 65 30 34 
381 555 288 58 26 27 
382 552 289 69 30 33 
382 553 289 67 33 36 
383 552 289 72 36 36 
383 553 289 73 38 37 
382 552 290 70 31 33 
383 552 290 70 36 35 
382 554 288 65 32 32 
382 555 288 65 32 31 
383 554 288 74 37 37 
379 589 271 80 26 39 
379 590 271 85 29 40 
379 591 271 88 28 38 
380 590 271 90 27 39 
380 591 271 96 27 38 
379 576 274 77 24 33 
379 577 274 91 28 38 
379 578 274 95 31 44 
379 579 274 87 27 38 
379 580 273 76 18 29 
379 581 273 78 26 35 
379 580 274 77 24 34 
379 582 273 79 37 43 
379 583 273 63 27 34 
380 576 274 94 30 37 
380 577 274 108 33 42 
381 576 274 98 30 40 
381 576 275 91 28 39 
381 577 274 107 26 40 
380 578 274 111 33 46 
380 579 274 100 27 40 
381 578 274 109 28 43 
381 579 274 101 26 37 
382 576 275 84 31 37 
382 577 274 90 26 36 
382 577 275 89 29 37 
383 576 275 78 32 36 
383 577 275 81 34 37 
382 578 274 90 26 35 
382 579 274 85 27 32 
383 578 275 83 36 39 
383 579 274 81 38 36 
383 579 275 83 42 40 
383 576 276 74 34 35 
383 577 276 77 36 37 
380 580 273 83 22 31 
380 581 273 79 25 34 
381 580 273 84 26 33 
381 581 273 74 24 30 
380 580 274 89 25 34 
381 580 274 89 26 35 
380 582 273 78 34 38 
380 583 273 69 30 32 
381 582 273 73 27 32 
381 583 273 70 27 31 
382 581 273 70 29 30 
382 580 274 77 29 31 
382 581 274 73 33 33 
383 580 274 79 41 40 
383 580 275 90 50 45 
383 581 274 77 40 38 
383 581 275 100 58 51 
382 582 273 72 31 35 
382 583 273 74 33 34 
383 583 273 76 34 36 
383 582 274 80 42 42 
383 583 274 87 45 44 
379 584 272 44 29 28 
379 584 273 46 24 27 
379 585 272 42 25 27 
379 586 272 50 25 27 
379 587 272 57 23 27 
379 588 272 67 26 31 
379 589 272 78 26 36 
380 584 273 55 27 26 
380 585 272 55 25 30 
381 584 273 67 30 31 
381 585 272 71 29 38 
381 585 273 71 29 36 
380 586 272 59 25 30 
380 587 272 62 28 31 
381 586 272 73 27 33 
381 587 272 76 28 35 
382 584 273 74 34 32 
382 585 273 78 33 33 
383 584 273 82 37 35 
383 585 273 85 38 37 
383 584 274 97 54 50 
383 585 274 105 59 52 
383 585 275 120 75 64 
382 586 273 83 35 34 
382 587 273 86 35 36 
383 586 273 94 43 39 
383 587 273 103 53 47 
383 586 274 113 66 57 
383 586 275 125 79 69 
383 587 274 117 68 59 
383 587 275 127 79 70 
380 588 272 70 27 32 
380 589 272 82 27 36 
381 588 272 78 28 36 
381 589 272 82 29 35 
380 590 272 89 28 38 
381 590 272 90 32 37 
381 591 272 99 34 41 
382 588 272 86 33 38 
382 588 273 91 39 39 
382 589 272 89 34 39 
382 589 273 105 51 50 
383 588 273 108 58 51 
383 589 273 114 62 57 
383 588 274 120 71 61 
383 588 275 131 83 75 
383 589 274 125 74 65 
383 589 275 135 88 79 
382 590 272 98 40 43 
382 590 273 112 58 53 
382 591 272 105 44 46 
382 591 273 115 60 55 
383 590 273 121 68 60 
383 591 273 124 71 62 
383 590 274 127 76 67 
383 590 275 139 91 82 
383 591 274 130 78 68 
383 591 275 140 91 82 
383 590 276 142 97 87 
383 591 276 144 98 88 
379 592 271 94 24 38 
379 593 271 97 26 42 
379 594 271 101 28 40 
379 595 270 98 26 38 
379 595 271 101 27 36 
379 596 270 102 23 35 
379 596 271 108 28 36 
379 597 270 105 23 38 
379 599 269 116 25 41 
379 598 270 111 24 40 
379 599 270 115 25 40 
380 592 271 104 28 40 
380 593 271 108 30 39 
381 592 271 108 37 44 
380 594 271 111 34 41 
380 595 271 113 36 41 
381 595 271 121 43 49 
380 596 271 115 35 41 
380 597 270 116 32 42 
380 597 271 121 38 47 
381 596 271 124 42 48 
381 597 271 126 47 51 
380 599 269 120 34 44 
380 598 270 119 35 45 
380 599 270 121 37 47 
381 598 270 126 45 49 
381 598 271 129 53 54 
381 599 270 128 49 52 
381 599 271 133 59 57 
382 599 271 136 65 63 
379 600 269 121 24 44 
379 601 268 126 25 46 
379 601 269 123 29 45 
379 602 268 127 27 44 
379 603 268 126 32 41 
379 606 267 129 34 47 
379 607 267 129 36 45 
379 604 268 125 35 42 
379 605 268 125 36 45 
379 606 268 126 36 48 
379 607 268 128 41 48 
380 600 269 123 39 47 
380 601 269 123 38 47 
381 601 269 129 50 52 
381 600 270 130 51 54 
381 600 271 136 61 60 
381 601 270 132 54 55 
380 602 269 123 40 48 
380 603 268 122 42 48 
380 603 269 124 44 49 
381 602 269 130 51 53 
381 603 269 133 54 55 
381 602 270 136 60 58 
381 603 270 137 61 58 
382 600 271 137 65 63 
382 601 270 137 62 61 
382 601 271 139 66 63 
382 602 270 139 65 63 
382 602 271 141 68 63 
382 603 270 141 69 63 
382 603 271 143 73 65 
380 604 268 123 44 50 
380 604 269 127 48 53 
380 605 268 123 46 50 
380 605 269 128 50 54 
381 604 269 134 55 56 
381 605 269 137 58 58 
381 604 270 139 62 59 
381 605 270 142 67 62 
380 606 268 127 48 51 
380 607 268 130 48 53 
381 606 268 137 59 57 
381 606 269 138 61 58 
381 607 268 137 57 57 
381 607 269 140 63 61 
382 604 270 143 73 65 
382 604 271 144 75 67 
382 605 270 144 72 64 
382 605 271 147 80 71 
382 606 269 141 64 59 
382 607 269 143 69 64 
382 606 270 144 73 65 
382 606 271 149 84 75 
382 607 270 145 76 67 
382 607 271 151 87 77 
381 592 272 109 40 46 
381 593 272 116 43 48 
381 594 272 120 45 48 
381 595 272 123 49 51 
382 592 272 111 45 48 
382 592 273 120 62 57 
382 593 272 121 55 55 
382 593 273 127 68 63 
383 592 273 127 72 62 
383 593 273 131 74 66 
383 592 274 132 77 67 
383 592 275 142 93 83 
383 593 274 134 77 68 
383 593 275 142 90 80 
382 594 272 128 61 60 
382 594 273 132 71 64 
382 595 272 129 61 60 
382 595 273 135 73 67 
383 594 274 137 80 70 
383 594 275 144 91 81 
383 595 274 139 81 71 
383 595 275 146 94 83 
383 592 276 146 100 89 
383 593 276 149 102 90 
383 593 277 152 107 94 
383 594 276 151 103 92 
383 594 277 153 107 94 
383 595 276 153 104 92 
383 595 277 155 109 95 
381 596 272 128 55 53 
381 597 272 130 57 58 
381 598 272 135 66 64 
382 596 272 134 67 64 
382 596 273 138 75 69 
382 597 272 138 71 67 
382 597 273 141 79 71 
383 596 274 141 83 74 
383 596 275 147 95 83 
383 597 274 144 85 76 
383 597 275 151 98 87 
382 598 272 140 75 70 
382 598 273 140 76 68 
382 599 272 140 74 69 
382 599 273 144 82 73 
383 598 273 143 81 71 
383 599 273 145 84 74 
383 598 274 144 85 75 
383 598 275 153 101 90 
383 599 274 146 89 79 
383 599 275 155 104 92 
383 596 276 154 105 93 
383 596 277 159 112 98 
383 597 276 155 107 94 
383 597 277 161 115 100 
383 598 276 158 110 97 
383 598 277 163 117 102 
383 599 276 162 114 100 
383 599 277 167 119 105 
382 600 272 141 75 69 
382 600 273 145 83 74 
382 601 272 144 78 71 
382 601 273 149 89 79 
383 600 273 147 86 77 
383 601 273 148 88 79 
383 600 274 151 97 87 
383 600 275 160 110 97 
383 601 274 153 100 89 
383 601 275 163 112 99 
382 602 272 145 79 70 
382 603 272 145 79 69 
383 602 273 152 92 83 
383 603 272 151 89 79 
383 603 273 152 92 82 
383 602 274 156 103 92 
383 602 275 166 115 102 
383 603 274 158 105 93 
383 603 275 167 116 103 
383 600 276 167 117 104 
383 600 277 169 120 106 
383 601 276 168 118 105 
383 601 277 169 121 106 
383 602 276 169 119 105 
383 602 277 170 121 106 
383 603 276 170 120 106 
383 603 277 172 122 107 
382 604 272 148 83 74 
383 604 272 152 90 80 
383 604 273 155 99 87 
383 605 272 152 92 82 
383 605 273 157 101 89 
383 604 274 162 110 96 
383 604 275 170 119 105 
383 605 274 164 112 99 
383 605 275 171 119 106 
383 606 272 154 95 85 
383 606 273 159 103 91 
383 607 272 155 95 86 
383 607 273 161 105 94 
383 606 274 167 113 101 
383 606 275 171 118 105 
383 607 274 169 114 102 
383 607 275 172 119 106 
383 604 276 172 122 107 
383 605 276 173 122 108 
383 606 276 173 122 108 
383 607 276 174 123 108 
378 609 267 133 35 46 
379 608 267 129 39 47 
379 609 267 130 42 48 
379 610 266 130 40 49 
379 610 267 130 45 50 
379 611 266 130 41 50 
379 612 265 130 36 46 
379 613 265 129 41 48 
379 612 266 129 40 49 
379 613 266 128 43 49 
379 614 265 129 41 49 
379 615 264 126 36 46 
379 615 265 127 41 48 
380 608 267 131 47 53 
380 609 267 134 51 54 
380 610 267 134 52 54 
380 611 266 133 51 53 
380 611 267 135 54 56 
381 610 267 139 59 58 
381 611 267 139 61 59 
380 608 268 133 50 54 
381 608 268 138 59 58 
381 609 268 139 60 58 
381 610 268 140 64 59 
381 611 268 142 67 62 
382 608 269 144 71 65 
382 609 269 143 69 62 
382 608 270 148 82 73 
382 608 271 152 89 80 
382 609 270 147 79 72 
382 609 271 153 91 83 
382 610 268 142 69 63 
382 610 269 143 72 65 
382 611 269 143 74 65 
382 610 270 148 81 73 
382 610 271 155 94 86 
382 611 270 150 85 77 
382 611 271 159 101 91 
380 612 266 133 50 54 
380 612 267 136 56 58 
380 613 266 134 53 56 
381 612 267 140 62 60 
381 613 266 139 61 58 
381 613 267 141 66 63 
380 614 265 130 50 53 
380 615 265 132 53 54 
380 614 266 136 55 56 
380 615 266 138 60 57 
381 614 266 138 61 57 
381 614 267 141 68 63 
381 615 266 140 64 58 
381 615 267 142 71 64 
381 612 268 143 71 65 
381 613 268 144 74 68 
381 614 268 145 76 69 
381 615 268 146 79 71 
382 612 269 145 78 68 
382 613 268 144 75 68 
382 613 269 148 82 73 
382 612 270 153 90 82 
382 612 271 161 104 94 
382 613 270 157 97 87 
382 613 271 163 106 95 
382 614 268 148 81 73 
382 614 269 150 85 77 
382 615 268 151 87 79 
382 615 269 153 91 82 
382 614 270 160 101 91 
382 614 271 167 112 99 
382 615 270 164 106 96 
382 615 271 170 114 102 
379 617 263 126 37 44 
379 618 263 127 43 47 
379 619 263 128 46 48 
379 620 263 129 48 50 
379 621 263 130 49 51 
378 622 263 129 44 52 
379 622 263 132 52 53 
379 623 263 134 54 54 
380 621 263 134 54 53 
380 622 263 135 55 53 
379 616 264 127 39 46 
379 617 264 127 40 46 
380 616 265 133 55 53 
380 617 264 132 55 54 
380 617 265 136 61 57 
381 617 265 139 65 58 
381 616 266 140 66 59 
381 616 267 144 74 67 
381 617 266 141 69 61 
381 617 267 146 79 70 
380 618 264 133 56 56 
380 618 265 139 64 61 
380 619 264 134 56 56 
381 618 265 141 67 63 
381 619 265 141 68 62 
381 618 266 142 72 65 
381 618 267 148 82 74 
381 619 266 146 78 70 
381 619 267 151 87 80 
381 616 268 150 85 77 
381 619 268 157 99 90 
382 616 268 152 89 80 
382 616 269 156 95 84 
382 617 268 152 90 81 
382 617 269 160 103 91 
382 616 270 165 108 98 
382 616 271 171 116 103 
382 617 270 166 110 99 
382 617 271 173 118 104 
382 618 268 156 97 87 
382 618 269 161 104 93 
382 619 268 159 103 92 
382 619 269 164 108 96 
382 618 270 167 112 99 
382 618 271 172 117 103 
382 619 270 170 114 101 
382 619 271 172 119 104 
380 620 264 135 58 56 
380 621 264 136 59 53 
380 621 265 139 65 57 
381 620 265 140 67 61 
381 621 265 142 71 65 
381 620 266 147 79 72 
381 620 267 154 93 86 
381 621 266 148 82 76 
381 621 267 155 95 87 
380 622 264 139 62 55 
380 622 265 142 71 62 
380 623 264 139 64 56 
380 623 265 146 78 69 
380 623 266 151 89 80 
381 622 266 151 88 80 
381 622 267 158 101 91 
381 623 266 154 94 85 
381 623 267 162 107 96 
381 620 268 161 104 93 
381 621 268 161 105 95 
381 622 268 165 110 98 
381 622 269 170 117 103 
381 623 268 167 113 101 
381 623 269 170 117 103 
382 620 268 161 106 94 
382 620 269 166 112 99 
382 621 269 169 115 101 
382 620 270 170 116 102 
382 620 271 173 120 105 
382 621 270 172 119 105 
382 621 271 174 123 107 
382 622 269 171 117 104 
382 623 269 172 119 105 
382 622 270 173 121 106 
382 622 271 174 123 107 
382 623 270 173 121 106 
382 623 271 174 123 106 
383 608 272 157 97 89 
383 608 273 164 108 97 
383 609 272 158 99 90 
383 609 273 165 109 98 
383 608 274 170 116 103 
383 608 275 173 121 106 
383 609 274 171 117 104 
383 609 275 173 122 107 
383 610 272 162 105 95 
383 610 273 168 114 102 
383 611 272 165 108 98 
383 611 273 171 117 105 
383 610 274 172 120 106 
383 610 275 174 123 108 
383 611 274 173 121 106 
383 611 275 173 123 107 
383 608 276 175 123 108 
383 609 276 175 124 108 
383 612 272 168 112 100 
383 612 273 173 120 106 
383 613 272 169 115 102 
383 613 273 173 120 106 
383 612 274 173 122 107 
383 613 274 173 122 107 
383 613 275 174 124 108 
382 614 272 171 116 104 
382 615 272 172 117 104 
383 614 272 171 117 104 
383 614 273 174 121 107 
383 615 272 173 118 105 
383 615 273 173 121 107 
383 614 274 174 123 107 
383 614 275 175 124 108 
383 615 274 174 124 108 
382 616 272 173 118 104 
382 617 272 173 119 105 
383 616 272 172 119 105 
383 616 273 174 122 107 
383 617 272 172 119 105 
383 617 273 174 122 106 
383 616 274 174 124 108 
383 617 274 175 124 108 
382 618 272 173 119 104 
382 619 272 173 121 106 
383 618 272 173 121 105 
383 618 273 175 123 107 
383 619 272 174 122 106 
383 619 273 175 124 108 
383 618 274 175 125 109 
383 619 274 176 125 109 
382 620 272 174 122 106 
382 621 272 174 124 107 
383 620 272 175 123 107 
383 620 273 175 124 108 
383 621 272 175 124 108 
383 621 273 175 124 107 
383 620 274 176 125 108 
383 621 274 177 125 108 
382 622 272 175 124 107 
382 623 272 175 124 107 
383 622 272 175 124 108 
383 622 273 176 126 108 
383 623 272 175 125 108 
383 623 273 177 126 108 
383 622 274 178 126 109 
383 623 274 178 127 110 
378 625 262 127 42 49 
379 624 262 133 51 55 
379 624 263 136 57 57 
379 625 262 134 53 55 
379 625 263 140 62 59 
379 627 261 133 49 51 
379 626 262 134 52 55 
379 626 263 141 64 62 
379 627 262 138 57 58 
379 627 263 144 68 66 
379 630 259 125 44 48 
379 631 259 124 45 47 
379 628 261 134 50 53 
379 629 260 131 48 51 
379 629 261 137 55 56 
379 628 262 143 65 65 
379 628 263 148 75 72 
379 629 262 147 73 72 
379 630 260 131 51 51 
379 630 261 141 66 64 
379 631 260 133 57 55 
379 631 261 145 74 71 
379 630 262 149 80 78 
380 624 263 139 62 57 
380 625 263 144 69 63 
380 626 263 146 73 69 
380 627 263 149 77 74 
380 628 263 152 84 79 
380 629 263 155 90 85 
380 631 261 148 79 78 
380 630 262 153 87 84 
380 630 263 158 97 91 
380 631 262 153 90 86 
380 631 263 160 101 94 
380 624 264 143 70 61 
380 624 265 151 88 78 
380 625 264 146 75 69 
380 625 265 155 95 85 
380 624 266 154 95 85 
380 625 266 158 101 91 
381 624 266 159 103 92 
381 624 267 166 112 100 
381 625 266 162 107 96 
381 625 267 169 115 102 
380 626 264 149 83 78 
380 626 265 158 101 91 
380 627 264 153 89 83 
380 627 265 160 102 93 
380 626 266 161 105 96 
380 627 266 162 107 98 
381 626 266 166 112 101 
381 626 267 170 116 104 
381 627 266 168 114 103 
381 627 267 171 118 106 
381 624 268 169 115 102 
381 624 269 172 119 105 
381 625 268 170 117 103 
381 625 269 172 119 105 
381 626 268 171 118 105 
381 626 269 173 121 106 
381 627 268 172 120 107 
381 627 269 174 122 108 
382 624 270 173 121 106 
382 624 271 175 124 107 
382 625 270 174 121 107 
382 625 271 175 124 109 
382 626 270 175 123 108 
382 626 271 177 125 110 
382 627 270 176 124 110 
382 627 271 177 126 111 
380 628 264 157 97 89 
380 628 265 164 107 97 
380 629 264 163 105 96 
380 629 265 168 112 102 
380 628 266 167 113 102 
380 629 266 170 117 106 
381 628 266 171 118 106 
381 628 267 171 118 107 
381 629 267 173 121 108 
380 630 264 166 110 100 
380 630 265 169 115 104 
380 631 264 168 112 102 
380 631 265 171 117 106 
380 630 266 171 119 107 
380 631 266 172 119 107 
381 630 267 174 122 109 
381 631 266 173 121 108 
381 631 267 175 124 110 
381 628 268 173 121 108 
381 628 269 174 123 109 
381 629 268 174 123 109 
381 629 269 176 125 110 
381 630 268 176 124 110 
381 630 269 176 125 110 
381 631 268 176 125 110 
381 631 269 178 127 112 
382 628 270 176 124 109 
382 628 271 178 126 111 
382 629 270 177 126 111 
382 629 271 179 127 111 
382 630 269 177 126 110 
382 631 269 179 127 112 
382 630 270 178 127 111 
382 630 271 180 130 112 
382 631 270 179 128 112 
382 631 271 181 130 113 
383 630 271 181 130 113 
383 631 271 181 131 113 
379 632 259 125 49 49 
379 633 258 110 41 42 
379 633 259 123 49 49 
379 634 258 111 43 45 
379 634 259 122 48 48 
379 635 258 109 40 43 
379 635 259 120 47 45 
379 632 260 137 64 59 
379 637 257 110 40 43 
379 636 258 111 40 42 
379 637 258 113 41 43 
379 638 257 110 38 45 
379 639 257 103 35 41 
379 638 258 111 39 48 
379 639 258 108 39 46 
380 635 259 127 54 54 
380 632 260 143 73 69 
380 632 261 149 83 81 
380 633 260 142 72 70 
380 633 261 150 86 83 
380 632 262 155 94 89 
380 632 263 162 104 97 
380 633 262 156 95 90 
380 633 263 163 105 97 
380 634 260 140 71 70 
380 634 261 152 90 85 
380 635 260 142 74 74 
380 635 261 153 92 86 
380 634 262 157 97 90 
380 634 263 164 106 97 
380 635 262 157 99 91 
380 635 263 164 107 98 
380 636 259 127 55 53 
380 637 258 118 48 44 
380 637 259 127 57 51 
380 638 258 118 48 46 
380 638 259 128 60 54 
380 639 258 115 47 46 
380 639 259 126 60 55 
381 639 259 128 65 61 
380 636 260 141 75 73 
380 636 261 151 92 86 
380 637 260 140 76 73 
380 637 261 149 90 85 
381 637 261 152 92 86 
380 636 262 157 99 92 
380 636 263 163 107 98 
381 636 263 164 107 99 
381 637 262 157 98 91 
381 637 263 163 107 98 
380 638 260 136 71 68 
381 638 260 141 78 75 
381 638 261 147 87 82 
381 639 260 135 74 69 
381 639 261 145 88 81 
381 638 262 154 96 88 
381 638 263 160 105 95 
381 639 262 152 96 88 
381 639 263 158 104 95 
380 632 264 168 113 103 
380 632 265 170 117 105 
380 633 264 168 112 103 
380 633 265 171 117 106 
380 632 266 172 119 107 
381 632 266 174 122 109 
381 632 267 176 125 110 
381 633 266 174 122 108 
381 633 267 176 124 110 
380 634 264 169 113 103 
380 634 265 171 116 106 
380 635 264 168 113 103 
381 634 265 173 119 107 
381 635 264 170 114 104 
381 635 265 172 117 106 
381 634 266 174 122 108 
381 634 267 177 125 111 
381 635 266 174 121 109 
381 635 267 178 125 112 
381 632 268 177 126 111 
381 632 269 178 127 112 
381 633 268 178 125 112 
381 634 268 179 126 113 
381 635 268 180 127 114 
382 632 269 179 127 112 
382 633 268 179 127 113 
382 633 269 180 128 113 
382 632 270 180 129 112 
382 633 270 181 130 113 
383 632 271 182 132 114 
383 633 270 182 132 114 
383 633 271 182 133 115 
382 634 268 179 127 113 
382 634 269 181 128 113 
382 635 268 181 128 114 
382 635 269 182 130 115 
382 634 270 182 131 115 
382 635 270 183 133 116 
383 634 270 183 133 116 
383 634 271 183 134 117 
383 635 270 183 135 117 
383 635 271 183 135 117 
381 636 264 169 113 104 
381 636 265 171 117 107 
381 637 264 167 113 102 
381 637 265 169 115 105 
381 636 266 174 121 109 
381 636 267 179 125 112 
381 637 266 174 120 109 
381 637 267 178 124 112 
381 638 264 164 110 100 
381 638 265 167 113 103 
381 639 264 163 109 99 
381 639 265 165 112 101 
381 638 266 173 119 108 
381 639 266 171 117 106 
382 637 267 180 126 114 
382 638 266 175 121 110 
382 638 267 177 124 112 
382 639 266 173 121 109 
382 639 267 175 123 110 
382 636 268 182 128 115 
382 636 269 182 131 116 
382 637 268 181 128 115 
382 637 269 183 132 117 
382 636 270 183 135 118 
382 637 270 183 134 118 
383 636 270 183 135 118 
383 636 271 182 136 118 
383 637 270 182 134 117 
383 637 271 180 134 117 
382 638 268 180 127 113 
382 638 269 181 130 115 
382 639 268 177 125 111 
382 639 269 179 128 114 
383 639 269 178 130 115 
382 638 270 180 131 116 
383 638 270 180 132 117 
383 638 271 178 133 117 
383 639 270 178 131 115 
383 639 271 175 130 114 
382 624 272 176 125 108 
382 625 272 177 126 109 
383 624 272 176 125 109 
383 624 273 177 127 109 
383 625 272 178 127 110 
383 625 273 178 127 110 
383 624 274 179 128 110 
383 625 274 179 127 110 
382 626 272 179 127 111 
382 627 272 179 127 111 
383 626 273 180 128 111 
383 627 272 180 128 111 
383 627 273 181 129 112 
383 626 274 181 129 112 
383 627 274 182 130 113 
382 628 272 180 127 111 
382 629 272 180 129 112 
383 628 272 180 128 112 
383 628 273 181 130 112 
383 629 272 181 130 113 
383 629 273 182 132 114 
383 628 274 183 132 115 
383 629 274 183 133 115 
383 630 272 182 132 114 
383 630 273 183 133 115 
383 631 272 182 133 114 
383 631 273 182 133 114 
383 630 274 183 133 115 
383 632 272 182 134 116 
383 632 273 182 134 115 
383 633 272 182 134 116 
383 634 272 182 135 116 
383 635 272 181 135 117 
383 636 272 180 135 118 
383 637 272 178 134 117 
383 638 272 176 132 116 
383 639 272 173 129 113 
379 640 256 75 28 30 
379 640 257 90 34 39 
379 641 256 60 25 28 
379 641 257 71 35 37 
379 642 256 48 21 26 
379 642 257 57 33 35 
379 643 256 45 19 24 
379 643 257 56 33 34 
378 645 256 64 26 29 
378 645 257 76 28 27 
379 644 257 64 31 33 
379 645 257 80 33 34 
378 646 256 87 32 38 
378 646 257 102 33 39 
378 647 256 102 40 53 
378 647 257 118 34 52 
379 646 257 97 31 37 
379 647 257 109 29 42 
380 640 257 95 40 44 
380 641 257 80 38 41 
380 640 258 106 45 45 
380 640 259 122 57 52 
380 641 258 98 44 43 
381 640 259 124 62 56 
381 641 259 121 61 56 
380 642 257 65 37 37 
380 643 257 63 38 37 
380 642 258 83 44 39 
380 643 258 76 43 38 
381 642 259 111 57 54 
381 643 259 102 53 50 
381 640 260 134 77 70 
381 640 261 145 89 82 
381 641 260 136 78 71 
381 641 261 144 89 82 
381 640 262 151 97 89 
381 640 263 157 104 95 
381 641 262 150 97 89 
381 641 263 155 103 94 
381 642 260 131 76 71 
381 642 261 141 88 82 
381 643 260 127 74 68 
381 643 261 137 82 76 
381 642 262 148 96 89 
381 642 263 154 103 94 
381 643 262 145 92 85 
381 643 263 151 100 92 
382 643 263 154 102 94 
380 644 257 74 42 42 
380 645 257 84 40 39 
380 644 258 78 42 39 
380 645 258 85 41 41 
381 644 259 96 51 48 
381 645 259 93 49 46 
380 646 257 95 41 39 
380 647 257 97 35 34 
380 646 258 93 42 41 
380 647 258 97 43 39 
381 646 258 96 40 41 
381 646 259 98 50 47 
381 647 258 98 42 42 
381 647 259 102 50 48 
381 644 260 121 68 62 
381 644 261 134 80 73 
381 645 260 113 61 58 
381 645 261 130 78 71 
381 644 262 142 90 83 
381 644 263 147 96 88 
381 645 262 136 86 77 
381 646 260 109 60 54 
381 646 261 125 74 66 
381 647 260 111 61 55 
382 644 263 149 99 90 
382 645 262 140 91 81 
382 645 263 148 98 88 
382 646 261 127 79 69 
382 647 260 118 66 60 
382 647 261 125 77 68 
382 646 262 135 88 77 
382 646 263 145 98 87 
382 647 262 135 89 79 
382 647 263 144 97 87 
381 640 264 160 108 98 
381 640 265 166 113 103 
381 641 264 161 108 100 
381 641 265 165 113 103 
381 640 266 170 118 106 
381 642 264 160 108 99 
381 642 265 163 112 102 
382 641 265 167 116 105 
382 640 266 172 121 109 
382 640 267 176 125 112 
382 641 266 171 121 109 
382 641 267 174 125 111 
382 642 264 160 109 100 
382 642 265 165 114 104 
382 643 264 159 107 98 
382 643 265 163 112 102 
382 642 266 169 119 108 
382 642 267 174 124 111 
382 643 266 168 117 105 
382 643 267 172 121 108 
382 640 268 177 128 114 
382 640 269 177 128 114 
382 641 268 176 126 112 
382 641 269 175 127 112 
383 640 269 177 129 115 
383 641 269 176 128 113 
383 640 270 176 130 114 
383 640 271 175 130 114 
383 641 270 176 131 115 
383 641 271 176 131 115 
382 642 268 175 125 112 
382 643 268 174 123 110 
383 642 268 175 125 112 
383 642 269 176 128 113 
383 643 268 175 125 111 
383 643 269 178 128 113 
383 642 270 178 130 114 
383 642 271 178 130 114 
383 643 270 181 131 116 
383 643 271 181 132 116 
382 644 264 156 104 94 
382 644 265 162 110 99 
382 645 264 154 103 94 
382 645 265 161 109 98 
382 644 266 168 116 103 
382 644 267 172 120 107 
382 645 266 167 115 104 
382 645 267 172 120 107 
383 645 267 174 121 109 
382 646 264 154 104 94 
382 646 265 159 109 97 
382 647 264 152 103 92 
382 647 265 159 108 96 
382 646 266 167 115 104 
382 646 267 172 119 107 
382 647 266 166 113 103 
383 646 267 174 120 108 
383 647 266 170 115 105 
383 647 267 174 119 107 
382 644 268 174 122 109 
383 644 268 176 124 110 
383 644 269 179 127 113 
383 645 268 177 124 111 
383 645 269 180 127 114 
383 644 270 182 131 116 
383 645 270 182 129 116 
383 646 268 177 124 111 
383 646 269 180 127 114 
383 647 268 177 123 110 
383 647 269 181 127 113 
383 646 270 183 130 117 
383 647 270 183 130 116 
378 648 256 93 37 51 
378 648 257 109 31 53 
378 649 256 53 21 27 
378 649 257 83 22 36 
379 648 257 105 29 45 
379 649 257 90 28 40 
378 650 256 37 26 27 
379 650 256 51 23 25 
379 650 257 66 23 28 
380 648 257 96 33 34 
380 649 257 84 31 33 
380 648 258 94 39 35 
381 648 258 99 43 43 
381 648 259 104 50 48 
381 649 258 92 41 38 
381 649 259 102 47 45 
380 650 257 71 25 30 
381 650 258 83 39 36 
381 650 259 94 44 42 
381 651 259 89 45 41 
382 649 259 108 54 48 
382 650 259 104 53 48 
382 651 259 98 51 48 
381 648 260 112 59 54 
382 648 260 116 64 58 
382 648 261 125 77 69 
382 649 260 115 62 57 
382 649 261 125 76 69 
382 648 262 134 88 78 
382 648 263 145 97 87 
382 649 262 135 87 79 
382 649 263 144 96 86 
382 650 260 117 66 62 
382 650 261 128 77 72 
382 651 260 116 66 62 
382 651 261 127 76 70 
382 650 262 135 85 77 
382 650 263 142 93 83 
382 651 262 132 83 75 
382 651 263 139 89 79 
383 651 263 145 94 85 
382 652 262 130 81 74 
383 652 262 134 85 77 
383 652 263 142 92 83 
382 648 264 152 103 91 
382 648 265 156 105 94 
382 649 264 151 102 91 
382 649 265 156 106 95 
383 649 265 159 108 97 
382 648 266 162 110 99 
383 648 266 167 113 102 
383 648 267 174 119 107 
383 649 266 166 112 102 
383 649 267 174 119 108 
382 650 264 150 100 90 
383 650 264 152 101 91 
383 650 265 158 106 96 
383 651 264 151 100 90 
383 651 265 156 105 94 
383 650 266 167 114 103 
383 650 267 176 121 110 
383 651 266 167 113 102 
383 651 267 173 118 107 
383 648 268 178 123 111 
383 648 269 181 127 113 
383 649 268 178 124 111 
383 649 269 181 127 112 
383 650 268 178 124 111 
383 650 269 181 127 113 
383 651 268 177 122 110 
383 652 264 149 99 88 
383 652 265 157 105 94 
383 652 266 166 113 101 
383 652 267 172 118 106 
383 640 272 175 131 114 
384 512 298 86 8 28 
384 512 299 86 6 28 
384 513 298 89 10 31 
384 513 299 90 8 32 
385 512 298 80 11 29 
385 512 299 76 16 28 
385 513 298 85 7 30 
385 513 299 82 11 28 
384 514 299 95 11 33 
384 515 299 97 10 32 
385 514 299 88 14 31 
385 515 299 93 19 34 
386 512 299 75 20 29 
386 513 299 80 23 31 
387 512 299 84 26 35 
386 514 299 90 28 36 
387 512 300 90 31 36 
387 513 300 94 34 38 
386 514 300 94 30 39 
386 515 300 100 33 45 
387 514 300 100 37 39 
387 515 300 103 38 42 
387 515 301 108 44 43 
384 516 299 99 7 31 
384 517 299 102 7 30 
385 516 299 98 21 34 
384 517 300 103 10 30 
385 516 300 99 26 38 
385 517 300 102 22 34 
384 518 300 105 7 31 
384 519 300 109 9 35 
385 518 300 104 25 35 
385 519 300 106 27 36 
386 516 300 105 36 45 
386 517 300 108 37 47 
387 516 300 109 41 47 
387 516 301 114 47 50 
387 517 301 118 51 54 
386 518 300 109 38 47 
386 519 300 110 39 45 
387 518 301 121 54 55 
387 519 300 118 49 51 
387 519 301 122 56 56 
388 512 301 105 47 48 
388 513 300 97 37 39 
388 513 301 112 54 54 
388 512 302 120 69 69 
388 512 303 126 83 78 
388 513 302 128 80 80 
389 512 303 127 83 77 
