ply
format ascii 1.0
comment Created by CloudCompare v2.10.1 (Zephyrus)
comment Created 1/31/20 11:55 AM
obj_info Generated by CloudCompare!
element vertex 2126
property float x
property float y
property float z
property uchar red
property uchar green
property uchar blue
end_header
216 492 236 98 12 36 
216 493 236 108 13 32 
217 492 236 115 7 38 
216 494 236 113 14 31 
216 495 236 119 16 42 
220 488 235 137 10 40 
220 489 235 139 11 45 
221 488 235 138 9 40 
221 489 234 140 10 46 
221 489 235 140 10 44 
221 491 233 144 11 45 
220 490 234 140 11 41 
220 490 235 140 11 43 
220 491 234 142 11 45 
220 491 235 140 12 45 
221 490 234 142 10 45 
221 491 234 144 11 47 
223 489 233 143 9 45 
222 488 234 140 7 45 
222 488 235 139 8 41 
222 489 234 142 8 45 
223 488 234 141 7 47 
223 489 234 142 8 44 
222 490 233 144 10 40 
222 491 233 146 10 45 
223 490 233 144 10 44 
223 491 232 145 10 50 
223 491 233 145 10 48 
222 490 234 142 10 40 
220 488 236 134 9 38 
221 492 233 141 10 44 
221 493 233 138 10 44 
220 492 234 141 11 48 
220 493 234 138 10 46 
221 492 234 142 11 46 
220 494 233 133 10 42 
220 495 233 117 8 38 
221 494 233 133 10 44 
221 495 232 113 7 39 
221 495 233 118 8 41 
220 494 234 133 10 40 
220 495 234 125 10 41 
222 492 233 142 10 41 
222 493 233 140 11 46 
223 492 232 143 10 48 
223 492 233 143 10 47 
223 493 232 141 10 44 
222 494 232 134 10 41 
222 494 233 132 11 46 
222 495 232 124 8 41 
223 494 232 137 10 41 
223 495 232 133 9 43 
208 480 243 127 6 40 
208 481 243 128 6 37 
209 480 242 126 6 39 
209 481 242 127 6 38 
208 482 243 129 6 37 
208 483 243 130 6 39 
209 482 242 128 6 39 
209 483 242 130 6 40 
210 480 241 126 8 39 
210 481 241 127 7 37 
211 480 241 126 7 40 
211 481 241 127 7 39 
210 480 242 125 7 37 
210 481 242 127 7 35 
210 482 241 129 7 41 
210 483 241 130 7 42 
211 482 241 129 7 41 
211 483 241 130 7 42 
208 480 244 127 6 40 
208 481 244 127 5 36 
208 482 244 129 6 38 
208 483 244 130 6 40 
208 484 243 131 8 41 
209 484 242 130 8 38 
209 484 243 131 8 38 
209 485 243 131 10 39 
209 486 243 133 12 41 
209 487 243 133 13 44 
210 484 241 131 7 42 
211 484 241 130 7 41 
211 485 241 131 8 41 
210 484 242 131 8 41 
210 485 242 131 9 41 
211 485 242 131 8 42 
210 486 242 131 10 39 
210 486 243 132 10 39 
210 487 243 133 12 40 
211 486 242 131 9 40 
211 487 242 132 11 40 
211 487 243 132 12 40 
208 484 244 131 8 41 
208 484 245 132 9 42 
208 485 244 133 9 42 
208 485 245 133 9 43 
209 485 244 132 10 43 
208 486 244 133 10 47 
208 486 245 134 11 47 
208 487 245 130 10 43 
209 486 244 133 10 45 
209 487 244 131 11 44 
212 480 240 126 7 37 
212 480 241 125 7 37 
212 481 240 128 7 43 
213 480 240 127 7 38 
213 481 240 128 7 41 
212 482 240 130 7 45 
212 483 240 130 7 43 
213 483 240 130 7 42 
214 480 240 128 7 39 
212 484 240 130 7 41 
212 484 241 130 7 41 
212 485 240 131 8 41 
212 485 241 131 8 40 
213 484 240 131 8 42 
213 485 240 133 9 46 
212 486 241 131 8 40 
212 487 241 132 11 43 
213 486 240 131 9 45 
213 486 241 131 9 44 
213 487 240 124 8 44 
213 487 241 128 11 45 
212 486 242 132 8 40 
212 487 242 133 11 41 
214 486 240 130 12 50 
214 487 240 121 12 46 
209 489 243 111 9 37 
208 490 243 96 6 32 
208 491 243 77 12 29 
209 490 243 98 10 37 
209 491 243 81 14 29 
210 488 243 128 15 39 
210 489 243 120 15 41 
211 488 242 132 12 41 
211 488 243 130 13 42 
211 489 243 124 17 42 
211 491 241 106 15 39 
210 490 243 106 7 35 
210 491 242 90 18 32 
210 491 243 93 17 34 
211 490 242 118 17 42 
211 490 243 113 13 39 
211 491 242 103 13 36 
208 488 244 120 8 38 
208 488 245 126 9 39 
208 489 244 112 11 33 
209 488 244 124 12 39 
209 489 244 113 12 37 
208 490 244 100 6 31 
209 490 244 103 10 36 
208 492 243 61 26 26 
208 493 242 51 22 24 
208 493 243 56 21 26 
209 492 242 65 20 24 
209 492 243 63 25 24 
209 493 242 57 19 25 
208 495 241 38 22 30 
209 494 241 41 21 25 
209 495 241 33 24 26 
208 494 242 42 24 25 
208 495 242 38 22 26 
209 494 242 48 20 26 
209 495 242 37 22 25 
210 493 241 71 20 31 
211 492 241 99 23 47 
211 493 240 76 23 33 
211 493 241 81 25 39 
210 492 242 79 20 29 
210 493 242 68 19 30 
211 492 242 91 17 35 
210 494 241 55 23 27 
210 495 240 35 25 28 
210 495 241 33 26 25 
211 494 240 42 24 21 
211 494 241 62 22 27 
211 495 240 41 25 29 
212 488 241 127 15 45 
212 489 241 114 13 34 
213 488 240 106 9 37 
213 488 241 118 13 40 
213 489 240 89 14 23 
213 489 241 107 17 32 
212 488 242 130 14 45 
212 489 242 124 14 41 
212 490 241 114 19 39 
212 491 240 103 22 44 
212 491 241 110 16 40 
213 490 240 81 16 24 
213 490 241 101 17 32 
213 491 240 92 22 34 
213 491 241 102 14 33 
212 490 242 120 14 42 
214 488 240 97 7 31 
214 489 240 87 10 19 
212 492 240 94 22 44 
212 492 241 104 18 46 
212 493 240 68 23 28 
210 497 239 46 21 23 
211 496 239 42 22 25 
211 497 239 58 14 22 
210 498 239 85 15 36 
210 499 239 108 27 44 
211 498 238 106 14 46 
211 498 239 98 14 40 
211 499 238 118 27 48 
211 499 239 113 17 43 
210 500 239 102 18 32 
211 500 238 104 18 26 
211 500 239 102 16 26 
211 501 239 98 26 39 
211 502 239 83 11 36 
215 496 235 129 11 48 
215 497 235 133 10 44 
215 498 235 129 15 42 
215 499 235 113 18 49 
212 497 237 106 22 36 
213 496 237 80 7 33 
213 497 237 108 14 37 
212 496 238 59 15 23 
212 496 239 44 22 27 
212 497 238 83 14 27 
213 496 238 57 13 25 
212 498 237 123 18 40 
212 499 237 120 14 48 
213 498 237 128 19 41 
213 499 237 123 18 48 
212 498 238 113 11 46 
212 499 238 119 14 47 
214 496 236 110 11 42 
214 497 236 125 18 45 
215 496 236 122 11 46 
215 497 236 131 12 46 
214 498 236 131 14 41 
214 499 236 120 15 48 
215 499 236 106 10 44 
215 500 235 58 19 27 
215 501 235 43 21 26 
215 502 235 56 18 32 
212 500 237 90 17 32 
213 500 237 83 14 29 
213 501 237 50 17 21 
212 500 238 95 17 31 
212 501 238 73 21 25 
212 501 239 82 29 38 
213 502 237 39 20 26 
212 502 238 61 19 33 
212 502 239 70 25 37 
212 503 239 45 20 25 
213 502 238 41 19 27 
213 503 238 37 22 24 
213 503 239 41 20 21 
214 500 236 71 16 26 
214 501 236 44 23 23 
214 501 237 38 20 24 
215 500 236 68 17 27 
215 501 236 43 23 26 
214 502 236 39 21 27 
214 502 237 43 23 30 
214 503 237 45 25 28 
215 502 236 59 26 39 
215 503 236 65 28 33 
215 503 237 55 25 28 
214 503 238 34 23 28 
213 504 239 41 27 28 
215 504 237 64 18 26 
215 505 237 87 17 40 
214 504 238 49 22 26 
214 504 239 48 25 28 
214 505 238 72 16 36 
214 505 239 65 26 34 
215 504 238 63 17 26 
215 505 238 82 20 41 
215 505 239 76 28 42 
215 506 238 88 25 47 
215 506 239 73 29 38 
220 499 231 77 18 32 
221 498 231 87 21 34 
221 499 231 95 16 36 
222 497 231 100 9 36 
223 496 231 120 5 37 
223 497 231 116 6 37 
222 498 231 103 14 36 
222 499 231 109 6 34 
223 498 230 128 9 44 
223 498 231 119 6 40 
223 499 230 127 8 40 
223 499 231 120 5 36 
220 500 231 84 17 36 
220 501 231 95 12 35 
221 500 231 101 10 37 
221 501 231 112 10 40 
220 502 231 110 18 37 
220 503 231 121 14 44 
221 502 231 124 14 47 
221 503 231 128 12 46 
222 500 230 119 6 37 
222 500 231 112 7 36 
222 501 230 124 13 46 
223 500 230 127 9 38 
223 501 230 128 9 39 
223 502 229 127 9 35 
223 503 229 127 9 34 
222 502 230 128 10 46 
222 503 230 129 9 40 
223 502 230 128 9 36 
223 503 230 128 9 33 
216 496 235 131 15 47 
216 497 235 133 12 44 
217 496 234 129 12 45 
217 496 235 131 13 45 
217 497 234 123 13 46 
217 498 233 83 24 36 
217 499 233 53 21 25 
216 498 234 108 18 40 
216 498 235 123 16 39 
216 499 234 83 24 35 
216 499 235 100 19 44 
217 498 234 103 18 41 
217 499 234 65 23 27 
219 496 233 98 14 34 
219 497 233 88 23 36 
218 496 234 120 16 41 
218 497 234 110 18 40 
219 496 234 112 12 36 
218 498 233 73 15 29 
218 499 233 38 20 25 
219 498 232 41 18 25 
219 498 233 59 17 25 
219 499 232 30 20 25 
218 498 234 99 17 39 
217 500 233 30 27 29 
217 501 233 36 26 26 
216 500 234 47 23 25 
216 500 235 71 15 31 
216 501 234 34 23 23 
216 501 235 35 21 23 
217 500 234 39 27 29 
217 501 234 37 28 26 
217 502 233 55 29 32 
216 502 234 65 17 35 
216 502 235 60 20 32 
216 503 235 73 31 31 
217 502 234 53 20 28 
217 503 234 65 15 32 
218 500 232 35 24 26 
218 500 233 29 26 27 
218 501 232 43 19 25 
218 501 233 38 23 25 
219 500 232 38 20 25 
219 501 232 61 13 23 
218 502 233 63 17 26 
218 503 233 75 12 33 
219 502 232 82 14 28 
219 503 232 102 13 36 
219 503 233 103 25 45 
216 503 236 69 33 28 
220 496 232 81 13 31 
220 496 233 96 14 35 
220 497 232 59 21 24 
220 497 233 69 24 29 
221 496 232 90 9 32 
221 497 232 78 13 29 
220 498 232 47 19 26 
220 499 232 46 19 26 
221 498 232 75 19 34 
222 496 232 110 7 34 
222 497 232 98 10 36 
220 500 232 62 19 29 
220 501 232 86 19 34 
220 502 232 99 17 34 
220 503 232 116 14 39 
220 504 231 129 10 49 
221 504 231 129 10 47 
221 505 231 128 9 44 
221 506 231 123 9 37 
223 504 229 127 9 37 
223 505 229 127 9 40 
222 504 230 128 9 40 
222 505 230 127 9 40 
222 505 231 126 10 42 
223 504 230 128 9 36 
223 505 230 128 9 39 
223 506 229 126 9 38 
223 507 229 126 9 37 
222 506 230 124 10 37 
222 506 231 122 10 36 
222 507 231 117 8 36 
223 506 230 126 9 38 
223 507 230 124 10 42 
222 508 231 113 15 44 
222 509 231 101 11 42 
223 508 230 122 13 47 
223 509 230 103 5 38 
223 509 231 95 0 37 
222 510 231 78 3 22 
223 510 230 81 14 26 
223 510 231 75 11 24 
223 511 230 66 12 22 
223 511 231 64 12 21 
216 504 235 80 18 25 
217 504 234 84 19 29 
217 504 235 77 13 22 
217 505 234 99 22 33 
217 505 235 101 23 35 
217 506 235 97 21 31 
218 504 233 100 12 39 
219 504 232 115 10 43 
219 504 233 115 14 46 
219 505 233 124 11 49 
218 504 234 90 10 32 
218 505 234 111 25 44 
219 506 233 115 8 39 
218 506 234 100 23 37 
218 506 235 91 22 29 
218 507 235 71 16 30 
219 506 234 98 16 33 
219 507 234 69 18 26 
219 507 235 67 17 33 
216 504 236 76 18 27 
216 505 236 96 20 39 
216 505 237 93 21 42 
217 505 236 100 20 36 
216 506 237 93 17 43 
217 506 236 89 16 34 
217 506 237 81 20 39 
217 507 236 72 18 27 
217 507 237 67 14 29 
216 506 238 81 22 40 
216 506 239 68 28 32 
216 507 238 64 24 29 
216 507 239 58 32 25 
217 507 238 63 22 28 
217 507 239 52 29 23 
218 507 236 71 18 28 
218 507 237 69 25 31 
219 508 234 73 14 28 
219 508 235 75 16 36 
219 509 235 85 15 37 
217 508 238 66 26 31 
217 508 239 49 30 21 
218 508 236 76 19 33 
218 508 237 77 25 34 
218 509 237 85 18 32 
219 508 236 78 24 39 
219 509 236 94 18 41 
219 509 237 95 20 42 
218 508 238 77 21 41 
218 509 238 76 19 35 
218 509 239 63 24 25 
219 509 238 86 20 38 
219 510 238 84 16 35 
219 510 239 71 20 27 
219 511 239 77 15 28 
220 504 232 125 10 47 
220 505 232 128 10 43 
220 506 232 120 10 28 
220 506 233 115 9 35 
220 507 233 91 2 30 
221 506 232 121 10 32 
221 507 232 106 7 35 
220 507 234 65 12 22 
220 508 233 74 15 30 
221 508 232 98 8 39 
221 508 233 84 7 33 
221 509 232 94 20 47 
221 509 233 80 11 33 
220 508 234 73 15 31 
220 509 234 80 10 27 
220 509 235 89 8 34 
221 509 234 83 12 28 
221 510 233 82 13 33 
221 510 234 85 14 34 
221 510 235 88 11 35 
221 511 235 83 19 33 
222 509 232 94 24 42 
222 510 232 75 20 29 
222 510 233 81 14 34 
222 511 232 66 22 28 
222 511 233 72 17 30 
223 511 232 56 18 24 
222 510 234 82 7 32 
222 511 234 79 16 34 
222 511 235 79 17 33 
220 509 236 96 14 39 
220 510 236 93 11 37 
220 510 237 89 17 37 
220 511 237 71 16 23 
221 510 236 88 7 32 
221 511 236 79 19 27 
221 511 237 69 20 22 
220 510 238 79 5 30 
220 511 238 68 16 23 
220 511 239 69 18 25 
208 496 241 35 26 28 
208 497 241 37 27 24 
209 496 240 24 27 27 
209 496 241 30 26 27 
209 497 240 41 24 25 
209 497 241 36 24 27 
208 496 242 35 24 26 
208 498 241 51 21 23 
208 499 241 68 24 29 
209 498 240 73 20 35 
209 498 241 62 22 30 
209 499 240 90 30 38 
209 499 241 77 26 31 
208 498 242 55 23 24 
208 499 242 63 20 28 
208 499 243 57 26 27 
210 496 240 30 27 27 
210 497 240 42 22 22 
208 499 244 48 23 27 
208 500 241 75 18 26 
209 500 240 90 34 30 
209 500 241 80 24 25 
209 501 241 78 18 25 
208 500 242 70 16 29 
208 500 243 67 22 31 
209 500 242 74 22 27 
209 500 243 72 16 29 
209 501 242 80 26 30 
209 501 243 78 17 27 
210 500 240 94 18 25 
210 501 240 92 17 35 
210 501 241 81 10 24 
210 502 240 88 17 39 
210 502 241 79 11 31 
211 502 240 81 17 41 
211 502 241 75 18 36 
211 503 240 66 25 40 
211 503 241 66 17 33 
210 502 242 82 18 34 
210 502 243 84 21 33 
211 502 242 77 16 31 
211 503 242 64 15 28 
211 503 243 72 10 29 
208 500 244 58 20 26 
208 500 245 46 22 27 
208 501 245 53 20 25 
209 501 244 73 14 28 
209 501 245 70 8 30 
208 500 246 47 31 27 
208 500 247 40 33 24 
208 501 246 45 31 26 
208 501 247 40 29 22 
209 501 246 66 13 30 
209 501 247 58 19 25 
209 502 245 77 8 33 
209 502 246 80 5 36 
209 502 247 72 8 30 
210 502 244 85 16 27 
210 502 245 85 14 32 
211 503 244 81 17 28 
211 503 245 87 11 27 
210 502 246 85 2 36 
210 502 247 84 3 35 
210 503 247 86 13 41 
211 503 246 88 13 34 
211 503 247 88 18 36 
212 503 240 55 19 31 
212 503 241 55 19 32 
212 503 244 80 22 31 
212 503 245 84 11 24 
208 499 253 94 24 37 
208 498 255 83 13 17 
208 499 254 88 14 27 
208 499 255 83 6 21 
209 499 255 81 8 19 
208 501 248 51 26 23 
208 501 249 65 23 26 
209 501 248 56 23 23 
208 501 250 75 14 30 
208 501 251 84 12 36 
208 502 249 65 15 25 
209 502 248 73 7 30 
209 502 249 75 10 34 
209 503 249 85 6 41 
208 502 250 71 14 23 
208 502 251 84 19 36 
209 502 250 81 8 34 
209 502 251 91 17 38 
209 503 250 87 13 44 
209 503 251 89 8 34 
210 502 248 81 4 32 
210 503 248 85 10 34 
210 503 249 88 11 31 
211 503 248 89 20 29 
211 503 249 94 24 33 
210 503 250 91 21 35 
210 503 251 90 20 35 
208 500 252 96 13 38 
208 500 253 93 9 33 
208 501 252 90 12 35 
208 501 253 93 13 38 
209 501 252 90 19 35 
209 501 253 90 13 33 
208 500 254 90 11 34 
209 500 254 93 15 35 
209 500 255 88 17 32 
209 501 254 88 10 28 
209 501 255 88 17 36 
209 502 252 90 17 39 
209 502 253 89 10 36 
210 501 255 85 10 26 
210 502 252 95 21 42 
210 502 253 88 9 33 
210 503 252 91 14 41 
210 503 253 90 31 46 
211 503 253 92 27 44 
210 502 254 85 3 31 
210 502 255 85 11 28 
211 502 254 86 14 33 
211 502 255 88 19 36 
211 503 254 86 15 38 
211 503 255 89 21 40 
212 504 240 41 24 32 
212 504 241 41 20 30 
213 504 240 39 26 31 
213 504 241 43 26 29 
213 505 240 48 33 29 
213 505 241 42 28 25 
212 504 242 44 19 27 
212 504 243 54 19 28 
212 505 242 42 22 28 
212 505 243 44 22 29 
213 505 242 43 24 27 
213 505 243 40 26 29 
213 506 241 46 28 22 
213 506 242 42 25 24 
213 506 243 39 25 26 
214 505 240 56 33 24 
214 506 240 60 36 26 
214 506 241 52 32 20 
215 506 240 60 27 30 
215 506 241 56 27 21 
215 507 241 50 21 22 
214 506 242 46 27 21 
214 507 242 48 27 20 
214 507 243 45 26 24 
215 507 242 44 24 20 
212 504 244 67 18 31 
212 504 245 77 14 23 
212 505 244 56 21 32 
212 505 245 66 20 32 
213 505 244 49 25 32 
213 505 245 59 18 31 
212 504 246 80 14 25 
212 504 247 84 12 31 
212 505 246 74 29 27 
213 505 246 65 20 26 
213 505 247 79 25 25 
213 506 244 38 26 28 
213 506 245 47 20 30 
213 507 244 40 31 30 
213 507 245 40 25 27 
213 506 246 57 19 30 
213 506 247 66 21 31 
213 507 246 50 20 28 
213 507 247 58 18 29 
214 508 243 43 24 23 
215 508 242 43 25 21 
215 508 243 44 25 24 
213 508 244 38 30 28 
213 508 245 43 28 27 
213 509 245 45 25 26 
213 508 246 55 28 27 
213 508 247 56 24 30 
213 509 246 53 26 25 
214 508 244 40 25 27 
214 509 244 41 23 28 
214 509 245 45 22 28 
215 509 244 47 24 31 
214 508 247 64 25 28 
214 509 246 55 25 25 
214 509 247 64 31 26 
214 510 245 49 21 32 
215 510 245 48 25 32 
215 511 245 41 24 30 
214 510 246 50 21 24 
215 510 246 47 22 26 
215 510 247 59 23 28 
215 511 246 46 26 31 
211 504 248 89 16 24 
211 504 249 94 25 32 
211 504 250 88 15 29 
211 504 251 89 23 35 
211 504 252 89 21 35 
211 504 253 85 18 33 
211 504 254 87 17 34 
212 504 248 90 18 30 
212 504 249 96 11 36 
212 505 248 93 13 34 
212 505 249 100 17 43 
213 505 248 87 18 30 
213 505 249 98 23 46 
212 504 250 99 17 40 
212 505 250 104 28 50 
212 505 251 97 20 40 
213 506 248 80 21 37 
213 506 249 85 21 40 
213 507 248 69 16 31 
213 506 250 86 22 40 
213 506 251 88 26 42 
214 507 248 80 24 42 
214 507 249 78 23 39 
214 507 250 73 23 33 
214 507 251 72 28 34 
212 505 252 95 26 42 
212 505 253 80 25 29 
212 504 254 83 21 32 
212 504 255 86 21 34 
212 505 254 80 23 26 
212 505 255 87 34 37 
212 506 252 99 29 53 
213 506 252 84 17 34 
213 506 253 89 25 39 
213 507 253 86 30 36 
213 506 254 89 33 36 
213 506 255 97 42 48 
213 507 254 91 34 39 
214 507 252 74 21 32 
214 507 253 85 26 34 
214 507 254 96 38 42 
214 507 255 107 54 54 
214 508 248 79 20 35 
214 508 249 91 38 51 
214 509 248 68 29 25 
215 509 248 75 31 29 
215 509 249 76 14 27 
214 508 250 90 40 52 
214 508 251 95 56 60 
215 508 250 90 34 48 
215 508 251 96 50 58 
215 509 250 78 18 33 
215 509 251 85 29 39 
215 510 248 69 29 31 
215 510 249 80 22 36 
214 508 252 83 36 41 
214 508 253 90 30 34 
215 508 252 88 36 42 
215 509 252 84 27 36 
215 509 253 89 27 35 
214 508 254 99 42 43 
214 508 255 108 58 55 
215 509 254 104 52 51 
215 509 255 110 61 59 
215 510 255 115 66 66 
216 507 240 55 27 26 
216 507 241 52 22 28 
216 508 240 47 28 23 
216 508 241 46 26 25 
217 508 240 43 33 23 
217 508 241 41 30 23 
217 509 240 53 28 22 
217 509 241 43 25 22 
216 508 242 42 26 25 
216 508 243 44 27 24 
216 509 243 45 30 26 
217 509 242 45 28 23 
217 509 243 51 28 24 
217 510 243 57 28 24 
218 509 240 59 30 25 
218 509 241 52 26 23 
218 509 242 54 23 22 
218 510 241 58 25 23 
219 510 240 66 24 24 
219 510 241 60 21 21 
219 511 240 73 15 25 
219 511 241 65 14 25 
218 510 242 60 20 25 
218 510 243 61 22 27 
218 511 243 68 26 36 
219 510 242 62 23 25 
219 511 242 64 19 29 
219 511 243 68 27 36 
216 509 244 50 27 31 
216 510 244 54 28 33 
216 510 245 52 27 34 
216 511 245 44 24 30 
217 510 244 57 26 29 
217 511 244 56 27 30 
217 511 245 45 23 28 
216 511 246 37 25 28 
216 511 247 47 26 31 
218 511 244 64 29 35 
220 511 240 71 20 33 
220 511 241 68 12 24 
216 510 248 71 31 34 
216 510 249 81 32 44 
216 511 248 61 24 31 
216 511 249 72 22 38 
216 510 250 82 24 39 
216 510 251 82 24 36 
216 511 250 75 19 37 
216 511 251 81 26 36 
216 510 252 80 23 31 
216 510 253 96 39 50 
216 511 252 85 28 35 
216 511 253 99 45 51 
216 510 254 107 52 58 
216 510 255 112 61 62 
216 511 254 109 57 58 
216 511 255 115 63 62 
224 485 235 138 7 43 
224 486 234 137 7 41 
224 486 235 138 7 43 
224 487 234 139 8 43 
224 485 236 138 6 42 
225 493 231 141 10 40 
224 494 231 141 10 44 
224 495 231 138 10 45 
225 494 231 141 11 43 
225 495 231 139 11 47 
226 492 231 141 10 40 
226 493 231 140 10 42 
226 494 231 140 11 44 
226 495 230 139 11 46 
226 495 231 140 11 47 
227 495 230 138 10 43 
224 488 233 143 8 48 
224 489 233 144 9 44 
225 488 233 143 8 48 
225 489 232 143 10 40 
225 489 233 143 9 42 
224 488 234 141 8 49 
224 490 233 145 10 46 
224 491 232 145 10 48 
224 491 233 146 10 48 
225 490 232 145 10 48 
225 490 233 145 10 48 
225 491 232 144 10 46 
224 492 232 144 10 44 
224 493 232 142 10 42 
225 492 232 143 10 40 
225 493 232 142 10 41 
224 494 232 141 10 42 
226 492 232 141 10 41 
224 496 231 130 9 40 
224 497 230 133 9 48 
224 497 231 130 9 46 
225 496 230 137 11 46 
225 496 231 136 9 43 
225 497 230 135 10 45 
224 498 230 133 10 47 
224 499 230 131 9 43 
225 498 230 134 11 43 
225 499 230 131 10 41 
227 496 229 138 10 46 
227 497 229 137 10 43 
226 496 230 138 11 45 
226 497 230 137 11 44 
227 496 230 138 11 45 
227 497 230 137 11 43 
226 498 229 132 10 39 
226 499 229 131 10 38 
227 498 229 135 10 41 
227 499 229 133 10 41 
226 498 230 133 10 42 
226 499 230 130 10 40 
224 501 229 127 9 39 
225 500 229 128 10 37 
225 501 229 128 10 39 
224 500 230 129 10 38 
224 501 230 128 9 38 
225 500 230 129 11 38 
224 502 229 126 9 37 
224 503 229 125 9 39 
225 502 229 127 9 39 
225 503 229 127 9 42 
226 500 229 129 10 38 
226 501 229 129 10 40 
227 500 229 132 10 41 
227 501 229 131 9 42 
226 502 229 128 9 37 
226 503 228 127 9 39 
226 503 229 127 9 39 
227 502 229 130 9 40 
227 503 228 128 9 38 
227 503 229 127 9 36 
228 499 229 135 10 44 
228 500 229 134 10 44 
228 501 229 133 9 45 
228 502 229 132 9 42 
228 503 228 130 9 40 
229 502 228 132 10 40 
229 502 229 134 10 43 
229 503 228 131 9 40 
227 505 227 125 9 38 
226 506 227 124 9 44 
226 507 227 124 9 39 
227 506 226 125 9 42 
227 506 227 124 9 42 
227 507 226 123 9 37 
227 507 227 123 9 38 
224 504 229 126 9 42 
224 505 229 126 9 43 
225 504 228 126 9 46 
225 504 229 127 9 47 
225 505 228 125 9 44 
224 506 228 124 9 36 
224 506 229 125 9 35 
224 507 228 126 10 38 
224 507 229 125 10 37 
225 506 228 123 9 41 
225 507 228 124 11 37 
226 504 228 126 9 42 
226 505 228 124 9 40 
227 504 228 127 9 40 
227 505 228 125 9 38 
226 506 228 124 9 44 
226 508 227 123 10 39 
226 509 227 122 13 43 
227 508 226 122 9 35 
227 508 227 123 9 37 
227 509 226 121 11 43 
227 509 227 121 15 46 
226 510 227 106 16 42 
226 511 227 80 14 26 
227 510 226 109 9 41 
227 510 227 107 11 41 
227 511 226 85 13 30 
227 511 227 83 13 29 
224 508 229 125 12 41 
224 509 229 112 8 35 
225 508 228 124 10 39 
225 509 228 117 9 37 
224 509 230 108 11 36 
224 510 229 93 18 34 
224 511 229 80 16 33 
225 510 228 104 14 41 
225 510 229 101 21 42 
225 511 228 88 20 36 
225 511 229 85 21 38 
224 510 230 88 17 30 
224 511 230 70 15 23 
226 509 228 118 10 41 
226 510 228 106 15 41 
226 511 228 88 21 34 
228 504 227 128 9 40 
228 505 227 127 9 37 
229 504 227 130 9 42 
229 505 227 129 9 40 
228 506 226 126 9 42 
228 506 227 126 9 41 
228 507 226 123 9 36 
229 506 226 127 9 41 
229 507 226 123 9 36 
230 505 226 130 9 41 
230 505 227 131 9 42 
230 507 225 125 9 39 
230 506 226 128 9 41 
230 507 226 125 9 40 
228 504 228 129 9 41 
229 504 228 130 9 41 
229 508 225 123 9 35 
229 509 225 120 8 39 
228 508 226 122 9 34 
228 509 226 120 10 42 
229 508 226 122 9 33 
228 511 225 86 11 28 
229 510 225 110 10 39 
229 511 225 92 10 32 
228 510 226 109 10 41 
228 511 226 83 11 29 
230 508 225 124 9 40 
230 509 224 118 7 37 
230 509 225 120 9 39 
231 509 224 121 9 38 
231 509 225 123 10 39 
230 510 224 112 10 31 
230 510 225 112 10 34 
230 511 224 103 9 28 
230 511 225 98 11 30 
231 510 224 116 9 36 
231 511 224 111 7 37 
165 459 275 182 18 56 
165 459 276 180 17 58 
165 459 277 174 17 52 
165 459 278 165 17 50 
166 459 277 190 17 48 
166 459 278 179 16 54 
166 459 279 175 17 51 
166 460 275 189 20 56 
166 461 275 188 20 60 
167 461 274 161 21 53 
167 461 275 181 28 70 
167 462 274 165 33 68 
167 462 275 154 30 65 
165 460 276 195 17 55 
166 460 276 197 17 62 
166 460 277 191 17 62 
166 461 276 192 18 67 
166 461 277 180 21 57 
167 461 276 180 24 68 
167 461 277 156 20 58 
166 460 278 188 19 64 
166 460 279 189 26 70 
167 460 278 182 20 61 
167 460 279 176 24 60 
167 461 278 141 15 48 
167 461 279 147 21 52 
167 462 276 128 19 48 
167 462 277 106 11 31 
166 459 280 175 17 54 
167 459 280 188 16 64 
167 459 281 174 20 59 
167 459 282 170 18 57 
167 460 280 170 19 62 
167 460 281 164 17 46 
168 462 273 157 21 46 
168 463 273 157 19 47 
169 463 272 151 20 55 
169 463 273 154 20 47 
168 462 274 151 17 54 
168 462 275 112 12 43 
168 463 274 137 12 39 
168 463 275 102 11 34 
168 461 279 114 13 41 
168 462 276 69 25 30 
168 462 277 57 34 22 
168 463 276 83 17 37 
168 463 277 64 28 29 
169 463 277 79 22 35 
168 462 278 71 15 24 
168 462 279 90 14 36 
169 462 278 61 30 26 
169 462 279 78 27 40 
169 463 278 69 26 22 
169 463 279 69 37 35 
170 463 278 77 39 22 
170 463 279 71 36 31 
168 459 281 174 19 45 
168 459 282 171 25 52 
169 459 282 171 30 62 
169 459 283 146 23 59 
170 459 283 93 15 34 
171 459 283 68 28 28 
168 460 281 158 20 41 
168 461 280 138 25 55 
168 461 281 152 27 59 
169 460 281 163 45 70 
169 461 280 129 34 60 
169 461 281 130 34 53 
169 460 282 153 42 64 
169 460 283 127 24 51 
169 461 282 124 28 39 
169 462 280 90 29 45 
169 462 281 92 19 36 
170 461 281 89 21 28 
170 460 283 94 24 36 
170 461 282 88 23 27 
171 460 283 70 22 30 
171 461 282 77 28 34 
171 461 283 73 25 28 
170 462 280 67 26 40 
170 462 281 68 20 30 
170 463 280 63 28 38 
171 462 281 61 30 33 
171 463 280 55 23 31 
171 463 281 53 22 27 
171 462 282 76 32 39 
172 459 283 65 26 29 
173 459 283 84 15 30 
174 459 283 114 8 43 
175 459 282 132 23 45 
175 459 283 128 12 41 
172 460 283 70 15 28 
172 461 282 87 41 45 
172 461 283 81 29 33 
173 460 283 88 11 30 
173 461 282 116 53 63 
173 461 283 102 31 45 
172 462 281 58 25 22 
172 463 280 55 29 27 
172 463 281 53 29 24 
173 462 281 74 14 23 
173 463 281 74 27 29 
172 462 282 82 41 46 
173 462 282 105 28 43 
174 460 282 128 35 54 
174 460 283 118 28 47 
174 461 282 129 35 52 
175 460 282 134 35 54 
175 461 282 133 21 42 
174 462 281 125 27 53 
174 463 281 112 18 44 
175 462 281 139 23 55 
175 463 281 133 15 54 
174 462 282 127 16 44 
175 462 282 135 15 40 
170 464 271 131 25 32 
170 465 271 135 27 43 
170 466 271 144 27 52 
171 466 270 129 27 44 
171 467 270 130 21 41 
171 467 271 143 16 41 
171 468 271 140 14 43 
171 469 271 135 20 43 
172 469 270 115 11 38 
172 469 271 128 24 40 
172 470 270 114 31 39 
172 470 271 129 38 43 
172 471 270 115 59 51 
172 471 271 126 60 54 
172 472 270 114 67 59 
172 472 271 119 69 59 
172 473 270 120 87 77 
172 473 271 116 74 67 
172 474 270 108 75 63 
172 474 271 112 61 58 
172 475 270 105 65 47 
172 475 271 113 58 52 
172 476 270 118 70 59 
172 476 271 123 73 65 
172 477 271 131 82 72 
172 478 271 136 89 73 
172 479 271 144 97 80 
174 479 271 145 80 84 
175 479 271 150 54 72 
169 464 272 143 16 44 
169 464 273 151 16 48 
169 465 272 147 19 51 
169 465 273 157 23 57 
168 464 274 148 19 56 
168 464 275 143 25 58 
169 464 274 156 22 49 
169 464 275 150 33 61 
169 465 274 165 26 54 
169 465 275 162 23 56 
170 465 272 147 24 52 
170 465 273 158 28 60 
170 466 272 154 24 48 
170 466 273 165 27 53 
170 467 273 164 19 52 
171 467 272 153 19 52 
171 467 273 161 17 53 
170 466 274 168 20 48 
170 466 275 161 18 49 
170 467 274 166 18 48 
171 467 274 166 18 49 
171 467 275 165 19 59 
169 464 276 135 25 58 
169 464 277 109 14 42 
169 465 276 146 16 48 
170 464 277 122 23 53 
170 465 276 142 13 43 
170 465 277 143 35 58 
171 465 277 143 35 57 
170 464 278 107 43 47 
170 464 279 88 38 35 
171 464 279 71 23 29 
171 465 278 117 28 48 
170 466 276 154 17 51 
170 466 277 156 31 60 
171 466 276 164 28 63 
171 466 277 150 37 61 
171 467 276 155 28 61 
171 467 277 144 27 46 
171 466 278 120 33 52 
171 468 272 149 18 42 
171 468 273 159 16 46 
171 469 272 145 29 50 
171 469 273 152 15 54 
171 468 274 163 19 50 
171 468 275 148 16 49 
171 469 274 157 24 54 
171 468 276 135 26 52 
172 465 279 68 15 34 
173 465 279 55 20 35 
172 466 277 111 39 54 
172 467 277 101 26 41 
173 467 277 71 24 34 
172 466 278 81 35 36 
172 466 279 61 31 30 
173 466 278 46 34 28 
173 466 279 44 27 31 
173 467 278 48 21 28 
174 466 279 72 10 28 
174 467 278 83 19 30 
174 467 279 79 7 31 
175 466 279 120 10 39 
175 467 278 134 15 49 
175 467 279 113 9 42 
172 469 274 152 17 52 
172 469 275 128 10 36 
172 470 272 138 30 46 
172 470 273 147 17 50 
172 471 272 133 49 55 
172 471 273 144 30 60 
172 470 274 148 19 49 
172 470 275 120 12 45 
172 471 274 149 16 58 
172 471 275 132 18 52 
173 471 275 124 11 40 
172 468 276 113 13 27 
172 468 277 95 21 26 
172 469 276 98 20 32 
173 468 277 61 17 24 
173 469 276 70 16 27 
173 469 277 59 18 27 
173 468 278 58 23 26 
172 470 276 88 8 33 
173 470 276 78 8 38 
173 470 277 67 20 38 
173 471 276 112 9 49 
174 469 277 93 19 34 
175 469 277 143 14 50 
174 468 278 87 23 33 
175 468 278 136 13 48 
174 470 276 126 12 40 
174 470 277 111 13 42 
174 471 276 144 15 48 
175 470 277 154 16 50 
175 471 276 169 22 57 
171 464 280 57 26 29 
172 464 280 62 21 33 
172 465 280 66 9 34 
173 464 280 65 25 36 
173 464 281 68 26 33 
173 465 280 57 24 34 
174 464 280 86 17 27 
174 464 281 96 17 33 
174 465 280 74 22 24 
175 464 280 123 13 38 
175 464 281 118 14 40 
175 465 280 112 12 28 
174 466 280 77 17 19 
172 472 272 125 58 58 
172 472 273 140 32 61 
172 473 272 122 65 65 
172 473 273 133 40 61 
173 473 272 127 59 63 
173 473 273 141 35 61 
172 472 274 149 17 59 
173 472 274 153 17 50 
173 472 275 147 16 41 
173 473 274 159 19 52 
173 474 272 122 55 59 
173 474 273 140 34 61 
173 475 272 124 50 57 
173 475 273 140 30 58 
174 472 275 169 18 58 
174 473 274 173 21 51 
174 473 275 175 20 51 
175 472 275 177 20 57 
175 473 274 179 19 56 
175 473 275 178 19 54 
174 474 273 162 28 60 
174 475 273 160 27 58 
175 475 273 173 18 57 
174 474 274 168 25 56 
175 474 274 178 19 59 
173 472 276 145 16 55 
174 472 276 168 19 58 
175 472 276 175 21 60 
173 476 272 131 67 67 
173 477 272 139 82 78 
172 478 272 144 96 81 
172 479 272 149 103 88 
173 478 272 147 96 92 
173 479 272 151 105 97 
174 476 272 146 52 59 
174 476 273 150 35 57 
174 477 272 146 60 70 
175 476 273 166 20 53 
175 477 272 160 28 59 
174 478 272 146 76 83 
174 479 272 146 87 89 
175 478 272 154 41 68 
183 459 270 153 9 47 
183 459 271 153 10 46 
183 461 269 152 5 49 
183 460 270 152 7 47 
183 460 271 153 9 46 
183 461 270 153 6 49 
183 461 271 153 8 46 
183 462 269 151 5 46 
183 463 269 152 4 50 
182 462 271 151 9 41 
182 463 271 151 10 39 
183 462 270 152 6 46 
183 462 271 152 7 43 
183 463 270 153 6 45 
183 463 271 153 9 43 
187 459 263 148 12 48 
187 460 263 146 8 48 
187 461 263 146 7 48 
187 462 263 144 5 42 
187 463 263 142 4 35 
191 459 259 130 10 39 
189 459 261 142 13 42 
188 459 262 144 12 46 
188 459 263 146 12 48 
189 459 262 143 12 44 
190 459 260 139 13 40 
191 460 259 131 10 40 
191 461 259 131 10 42 
191 462 259 129 10 41 
191 463 259 130 7 42 
189 460 261 141 11 40 
189 461 261 141 9 42 
188 460 262 143 10 45 
188 460 263 144 10 46 
188 461 262 142 8 45 
188 461 263 144 8 47 
189 460 262 142 11 43 
189 462 261 141 7 44 
189 463 261 142 6 43 
188 462 262 141 7 45 
188 462 263 142 6 44 
188 463 262 141 5 40 
188 463 263 141 5 39 
189 463 262 141 6 42 
190 460 260 139 12 44 
190 461 260 138 10 42 
190 461 261 140 9 43 
190 462 260 137 7 42 
190 462 261 140 7 43 
190 463 260 136 6 41 
190 463 261 139 7 42 
191 462 260 133 8 41 
191 463 260 132 7 40 
185 459 266 149 10 48 
185 459 267 149 9 47 
186 459 265 149 10 49 
187 459 264 149 12 47 
187 459 265 149 11 46 
186 459 266 149 10 49 
184 459 268 149 8 46 
184 459 269 150 8 47 
185 459 268 150 9 48 
184 459 270 151 9 46 
184 461 267 151 5 47 
185 460 266 150 7 47 
185 460 267 150 7 47 
185 461 266 150 5 46 
185 461 267 151 5 46 
184 462 267 151 3 48 
184 463 267 150 3 49 
185 462 266 150 3 47 
185 462 267 151 3 47 
185 463 266 149 2 49 
185 463 267 150 3 48 
186 460 264 149 8 51 
186 460 265 150 8 49 
186 461 264 150 6 52 
186 461 265 150 6 48 
187 460 264 148 9 50 
187 461 264 148 6 51 
186 460 266 150 8 48 
186 461 266 150 6 46 
186 462 264 146 4 41 
186 462 265 149 4 47 
186 463 264 144 3 32 
186 463 265 147 3 46 
187 462 264 148 5 49 
187 463 264 144 3 32 
184 460 268 150 6 48 
184 460 269 151 6 49 
184 461 268 151 5 47 
184 461 269 152 5 48 
184 462 268 151 4 48 
184 462 269 151 4 44 
184 463 268 151 3 51 
179 459 278 69 20 33 
179 459 279 64 21 33 
177 462 279 126 24 49 
177 463 279 142 17 53 
179 461 277 63 20 23 
178 460 279 61 24 27 
178 461 279 68 22 24 
179 460 278 72 30 37 
179 460 279 62 23 31 
179 461 278 63 19 25 
179 461 279 63 22 26 
179 462 277 66 15 22 
179 463 277 83 17 29 
178 462 278 102 5 32 
178 462 279 95 14 32 
178 463 278 123 14 42 
178 463 279 134 15 47 
179 462 278 76 10 24 
179 463 278 106 12 37 
181 459 275 117 18 37 
182 459 273 151 14 48 
183 459 272 152 11 41 
183 459 273 153 14 45 
182 459 274 141 18 50 
180 459 277 76 28 30 
181 459 276 94 26 33 
180 459 278 67 19 29 
181 460 274 119 9 40 
181 460 275 107 15 34 
181 461 274 107 4 36 
181 461 275 96 12 34 
181 463 273 114 8 32 
180 462 275 70 13 36 
180 463 275 62 11 34 
181 462 274 100 9 33 
181 462 275 81 11 34 
181 463 274 88 13 27 
181 463 275 69 11 31 
182 460 272 152 10 46 
182 460 273 147 11 48 
182 461 272 151 9 46 
182 461 273 142 10 49 
183 460 272 153 9 43 
183 461 272 153 9 45 
182 460 274 132 10 44 
182 461 274 123 9 39 
182 462 272 148 10 43 
182 462 273 132 9 46 
182 463 272 144 10 40 
182 463 273 125 9 39 
182 462 274 117 7 39 
180 460 276 89 25 38 
180 460 277 81 33 40 
180 461 276 80 15 36 
180 461 277 71 21 31 
181 460 276 96 21 37 
181 461 276 89 19 36 
180 462 276 65 14 31 
180 462 277 58 20 25 
180 463 276 54 19 30 
177 459 281 79 27 33 
176 459 282 121 27 44 
177 459 282 93 23 39 
178 459 280 61 23 30 
178 459 281 65 24 31 
179 459 280 61 23 32 
176 460 281 108 13 36 
176 461 281 112 6 35 
177 460 280 71 26 24 
177 460 281 80 24 25 
177 461 280 81 14 23 
177 461 281 88 20 25 
176 460 282 130 31 56 
176 461 282 121 10 33 
176 462 280 129 16 49 
176 462 281 129 15 52 
176 463 280 146 22 59 
176 463 281 144 22 60 
177 462 280 110 15 37 
177 463 280 142 28 61 
178 460 280 61 24 24 
178 461 280 69 15 21 
183 464 269 154 6 48 
183 465 269 154 6 50 
182 464 271 153 10 44 
182 465 271 154 10 44 
183 464 270 154 7 44 
183 465 270 154 8 43 
183 466 269 154 5 51 
183 467 269 154 5 50 
182 466 271 155 9 46 
182 467 271 155 8 48 
183 466 270 153 7 46 
183 467 270 154 6 51 
181 471 271 150 9 45 
183 468 269 152 4 45 
183 469 269 152 4 45 
182 468 271 155 8 47 
182 469 271 154 7 50 
183 468 270 153 5 46 
183 469 270 152 5 47 
183 470 269 151 4 39 
183 471 268 150 5 49 
183 471 269 150 5 42 
182 470 270 150 5 48 
182 470 271 152 7 48 
182 471 270 148 6 47 
182 471 271 149 7 47 
183 470 270 150 5 43 
183 471 270 149 5 43 
179 475 271 150 15 51 
176 478 271 166 18 56 
176 479 271 158 23 56 
177 478 271 162 17 52 
177 479 271 156 17 50 
178 477 271 146 18 46 
179 476 271 147 17 55 
179 477 270 108 12 28 
179 477 271 133 22 45 
178 478 271 134 14 39 
178 479 270 127 17 41 
178 479 271 141 15 43 
179 478 270 89 13 25 
179 478 271 107 16 30 
179 479 270 85 16 29 
183 473 267 151 10 50 
182 475 267 117 12 37 
183 474 266 146 12 49 
183 474 267 144 12 47 
183 475 266 127 12 43 
183 475 267 128 13 43 
180 473 271 148 12 43 
181 472 271 148 10 46 
181 473 270 148 10 49 
181 473 271 148 11 45 
181 475 269 120 8 33 
180 474 271 148 12 41 
180 475 270 143 13 48 
180 475 271 149 14 49 
181 474 270 144 11 46 
181 474 271 147 12 41 
181 475 270 135 13 45 
182 473 269 148 9 49 
183 472 268 151 6 50 
183 472 269 150 6 43 
183 473 268 150 9 50 
183 473 269 150 8 46 
182 472 270 148 7 49 
182 472 271 148 8 47 
182 473 270 148 9 50 
183 472 270 148 6 42 
182 474 268 138 11 42 
182 474 269 140 11 44 
182 475 268 116 9 32 
182 475 269 123 8 31 
183 474 268 145 11 46 
181 478 267 42 21 24 
181 479 267 37 24 23 
183 476 265 103 10 34 
183 477 265 77 24 32 
182 476 266 89 17 31 
182 476 267 89 17 30 
182 477 266 59 18 30 
182 477 267 61 24 29 
183 476 266 101 11 34 
183 477 266 67 16 29 
183 478 265 57 33 30 
183 479 265 54 35 30 
182 478 266 43 20 28 
182 478 267 42 21 27 
182 479 266 38 23 25 
182 479 267 36 22 24 
183 478 266 48 24 27 
183 479 266 42 27 26 
180 477 269 69 10 25 
181 476 268 87 12 21 
181 476 269 100 10 27 
181 477 268 59 18 25 
181 477 269 72 11 26 
180 476 270 129 17 48 
180 476 271 147 15 54 
180 477 270 103 16 34 
181 476 270 123 21 44 
180 478 269 47 17 29 
180 479 269 43 23 29 
181 478 268 41 20 25 
181 478 269 48 15 26 
181 479 268 37 25 27 
180 478 270 63 14 27 
182 476 268 87 18 27 
187 464 263 143 3 40 
187 465 263 143 3 41 
187 466 263 143 2 42 
187 467 263 144 3 45 
187 468 263 145 4 46 
187 469 263 147 5 45 
186 471 263 150 9 47 
187 470 263 149 7 47 
187 471 263 149 9 49 
191 464 259 131 7 41 
191 465 259 131 6 39 
191 466 259 132 5 39 
189 464 261 140 6 46 
189 465 261 139 5 44 
188 464 262 140 5 41 
188 464 263 141 4 40 
188 465 262 139 4 42 
188 465 263 140 4 41 
189 464 262 140 5 44 
189 465 262 139 5 43 
189 466 261 138 4 44 
189 467 261 138 4 44 
188 466 262 139 3 43 
188 466 263 141 3 42 
188 467 262 141 4 45 
188 467 263 142 3 44 
189 466 262 138 4 44 
189 467 262 139 4 45 
190 464 260 137 5 48 
190 464 261 139 6 47 
190 465 260 136 5 47 
190 465 261 137 5 46 
191 464 260 134 6 43 
191 465 260 133 5 41 
190 466 261 137 5 45 
190 467 261 137 4 43 
191 466 260 133 4 38 
191 467 260 135 5 40 
188 468 262 143 5 46 
188 468 263 143 5 46 
188 469 262 145 6 47 
188 469 263 146 6 47 
189 468 262 140 5 46 
189 469 262 143 6 45 
188 470 262 146 8 48 
188 470 263 147 8 48 
188 471 262 145 9 47 
189 470 262 144 8 47 
189 471 262 144 9 47 
190 468 261 138 5 44 
190 469 261 141 6 44 
191 468 260 136 5 42 
191 468 261 137 5 43 
191 469 260 138 5 44 
191 469 261 140 6 45 
190 470 261 142 7 45 
190 471 261 142 8 45 
191 470 260 140 6 47 
191 470 261 142 7 48 
191 471 260 139 7 44 
191 471 261 140 7 43 
184 464 267 150 3 47 
184 465 267 149 3 46 
185 464 266 149 2 48 
185 464 267 149 3 47 
185 465 266 148 2 45 
185 465 267 149 3 46 
184 466 267 149 3 44 
184 467 267 150 3 47 
185 466 266 147 2 43 
185 466 267 148 3 42 
185 467 266 148 3 44 
185 467 267 150 3 45 
186 464 264 146 3 40 
186 464 265 147 2 46 
186 465 264 145 2 42 
186 465 265 146 2 43 
187 464 264 145 3 40 
187 465 264 145 2 42 
186 466 264 145 2 44 
186 466 265 146 2 46 
186 467 265 146 3 46 
187 466 264 144 2 43 
187 467 264 144 3 44 
186 466 266 147 2 45 
186 467 266 147 3 45 
184 464 268 151 3 48 
184 464 269 152 5 50 
184 465 268 151 4 48 
184 465 269 152 5 49 
184 466 268 151 4 47 
184 466 269 153 5 50 
184 467 268 152 4 47 
184 467 269 153 4 48 
184 468 267 151 3 48 
184 469 267 151 3 46 
185 468 266 149 3 46 
185 468 267 150 3 46 
185 469 266 149 4 46 
185 469 267 151 4 45 
185 470 265 152 6 51 
185 471 265 152 7 49 
184 470 267 152 4 48 
184 471 266 152 6 50 
184 471 267 151 5 50 
185 470 266 151 5 48 
185 470 267 151 4 43 
185 471 266 152 6 49 
186 468 264 145 4 44 
186 468 265 147 3 45 
186 469 264 147 5 43 
186 469 265 148 5 48 
187 468 264 145 3 44 
187 469 264 147 5 44 
186 468 266 147 3 45 
186 470 264 150 6 47 
186 470 265 150 6 50 
186 471 264 151 8 45 
186 471 265 152 8 49 
187 470 264 149 6 44 
184 468 268 152 3 49 
184 468 269 152 4 47 
184 469 268 152 3 47 
184 469 269 152 4 44 
184 470 268 152 4 48 
184 470 269 151 4 45 
184 471 268 151 5 51 
186 472 263 150 10 49 
186 473 263 145 11 47 
187 472 263 146 10 48 
187 473 263 140 11 44 
186 474 263 136 11 40 
186 475 263 126 23 38 
187 474 263 132 11 40 
187 475 263 126 21 42 
185 476 263 123 64 62 
185 477 263 125 88 77 
186 476 263 125 61 56 
186 477 263 131 96 81 
187 476 263 128 57 57 
187 477 263 137 97 85 
186 478 263 142 113 97 
186 479 263 157 129 115 
187 478 263 151 123 107 
187 479 263 162 137 122 
188 472 262 142 10 43 
188 473 262 137 11 41 
189 472 262 141 10 42 
189 473 262 136 11 42 
188 474 262 131 10 39 
188 475 262 126 15 38 
189 474 262 132 10 40 
189 475 262 128 10 37 
190 472 261 139 9 41 
190 473 261 137 9 42 
191 472 260 138 7 40 
191 472 261 139 8 40 
191 473 260 137 8 41 
191 473 261 137 9 40 
190 473 262 135 9 41 
190 474 261 135 9 44 
190 475 261 133 8 43 
191 474 261 136 9 42 
191 475 261 135 8 44 
190 474 262 134 9 43 
190 475 262 131 8 41 
188 476 262 128 45 52 
188 477 262 136 81 76 
188 477 263 140 98 87 
189 476 262 128 29 46 
189 477 262 134 70 69 
188 478 263 149 117 102 
188 479 263 159 132 115 
189 478 262 142 102 91 
189 479 262 145 111 98 
189 479 263 149 120 104 
191 476 261 132 8 43 
191 477 261 128 17 45 
190 476 262 128 12 40 
190 477 262 128 47 56 
191 477 262 126 38 51 
191 478 261 126 45 54 
191 479 261 126 58 60 
190 478 262 135 82 78 
190 479 262 139 100 90 
191 478 262 128 64 66 
191 479 262 129 76 73 
185 472 265 152 9 48 
185 473 264 151 11 47 
185 473 265 153 10 48 
184 472 266 152 8 51 
184 472 267 151 7 50 
184 473 266 153 10 50 
184 473 267 151 8 49 
185 472 266 152 8 49 
185 473 266 153 9 49 
184 474 265 147 12 47 
184 475 264 127 20 43 
184 475 265 133 12 44 
185 474 264 143 12 43 
185 474 265 150 12 47 
185 475 264 130 16 39 
184 474 266 150 12 50 
184 475 266 138 14 48 
186 472 264 151 9 49 
186 473 264 150 11 49 
184 472 268 151 6 50 
184 476 264 112 34 45 
184 476 265 108 20 39 
184 477 264 102 57 54 
184 477 265 84 35 37 
185 476 264 120 47 52 
185 477 264 117 78 72 
184 478 264 99 69 58 
184 478 265 75 47 40 
184 479 264 99 68 55 
184 479 265 74 47 38 
185 478 264 125 96 84 
185 479 264 128 100 86 
186 479 264 145 118 103 
179 466 275 107 7 28 
179 467 275 132 12 43 
176 464 279 156 17 54 
176 465 279 149 16 44 
177 464 279 152 16 50 
177 465 278 153 17 48 
177 465 279 155 17 49 
177 466 277 155 17 53 
177 467 277 157 19 51 
176 466 278 156 19 54 
176 466 279 148 17 47 
176 467 278 157 18 55 
177 466 278 156 17 51 
178 464 277 126 14 47 
178 465 277 138 16 51 
179 464 276 76 17 25 
179 464 277 102 19 34 
179 465 276 92 6 25 
179 465 277 116 14 39 
178 464 278 138 14 47 
178 465 278 149 16 52 
178 466 276 134 13 46 
178 466 277 145 15 53 
178 467 276 147 15 52 
178 467 277 150 15 52 
179 466 276 113 9 33 
179 466 277 128 14 44 
179 467 276 136 13 48 
176 471 275 162 18 51 
177 470 275 155 16 49 
177 471 275 157 16 49 
178 468 275 150 14 54 
178 469 275 152 15 52 
179 468 274 147 15 48 
179 468 275 147 14 53 
179 469 274 154 14 52 
179 469 275 153 14 51 
178 470 275 153 15 50 
178 471 274 153 15 49 
178 471 275 154 15 49 
179 470 274 153 13 47 
179 470 275 154 14 51 
179 471 274 152 14 49 
176 468 277 159 18 53 
176 469 277 159 19 53 
177 468 276 154 15 48 
177 468 277 155 16 49 
177 469 276 154 17 48 
176 468 278 159 18 56 
176 470 276 161 19 52 
176 470 277 162 22 53 
176 471 276 166 21 54 
177 470 276 155 17 49 
178 468 276 151 15 54 
178 469 276 153 16 51 
181 464 273 115 9 32 
181 465 273 126 11 45 
180 464 275 58 17 29 
180 465 274 68 4 28 
180 465 275 63 8 25 
181 464 274 81 16 29 
181 465 274 86 7 35 
181 466 273 131 11 47 
181 467 273 140 12 41 
180 466 274 97 1 27 
180 466 275 89 5 24 
180 467 274 129 12 36 
181 466 274 105 5 37 
181 467 274 128 13 39 
182 464 272 145 11 41 
182 464 273 127 9 39 
182 465 272 147 11 47 
182 466 272 150 11 50 
182 467 272 152 10 46 
180 464 276 58 22 27 
180 465 276 67 9 22 
180 469 273 153 14 47 
181 468 272 153 10 50 
181 468 273 148 12 46 
181 469 272 155 11 47 
181 469 273 154 13 47 
180 468 274 147 13 44 
180 469 274 154 13 50 
180 470 273 154 12 47 
180 471 273 152 12 50 
181 470 272 153 10 47 
181 470 273 153 11 47 
181 471 272 151 10 48 
180 470 274 155 13 48 
182 468 272 156 9 48 
182 469 272 155 9 50 
182 470 272 154 9 46 
176 464 280 148 17 49 
176 465 280 139 14 33 
176 472 275 167 20 55 
176 473 274 171 18 54 
176 473 275 170 19 54 
177 472 274 156 16 48 
177 472 275 158 17 49 
177 473 274 160 17 52 
176 475 273 173 18 55 
177 474 273 162 17 52 
177 475 273 164 17 49 
176 474 274 173 18 55 
177 474 274 164 17 54 
178 473 273 154 15 52 
179 472 273 152 14 52 
179 473 273 152 14 50 
178 472 274 154 15 49 
178 473 274 155 15 52 
179 472 274 152 14 51 
178 474 273 156 16 50 
178 475 272 154 15 43 
178 475 273 157 15 46 
179 474 272 152 14 46 
179 474 273 153 15 49 
179 475 272 153 15 47 
176 472 276 172 22 60 
176 476 272 171 18 52 
176 476 273 173 18 55 
176 477 272 171 18 56 
177 476 272 164 17 50 
177 476 273 167 17 47 
177 477 272 165 18 53 
176 478 272 166 19 59 
178 476 272 156 16 49 
178 477 272 154 16 51 
179 476 272 152 16 53 
180 472 272 150 12 49 
180 472 273 151 13 52 
180 473 272 150 13 46 
180 473 273 151 13 50 
181 472 272 149 10 48 
180 474 272 151 14 43 
172 480 271 149 101 83 
173 480 271 150 102 96 
173 481 271 148 96 89 
173 482 271 149 96 90 
173 483 271 150 97 91 
174 480 271 139 80 80 
174 481 271 133 71 72 
175 480 271 136 50 60 
175 481 270 121 32 43 
175 481 271 126 47 55 
174 482 270 130 74 74 
174 482 271 135 77 76 
174 483 270 131 79 76 
174 483 271 140 88 83 
175 482 270 121 53 59 
175 483 270 117 64 64 
173 484 271 147 96 89 
173 485 271 142 92 86 
173 486 271 137 91 83 
173 487 271 131 86 78 
175 484 269 107 67 60 
175 485 269 108 66 60 
174 484 270 133 86 79 
174 484 271 141 90 84 
174 485 270 130 84 79 
174 485 271 134 87 81 
175 484 270 116 74 68 
175 485 270 116 74 67 
175 486 269 108 63 61 
175 487 269 105 58 58 
174 486 270 123 78 74 
174 486 271 129 84 78 
174 487 270 118 71 66 
174 487 271 123 77 71 
175 486 270 113 69 65 
175 487 270 108 61 60 
173 488 271 122 71 65 
174 488 271 113 59 51 
174 489 271 123 71 64 
175 488 270 104 55 51 
175 488 271 111 60 53 
175 489 270 112 65 59 
175 489 271 118 71 64 
175 490 271 126 78 72 
175 491 271 135 87 79 
171 481 272 152 102 87 
171 482 272 152 101 88 
171 483 272 152 101 87 
171 484 272 151 99 87 
171 485 272 149 98 86 
170 487 273 148 101 86 
171 486 272 147 99 86 
171 487 272 146 100 89 
171 487 273 148 102 90 
172 480 272 154 107 92 
172 481 272 155 104 93 
173 480 272 156 111 101 
172 482 272 156 103 95 
172 483 272 155 104 96 
172 484 272 151 101 92 
172 485 272 146 97 88 
173 485 272 144 95 88 
172 486 272 143 97 87 
172 487 272 141 97 88 
173 486 272 140 95 86 
173 487 272 135 91 84 
170 488 273 150 103 91 
170 489 273 151 100 90 
171 488 273 144 97 87 
171 489 273 143 91 83 
171 490 273 153 103 95 
171 491 273 162 111 102 
171 492 273 165 112 103 
171 493 273 169 118 108 
171 494 273 170 117 109 
172 488 272 135 87 80 
172 488 273 136 87 79 
172 489 273 134 81 74 
173 488 272 122 68 62 
173 489 272 126 72 66 
173 489 273 132 81 76 
172 490 273 148 100 93 
172 491 273 155 105 99 
173 490 272 141 93 86 
173 490 273 145 97 92 
173 491 272 148 98 91 
173 491 273 151 101 95 
174 489 272 124 72 65 
174 490 272 133 84 77 
174 491 272 144 94 86 
175 491 272 139 90 81 
172 492 273 159 106 99 
172 493 273 161 107 100 
173 492 272 154 101 93 
173 492 273 156 103 96 
173 493 272 155 103 94 
173 493 273 157 103 97 
172 494 272 169 117 107 
172 494 273 166 112 104 
172 495 272 174 122 112 
173 494 272 159 107 98 
173 495 272 171 120 111 
174 492 272 150 99 90 
174 493 272 153 101 92 
175 492 272 145 96 87 
175 493 272 149 99 90 
174 494 272 156 105 96 
174 495 272 164 113 104 
175 494 272 152 101 93 
175 495 272 157 106 99 
173 497 271 182 128 118 
173 498 271 186 129 119 
174 498 271 180 127 117 
174 499 271 183 128 117 
175 499 271 177 125 113 
174 500 271 184 129 117 
175 500 271 178 126 114 
175 501 270 182 127 115 
175 501 271 179 125 114 
175 502 270 180 125 114 
172 496 272 180 127 118 
173 496 272 177 126 116 
173 497 272 177 125 116 
174 496 272 170 119 109 
174 497 272 173 121 112 
175 496 272 162 112 102 
175 497 272 168 118 108 
174 498 272 176 124 115 
175 498 272 172 122 112 
175 499 272 174 123 112 
176 480 270 143 25 50 
176 480 271 147 26 50 
176 481 270 133 27 48 
177 480 270 150 25 56 
177 480 271 155 20 52 
177 481 270 142 29 53 
176 483 269 102 33 40 
177 482 269 126 39 51 
177 483 269 104 35 43 
176 482 270 121 33 50 
176 483 270 108 37 50 
177 482 270 132 34 52 
178 481 269 126 28 49 
179 480 269 93 24 36 
179 481 269 97 20 38 
178 480 270 132 22 50 
178 481 270 137 27 51 
179 480 270 98 22 38 
178 482 269 117 42 52 
178 483 269 95 31 37 
179 482 269 90 30 40 
179 483 268 73 20 31 
179 483 269 87 30 38 
179 485 267 62 36 34 
178 486 267 75 49 50 
178 487 267 87 59 60 
179 486 267 68 45 41 
179 487 267 81 57 54 
176 484 269 87 41 45 
176 485 269 79 46 45 
177 484 268 72 34 37 
177 484 269 82 28 36 
177 485 268 61 38 38 
176 486 268 74 43 42 
176 486 269 89 48 48 
176 487 268 81 47 43 
176 487 269 91 45 44 
177 486 268 66 45 42 
177 487 268 78 52 45 
178 484 268 69 23 28 
178 485 268 59 33 33 
179 484 268 69 30 34 
179 485 268 63 35 34 
178 486 268 66 43 42 
181 480 267 31 29 25 
181 481 267 33 28 27 
180 483 267 61 20 35 
181 482 267 38 25 29 
181 483 266 48 24 25 
181 483 267 47 19 27 
183 480 265 63 34 31 
183 481 265 62 28 30 
182 480 266 39 25 28 
182 480 267 34 25 24 
182 481 266 40 25 29 
183 480 266 52 27 28 
183 481 266 55 28 28 
183 482 265 58 20 26 
183 483 265 52 22 23 
182 482 266 38 23 25 
182 483 266 42 23 23 
180 480 268 30 26 23 
180 480 269 51 24 28 
180 481 268 37 26 25 
180 481 269 60 25 30 
181 480 268 31 28 24 
181 481 268 30 29 25 
180 482 268 50 24 29 
180 483 268 60 19 33 
180 484 267 71 30 39 
180 485 267 61 25 28 
181 484 266 58 23 28 
181 484 267 66 22 33 
181 485 266 58 22 27 
181 487 265 49 23 26 
180 486 266 56 28 28 
180 486 267 61 35 31 
180 487 266 65 40 38 
181 486 266 54 25 27 
181 487 266 53 30 29 
182 484 265 51 28 22 
182 485 265 51 26 25 
183 484 265 44 26 21 
183 485 265 39 23 21 
182 484 266 51 24 22 
182 485 266 55 27 26 
182 486 265 51 24 26 
