ply
format ascii 1.0
comment Created by CloudCompare v2.10.1 (Zephyrus)
comment Created 1/31/20 11:43 AM
obj_info Generated by CloudCompare!
element vertex 2164
property float x
property float y
property float z
property uchar red
property uchar green
property uchar blue
end_header
347 887 142 91 81 78 
347 887 143 95 82 79 
348 880 136 125 108 97 
348 881 136 123 105 94 
349 880 136 131 113 103 
348 882 136 112 96 87 
348 883 136 111 95 89 
348 884 136 113 99 94 
348 884 137 108 91 86 
348 885 136 105 92 87 
348 885 137 104 91 86 
348 886 136 95 80 78 
348 886 137 97 85 81 
348 887 136 88 75 74 
348 887 137 92 80 78 
349 887 136 90 77 78 
348 886 138 110 99 96 
348 887 138 103 92 89 
348 887 139 102 92 89 
348 887 140 97 85 79 
346 889 135 86 72 72 
347 888 135 94 79 75 
347 889 135 89 75 75 
347 890 134 91 80 78 
347 891 135 87 78 75 
349 889 131 94 85 83 
349 890 131 93 84 82 
350 888 129 98 87 85 
351 888 129 94 80 75 
351 889 129 88 75 72 
350 888 130 104 93 92 
350 889 130 89 78 74 
351 888 130 91 78 74 
351 888 131 97 87 83 
351 889 130 91 79 74 
351 889 131 85 71 69 
351 890 130 86 71 70 
348 889 133 88 78 77 
349 889 132 92 82 82 
349 889 133 99 85 91 
348 889 134 92 82 80 
349 888 135 89 78 75 
348 890 133 92 83 84 
349 890 132 95 86 84 
349 891 132 91 80 81 
349 891 133 93 81 84 
348 891 134 86 76 74 
348 891 135 83 72 69 
349 891 134 83 69 67 
350 888 132 97 88 85 
350 888 133 98 88 86 
351 888 132 97 87 83 
351 888 133 102 92 87 
351 889 132 93 80 83 
351 889 133 97 84 82 
350 888 134 96 87 86 
350 888 135 84 73 70 
350 889 134 83 71 67 
350 889 135 83 71 68 
351 889 134 80 67 64 
351 889 135 83 70 66 
350 891 132 89 77 76 
351 891 132 83 68 69 
351 890 135 87 74 71 
351 891 134 81 67 67 
344 888 138 82 69 65 
344 889 139 80 67 62 
347 889 136 88 73 73 
346 891 136 85 74 70 
346 891 138 86 74 67 
344 890 140 79 66 60 
344 890 141 79 67 62 
345 890 140 80 68 64 
345 891 143 85 74 68 
347 888 141 99 87 81 
347 888 143 92 79 76 
347 891 140 88 77 70 
346 891 142 85 74 67 
348 888 137 90 78 76 
348 889 137 86 75 71 
349 888 136 89 79 76 
349 889 136 87 79 76 
349 889 137 85 75 73 
348 888 138 93 81 75 
348 888 139 98 88 83 
348 889 138 86 75 69 
349 889 138 83 71 68 
349 889 139 85 73 68 
349 890 137 87 79 77 
349 890 138 82 70 68 
349 890 139 79 68 66 
350 888 136 88 78 74 
350 889 136 85 75 72 
350 889 137 86 77 74 
350 890 137 80 70 68 
350 891 137 76 66 62 
351 890 136 81 70 66 
351 890 137 76 65 62 
351 891 137 77 67 63 
350 890 138 80 70 67 
350 890 139 79 68 65 
350 891 138 76 65 62 
350 891 139 75 64 59 
348 888 140 98 87 81 
348 888 141 93 80 74 
348 889 140 92 80 73 
348 889 141 89 76 71 
349 889 140 83 72 68 
349 889 141 85 74 69 
348 888 142 91 80 74 
348 889 142 88 77 71 
348 889 143 90 78 72 
349 890 140 80 68 65 
349 890 141 81 69 64 
348 890 143 85 74 67 
349 890 142 78 66 61 
349 890 143 82 71 65 
349 891 142 77 64 60 
349 891 143 81 71 66 
350 890 140 81 68 66 
350 890 141 74 62 57 
350 891 140 74 62 57 
350 891 141 74 63 59 
350 890 142 76 62 58 
350 891 142 77 66 62 
350 891 143 81 70 65 
349 893 138 78 67 63 
350 892 136 80 68 64 
350 893 136 77 65 62 
350 894 137 75 64 61 
350 894 138 74 63 58 
350 894 139 74 63 57 
350 892 143 77 67 61 
339 881 145 92 76 64 
338 880 147 84 70 62 
338 881 147 87 73 63 
339 880 146 89 75 66 
339 880 147 86 72 63 
339 881 146 91 76 66 
339 881 147 88 74 64 
339 882 145 95 78 67 
339 883 145 95 78 69 
338 882 147 89 74 64 
338 883 147 92 76 68 
339 882 146 91 75 65 
339 883 146 94 78 69 
337 880 149 73 63 58 
337 881 148 81 68 60 
337 881 149 77 65 59 
336 880 150 69 60 56 
336 880 151 64 57 54 
336 881 150 72 62 57 
336 881 151 69 60 56 
337 880 150 68 59 56 
337 881 150 72 62 57 
336 882 149 81 69 62 
336 883 149 85 72 65 
337 882 148 84 71 63 
337 882 149 82 69 62 
337 883 148 90 75 68 
337 883 149 86 72 66 
336 882 150 77 67 60 
336 882 151 73 63 57 
336 883 150 82 70 63 
336 883 151 80 69 62 
338 880 148 79 67 60 
338 880 149 75 64 59 
338 881 148 82 69 61 
338 882 148 86 73 64 
338 884 147 96 80 73 
338 885 147 93 76 70 
339 884 146 95 78 69 
339 884 147 95 78 71 
339 885 146 92 76 70 
339 885 147 93 77 71 
339 886 147 90 75 70 
339 887 147 87 71 68 
336 884 149 89 76 69 
336 885 149 92 77 69 
337 884 148 92 77 70 
337 884 149 90 75 70 
337 885 148 92 77 69 
337 885 149 92 77 69 
336 884 150 87 74 66 
336 885 150 90 76 67 
336 886 149 92 77 69 
336 887 149 93 76 71 
337 886 148 91 75 69 
337 886 149 91 75 68 
337 887 148 91 75 70 
337 887 149 91 75 70 
336 886 150 93 77 69 
336 887 150 93 77 72 
338 884 148 95 78 71 
338 885 148 92 76 68 
338 886 148 92 77 70 
338 887 148 89 72 68 
339 887 148 89 72 69 
340 880 144 97 80 68 
340 880 145 95 79 69 
340 881 144 96 79 68 
340 881 145 94 78 66 
341 880 144 98 81 68 
341 880 145 97 81 70 
341 881 144 96 79 68 
340 882 144 96 79 70 
340 882 145 95 78 68 
340 883 144 95 79 71 
340 883 145 97 79 71 
341 882 144 96 79 69 
341 883 144 95 78 70 
340 884 145 96 79 71 
340 885 145 91 74 66 
341 884 144 94 77 71 
341 884 145 95 78 71 
341 885 144 88 73 66 
341 885 145 89 73 66 
340 885 146 91 75 67 
341 886 145 85 69 64 
340 886 146 87 71 65 
340 887 146 82 68 66 
340 887 147 85 69 66 
341 886 146 86 69 66 
341 887 146 81 67 68 
341 887 147 81 66 64 
342 885 144 90 74 69 
342 886 144 88 76 72 
342 886 145 84 72 69 
342 887 145 86 75 73 
343 886 144 83 71 69 
343 887 144 85 72 72 
343 887 145 85 74 73 
342 887 146 83 73 72 
343 887 146 89 79 77 
336 880 152 61 55 54 
336 880 153 58 53 53 
336 881 152 64 57 54 
339 888 147 86 70 68 
336 888 149 89 73 70 
336 889 149 84 69 67 
337 888 149 87 71 67 
337 889 149 85 70 66 
336 888 150 90 74 72 
336 889 150 85 70 68 
337 890 149 84 70 65 
337 891 149 83 69 65 
336 890 150 84 69 67 
336 891 150 83 69 67 
337 890 150 84 70 67 
337 891 150 83 69 65 
338 888 148 87 70 67 
338 889 148 85 70 66 
338 889 149 84 70 65 
339 888 148 85 70 67 
339 889 148 84 71 66 
338 890 149 83 69 64 
338 891 149 83 69 64 
339 890 149 82 69 63 
339 891 149 78 65 59 
338 891 150 81 68 63 
339 891 150 76 64 58 
339 891 151 72 61 57 
336 892 150 82 70 67 
336 892 151 83 70 68 
336 893 151 86 72 70 
337 892 150 83 70 67 
337 892 151 84 71 68 
337 893 151 84 71 69 
336 894 151 85 71 67 
338 892 150 81 67 65 
338 892 151 79 65 63 
338 893 151 79 65 64 
339 892 150 77 64 61 
339 892 151 72 60 57 
340 888 147 83 68 64 
341 888 147 85 71 69 
341 889 147 87 71 66 
342 888 146 86 75 73 
342 888 147 91 81 79 
342 889 147 94 84 84 
343 888 146 95 85 82 
343 888 147 101 92 89 
343 889 147 101 93 90 
340 889 148 82 68 63 
341 889 148 90 76 72 
340 890 149 79 66 62 
340 891 149 78 65 59 
341 890 149 78 65 61 
340 890 150 78 66 62 
340 891 150 75 64 59 
340 891 151 72 62 58 
341 890 150 75 64 61 
341 891 150 75 65 63 
341 891 151 70 60 58 
342 889 148 95 83 82 
343 889 148 101 93 90 
342 890 148 95 84 83 
342 890 149 81 68 66 
343 890 148 98 88 86 
343 890 149 84 73 71 
342 890 150 74 62 60 
342 891 150 71 61 60 
342 891 151 70 60 58 
343 890 150 76 63 61 
343 891 150 72 61 60 
343 891 151 68 59 58 
340 892 151 69 60 56 
336 894 152 86 71 66 
336 895 152 86 70 65 
336 895 153 83 69 64 
337 894 152 84 69 65 
337 895 152 82 67 63 
337 895 153 78 64 58 
338 893 152 78 64 63 
339 892 152 73 61 57 
339 893 152 73 60 57 
339 893 153 67 54 52 
338 894 152 78 64 62 
338 894 153 78 63 61 
338 895 153 73 59 56 
339 894 153 72 58 57 
339 895 153 70 58 56 
339 895 154 69 58 55 
339 895 155 71 62 58 
342 891 152 67 57 56 
343 891 152 67 58 57 
340 892 152 70 59 56 
340 893 153 70 58 56 
341 892 152 71 59 57 
341 892 153 73 61 60 
341 893 153 72 61 60 
340 893 154 75 63 61 
341 893 154 73 63 61 
340 894 153 70 57 55 
340 894 154 73 61 59 
340 894 155 79 67 65 
340 895 154 72 60 58 
340 895 155 80 68 67 
341 894 154 78 65 63 
341 894 155 79 67 64 
341 895 155 81 69 67 
342 892 152 67 57 57 
342 892 153 70 59 58 
342 893 153 72 61 60 
343 892 152 66 57 55 
343 892 153 70 60 58 
343 893 153 71 61 60 
342 893 154 75 65 63 
343 893 154 75 65 64 
342 894 154 77 66 63 
342 894 155 80 69 65 
343 894 154 78 67 65 
343 894 155 80 70 67 
340 895 156 85 75 74 
340 895 157 85 76 74 
341 895 156 83 72 70 
341 895 157 86 76 73 
342 894 156 83 72 68 
342 895 156 84 74 71 
342 895 157 85 75 72 
343 894 156 82 73 70 
343 895 156 84 75 71 
343 895 157 86 75 72 
342 895 158 86 74 72 
343 895 158 85 75 71 
344 886 144 76 64 64 
344 887 144 89 79 79 
344 887 145 94 82 82 
345 887 144 93 82 80 
345 887 145 101 90 87 
346 887 144 96 84 81 
344 888 145 96 85 83 
345 888 144 100 88 84 
345 888 145 102 91 87 
345 889 145 99 88 84 
344 888 146 99 88 85 
344 888 147 101 91 88 
344 889 147 108 99 97 
345 888 146 102 91 87 
345 889 146 97 86 82 
345 889 147 96 86 83 
346 888 144 96 84 80 
346 888 145 99 87 82 
346 889 145 98 87 82 
347 888 144 94 82 77 
347 889 144 96 86 81 
347 889 145 99 89 84 
346 889 146 101 90 86 
347 889 146 94 84 80 
346 890 146 98 88 85 
346 890 147 98 89 86 
347 890 146 94 84 80 
347 890 147 98 89 86 
344 889 148 98 89 88 
345 889 148 95 85 83 
344 890 148 91 81 81 
344 890 149 90 80 80 
345 890 148 94 85 82 
345 890 149 97 89 86 
344 890 150 80 67 68 
344 891 150 70 57 56 
344 891 151 70 59 58 
345 890 150 87 77 75 
345 891 150 81 69 68 
345 891 151 71 61 59 
346 890 148 95 86 83 
346 890 149 93 85 81 
346 891 149 94 86 82 
347 890 148 94 86 83 
347 891 148 87 78 75 
347 891 149 85 76 72 
346 891 150 82 73 70 
346 891 151 76 65 63 
347 891 150 78 69 63 
345 892 151 70 60 57 
346 892 150 76 64 62 
346 892 151 74 62 60 
347 892 150 75 64 60 
347 892 151 74 62 60 
347 893 151 73 60 58 
348 889 144 93 82 75 
348 890 144 91 79 73 
348 890 145 92 82 77 
349 890 144 86 75 69 
349 891 144 79 68 63 
349 891 145 81 68 65 
348 890 146 93 82 78 
348 890 147 92 82 77 
348 891 147 85 75 70 
349 891 146 81 68 64 
349 891 147 82 67 63 
348 891 148 81 69 65 
348 891 149 77 65 60 
349 891 148 77 59 56 
349 892 146 77 63 60 
349 892 147 77 61 59 
348 892 149 75 62 58 
349 892 148 72 56 53 
349 892 149 72 58 54 
348 892 150 74 61 55 
348 892 151 73 59 57 
348 893 151 74 62 59 
344 892 152 65 56 55 
344 892 153 66 56 54 
344 893 153 70 59 58 
345 892 152 67 58 55 
345 893 152 68 57 55 
345 893 153 73 62 60 
344 893 154 74 63 63 
345 893 154 75 63 60 
344 894 154 78 66 66 
344 894 155 82 70 69 
345 894 154 80 68 65 
345 894 155 82 70 67 
345 895 155 85 73 70 
346 892 152 71 60 56 
346 893 152 72 62 58 
346 893 153 76 65 61 
347 893 152 78 66 63 
347 893 153 81 70 67 
346 894 153 76 65 61 
347 894 153 82 72 66 
347 895 153 79 69 62 
346 894 154 81 69 65 
346 894 155 85 73 68 
346 895 154 86 76 70 
346 895 155 84 73 68 
347 895 154 83 72 65 
347 895 155 82 70 65 
344 895 156 86 75 73 
344 895 157 84 74 71 
345 895 156 87 75 72 
345 895 157 85 74 71 
346 895 156 86 74 71 
346 895 157 84 73 69 
347 895 156 86 75 71 
347 895 157 82 71 67 
346 895 158 81 72 68 
347 895 158 81 70 66 
347 895 159 81 72 69 
348 893 152 79 67 63 
348 894 152 83 73 69 
348 894 153 83 72 66 
348 895 153 80 70 63 
335 867 167 43 36 37 
335 871 160 47 41 41 
335 871 161 46 40 40 
335 871 162 44 39 39 
335 871 163 43 39 38 
335 869 165 43 38 38 
335 868 166 42 37 37 
335 868 167 42 37 37 
335 869 166 42 37 38 
335 869 167 41 36 36 
335 870 164 43 38 38 
335 870 165 42 37 37 
335 871 164 43 38 38 
335 871 165 42 38 37 
335 870 166 42 36 38 
335 870 167 41 36 36 
335 871 166 41 36 37 
335 871 167 41 36 36 
335 864 170 42 37 37 
335 864 171 40 35 36 
335 867 168 42 36 37 
335 867 169 41 35 37 
335 867 170 39 34 36 
335 867 171 40 33 35 
335 864 172 40 35 37 
335 864 173 41 35 38 
335 865 172 40 35 37 
335 865 173 40 35 37 
335 865 174 41 37 39 
335 865 175 42 38 39 
335 866 172 40 35 36 
335 866 173 42 38 39 
335 867 172 40 35 36 
335 866 174 42 38 39 
335 866 175 42 38 39 
335 868 168 42 36 37 
335 868 169 41 36 38 
335 869 168 40 35 36 
335 869 169 40 34 36 
335 868 170 40 34 36 
335 868 171 40 33 35 
335 869 170 40 34 36 
335 870 168 40 34 36 
335 870 169 39 34 36 
335 871 168 40 35 36 
335 871 169 39 34 36 
335 870 170 39 34 35 
335 871 170 39 34 36 
335 871 171 39 34 36 
335 871 172 40 35 37 
335 871 173 40 34 37 
334 873 160 48 42 42 
334 873 161 47 41 41 
335 872 160 48 42 42 
335 872 161 46 40 40 
335 873 160 48 42 42 
335 873 161 46 41 41 
334 873 162 45 40 39 
334 873 163 43 39 38 
335 872 162 43 39 39 
335 872 163 42 38 38 
335 873 162 44 39 39 
335 873 163 43 38 38 
334 874 160 48 44 43 
334 874 161 46 42 41 
334 875 160 48 44 44 
334 875 161 46 43 42 
334 874 162 45 41 40 
334 874 163 44 39 38 
334 875 162 45 42 41 
334 875 163 44 40 40 
333 875 167 42 36 40 
334 873 164 43 39 38 
334 873 165 43 38 36 
335 872 164 42 38 37 
335 872 165 42 37 37 
335 873 164 41 37 36 
335 873 165 42 37 36 
334 873 166 41 37 36 
334 873 167 39 34 36 
335 872 166 42 38 38 
335 872 167 41 37 37 
335 873 167 41 36 37 
334 874 164 42 38 38 
334 874 165 42 37 37 
334 875 164 43 38 39 
334 875 165 42 38 39 
334 874 166 41 36 37 
334 874 167 40 35 37 
334 875 166 42 37 39 
334 875 167 41 36 40 
333 877 163 47 42 42 
333 878 161 49 45 44 
333 879 160 49 45 45 
333 879 161 50 45 45 
333 878 162 47 43 42 
333 878 163 46 42 41 
333 879 162 48 44 43 
333 879 163 47 42 42 
334 876 160 48 44 43 
334 876 161 47 43 42 
334 877 160 49 45 45 
334 877 161 48 44 43 
334 876 162 46 42 41 
334 876 163 45 40 40 
334 877 162 48 43 43 
334 877 163 46 42 42 
334 878 160 49 45 45 
334 878 161 48 44 43 
334 879 160 50 46 46 
333 876 165 42 38 39 
333 877 164 44 39 40 
333 877 165 42 38 39 
333 876 166 42 38 39 
333 876 167 40 36 38 
333 877 166 42 38 39 
333 877 167 42 38 38 
332 879 164 46 42 42 
332 879 165 44 40 40 
333 878 164 46 41 41 
333 878 165 44 39 40 
333 879 164 46 41 41 
333 879 165 45 40 40 
332 878 166 43 39 39 
332 879 166 43 40 39 
332 879 167 44 40 40 
333 878 166 44 40 40 
333 878 167 44 40 40 
333 879 167 44 40 40 
334 876 164 43 39 39 
334 876 165 44 39 39 
334 877 164 44 39 40 
334 876 166 43 38 39 
333 875 171 39 33 36 
334 873 168 40 35 36 
334 873 169 39 34 35 
335 872 168 40 35 36 
335 872 169 39 35 36 
335 873 168 40 35 36 
334 873 170 38 33 35 
334 873 171 38 33 35 
335 872 170 38 33 36 
335 872 171 38 34 35 
335 873 170 38 34 35 
335 873 171 38 34 35 
334 874 168 40 35 37 
334 874 169 40 35 36 
334 875 168 41 36 39 
334 875 169 39 35 36 
334 874 170 39 34 36 
334 874 171 39 34 36 
334 875 170 39 35 37 
334 875 171 39 34 37 
334 873 172 38 34 36 
334 873 173 37 33 36 
335 872 172 39 34 36 
335 872 173 38 33 36 
335 873 172 38 34 36 
335 873 173 37 33 36 
335 872 174 38 34 37 
335 873 174 37 33 36 
335 873 175 39 35 37 
334 874 172 38 34 36 
334 874 173 36 34 35 
334 875 172 39 34 37 
334 875 173 39 35 38 
334 874 174 37 34 36 
334 875 174 38 34 35 
334 875 175 37 33 35 
335 874 174 36 32 34 
335 874 175 37 32 35 
333 876 168 41 36 38 
333 876 169 40 36 37 
333 877 168 41 37 37 
333 877 169 40 36 37 
333 876 171 38 33 35 
333 877 170 39 36 36 
333 877 171 38 34 36 
332 878 168 42 38 39 
332 879 168 43 40 40 
332 879 169 41 38 39 
333 878 168 42 37 39 
333 878 169 39 36 37 
333 879 168 42 38 40 
333 879 169 40 37 38 
332 879 170 38 35 37 
332 879 171 38 35 37 
333 878 170 38 34 36 
333 878 171 38 34 35 
333 879 171 37 34 36 
334 876 169 39 35 36 
334 876 170 39 35 37 
334 876 171 39 34 37 
333 876 172 38 33 36 
333 876 173 39 33 37 
333 877 172 39 35 37 
333 877 173 39 33 37 
333 876 174 38 33 36 
333 877 174 39 33 36 
333 877 175 38 34 37 
332 879 172 38 35 36 
333 878 172 37 32 35 
333 878 173 38 32 36 
333 879 172 38 34 36 
333 879 173 38 34 36 
333 878 174 39 33 36 
333 878 175 39 35 37 
333 879 174 39 34 37 
333 879 175 39 34 37 
334 876 172 38 34 37 
334 876 173 39 34 37 
334 876 174 38 34 36 
334 876 175 37 33 35 
334 877 175 38 34 36 
335 866 176 41 38 38 
335 873 176 39 36 38 
335 873 177 40 35 37 
334 875 176 36 32 35 
335 874 176 37 34 36 
335 874 177 38 34 36 
335 875 176 37 34 36 
335 875 177 37 34 36 
335 874 178 39 35 36 
335 875 178 38 34 35 
333 879 176 37 33 36 
334 876 176 37 34 36 
334 876 177 37 35 36 
334 877 176 38 34 36 
334 877 177 37 35 36 
335 876 177 37 34 35 
335 877 177 38 35 36 
335 876 178 36 34 34 
335 877 178 37 34 35 
334 878 176 37 34 35 
334 878 177 37 34 35 
334 879 176 37 33 35 
334 879 177 36 33 34 
335 878 177 37 34 35 
335 879 177 35 33 33 
335 878 178 37 34 35 
335 879 178 36 33 34 
327 893 174 47 44 44 
327 894 172 49 45 45 
327 894 173 49 45 46 
327 895 172 50 46 45 
327 895 173 49 45 45 
327 894 174 49 45 45 
327 895 174 49 45 45 
331 882 162 48 45 45 
331 882 163 47 44 43 
331 883 162 50 46 45 
331 883 163 48 45 44 
331 882 164 47 43 43 
331 882 165 47 43 43 
331 883 164 47 44 43 
331 883 165 46 42 42 
331 882 166 46 43 43 
331 882 167 44 41 41 
331 883 166 46 42 42 
331 883 167 46 42 42 
331 884 161 50 46 46 
331 885 161 52 48 48 
331 884 162 50 46 45 
331 884 163 49 45 44 
331 885 162 50 46 46 
331 885 163 49 46 45 
331 886 160 55 49 50 
331 886 161 53 48 49 
331 887 160 57 51 50 
331 887 161 54 48 49 
330 887 163 52 48 47 
331 886 162 52 47 48 
331 886 163 50 47 46 
331 887 162 53 47 48 
331 887 163 51 47 46 
330 885 165 47 44 43 
331 884 164 48 44 43 
331 884 165 47 43 42 
331 885 164 49 46 45 
331 885 165 47 44 43 
330 884 167 46 41 42 
330 885 166 46 42 42 
330 885 167 46 42 42 
331 884 166 47 43 43 
331 884 167 47 42 43 
331 885 166 47 43 42 
330 886 164 48 44 44 
330 886 165 48 44 44 
330 887 164 50 46 46 
330 887 165 50 46 46 
331 886 164 49 45 45 
331 886 165 48 45 45 
330 886 166 49 45 45 
330 886 167 48 44 44 
330 887 166 49 46 45 
330 887 167 48 44 44 
332 881 161 50 46 46 
333 880 160 50 46 47 
333 880 161 50 46 45 
333 881 160 51 47 48 
333 881 161 50 46 47 
332 880 162 49 45 45 
332 880 163 47 43 43 
332 881 162 50 46 45 
332 881 163 47 44 43 
333 880 162 49 45 45 
332 882 160 51 47 48 
332 882 161 50 46 46 
332 883 160 51 47 48 
332 883 161 50 46 46 
333 882 160 52 48 49 
332 882 162 49 45 45 
332 882 163 47 44 43 
332 883 162 49 46 45 
332 880 164 46 42 42 
332 880 165 46 42 42 
332 881 164 46 43 42 
332 881 165 46 42 42 
332 880 166 44 41 40 
332 880 167 43 40 40 
332 881 166 45 42 41 
332 881 167 43 40 40 
332 882 164 47 43 43 
332 882 165 47 43 43 
332 882 167 44 41 40 
332 884 160 52 49 49 
332 884 161 50 47 47 
332 885 160 53 49 50 
332 885 161 52 48 48 
332 886 160 54 49 50 
331 881 169 44 41 41 
331 881 170 43 40 40 
331 881 171 42 39 39 
331 882 168 44 40 41 
331 882 169 45 41 41 
331 883 168 45 41 42 
331 883 169 44 40 42 
330 883 170 45 41 42 
330 883 171 45 41 41 
331 882 170 45 41 40 
331 882 171 44 40 40 
331 883 170 45 41 42 
331 883 171 44 40 40 
331 880 173 39 36 37 
331 881 172 42 39 39 
331 881 173 41 37 39 
331 880 174 40 35 38 
331 881 174 38 34 37 
330 882 172 42 39 39 
330 882 173 42 38 38 
330 883 172 43 39 40 
330 883 173 43 38 40 
331 882 172 42 39 39 
331 882 173 41 37 39 
330 883 174 42 38 39 
330 883 175 40 36 37 
331 882 174 39 35 37 
331 882 175 37 34 35 
331 883 175 39 35 35 
329 887 169 48 44 43 
329 886 171 45 41 40 
329 887 170 46 42 42 
329 887 171 47 42 42 
330 884 168 44 40 41 
330 884 169 43 40 41 
330 885 168 45 42 42 
330 885 169 45 42 42 
331 884 168 45 41 42 
330 884 170 44 40 41 
330 884 171 45 40 40 
330 885 170 46 42 42 
330 885 171 44 40 40 
330 886 168 46 42 42 
330 886 169 45 42 42 
330 887 168 47 43 43 
330 887 169 46 43 42 
330 886 170 48 44 44 
330 886 171 45 41 41 
330 887 170 47 43 43 
329 885 172 44 40 40 
329 885 173 45 41 41 
329 885 174 46 41 42 
329 885 175 43 40 40 
329 886 172 44 40 40 
329 886 173 44 40 40 
329 887 172 45 41 41 
329 887 173 44 41 40 
328 887 175 45 41 43 
329 886 174 45 41 41 
329 886 175 44 41 42 
329 887 174 44 41 41 
329 887 175 44 41 42 
330 884 172 45 40 41 
330 884 173 45 40 42 
330 885 172 44 40 40 
330 885 173 45 40 41 
330 884 174 44 39 40 
330 884 175 41 37 37 
330 885 174 46 41 42 
330 885 175 41 38 39 
330 886 172 44 40 39 
330 886 173 45 41 40 
332 880 168 43 39 40 
332 880 169 41 38 40 
332 881 168 43 40 40 
332 881 169 43 40 41 
332 880 170 40 37 38 
332 880 171 39 36 37 
332 881 170 43 40 41 
332 881 171 41 38 39 
332 880 172 39 35 37 
332 880 173 39 35 36 
332 881 172 39 37 37 
332 881 173 40 36 38 
332 880 174 39 34 37 
332 880 175 36 33 35 
332 881 174 37 33 36 
332 881 175 36 33 36 
333 880 175 38 34 36 
332 882 175 36 34 35 
331 888 160 60 53 51 
331 888 161 57 51 50 
331 889 160 65 58 55 
331 889 161 59 53 50 
330 888 162 53 48 48 
330 888 163 52 47 47 
330 889 162 55 49 48 
330 889 163 53 48 47 
331 888 162 54 48 49 
330 890 161 66 58 55 
330 891 160 71 63 60 
330 891 161 68 62 58 
331 890 160 70 63 59 
331 890 161 63 56 53 
331 891 160 74 66 62 
330 890 162 58 53 51 
330 890 163 55 51 50 
330 891 162 63 58 55 
330 891 163 59 54 54 
329 889 165 50 45 46 
329 889 166 49 45 44 
329 889 167 49 45 44 
329 890 164 54 50 49 
329 890 165 52 47 47 
329 891 164 56 52 51 
329 891 165 54 50 49 
329 890 166 51 46 46 
329 890 167 49 45 44 
329 891 166 53 48 48 
329 891 167 51 47 46 
330 888 164 50 46 46 
330 888 165 50 46 46 
330 889 164 51 47 46 
330 889 165 50 45 46 
330 888 166 49 45 45 
330 888 167 49 45 45 
330 889 166 50 46 45 
330 889 167 49 45 45 
330 890 164 54 49 49 
329 892 163 62 55 54 
329 893 163 63 57 56 
329 894 162 69 61 60 
329 894 163 66 59 58 
329 895 162 68 59 58 
329 895 163 66 58 57 
330 892 160 73 65 63 
330 892 161 70 62 59 
330 893 160 75 65 63 
330 893 161 73 63 61 
330 892 162 65 59 55 
330 892 163 63 57 55 
330 893 162 67 61 57 
330 894 160 79 70 67 
330 894 161 74 66 62 
330 895 160 82 74 70 
330 895 161 75 67 63 
330 894 162 70 62 60 
330 895 162 71 63 60 
329 892 164 59 54 53 
329 892 165 56 52 51 
329 893 164 62 56 55 
329 893 165 59 55 53 
329 892 166 55 50 49 
329 892 167 54 49 48 
329 893 166 56 52 50 
329 893 167 55 50 48 
329 894 164 63 57 56 
329 894 165 60 54 53 
329 895 164 64 58 56 
329 895 165 61 55 53 
328 895 167 58 52 52 
329 894 166 59 54 52 
329 894 167 58 52 52 
329 895 166 59 53 50 
329 895 167 58 52 52 
329 888 168 48 44 44 
329 888 169 48 44 43 
329 889 168 49 44 44 
329 889 169 48 44 43 
329 888 170 48 43 43 
329 888 171 48 44 43 
329 889 170 48 43 43 
329 889 171 49 44 44 
328 891 169 50 44 45 
329 890 168 48 45 44 
329 890 169 50 45 44 
329 891 168 50 46 45 
329 891 169 50 46 45 
328 890 170 49 43 44 
328 890 171 48 43 44 
328 891 170 50 44 45 
328 891 171 50 44 45 
329 890 170 49 44 44 
329 890 171 48 43 44 
330 888 168 48 44 44 
328 889 172 49 45 45 
328 889 173 47 43 43 
329 888 172 47 44 43 
329 888 173 45 42 42 
329 889 172 48 45 44 
329 889 173 46 43 42 
328 888 175 45 41 42 
328 889 174 46 42 42 
328 889 175 43 40 40 
329 888 174 45 42 41 
329 888 175 45 42 42 
329 889 174 45 42 42 
328 890 172 49 45 44 
328 890 173 47 44 44 
328 891 172 49 44 44 
328 891 173 48 44 44 
328 890 174 46 42 43 
328 890 175 44 40 41 
328 891 174 46 43 43 
328 891 175 45 41 42 
328 892 169 50 44 44 
328 893 169 50 46 44 
329 892 168 52 47 45 
329 892 169 50 45 43 
329 893 168 53 48 46 
329 893 169 49 44 43 
328 892 170 49 44 45 
328 892 171 49 44 45 
328 893 170 50 45 45 
328 893 171 49 45 46 
328 894 168 56 50 50 
328 894 169 53 48 48 
328 895 168 58 52 52 
328 895 169 56 51 51 
329 894 168 56 50 50 
328 894 170 51 47 47 
328 894 171 50 46 46 
328 895 170 53 49 49 
328 895 171 51 48 48 
328 892 172 49 44 45 
328 892 173 48 45 45 
328 893 172 49 45 46 
328 893 173 48 45 45 
328 892 174 47 43 44 
328 892 175 46 42 43 
328 893 174 47 44 45 
328 894 172 50 45 46 
328 894 173 50 45 46 
328 895 172 50 46 46 
330 883 176 38 34 35 
331 882 176 37 35 35 
331 882 177 36 33 33 
331 883 176 38 34 35 
331 883 177 36 33 34 
329 885 176 39 36 38 
329 886 176 42 39 40 
329 887 176 45 42 42 
330 884 176 38 35 36 
330 885 176 38 35 37 
332 880 176 36 33 35 
332 881 176 37 33 35 
332 881 177 35 31 33 
333 880 176 36 33 35 
333 880 177 37 33 35 
333 881 177 35 31 33 
332 881 178 36 33 34 
333 881 178 35 31 33 
333 881 179 35 31 33 
332 882 176 37 34 35 
332 882 177 35 31 33 
332 882 178 35 32 33 
333 882 179 35 31 32 
334 880 177 35 32 34 
334 880 178 35 31 33 
334 881 178 36 31 34 
334 881 179 36 31 34 
335 880 178 35 31 33 
335 880 179 37 32 35 
335 881 179 37 32 35 
334 882 179 36 31 33 
335 881 180 39 33 37 
335 881 181 41 36 38 
334 882 180 36 32 35 
335 882 180 38 33 36 
335 882 181 40 36 38 
337 867 160 48 41 41 
337 867 161 48 41 40 
337 866 162 50 43 43 
337 866 163 49 43 42 
337 867 162 48 41 40 
337 867 163 48 42 41 
338 865 160 52 44 44 
338 865 161 51 44 43 
339 864 160 53 46 43 
339 864 161 51 44 42 
339 865 160 52 44 43 
339 865 161 51 45 43 
338 864 163 46 41 40 
338 865 162 49 43 42 
338 865 163 49 42 41 
339 864 162 49 42 41 
339 864 163 47 42 42 
338 866 160 49 42 42 
338 866 161 48 42 41 
338 867 160 49 42 42 
338 867 161 49 41 41 
338 866 162 49 42 41 
338 866 163 49 42 40 
337 864 167 45 37 36 
337 865 166 47 39 40 
337 865 167 58 45 45 
336 867 164 47 41 40 
336 867 165 45 40 40 
337 866 164 48 42 41 
337 866 165 46 40 40 
337 867 164 46 41 40 
337 867 165 45 40 40 
336 866 167 44 37 37 
336 867 166 58 46 45 
336 867 167 44 37 38 
337 866 166 55 45 43 
337 866 167 55 44 43 
338 864 164 45 41 40 
338 864 165 43 39 39 
338 865 164 47 41 39 
338 865 165 46 41 40 
339 864 164 45 40 40 
339 864 165 45 40 39 
338 864 166 43 37 38 
338 864 167 44 38 39 
338 865 166 47 40 40 
338 865 167 47 38 40 
339 864 166 44 39 39 
338 866 164 47 41 39 
338 866 165 45 39 39 
336 869 160 47 41 40 
336 869 161 46 40 40 
337 868 160 49 42 41 
337 868 161 48 42 41 
337 869 160 47 41 40 
337 869 161 47 40 40 
336 868 163 45 39 38 
336 869 162 46 40 40 
336 869 163 44 39 38 
337 868 162 46 40 39 
337 868 163 46 41 39 
336 870 160 46 40 39 
336 870 161 45 40 39 
336 871 160 47 41 41 
336 871 161 46 40 40 
336 870 162 45 40 39 
336 870 163 44 39 38 
336 871 162 44 39 39 
336 868 164 45 40 39 
336 868 165 44 39 39 
336 869 164 44 39 38 
336 869 165 43 38 38 
336 868 166 44 38 38 
336 870 164 43 38 38 
340 864 160 55 48 44 
336 864 169 42 36 35 
336 865 168 43 36 37 
336 865 169 41 36 36 
337 864 168 45 37 37 
337 864 169 44 37 36 
337 865 168 45 36 39 
336 864 170 42 37 37 
336 864 171 41 36 37 
336 865 170 40 36 36 
336 865 171 40 36 37 
337 865 170 41 36 37 
336 866 168 43 36 37 
336 866 169 40 35 36 
336 867 168 42 36 37 
336 867 169 41 35 36 
336 866 170 39 35 36 
336 866 171 41 35 38 
336 867 170 39 35 36 
337 866 170 39 34 35 
338 864 168 44 38 37 
336 864 172 40 35 37 
336 864 173 41 34 37 
336 865 172 40 35 37 
336 865 173 39 34 36 
336 864 174 42 35 38 
336 864 175 41 36 37 
336 865 174 42 37 40 
336 865 175 42 38 39 
337 864 175 41 37 39 
337 865 175 39 36 37 
336 866 172 41 36 39 
336 866 173 40 35 37 
336 867 172 41 35 36 
336 867 173 40 36 37 
336 866 175 41 37 39 
336 867 174 41 37 38 
336 867 175 42 38 39 
337 867 174 41 36 37 
337 867 175 43 39 40 
336 868 171 38 32 33 
336 869 170 40 34 35 
336 869 171 39 33 34 
337 868 171 37 31 32 
337 869 171 37 31 32 
336 870 170 39 33 35 
336 870 171 37 32 33 
336 871 171 39 34 36 
337 870 171 36 32 33 
336 868 172 38 33 35 
337 868 172 37 32 34 
337 868 173 40 36 37 
337 869 172 38 33 35 
337 869 173 40 35 36 
336 868 174 41 36 37 
336 868 175 43 37 38 
336 869 174 40 35 36 
336 869 175 41 35 37 
337 868 174 40 36 37 
336 870 172 38 33 35 
336 870 173 38 33 35 
336 871 172 41 35 38 
336 871 173 38 34 36 
337 870 172 37 32 34 
337 870 173 38 34 35 
336 870 174 39 35 36 
336 870 175 41 36 38 
336 871 174 39 35 36 
336 871 175 39 35 36 
336 872 173 38 34 36 
336 872 174 39 36 37 
336 872 175 39 35 37 
336 865 176 41 37 38 
337 864 176 44 39 42 
337 864 177 45 40 41 
337 865 176 41 37 38 
337 865 177 44 40 40 
336 865 179 48 44 45 
337 864 178 47 43 43 
337 864 179 49 45 46 
337 865 178 47 43 42 
337 865 179 48 44 44 
336 866 176 41 38 37 
336 866 177 43 39 39 
336 867 176 42 38 38 
336 867 177 43 39 39 
336 866 178 45 41 42 
336 866 179 49 44 45 
336 867 178 45 41 42 
336 867 179 46 42 44 
337 866 178 46 43 43 
337 866 179 47 43 44 
337 867 179 45 41 43 
338 864 178 47 43 42 
338 864 179 49 45 45 
336 864 180 52 47 48 
336 864 181 51 46 47 
336 865 180 49 44 45 
336 865 181 49 43 45 
337 864 180 50 46 47 
337 865 180 50 46 47 
336 865 182 47 42 44 
336 866 180 49 44 46 
336 866 181 48 43 44 
336 867 180 47 43 45 
336 867 181 47 43 44 
336 867 182 45 41 43 
336 868 176 43 37 39 
336 868 177 42 37 38 
336 869 176 41 35 38 
337 868 177 42 37 38 
337 869 176 41 35 38 
337 869 177 41 36 38 
336 868 178 45 41 42 
336 868 179 46 43 44 
336 869 178 43 39 40 
337 868 178 44 41 41 
337 868 179 45 41 42 
337 869 178 43 39 40 
337 869 179 44 40 41 
336 870 176 40 34 38 
336 870 177 40 35 37 
336 871 176 40 34 38 
336 871 177 40 35 37 
337 870 177 41 36 38 
336 870 178 40 36 37 
336 871 178 41 36 37 
336 871 179 43 38 39 
337 870 178 41 37 38 
337 870 179 42 38 39 
337 871 179 42 37 39 
336 868 180 47 43 45 
336 868 181 48 43 45 
336 869 180 48 45 46 
336 869 181 48 45 46 
337 869 180 46 42 43 
336 868 182 45 40 43 
336 869 182 46 42 43 
336 870 180 47 44 44 
336 870 181 48 45 45 
336 871 180 43 40 40 
336 871 181 46 42 42 
337 870 180 44 40 41 
337 871 180 43 39 40 
336 870 182 45 41 42 
336 871 182 44 41 42 
336 872 176 39 35 38 
336 872 177 40 35 38 
336 873 176 39 35 38 
336 873 177 41 35 39 
336 872 178 41 35 37 
336 872 179 42 37 39 
336 873 178 41 35 38 
336 873 179 42 37 38 
336 874 178 41 36 37 
336 874 179 40 37 37 
336 875 178 38 34 35 
336 875 179 40 37 37 
336 872 180 44 40 41 
336 872 181 45 42 43 
336 873 180 43 39 40 
336 873 181 45 42 42 
336 872 182 45 42 43 
336 873 182 45 42 43 
336 874 180 42 38 39 
336 874 181 44 41 42 
336 875 180 42 38 38 
336 875 181 45 41 42 
337 875 180 43 39 40 
337 875 181 44 41 42 
336 874 182 45 41 43 
336 875 182 46 43 43 
337 874 182 45 42 43 
337 875 182 45 43 43 
336 876 178 38 34 35 
336 876 179 41 36 37 
336 877 178 38 33 34 
336 877 179 38 33 35 
337 876 179 42 37 38 
337 877 179 40 35 36 
336 878 178 37 34 35 
336 878 179 37 33 34 
336 879 178 36 32 34 
336 879 179 36 32 34 
337 878 179 40 36 37 
337 879 178 37 32 34 
337 879 179 39 34 36 
337 876 180 42 38 39 
337 876 181 44 40 42 
337 877 180 43 39 39 
337 876 182 46 42 44 
337 879 180 44 39 41 
337 879 182 46 41 43 
338 876 181 45 40 42 
338 877 180 44 40 41 
338 877 181 44 41 43 
338 876 182 47 43 45 
338 877 182 47 44 46 
338 878 180 44 40 41 
338 878 181 45 41 43 
338 879 180 44 39 41 
338 879 181 45 41 43 
338 878 182 46 43 45 
338 879 182 46 41 43 
336 880 179 37 32 35 
337 880 179 40 34 37 
336 880 180 40 34 37 
336 881 180 40 35 38 
336 881 181 42 39 40 
337 880 180 43 37 39 
337 880 181 46 42 43 
337 881 181 44 41 42 
336 881 182 45 43 44 
337 880 182 47 43 44 
338 880 180 44 40 42 
338 880 181 45 41 43 
358 832 135 82 63 54 
358 833 135 84 66 57 
358 834 135 87 69 60 
358 835 135 88 70 61 
358 836 135 88 70 62 
354 832 139 80 65 57 
354 833 139 81 66 58 
355 832 138 82 65 57 
355 832 139 82 66 58 
355 833 138 80 64 56 
355 833 139 80 65 57 
355 834 138 78 63 55 
355 834 139 80 64 57 
355 835 138 78 62 54 
355 835 139 77 62 55 
353 832 141 72 59 54 
353 833 141 75 62 57 
352 832 142 68 56 52 
352 832 143 65 53 50 
352 833 142 68 57 53 
352 833 143 67 55 52 
353 832 142 68 57 53 
353 833 142 71 59 55 
353 834 141 78 65 59 
353 835 141 80 66 61 
352 834 143 70 58 55 
352 835 143 73 61 57 
353 834 142 74 62 58 
353 835 142 78 65 60 
353 835 143 74 62 58 
354 832 140 76 62 55 
354 833 140 79 64 57 
354 834 140 80 65 59 
354 834 141 80 66 60 
354 835 140 79 65 59 
354 835 141 80 66 61 
355 835 140 77 62 56 
355 836 139 75 60 53 
353 836 142 80 67 62 
353 836 143 76 64 59 
353 837 143 76 64 60 
353 838 143 77 65 62 
354 836 141 79 65 59 
354 837 141 77 64 59 
355 836 140 74 59 53 
355 836 141 75 62 55 
355 837 140 74 60 54 
355 837 141 74 61 56 
354 836 142 80 67 62 
354 837 142 79 65 61 
354 837 143 79 66 62 
355 838 141 75 61 56 
354 838 142 77 64 60 
354 838 143 77 65 61 
354 839 143 75 63 59 
355 838 142 74 61 57 
355 839 142 73 59 54 
355 839 143 74 60 57 
356 832 137 82 64 56 
356 833 137 79 61 52 
357 832 136 80 61 52 
357 832 137 81 63 54 
357 833 136 79 61 50 
357 833 137 79 61 51 
356 832 138 81 64 55 
356 833 138 78 61 53 
356 834 137 80 63 53 
356 835 137 81 64 55 
357 834 136 84 66 56 
357 834 137 81 63 54 
357 835 136 85 68 60 
357 835 137 83 66 57 
356 834 138 77 61 53 
356 835 138 78 62 54 
358 832 136 80 62 51 
358 833 136 83 65 55 
358 835 136 86 70 61 
357 836 136 85 69 62 
357 836 137 84 68 61 
357 837 137 84 68 61 
356 836 138 81 65 57 
356 836 139 76 61 53 
356 837 139 77 62 55 
357 836 138 82 65 57 
357 837 138 83 67 60 
357 837 139 81 66 59 
356 838 139 80 66 60 
357 838 138 83 68 62 
357 838 139 82 68 61 
357 839 139 81 68 61 
358 836 136 86 70 62 
356 837 140 76 62 55 
356 838 140 78 64 59 
356 838 141 75 62 56 
356 839 141 76 63 58 
357 838 140 80 67 61 
357 839 140 79 66 60 
356 839 142 74 61 55 
355 840 142 72 59 54 
355 840 143 73 61 56 
355 841 143 70 58 52 
355 842 143 68 56 50 
355 843 143 67 54 50 
356 840 141 75 61 55 
356 841 141 76 62 56 
356 840 142 73 59 54 
356 841 142 73 60 54 
356 841 143 70 58 52 
356 842 142 73 60 55 
356 842 143 71 58 53 
356 843 142 74 61 58 
356 843 143 72 59 56 
356 844 142 76 63 59 
356 844 143 73 60 57 
352 832 144 65 54 52 
352 833 144 65 53 52 
352 834 144 67 55 53 
352 834 145 64 53 51 
352 835 144 70 58 55 
352 835 145 64 53 50 
352 836 144 71 60 56 
352 836 145 66 56 52 
352 837 144 70 59 55 
352 837 145 69 59 54 
353 836 144 72 61 57 
353 837 144 72 61 56 
352 837 146 66 57 53 
352 838 145 67 57 51 
352 839 145 67 57 53 
353 838 144 72 61 57 
353 838 145 68 57 53 
353 839 144 74 63 59 
353 839 145 69 59 56 
352 838 146 67 57 52 
352 838 147 65 57 52 
352 839 146 68 58 54 
352 839 147 66 57 53 
354 839 144 75 63 60 
353 840 145 70 61 56 
353 841 145 72 61 57 
352 840 146 68 58 54 
352 840 147 68 59 54 
352 841 147 69 59 55 
353 840 146 68 58 54 
353 841 146 69 59 55 
352 842 147 68 58 54 
352 843 147 66 56 51 
353 842 146 70 60 55 
353 842 147 68 58 53 
353 843 146 70 59 55 
353 843 147 67 57 52 
354 840 144 73 62 58 
354 840 145 72 61 57 
354 841 144 70 60 54 
354 841 145 71 60 55 
355 840 144 73 62 57 
355 841 144 70 58 52 
354 842 145 71 61 56 
354 843 145 69 58 53 
355 842 144 68 57 51 
355 843 144 68 56 52 
352 840 148 66 57 53 
352 841 148 67 58 53 
352 842 148 67 57 52 
352 843 148 67 57 52 
352 844 147 66 57 53 
353 844 146 67 57 54 
353 844 147 66 56 53 
353 845 146 65 55 53 
353 845 147 66 56 54 
353 846 146 64 54 53 
353 846 147 64 54 52 
353 847 147 63 52 50 
354 844 145 67 56 52 
354 845 145 65 55 52 
355 844 144 69 57 54 
355 845 144 69 57 54 
355 845 145 67 56 53 
354 844 146 65 55 52 
354 845 146 65 54 52 
354 846 145 65 55 52 
354 847 145 65 54 52 
355 846 144 68 56 53 
355 846 145 67 56 53 
355 847 144 65 53 50 
355 847 145 65 55 52 
354 846 146 65 54 53 
354 847 146 64 53 51 
352 844 148 66 57 51 
352 845 148 66 56 52 
352 846 148 66 56 53 
352 847 148 63 54 51 
352 847 149 63 54 51 
353 847 148 62 52 50 
352 859 143 58 52 52 
353 858 143 60 53 52 
353 859 142 59 52 51 
353 859 143 57 51 51 
354 856 143 62 54 50 
354 857 143 61 54 50 
354 858 142 61 54 51 
354 858 143 60 53 50 
354 859 142 61 54 50 
352 860 142 59 52 52 
352 860 143 59 53 52 
352 861 142 62 55 52 
352 861 143 61 53 51 
353 860 142 60 53 53 
353 861 142 62 55 52 
353 862 141 65 56 51 
353 863 141 68 57 52 
352 862 142 64 56 52 
352 862 143 62 54 52 
352 863 142 65 54 51 
353 862 142 63 55 51 
354 860 141 64 56 51 
354 861 141 65 56 53 
354 860 142 62 53 50 
354 862 141 67 59 54 
354 863 140 70 60 54 
353 848 147 64 52 51 
353 849 147 64 53 51 
353 850 147 61 51 50 
353 851 147 58 50 50 
355 848 144 65 53 50 
355 848 145 63 51 49 
355 849 145 61 50 46 
354 848 146 62 51 50 
354 848 147 65 54 53 
354 849 146 62 51 49 
354 849 147 63 52 51 
354 850 146 59 48 47 
354 850 147 58 48 47 
354 851 146 57 46 46 
352 848 148 62 51 49 
352 848 149 61 52 49 
352 849 148 61 51 50 
352 849 149 61 51 49 
353 848 148 60 49 48 
353 849 148 62 52 50 
352 849 150 60 50 48 
352 850 148 61 52 50 
352 850 149 61 51 50 
352 851 148 61 52 52 
352 851 149 60 50 49 
353 850 148 62 52 50 
353 851 148 61 52 52 
352 850 150 60 49 48 
352 851 150 62 49 49 
352 853 147 57 48 47 
353 852 147 59 50 50 
353 853 146 58 48 48 
353 853 147 57 48 47 
353 854 145 60 51 52 
353 855 145 59 50 50 
352 854 146 58 48 48 
352 854 147 59 48 47 
352 855 146 58 49 50 
352 855 147 57 48 48 
353 854 146 59 49 50 
353 855 146 59 50 51 
354 853 145 62 52 52 
354 852 146 59 49 49 
354 853 146 60 51 50 
354 854 145 60 51 51 
354 855 144 60 51 49 
354 855 145 60 51 49 
352 852 148 60 51 50 
352 852 149 60 49 50 
352 853 148 59 50 49 
352 853 149 61 50 50 
353 852 148 59 51 51 
352 854 148 59 49 49 
352 855 148 56 47 47 
352 857 145 56 48 49 
353 856 144 57 50 50 
353 856 145 58 49 50 
353 857 144 57 51 51 
353 857 145 56 49 49 
352 856 146 59 49 51 
352 856 147 56 48 50 
352 857 146 58 49 52 
352 858 144 58 52 54 
352 858 145 56 48 50 
352 859 144 58 51 53 
352 859 145 56 49 51 
353 858 144 57 51 52 
353 859 144 58 51 52 
352 858 146 55 47 49 
352 859 146 56 48 50 
354 856 144 60 52 50 
352 860 144 60 54 54 
352 860 145 58 51 52 
353 871 133 96 78 62 
353 866 139 70 61 59 
353 867 139 66 58 56 
352 864 141 68 57 54 
352 865 141 69 59 55 
353 864 140 70 59 54 
353 864 141 70 58 52 
353 865 140 73 62 57 
352 864 142 66 54 53 
352 866 141 67 57 54 
352 867 140 66 57 54 
352 867 141 66 57 54 
353 866 140 73 63 60 
353 867 140 69 60 56 
352 868 139 63 52 50 
352 869 139 61 50 52 
353 868 139 62 53 50 
353 869 138 63 54 54 
353 869 139 61 52 52 
353 871 137 81 65 56 
352 870 138 68 56 56 
352 870 139 63 53 53 
352 871 138 71 58 54 
353 870 138 70 58 57 
353 871 138 71 57 52 
352 868 140 63 53 51 
352 869 140 61 52 50 
353 872 133 98 81 65 
353 873 133 113 92 71 
353 872 134 101 83 64 
353 874 133 112 89 71 
353 874 134 114 90 70 
353 875 134 112 88 68 
354 872 133 102 82 65 
352 877 135 127 100 89 
353 876 135 125 101 85 
353 877 135 125 100 87 
352 879 133 120 97 86 
353 879 132 121 99 85 
353 879 133 124 100 88 
352 878 134 121 97 85 
352 878 135 126 100 88 
352 879 134 121 98 87 
353 878 134 121 97 83 
352 872 137 93 78 69 
352 873 137 100 80 67 
353 872 137 95 78 67 
353 873 137 107 86 69 
352 872 138 85 69 63 
352 873 138 94 78 71 
352 874 137 107 86 67 
352 875 137 113 91 75 
353 874 136 114 88 72 
353 874 137 111 87 69 
353 875 136 116 94 77 
352 876 136 124 102 88 
352 876 137 123 103 87 
352 877 136 129 104 89 
353 876 136 121 98 81 
352 881 131 119 100 91 
353 880 131 115 94 83 
353 881 130 108 86 77 
353 881 131 116 95 87 
352 883 129 106 90 80 
353 882 129 103 86 75 
353 883 128 104 89 80 
353 883 129 106 89 80 
352 882 130 110 92 85 
352 882 131 113 96 87 
352 883 130 103 87 79 
353 882 130 115 95 89 
352 880 132 122 103 94 
352 880 133 119 96 86 
353 880 132 116 95 82 
352 884 129 103 89 81 
352 885 129 101 88 81 
353 884 128 105 90 82 
353 885 128 102 87 81 
352 884 130 100 86 78 
352 886 128 96 79 76 
352 886 129 96 82 78 
352 887 129 89 77 78 
353 886 128 93 75 71 
352 887 130 84 73 68 
352 888 128 89 79 79 
352 889 129 86 74 71 
352 888 130 83 72 68 
352 889 131 84 70 68 
352 889 132 80 64 64 
331 896 157 90 79 75 
331 897 157 94 79 76 
330 896 159 86 76 71 
330 897 159 90 77 73 
331 896 158 89 78 73 
331 896 159 86 76 71 
331 897 158 95 79 77 
331 898 156 87 71 69 
331 898 157 93 76 73 
331 899 156 83 69 66 
331 899 157 86 73 69 
330 898 158 97 82 76 
330 898 159 93 80 75 
330 899 158 94 81 76 
330 899 159 92 81 75 
331 898 158 97 80 77 
331 899 158 90 78 72 
331 900 156 84 70 68 
331 900 157 87 73 69 
331 901 156 84 71 69 
331 901 157 85 71 68 
330 900 158 89 76 72 
330 900 159 92 80 76 
330 901 158 88 76 72 
330 901 159 90 77 73 
331 902 157 84 70 68 
331 903 157 86 73 71 
330 902 158 84 71 68 
330 902 159 85 73 69 
330 903 158 84 70 68 
330 903 159 86 72 70 
331 902 158 85 71 68 
331 903 158 87 74 72 
331 903 159 86 72 71 
333 896 153 86 71 69 
333 897 153 85 70 67 
332 896 154 88 75 72 
332 896 155 89 76 73 
332 897 154 87 73 70 
332 897 155 89 75 72 
333 896 154 86 72 70 
333 897 154 86 71 69 
332 898 154 84 70 68 
332 898 155 85 71 69 
332 899 154 82 68 67 
332 899 155 82 68 67 
333 898 154 84 69 66 
333 899 154 83 68 66 
334 896 153 85 69 66 
334 897 153 85 69 65 
335 896 153 87 70 66 
335 897 153 88 73 69 
334 898 153 87 72 68 
335 898 153 90 76 72 
334 898 154 86 71 66 
334 899 154 91 75 72 
335 899 154 87 72 69 
332 896 156 90 78 74 
332 896 157 91 80 77 
332 897 156 91 77 74 
332 898 156 88 73 71 
332 899 156 82 69 66 
332 900 155 82 68 68 
332 901 155 84 71 69 
333 900 154 85 70 68 
333 900 155 84 71 69 
333 901 155 87 74 70 
334 900 154 89 74 70 
334 900 155 89 74 71 
334 901 155 88 73 69 
335 900 154 86 71 68 
335 900 155 87 73 68 
335 901 155 84 71 67 
334 902 155 87 73 69 
332 900 156 82 69 68 
332 901 156 84 72 69 
332 901 157 84 69 67 
332 902 156 86 73 69 
332 902 157 87 74 70 
332 903 157 89 77 73 
333 902 156 89 75 71 
333 902 157 89 77 71 
333 903 156 88 75 69 
333 903 157 88 76 71 
332 903 158 89 77 74 
335 901 156 79 66 64 
334 902 156 84 70 65 
334 903 156 85 71 66 
334 903 157 82 69 64 
335 902 156 78 64 61 
335 903 156 78 65 61 
335 903 157 78 65 64 
335 903 158 74 61 60 
330 904 159 86 73 71 
331 904 158 89 76 74 
331 904 159 88 75 73 
331 905 159 89 77 75 
330 909 159 87 75 73 
331 909 159 85 70 70 
330 910 159 87 75 73 
330 911 159 85 71 70 
331 910 159 84 69 69 
331 911 159 82 68 67 
332 904 158 89 76 73 
332 904 159 89 76 73 
332 905 159 88 76 73 
333 904 158 84 71 66 
333 905 159 82 70 65 
332 906 159 89 76 73 
333 906 159 84 71 68 
334 904 158 80 67 63 
334 905 158 80 68 64 
334 905 159 80 68 64 
335 904 158 75 63 63 
335 905 158 78 67 62 
335 905 159 82 69 69 
334 906 159 78 66 61 
332 910 159 81 68 65 
332 911 159 79 66 63 
331 912 159 81 67 65 
336 896 153 84 70 65 
336 897 153 85 70 66 
337 896 153 77 64 59 
336 897 154 83 69 65 
337 896 154 79 66 61 
337 897 154 80 67 63 
336 898 153 85 72 68 
336 898 154 82 69 65 
336 899 154 78 63 63 
337 898 154 79 66 63 
337 898 155 77 64 61 
337 899 154 77 62 61 
337 899 155 77 63 61 
338 896 153 74 60 55 
338 896 154 74 61 58 
338 897 154 80 68 64 
338 897 155 78 66 63 
339 896 155 74 63 62 
339 897 155 79 67 64 
338 898 155 78 65 61 
338 899 155 74 61 58 
339 896 156 84 72 73 
339 897 156 77 65 64 
339 897 157 81 70 69 
338 898 156 76 62 60 
338 899 156 74 60 59 
338 899 157 76 63 65 
339 898 156 76 62 63 
339 898 157 82 69 69 
339 899 157 79 68 70 
339 898 158 89 78 77 
339 899 158 85 74 75 
339 899 159 88 76 76 
336 900 155 80 66 66 
336 901 155 81 67 68 
337 900 155 76 62 62 
336 901 156 77 65 65 
337 900 156 73 61 60 
337 901 156 71 59 58 
336 902 156 72 59 59 
336 903 156 73 60 59 
336 903 157 75 63 61 
337 902 156 72 60 59 
337 903 157 78 66 67 
336 903 158 79 66 68 
337 903 158 91 80 79 
337 903 159 107 99 99 
338 900 156 76 63 64 
338 900 157 80 68 74 
338 901 156 70 59 58 
338 901 157 80 69 71 
338 900 158 84 73 80 
338 901 158 90 79 84 
339 900 158 83 74 77 
339 900 159 87 77 78 
339 901 158 85 76 78 
339 901 159 85 76 77 
338 902 156 70 59 58 
338 902 157 76 66 65 
338 902 158 93 81 87 
338 902 159 93 85 87 
338 903 158 97 86 90 
338 903 159 99 90 91 
339 902 158 88 79 83 
339 902 159 89 82 82 
340 896 156 86 75 74 
340 896 157 85 74 72 
340 897 157 85 73 70 
341 896 157 86 76 73 
340 896 158 86 76 74 
340 897 158 87 76 74 
340 897 159 87 77 76 
341 896 158 85 75 73 
341 896 159 85 75 73 
341 897 159 87 76 75 
340 898 158 88 77 75 
340 898 159 92 81 79 
340 899 159 92 81 79 
342 896 158 85 74 72 
342 896 159 86 75 72 
343 896 158 86 75 72 
343 896 159 83 73 71 
336 904 158 83 70 70 
336 904 159 95 84 83 
336 905 159 97 84 83 
337 904 159 108 100 99 
344 896 158 84 73 70 
344 896 159 83 73 71 
345 896 158 83 72 69 
345 896 159 82 71 69 
346 896 158 82 72 68 
346 896 159 80 72 69 
347 896 159 80 71 68 
327 900 167 64 58 56 
327 901 166 72 66 63 
327 901 167 70 64 61 
327 903 165 67 59 55 
327 902 166 71 64 61 
327 902 167 74 68 65 
327 903 166 68 61 58 
327 903 167 74 68 65 
327 896 171 53 50 49 
327 897 170 55 51 50 
327 897 171 54 51 50 
327 898 169 53 48 48 
327 899 168 56 50 49 
327 899 169 54 48 47 
327 898 170 54 49 49 
327 898 171 55 50 50 
327 899 170 53 48 47 
327 899 171 54 49 49 
327 896 172 51 48 47 
327 896 173 51 47 46 
327 897 172 53 49 49 
327 897 173 53 49 48 
327 896 174 50 45 45 
327 897 174 51 46 46 
326 899 173 54 50 50 
327 898 172 55 50 50 
327 898 173 54 50 50 
327 899 172 54 50 50 
327 899 173 54 50 50 
327 898 174 52 48 48 
327 900 168 60 54 52 
327 900 169 56 50 49 
327 901 168 65 58 57 
327 901 169 60 54 52 
326 901 170 56 51 51 
326 901 171 53 48 49 
327 900 170 53 48 47 
327 900 171 54 48 49 
327 901 170 56 51 50 
327 901 171 54 48 49 
326 902 169 64 58 56 
326 903 169 69 63 60 
327 902 168 71 64 62 
327 902 169 65 59 57 
327 903 168 74 68 65 
327 903 169 70 64 61 
326 902 170 61 55 54 
326 902 171 58 54 54 
326 903 170 66 60 57 
326 903 171 62 58 56 
326 900 172 52 48 48 
326 900 173 53 48 48 
326 901 172 52 47 49 
326 901 173 53 48 49 
327 900 172 54 49 49 
326 902 172 57 53 54 
326 902 173 55 51 51 
326 903 172 61 57 56 
326 903 173 59 54 54 
327 905 163 96 83 81 
327 906 163 95 83 82 
327 907 163 92 82 79 
327 904 164 79 70 66 
327 904 165 73 65 62 
327 905 164 89 78 74 
327 905 165 81 72 69 
326 904 167 70 65 63 
326 905 166 68 59 59 
326 905 167 67 60 60 
327 904 166 66 59 57 
327 904 167 70 64 62 
327 905 166 69 62 60 
326 907 165 89 80 76 
327 906 164 95 85 81 
327 906 165 85 77 73 
327 907 164 94 84 81 
327 907 165 91 82 78 
326 906 166 70 62 60 
326 906 167 66 57 58 
326 907 166 78 70 65 
326 907 167 67 59 56 
327 906 166 71 64 61 
327 908 162 85 72 70 
327 908 163 88 77 75 
327 909 162 87 75 73 
327 909 163 87 76 75 
327 910 162 90 78 76 
327 910 163 89 78 77 
327 911 163 91 80 78 
325 911 167 99 89 86 
326 908 165 93 83 78 
326 909 165 95 84 81 
327 908 164 91 81 78 
327 908 165 93 83 79 
327 909 164 89 79 77 
327 909 165 93 83 79 
326 908 166 87 77 73 
326 908 167 75 67 63 
326 909 166 94 84 80 
326 909 167 87 78 74 
326 910 165 95 85 81 
326 911 165 93 83 80 
327 910 164 91 80 77 
327 910 165 94 83 80 
327 911 164 90 79 77 
327 911 165 90 80 78 
326 910 166 97 87 83 
326 910 167 95 85 82 
326 911 166 96 86 83 
326 911 167 97 88 85 
325 905 171 71 65 61 
325 907 169 75 68 65 
325 906 170 77 70 67 
325 906 171 75 68 64 
325 907 170 77 70 67 
325 907 171 77 69 66 
326 904 168 75 69 66 
326 904 169 74 68 65 
326 905 168 73 67 65 
326 905 169 77 70 67 
327 904 168 75 69 67 
326 904 170 70 64 60 
326 904 171 66 60 58 
326 905 170 74 67 64 
326 905 171 71 65 61 
326 906 168 70 63 59 
326 906 169 76 69 66 
326 907 168 66 58 55 
326 907 169 72 65 62 
326 906 170 76 70 66 
325 905 172 66 60 56 
325 906 172 71 64 61 
325 907 172 74 67 64 
326 904 172 63 58 56 
325 908 168 67 60 58 
325 908 169 69 62 58 
325 909 168 75 68 66 
325 909 169 67 60 58 
325 908 170 75 68 65 
325 908 171 76 69 66 
325 909 170 70 64 61 
325 909 171 73 67 63 
325 910 168 85 77 75 
325 910 169 71 64 62 
325 911 168 94 85 83 
325 911 169 83 75 72 
324 910 171 70 64 62 
324 911 170 74 67 65 
324 911 171 68 62 61 
325 910 170 66 60 58 
325 910 171 71 65 62 
325 911 170 68 61 59 
326 908 168 67 60 56 
325 908 172 75 68 65 
325 909 172 75 68 65 
329 896 162 69 60 58 
329 896 163 66 57 57 
329 897 162 74 65 61 
329 897 163 68 59 57 
329 898 161 86 73 69 
329 899 161 88 76 72 
329 898 162 79 70 65 
329 898 163 69 62 58 
329 899 162 81 72 67 
329 899 163 72 65 62 
330 896 160 84 75 71 
330 896 161 77 68 64 
330 897 160 87 77 73 
330 897 161 83 73 69 
330 896 162 71 63 59 
330 898 160 88 77 73 
330 898 161 88 75 72 
330 899 160 92 80 75 
328 897 165 64 58 56 
329 896 164 64 58 56 
329 896 165 62 56 54 
329 897 164 65 58 56 
329 897 165 63 57 55 
328 896 166 58 52 50 
328 896 167 57 52 51 
328 897 166 58 52 50 
328 897 167 55 49 48 
329 896 166 59 53 51 
329 897 166 60 54 52 
328 898 164 67 60 58 
328 898 165 67 60 59 
328 899 164 68 62 59 
328 899 165 68 61 59 
329 898 164 66 60 57 
329 899 164 68 62 59 
328 898 166 62 56 54 
328 898 167 56 50 48 
328 899 166 66 60 58 
328 899 167 61 55 53 
329 900 160 92 82 78 
