ply
format ascii 1.0
comment Created by CloudCompare v2.10.1 (Zephyrus)
comment Created 1/30/20 11:42 AM
obj_info Generated by CloudCompare!
element vertex 2148
property float x
property float y
property float z
property uchar red
property uchar green
property uchar blue
end_header
262 66 291 116 13 39 
262 67 290 114 18 38 
262 67 291 115 18 40 
263 67 290 111 17 36 
263 67 291 113 16 40 
262 64 292 107 13 33 
262 64 293 108 13 35 
262 65 292 113 12 36 
263 64 293 111 10 37 
263 65 293 113 12 35 
263 64 294 109 12 37 
263 64 295 111 12 37 
263 65 294 113 10 37 
263 65 295 113 8 36 
262 66 292 115 10 38 
263 66 292 115 12 38 
263 66 293 115 10 36 
263 67 292 113 8 40 
263 67 293 113 7 40 
263 66 294 115 6 37 
263 67 294 113 8 41 
262 68 288 111 12 34 
262 68 289 112 16 33 
262 69 288 109 12 34 
262 69 289 110 11 34 
263 68 288 110 9 32 
263 68 289 110 13 31 
263 69 288 109 13 32 
263 69 289 109 12 33 
262 69 290 108 9 36 
263 68 290 109 16 34 
263 68 291 107 15 37 
263 69 290 107 11 35 
263 69 291 102 14 34 
262 70 288 109 16 38 
262 70 289 110 7 37 
262 71 288 110 18 43 
262 71 289 111 5 39 
262 70 290 108 5 39 
262 71 290 108 5 39 
262 71 291 104 11 39 
263 70 290 107 6 39 
263 70 291 102 16 38 
263 71 291 100 20 39 
263 68 292 103 14 33 
263 68 293 101 17 32 
263 69 292 94 29 26 
263 69 293 93 43 29 
263 68 294 105 15 36 
263 70 292 94 45 36 
263 70 293 97 69 51 
263 71 292 96 47 42 
263 71 293 100 79 59 
262 72 288 109 17 42 
262 72 289 110 5 38 
262 73 288 107 15 39 
262 73 289 109 7 36 
262 72 290 107 7 37 
262 72 291 102 8 36 
262 73 290 106 10 34 
262 73 291 102 6 35 
263 72 291 99 16 37 
262 74 288 105 19 38 
262 74 289 109 8 38 
262 75 288 104 26 35 
262 75 289 108 9 39 
262 74 290 107 7 37 
262 74 291 104 3 36 
262 75 290 107 10 38 
262 75 291 106 6 37 
263 74 291 101 7 32 
263 75 291 104 6 36 
263 72 292 95 39 38 
263 72 293 97 73 53 
263 73 292 93 32 33 
263 73 293 93 66 46 
263 72 294 103 86 65 
263 73 294 100 83 62 
263 74 292 94 25 28 
263 74 293 91 60 42 
263 75 292 96 22 29 
263 75 293 94 56 41 
263 74 294 97 78 59 
263 75 294 96 74 56 
262 76 288 105 32 32 
262 76 289 107 12 36 
263 76 289 108 14 37 
263 77 288 108 37 38 
263 77 289 108 15 37 
262 76 290 107 11 38 
263 76 290 107 10 38 
263 76 291 106 7 35 
263 77 290 108 12 39 
263 77 291 108 6 37 
263 78 288 108 26 36 
263 78 289 107 11 34 
263 79 288 107 16 32 
263 79 289 106 16 32 
263 78 290 107 8 38 
263 78 291 108 5 37 
263 79 290 106 8 35 
263 79 291 107 9 37 
263 76 292 100 20 32 
263 76 293 97 51 42 
263 77 292 104 18 36 
263 77 293 100 44 43 
263 76 294 96 68 52 
263 77 294 97 58 47 
263 78 292 107 9 38 
263 78 293 104 24 38 
263 79 292 110 7 41 
263 79 293 108 11 40 
263 78 294 99 38 38 
263 79 294 105 24 39 
264 64 295 112 8 37 
264 65 295 115 9 36 
264 66 295 117 10 40 
264 67 294 114 11 43 
264 67 295 115 13 45 
265 67 295 113 12 42 
264 68 294 100 24 32 
264 68 295 101 27 36 
264 69 294 96 51 35 
264 69 295 97 55 39 
265 68 295 101 32 37 
265 69 295 98 56 38 
264 70 294 103 81 59 
264 70 295 105 84 60 
264 71 294 108 91 70 
264 71 295 112 94 72 
265 70 295 107 83 61 
265 71 295 112 93 70 
264 64 296 115 14 40 
264 65 296 116 15 37 
265 64 296 117 16 41 
265 64 297 119 18 43 
265 65 296 119 15 41 
265 65 297 122 18 45 
265 66 296 121 13 45 
265 67 296 115 16 44 
266 64 297 120 17 44 
266 65 297 124 18 47 
266 64 298 122 18 46 
266 65 298 125 19 48 
267 64 299 123 17 47 
267 65 298 125 16 48 
267 65 299 125 19 48 
266 66 297 123 17 49 
266 67 296 109 20 40 
266 67 297 115 18 45 
266 66 298 124 21 50 
267 66 298 124 19 50 
267 66 299 125 19 48 
267 67 298 115 16 44 
265 68 296 100 30 33 
265 69 296 99 59 42 
265 70 296 107 83 62 
265 71 296 112 92 70 
266 68 296 98 30 30 
266 68 297 97 31 29 
266 69 296 98 61 44 
266 69 297 98 61 44 
267 68 298 97 32 31 
267 69 298 99 66 48 
266 70 296 107 84 63 
266 70 297 107 84 62 
266 71 296 112 92 70 
266 71 297 113 92 68 
267 70 297 106 83 61 
267 71 297 113 93 68 
267 70 298 107 85 62 
267 71 298 113 93 69 
268 64 299 123 18 48 
268 65 299 125 22 49 
268 66 299 125 22 49 
268 67 298 109 16 40 
268 67 299 115 21 45 
269 67 299 114 24 44 
268 64 300 121 16 46 
268 65 300 124 19 48 
269 64 300 121 14 45 
269 64 301 120 13 44 
269 65 300 124 17 47 
269 66 300 125 23 50 
269 67 300 114 26 45 
270 64 301 120 12 44 
270 65 301 124 17 47 
270 64 302 119 13 44 
271 64 302 120 15 46 
271 65 302 124 18 48 
270 66 300 124 18 49 
270 66 301 124 17 49 
270 67 300 113 25 45 
270 67 301 116 20 46 
271 66 301 124 18 51 
271 67 301 115 19 46 
271 66 302 124 18 49 
271 67 302 115 22 47 
268 68 298 96 34 31 
268 68 299 97 39 33 
268 69 298 99 69 49 
268 69 299 100 71 50 
269 68 299 97 44 35 
269 69 299 98 69 49 
268 70 298 107 86 62 
268 70 299 107 85 63 
268 71 298 113 93 69 
268 71 299 113 93 70 
269 70 299 107 86 65 
269 71 299 112 92 70 
269 68 300 99 38 34 
270 68 300 97 42 35 
270 68 301 99 42 38 
270 69 300 96 69 49 
270 69 301 94 61 43 
271 68 301 98 39 37 
271 69 301 94 64 46 
270 70 300 103 84 63 
270 71 300 109 91 69 
271 70 301 99 81 59 
271 71 301 106 89 68 
264 72 294 108 91 70 
264 72 295 112 94 72 
264 73 294 106 90 70 
264 73 295 110 91 71 
265 72 295 113 93 70 
265 73 295 111 92 70 
264 74 294 103 86 67 
264 74 295 108 90 70 
264 75 294 100 81 62 
264 75 295 104 87 67 
265 74 295 110 91 70 
265 75 295 110 91 69 
264 76 294 98 75 56 
264 76 295 102 84 63 
264 77 294 96 66 49 
264 77 295 100 80 59 
265 76 295 109 90 69 
265 77 295 108 89 68 
264 78 294 97 52 41 
264 78 295 99 71 52 
264 79 294 104 39 43 
264 79 295 103 59 48 
265 78 295 105 83 63 
265 79 295 102 72 53 
265 72 296 113 93 69 
265 73 296 112 92 69 
265 74 296 112 92 71 
265 75 296 113 93 71 
266 72 296 113 93 69 
266 72 297 115 94 70 
266 73 296 113 92 69 
266 73 297 115 94 71 
267 72 297 116 96 73 
267 73 297 116 96 73 
267 72 298 116 96 73 
267 73 298 116 96 73 
266 74 296 114 93 71 
266 74 297 114 93 70 
266 75 296 114 94 71 
266 75 297 114 93 69 
267 74 297 115 94 71 
267 74 298 115 94 70 
267 75 298 114 93 69 
265 76 296 112 92 70 
265 77 296 111 92 70 
265 78 296 109 89 68 
265 79 296 103 80 59 
266 76 296 114 94 71 
266 76 297 114 93 69 
266 77 296 114 94 72 
266 77 297 114 93 70 
267 76 298 113 92 69 
267 77 298 113 92 69 
266 78 296 112 92 71 
266 78 297 113 93 71 
266 79 297 110 91 70 
267 78 298 113 93 70 
267 79 298 112 93 71 
268 72 298 116 96 74 
268 72 299 116 96 74 
268 73 298 116 96 74 
268 73 299 116 96 74 
269 72 299 114 95 72 
269 73 299 114 94 72 
268 74 298 115 94 71 
268 74 299 115 94 72 
268 75 298 114 93 70 
268 75 299 114 93 71 
269 74 299 114 93 71 
269 75 299 112 92 70 
270 72 300 112 93 71 
270 73 300 112 92 70 
271 72 301 108 90 69 
271 73 301 109 90 68 
270 74 300 111 91 69 
270 75 300 110 91 69 
270 75 301 109 90 69 
271 74 301 108 89 68 
271 75 301 109 87 67 
268 76 298 113 92 69 
268 76 299 112 91 69 
268 77 298 112 92 69 
268 77 299 111 91 68 
269 76 299 110 91 68 
269 77 299 110 90 68 
268 78 298 111 91 69 
268 78 299 109 90 68 
268 79 298 110 91 70 
268 79 299 109 90 69 
269 78 299 108 89 68 
269 79 299 108 89 68 
269 77 300 109 90 68 
269 78 300 107 89 67 
269 79 300 108 89 68 
270 76 300 109 90 68 
270 76 301 109 89 68 
270 77 300 108 89 67 
270 77 301 109 88 67 
271 76 301 109 87 66 
271 77 301 109 84 63 
270 78 300 107 88 66 
270 78 301 109 85 64 
270 79 300 107 86 65 
270 79 301 108 80 60 
271 78 301 108 76 55 
271 79 301 108 64 49 
263 80 288 107 15 34 
263 80 289 107 14 33 
263 81 288 107 19 35 
263 81 289 107 19 37 
263 80 290 106 16 38 
263 80 291 107 13 40 
263 81 290 108 23 42 
263 81 291 107 17 42 
263 82 288 106 44 41 
263 82 289 107 49 47 
263 83 288 103 66 45 
263 83 289 103 69 44 
263 82 290 106 45 45 
263 82 291 104 29 41 
263 83 290 104 68 46 
263 83 291 101 51 35 
263 80 292 109 0 41 
263 80 293 110 9 43 
263 81 292 108 9 43 
263 81 293 110 9 42 
263 80 294 111 21 43 
263 81 294 112 13 43 
263 82 292 106 16 43 
263 82 293 107 17 43 
263 83 292 103 31 38 
263 83 293 104 19 38 
263 82 294 109 8 41 
263 84 288 104 79 51 
263 84 289 105 83 54 
263 84 290 108 85 56 
263 84 291 106 71 49 
263 84 292 101 44 36 
263 84 293 101 28 34 
264 80 294 111 30 47 
264 80 295 107 49 46 
264 81 294 113 11 44 
264 81 295 110 28 42 
264 83 293 104 17 38 
264 82 294 109 6 41 
264 82 295 110 8 41 
264 83 294 107 9 40 
264 83 295 109 2 39 
264 84 288 104 81 54 
264 84 289 108 86 59 
264 85 288 109 88 61 
264 85 289 113 91 63 
264 85 290 117 94 67 
264 85 291 115 90 64 
264 86 288 114 91 64 
264 86 289 118 92 66 
264 87 288 116 93 66 
264 87 289 119 93 66 
264 86 290 122 98 72 
264 86 291 123 99 73 
264 87 290 125 99 74 
264 87 291 126 102 77 
264 84 292 102 54 40 
264 84 293 102 26 36 
264 85 292 108 73 52 
264 85 293 103 46 39 
264 84 294 104 14 38 
264 84 295 108 6 38 
264 85 294 101 28 37 
264 85 295 104 17 38 
265 85 295 107 12 38 
264 86 292 116 90 65 
264 86 293 105 68 48 
264 87 292 121 97 73 
264 87 293 110 81 60 
264 86 294 101 45 43 
264 86 295 103 25 42 
264 87 294 103 60 50 
264 87 295 102 41 47 
265 86 295 105 17 43 
265 87 295 102 26 45 
265 80 296 104 76 56 
265 81 296 104 59 46 
265 82 296 106 35 41 
265 83 296 109 19 39 
266 80 297 108 88 67 
266 81 297 105 82 60 
267 80 298 112 93 71 
267 81 298 109 91 69 
266 82 297 104 70 50 
266 83 297 105 55 43 
267 82 298 107 86 64 
267 83 298 105 76 54 
265 84 296 110 7 38 
265 85 296 109 8 37 
265 86 296 109 10 41 
265 87 296 107 11 42 
266 84 297 108 38 40 
266 85 297 110 20 38 
267 84 298 106 60 45 
267 85 298 108 39 43 
266 86 297 111 13 39 
266 87 297 111 13 37 
266 86 298 110 16 38 
266 87 298 110 15 38 
267 86 298 111 22 42 
267 87 298 109 15 37 
268 80 298 110 92 71 
268 80 299 109 90 69 
268 81 298 110 92 70 
268 81 299 109 90 68 
269 80 299 108 89 68 
269 81 299 108 84 63 
268 82 298 108 87 66 
268 82 299 109 84 63 
268 83 298 106 77 55 
268 83 299 106 73 54 
269 82 299 107 78 57 
269 83 299 106 62 47 
269 80 300 108 88 68 
269 82 300 107 69 52 
269 83 300 105 49 42 
270 80 300 107 81 61 
270 80 301 106 69 51 
270 81 300 106 68 52 
270 81 301 107 49 45 
271 80 301 110 51 46 
271 81 301 111 30 42 
270 82 300 107 48 45 
270 82 301 109 28 43 
270 83 300 106 29 40 
270 83 301 107 12 39 
271 82 301 111 15 42 
271 83 301 109 8 41 
268 84 298 106 61 46 
268 84 299 105 55 45 
268 85 299 108 38 42 
269 84 299 106 43 42 
269 85 299 105 24 37 
268 86 299 108 21 38 
268 87 299 109 20 38 
269 86 299 107 19 36 
269 87 299 109 22 40 
269 84 300 105 31 39 
269 85 300 105 16 36 
269 86 300 106 20 39 
269 87 300 107 19 40 
270 84 300 106 13 38 
270 84 301 107 12 39 
270 85 300 105 13 38 
270 85 301 104 18 39 
271 84 301 105 10 39 
271 85 301 103 13 36 
270 86 300 104 17 37 
270 86 301 102 21 37 
270 87 300 105 23 40 
270 87 301 104 28 40 
271 86 301 103 31 40 
271 87 301 104 44 46 
264 88 288 118 94 67 
264 88 289 122 94 68 
264 89 288 121 96 69 
264 89 289 123 96 70 
264 88 290 126 98 74 
264 88 291 127 101 77 
264 89 290 125 98 72 
264 89 291 125 99 74 
264 90 288 122 97 70 
264 90 289 123 98 72 
264 91 288 122 98 71 
264 91 289 123 99 72 
264 90 290 124 98 72 
264 90 291 123 97 73 
264 91 290 123 98 72 
264 91 291 121 97 73 
264 88 292 122 98 74 
264 88 293 114 90 67 
264 89 292 121 97 73 
264 89 293 116 95 71 
264 88 294 106 73 57 
264 89 294 110 89 68 
265 88 295 100 44 46 
265 89 294 109 89 68 
265 89 295 101 64 54 
264 90 292 120 95 71 
264 90 293 116 95 71 
264 91 292 118 96 72 
265 90 293 114 93 70 
265 91 292 118 96 73 
265 91 293 114 94 72 
265 90 294 110 93 71 
265 90 295 102 76 59 
265 91 294 111 93 71 
265 91 295 102 73 55 
264 92 288 122 98 72 
264 92 289 123 99 73 
264 93 288 123 99 74 
264 93 289 123 99 74 
264 92 290 122 98 73 
264 92 291 122 98 73 
264 93 290 122 99 74 
265 92 291 120 99 74 
265 93 291 119 98 75 
264 94 288 122 99 75 
264 94 289 123 101 77 
264 95 288 120 99 77 
264 95 289 122 103 82 
264 94 290 120 100 76 
264 95 290 118 100 79 
264 95 291 113 94 72 
265 94 291 117 97 75 
265 95 291 111 90 67 
265 92 292 117 97 75 
265 92 293 112 94 72 
265 93 292 114 95 73 
265 93 293 107 84 62 
265 92 294 108 84 64 
265 92 295 105 58 50 
265 93 294 104 62 51 
265 93 295 107 32 45 
265 94 292 110 89 65 
265 94 293 103 66 47 
265 95 292 104 71 49 
265 95 293 105 47 39 
265 94 294 107 42 45 
265 94 295 113 14 43 
265 95 294 110 21 43 
265 95 295 115 8 42 
265 88 296 104 21 41 
265 89 296 103 29 40 
265 90 296 101 41 40 
265 91 296 103 40 39 
266 88 297 111 17 39 
266 89 297 112 14 41 
267 88 298 110 16 38 
267 89 298 112 15 41 
266 90 296 104 23 37 
266 90 297 112 12 41 
266 91 296 107 24 39 
266 91 297 112 12 39 
267 90 298 113 10 41 
267 91 298 113 10 39 
265 92 296 109 37 45 
265 93 296 111 14 42 
265 94 296 113 4 41 
266 92 296 110 21 42 
266 92 297 113 12 41 
266 93 296 113 9 41 
266 93 297 113 13 41 
267 92 298 113 13 39 
267 93 298 113 19 43 
266 94 296 113 11 41 
266 94 297 113 13 41 
266 95 296 112 9 38 
266 95 297 110 9 38 
267 95 297 109 10 38 
267 94 298 110 19 40 
267 95 298 106 20 37 
268 88 299 111 20 41 
268 89 299 113 17 44 
269 88 299 111 18 43 
269 89 299 113 19 45 
268 90 299 114 12 43 
268 91 299 113 12 42 
269 90 299 113 14 43 
269 91 299 113 13 41 
269 88 300 111 22 45 
269 89 300 113 24 46 
269 90 300 112 23 43 
269 91 300 112 18 40 
270 88 300 109 31 45 
270 88 301 107 43 46 
270 89 300 110 38 46 
270 89 301 108 60 52 
271 88 301 105 63 55 
271 89 301 100 73 54 
270 90 300 107 44 44 
270 91 300 107 40 40 
271 90 301 97 72 49 
271 91 301 97 67 45 
268 92 299 113 13 42 
268 93 298 112 16 42 
268 93 299 112 14 43 
269 92 299 113 15 42 
269 93 299 113 16 43 
268 94 298 109 17 39 
268 94 299 108 13 40 
268 95 298 105 28 39 
268 95 299 105 25 40 
269 94 299 110 16 42 
269 95 299 106 19 39 
269 92 300 113 18 42 
269 93 300 114 18 44 
270 92 300 109 29 41 
270 93 300 112 18 43 
271 92 301 102 52 45 
271 93 301 107 32 42 
270 94 300 112 17 44 
270 95 300 110 18 42 
271 94 301 110 22 43 
271 95 301 110 18 43 
272 64 302 121 14 46 
272 64 303 119 15 45 
272 65 302 124 17 47 
272 65 303 123 17 46 
273 64 303 117 16 45 
273 65 303 121 15 46 
272 66 302 124 15 48 
272 66 303 124 15 45 
272 67 302 117 21 48 
273 66 303 123 15 47 
273 67 302 112 21 46 
273 67 303 119 17 48 
274 67 303 118 20 48 
272 68 302 100 36 37 
272 69 302 93 61 41 
273 68 302 100 32 37 
273 68 303 103 29 38 
273 69 302 92 53 38 
273 69 303 94 49 38 
272 70 301 97 79 57 
272 71 301 104 87 68 
272 70 302 96 78 56 
272 71 302 103 87 67 
273 70 302 94 72 51 
273 70 303 93 67 50 
273 71 302 101 83 65 
273 71 303 98 78 63 
274 68 303 104 24 38 
274 69 303 96 40 37 
275 69 303 97 32 34 
274 70 303 94 57 44 
274 71 303 96 66 54 
275 70 303 97 45 39 
275 71 303 99 44 41 
272 72 301 107 89 69 
272 73 301 108 88 67 
272 72 302 106 89 69 
272 73 302 107 88 67 
273 72 302 102 84 66 
273 72 303 99 76 61 
273 73 302 102 81 62 
273 73 303 98 70 54 
272 74 301 108 86 66 
272 75 301 108 83 64 
272 74 302 106 82 63 
272 75 302 106 75 57 
273 74 302 102 74 55 
273 74 303 98 59 46 
273 75 302 103 63 48 
273 75 303 100 45 38 
274 72 303 98 61 51 
274 73 303 98 50 44 
275 72 303 101 35 40 
275 73 303 103 23 39 
274 74 303 99 38 37 
274 75 303 103 25 37 
275 74 303 105 15 38 
275 75 303 109 13 39 
272 76 301 108 79 61 
272 76 302 107 74 56 
272 77 302 108 70 52 
273 76 302 104 53 42 
273 76 303 105 33 39 
273 77 302 107 43 40 
273 77 303 111 23 42 
272 78 302 108 54 44 
272 79 302 113 38 43 
273 78 302 115 31 44 
273 78 303 118 19 46 
273 79 302 119 19 45 
273 79 303 119 11 44 
274 76 303 108 19 41 
274 77 303 114 15 44 
275 76 303 111 12 41 
275 77 303 113 9 41 
274 78 303 118 13 45 
274 79 303 118 13 43 
275 78 303 115 14 42 
275 79 303 116 13 42 
276 72 303 107 20 41 
276 73 303 108 12 40 
276 74 303 110 8 40 
276 75 303 111 12 40 
276 76 303 111 13 38 
276 77 303 112 15 38 
276 78 303 113 15 39 
273 64 304 115 18 45 
273 65 304 119 15 46 
274 64 304 113 16 44 
274 65 304 119 13 44 
275 64 304 112 17 44 
275 64 305 113 22 45 
275 65 304 118 10 42 
275 65 305 117 10 41 
274 66 304 121 15 46 
274 67 304 119 18 48 
275 66 304 119 15 44 
275 67 304 118 15 46 
274 68 304 109 20 43 
275 68 304 110 15 41 
275 69 304 102 22 35 
275 70 304 102 33 39 
276 64 305 111 25 42 
276 65 305 115 13 40 
277 64 305 109 29 40 
277 65 305 115 16 39 
277 64 306 108 33 41 
277 65 306 114 17 40 
276 66 305 118 14 40 
276 67 304 118 15 45 
276 67 305 120 15 45 
277 66 305 118 17 40 
277 67 305 122 20 46 
277 66 306 118 17 40 
277 67 306 124 21 47 
278 64 306 107 33 40 
278 64 307 108 28 39 
278 65 306 115 16 41 
279 64 307 109 17 37 
279 65 307 113 13 39 
278 66 306 119 15 41 
278 67 306 125 19 48 
279 66 307 119 12 42 
279 67 306 126 17 50 
279 67 307 123 13 45 
276 68 304 114 10 41 
276 68 305 118 16 45 
276 69 304 110 14 39 
277 68 305 122 19 46 
277 69 304 115 12 42 
277 69 305 118 15 41 
276 70 304 108 19 39 
276 71 304 107 21 39 
277 70 304 114 13 41 
277 70 305 116 14 41 
277 71 304 113 14 40 
278 69 305 119 13 43 
278 68 306 126 20 51 
278 69 306 122 14 47 
279 68 306 127 17 52 
279 69 306 122 14 47 
278 70 305 118 15 45 
278 71 304 112 13 41 
278 71 305 114 15 43 
279 70 305 117 14 46 
279 71 305 112 17 43 
279 70 306 118 14 46 
276 72 304 109 14 40 
276 73 304 110 7 40 
277 72 304 112 14 40 
277 73 304 111 12 41 
277 74 304 110 11 42 
277 75 304 110 12 42 
278 72 304 110 12 40 
278 73 304 108 16 40 
279 72 304 106 19 39 
279 72 305 106 20 38 
279 73 304 102 25 36 
278 74 304 104 20 39 
278 75 304 100 20 32 
279 74 304 97 34 32 
279 75 304 93 43 28 
276 76 304 110 13 37 
276 77 304 111 15 37 
277 76 304 109 11 40 
277 77 304 108 12 38 
276 78 304 114 15 40 
276 79 304 115 10 41 
277 78 304 111 15 40 
277 79 304 112 12 39 
278 76 304 98 23 30 
278 77 304 100 34 33 
279 76 304 95 53 34 
279 77 304 101 64 46 
278 78 304 107 31 40 
278 79 304 112 18 42 
279 78 304 107 55 48 
279 79 304 112 29 44 
280 64 307 112 14 38 
280 65 307 113 13 38 
280 66 307 118 12 41 
280 67 307 123 12 45 
281 67 307 124 13 45 
280 64 308 113 16 38 
280 65 308 112 16 37 
281 64 308 115 16 40 
281 64 309 123 16 48 
281 65 308 111 18 36 
281 66 308 116 17 42 
281 67 308 121 15 44 
282 64 309 118 13 42 
282 65 308 108 18 33 
282 65 309 108 17 33 
283 64 309 111 23 38 
283 65 309 104 24 33 
282 66 308 114 18 41 
282 66 309 108 16 34 
282 67 308 121 16 44 
283 66 309 110 20 39 
283 67 308 120 13 44 
283 67 309 116 14 43 
280 68 306 125 16 50 
280 68 307 126 15 50 
280 69 306 121 14 46 
281 68 307 126 15 48 
281 69 306 121 15 47 
281 69 307 124 16 50 
280 71 305 106 21 39 
281 71 305 98 38 36 
280 70 306 114 14 45 
280 71 306 108 17 43 
281 70 306 111 14 40 
281 70 307 118 16 43 
281 71 306 103 39 41 
282 69 307 125 17 50 
282 70 307 117 18 42 
282 71 306 109 59 52 
282 71 307 110 34 39 
283 70 307 119 18 43 
283 71 306 113 73 60 
283 71 307 112 48 46 
281 68 308 125 14 45 
282 68 308 127 15 47 
282 69 308 127 15 50 
283 68 308 126 12 46 
283 69 308 127 12 49 
283 70 308 123 15 47 
284 64 309 102 45 40 
284 65 309 100 45 40 
285 65 309 101 69 54 
284 64 310 102 60 49 
285 64 310 104 76 62 
285 65 310 102 77 61 
284 66 309 104 37 39 
284 67 309 116 20 40 
285 66 309 102 57 43 
285 67 309 114 27 41 
286 64 310 107 87 70 
286 65 310 102 75 59 
287 64 310 109 77 63 
287 65 310 104 62 53 
286 66 309 102 59 47 
286 67 309 114 25 43 
287 66 309 105 46 45 
287 67 309 115 24 45 
287 66 310 106 47 46 
284 70 307 121 18 47 
284 71 307 115 41 46 
285 71 307 117 40 46 
284 68 308 124 12 41 
284 68 309 122 13 40 
284 69 308 126 13 44 
285 68 309 124 13 45 
285 69 308 128 13 47 
284 70 308 124 17 49 
284 71 308 119 17 43 
285 70 308 128 15 51 
285 71 308 121 18 45 
286 68 309 125 13 46 
286 69 308 130 13 46 
286 69 309 127 12 44 
287 68 309 125 14 44 
287 69 309 128 12 43 
286 70 308 130 12 51 
286 71 308 123 17 47 
287 70 308 132 11 50 
287 71 308 126 14 49 
280 72 305 101 31 34 
280 73 305 97 38 34 
281 72 305 102 60 46 
281 73 305 107 75 57 
281 72 306 106 73 56 
280 74 305 98 58 43 
280 75 305 99 74 50 
281 74 305 111 89 67 
281 75 305 114 95 73 
282 73 305 114 93 70 
282 72 306 112 86 66 
282 73 306 115 93 70 
283 72 306 116 89 70 
283 73 306 119 98 73 
282 74 305 119 99 77 
282 75 305 121 101 78 
283 75 305 124 103 80 
282 74 306 120 99 77 
283 74 306 124 102 79 
283 75 306 125 104 81 
280 76 305 103 81 58 
280 77 305 108 85 64 
281 76 305 113 95 72 
281 77 305 112 94 72 
280 78 305 109 73 58 
280 79 305 112 38 46 
281 78 305 111 84 63 
281 79 305 111 51 47 
282 76 305 120 100 77 
282 77 305 118 99 76 
283 76 305 124 104 82 
283 77 305 123 104 82 
283 76 306 126 105 84 
282 78 305 115 95 70 
282 79 305 113 67 52 
283 78 305 119 100 77 
283 79 305 115 80 60 
284 72 307 119 84 68 
284 73 306 122 100 76 
284 73 307 124 100 77 
285 72 307 121 75 63 
285 73 307 125 100 77 
284 74 306 128 106 82 
284 75 306 130 108 85 
285 74 306 131 109 84 
285 74 307 129 106 82 
285 75 306 133 110 86 
286 72 307 121 67 61 
286 73 307 126 95 78 
287 72 307 122 68 61 
287 73 307 127 90 75 
286 74 307 130 106 84 
286 75 306 134 111 87 
286 75 307 134 111 87 
287 74 307 132 107 85 
287 75 307 135 113 89 
287 72 308 120 46 50 
284 76 306 130 109 86 
284 77 306 127 108 86 
285 76 306 132 110 87 
285 77 306 130 110 87 
284 78 305 123 104 83 
284 79 305 118 91 72 
285 79 305 120 98 79 
284 78 306 126 107 86 
285 78 306 127 108 88 
285 79 306 122 104 84 
286 76 306 134 112 88 
286 77 306 132 111 88 
287 76 306 135 113 90 
287 76 307 136 114 91 
287 77 306 134 113 91 
286 78 306 129 110 89 
286 79 306 122 104 83 
287 78 306 130 111 91 
287 79 306 123 105 86 
272 80 302 115 26 44 
272 81 302 114 12 41 
273 80 302 116 10 42 
273 80 303 116 11 42 
273 81 302 113 9 40 
273 81 303 113 13 41 
272 82 302 110 5 40 
272 83 302 108 8 41 
273 82 302 109 11 41 
273 82 303 108 11 40 
273 83 302 105 10 38 
273 83 303 104 18 36 
274 80 303 116 13 41 
274 81 303 113 13 41 
275 80 303 114 11 40 
275 81 303 112 14 42 
274 82 303 107 13 38 
274 83 303 105 30 40 
275 82 303 107 19 39 
275 83 303 108 48 48 
272 84 302 104 7 38 
272 85 302 102 22 38 
273 84 302 102 24 36 
273 84 303 103 33 38 
273 85 302 103 50 46 
272 86 301 101 38 41 
272 87 301 105 60 54 
272 86 302 103 52 49 
272 87 302 104 69 57 
273 86 302 106 72 58 
273 87 302 106 81 62 
274 84 303 106 55 49 
274 85 302 107 80 59 
274 85 303 107 77 57 
275 84 303 109 70 57 
275 85 303 109 86 63 
274 86 302 109 87 65 
274 87 302 110 89 67 
275 86 303 111 91 68 
275 87 302 111 91 69 
275 87 303 111 91 69 
276 82 303 105 24 39 
276 83 303 108 54 51 
276 84 303 111 76 61 
276 85 303 110 88 66 
277 84 303 110 81 63 
277 85 303 110 88 66 
276 86 303 111 91 68 
276 87 303 111 91 69 
277 86 303 111 91 68 
277 87 303 111 91 68 
278 87 303 113 93 70 
272 88 301 104 75 60 
272 89 301 100 82 60 
272 88 302 102 79 59 
272 89 302 100 83 60 
273 88 302 106 87 66 
273 89 302 107 89 69 
272 90 301 102 85 64 
272 91 301 102 84 62 
273 90 301 105 89 70 
273 91 301 105 89 69 
273 90 302 108 90 70 
273 91 302 107 90 69 
274 88 302 110 90 69 
274 89 302 111 91 70 
275 88 302 111 91 69 
275 88 303 111 91 68 
275 89 302 113 92 70 
274 90 302 111 92 70 
274 91 302 111 92 71 
275 90 302 115 94 73 
275 91 302 115 95 74 
272 92 301 101 73 54 
272 93 301 102 54 44 
273 92 301 103 84 62 
273 93 301 100 71 50 
273 92 302 106 88 67 
273 93 302 103 82 60 
272 94 301 105 35 42 
272 95 301 107 23 42 
273 94 301 102 53 44 
273 95 301 104 40 42 
273 94 302 101 68 50 
273 95 302 102 46 42 
274 92 302 109 91 71 
274 93 302 108 91 70 
275 92 302 113 94 73 
275 93 302 111 94 73 
274 94 302 105 84 63 
274 95 302 101 70 51 
275 94 302 110 91 71 
275 95 302 106 86 64 
276 88 303 112 92 70 
276 89 303 115 94 72 
277 88 303 113 92 70 
277 89 303 116 95 73 
276 90 303 117 96 75 
276 91 302 117 97 76 
276 91 303 118 97 76 
277 90 303 120 99 77 
277 91 303 121 100 79 
278 88 303 115 95 72 
278 89 303 119 98 76 
278 90 303 122 100 78 
278 91 303 123 101 79 
276 92 302 117 97 76 
276 92 303 119 99 78 
276 93 302 114 95 75 
276 93 303 117 97 76 
277 92 303 121 100 78 
277 93 303 119 99 78 
276 94 302 113 95 74 
276 94 303 114 96 76 
276 95 303 112 95 75 
277 94 303 118 99 79 
277 95 303 116 99 80 
278 92 303 122 100 78 
278 93 303 120 100 79 
278 94 303 119 100 80 
278 95 303 115 98 79 
276 80 304 115 8 42 
276 81 304 112 11 43 
277 80 304 113 11 40 
277 81 304 110 10 40 
276 82 304 105 15 39 
276 83 304 106 43 45 
277 82 304 105 13 40 
277 83 304 107 47 48 
278 80 304 114 13 41 
278 81 304 111 9 39 
279 80 304 114 15 42 
279 80 305 114 17 42 
279 81 304 112 10 40 
279 81 305 114 13 42 
278 82 304 106 7 37 
278 83 304 106 38 46 
279 82 304 108 11 38 
279 83 304 106 32 42 
277 84 304 109 74 61 
277 85 304 109 87 65 
278 84 304 109 69 60 
278 85 304 109 85 66 
279 84 304 109 63 57 
279 85 304 109 83 65 
278 86 304 111 92 69 
278 87 304 114 93 71 
279 86 304 111 92 69 
279 87 304 115 95 72 
278 88 304 117 96 74 
278 89 304 120 99 76 
279 88 304 119 98 75 
279 89 304 122 100 77 
278 90 304 122 100 78 
278 91 304 122 101 79 
279 90 304 122 101 78 
279 91 304 122 102 80 
278 92 304 121 100 78 
278 93 304 120 100 79 
279 92 304 121 100 80 
279 93 304 117 98 79 
278 94 304 117 99 79 
278 95 304 113 95 76 
279 94 304 112 94 75 
279 95 304 108 91 71 
280 80 305 116 16 42 
280 81 305 115 10 42 
281 80 305 116 20 42 
281 81 305 118 12 42 
280 82 305 111 14 40 
280 83 304 106 34 42 
280 83 305 107 22 40 
281 82 305 116 16 44 
281 83 305 110 19 40 
282 80 305 115 31 40 
282 81 305 119 11 43 
283 80 305 114 44 44 
283 81 305 120 15 45 
282 82 305 119 13 46 
282 83 305 114 16 43 
283 82 305 120 10 47 
283 83 305 118 16 45 
280 84 304 108 57 53 
280 84 305 107 45 47 
280 85 304 109 79 63 
281 84 305 109 45 47 
281 85 304 110 81 63 
281 85 305 110 72 58 
280 86 304 112 92 69 
280 87 304 117 97 74 
281 86 304 113 92 69 
281 86 305 114 91 69 
281 87 304 119 99 76 
282 84 305 111 34 44 
282 85 305 110 66 54 
283 84 305 112 26 42 
283 85 305 109 59 51 
282 86 305 113 89 68 
282 87 305 117 98 76 
283 86 305 111 85 66 
283 87 305 114 96 76 
284 80 305 114 58 50 
284 81 305 120 19 46 
285 80 305 116 72 60 
285 81 305 119 25 44 
284 82 305 122 10 45 
284 83 305 120 18 45 
285 82 305 123 10 45 
285 83 305 122 16 45 
286 80 305 116 82 66 
286 81 305 119 35 47 
287 80 305 114 80 62 
287 81 305 119 43 50 
287 80 306 115 88 70 
286 82 305 125 10 46 
286 83 305 124 15 44 
287 82 305 127 11 47 
287 83 305 126 15 44 
284 84 305 115 24 44 
284 85 305 109 48 47 
285 84 305 118 21 46 
285 85 305 109 34 43 
284 86 305 108 78 63 
284 87 305 108 89 71 
285 86 305 103 60 49 
285 87 305 99 72 55 
286 84 305 121 18 45 
286 85 305 111 22 41 
287 84 305 124 19 46 
287 85 305 118 17 44 
286 86 304 103 42 44 
286 86 305 103 43 43 
286 87 304 99 54 48 
287 86 304 109 24 40 
287 86 305 109 28 42 
287 87 304 104 32 40 
280 88 304 121 100 77 
280 89 304 123 101 78 
281 88 304 123 102 80 
281 89 304 123 103 81 
280 90 304 122 101 79 
280 91 304 121 102 81 
281 90 304 121 101 81 
281 91 304 119 100 81 
281 91 305 114 96 78 
282 88 305 121 102 81 
282 89 305 120 102 83 
283 88 305 116 100 81 
283 89 305 113 97 79 
282 90 305 114 96 78 
282 91 305 109 91 73 
283 90 305 106 90 72 
283 91 305 102 84 66 
280 92 304 117 98 79 
280 93 304 111 93 73 
281 92 304 111 93 75 
281 92 305 105 88 70 
281 93 304 104 87 68 
281 93 305 101 82 62 
280 94 304 106 87 68 
280 95 304 103 83 64 
281 94 304 102 83 63 
281 94 305 101 79 62 
281 95 304 103 77 60 
281 95 305 103 73 58 
282 92 305 103 85 66 
282 93 305 100 79 60 
283 92 305 100 78 60 
283 93 305 101 70 55 
282 94 305 103 75 60 
282 95 305 105 67 55 
283 94 305 104 63 53 
283 95 305 110 57 52 
284 88 305 106 90 73 
284 89 305 102 85 68 
285 88 305 96 74 57 
285 89 305 96 71 56 
284 90 305 99 79 62 
284 91 305 98 74 56 
285 90 305 97 65 50 
285 91 305 98 57 45 
286 88 304 97 50 45 
286 88 305 96 62 51 
286 89 305 95 50 43 
287 88 304 100 33 36 
287 89 304 98 30 33 
287 89 305 97 30 34 
286 90 305 97 43 39 
286 91 305 102 42 40 
287 90 304 101 27 36 
287 90 305 100 30 37 
287 91 305 105 30 40 
284 92 305 97 64 49 
284 93 305 101 56 46 
285 92 305 101 49 42 
285 93 305 110 43 45 
284 94 305 108 49 47 
284 95 305 118 42 50 
285 94 305 119 36 49 
285 95 305 127 29 52 
286 92 305 108 38 42 
286 93 305 117 33 45 
287 92 305 111 26 43 
287 93 305 120 24 46 
286 94 305 123 27 47 
286 95 305 131 21 50 
287 94 305 126 24 48 
287 95 305 131 21 50 
266 96 279 114 9 43 
267 96 278 109 20 34 
267 96 279 109 17 35 
267 97 279 105 22 32 
267 98 279 99 32 31 
267 99 279 97 45 29 
269 96 277 110 24 32 
269 97 277 107 46 38 
268 96 278 108 23 30 
268 97 278 104 36 32 
268 97 279 101 33 31 
269 96 278 109 26 32 
269 97 278 106 45 36 
269 99 277 103 83 61 
268 98 278 100 55 40 
268 98 279 96 42 32 
268 99 279 96 70 48 
269 98 278 103 66 48 
269 99 278 102 81 58 
270 96 276 110 25 27 
270 96 277 109 27 28 
270 97 276 111 53 42 
270 97 277 109 54 42 
271 96 276 110 20 27 
271 97 276 110 46 37 
270 98 276 110 73 57 
270 98 277 107 73 55 
270 99 276 107 81 61 
270 99 277 105 85 64 
271 98 276 111 70 55 
271 99 276 107 81 62 
268 100 279 101 84 62 
268 101 279 109 93 74 
269 100 278 107 91 70 
269 101 278 110 94 74 
269 101 279 111 94 74 
268 102 279 114 97 80 
268 103 279 114 98 80 
269 102 278 113 96 76 
269 102 279 116 98 78 
269 103 278 115 97 76 
269 103 279 116 98 78 
270 100 277 107 90 70 
270 101 277 109 91 73 
271 100 276 105 82 62 
271 101 276 107 84 65 
270 102 277 111 91 73 
270 103 277 112 87 68 
271 102 276 106 73 52 
271 102 277 109 83 65 
271 103 276 107 62 41 
271 103 277 108 75 55 
270 102 278 114 95 76 
270 103 278 114 95 75 
265 96 281 116 22 42 
265 97 281 118 19 41 
265 96 282 116 49 46 
265 96 283 113 69 51 
265 97 282 115 27 33 
265 97 283 115 53 43 
265 98 281 117 19 35 
265 98 282 116 20 33 
265 98 283 116 36 36 
265 99 282 115 14 39 
265 99 283 116 16 42 
266 96 280 115 10 42 
266 97 280 113 18 40 
266 97 281 116 13 41 
266 98 280 108 23 32 
266 98 281 114 12 34 
266 99 281 107 21 30 
267 98 280 103 31 29 
267 99 280 96 45 25 
267 99 281 97 36 22 
264 96 284 107 83 57 
264 96 285 105 87 61 
264 97 284 111 74 54 
264 97 285 108 82 58 
265 96 284 111 78 55 
265 97 284 112 64 48 
264 96 286 108 90 68 
264 96 287 112 94 75 
264 97 286 105 88 63 
264 97 287 107 92 72 
264 98 284 114 56 46 
264 98 285 112 70 52 
264 99 284 114 41 43 
264 99 285 113 50 48 
265 98 284 115 48 44 
265 99 284 115 26 41 
264 98 286 106 82 55 
264 98 287 102 88 63 
264 99 286 109 60 48 
264 99 287 104 68 48 
265 100 282 109 18 47 
265 100 283 113 12 48 
265 101 283 104 25 40 
265 102 283 94 37 28 
265 103 283 92 45 28 
266 100 281 98 35 33 
266 101 281 92 44 35 
267 100 280 95 68 38 
267 100 281 94 60 35 
267 101 280 99 81 57 
267 101 281 93 64 39 
266 100 282 104 23 41 
266 101 282 96 39 40 
266 102 281 91 67 47 
266 103 281 93 76 56 
267 102 281 98 81 59 
267 103 281 103 88 70 
266 102 282 89 52 39 
266 103 282 89 62 43 
264 100 285 113 34 43 
264 101 285 113 29 42 
265 100 284 112 13 40 
265 101 284 107 26 38 
265 101 285 112 28 43 
264 100 286 111 39 44 
264 100 287 108 36 41 
264 101 286 114 29 44 
264 101 287 113 23 43 
264 102 285 113 27 40 
264 103 285 115 24 36 
265 102 284 105 32 36 
265 102 285 112 25 37 
265 103 284 103 31 30 
265 103 285 113 20 33 
264 102 286 115 23 41 
264 102 287 115 18 41 
264 103 286 116 23 38 
264 103 287 116 23 40 
268 100 280 95 74 46 
268 101 280 105 89 70 
268 102 280 109 93 76 
268 103 280 112 96 80 
268 104 279 113 98 82 
268 105 279 112 98 82 
269 104 278 115 94 73 
269 104 279 116 99 79 
269 105 278 115 95 74 
269 105 279 115 98 79 
268 106 279 108 94 76 
268 107 279 103 82 59 
269 106 278 113 90 68 
269 106 279 112 95 74 
269 107 278 110 76 51 
269 107 279 107 83 55 
270 104 277 111 79 56 
270 105 277 113 68 42 
271 104 277 109 61 40 
271 105 277 110 51 33 
270 104 278 113 87 65 
270 105 278 113 83 61 
270 106 277 115 58 37 
271 106 277 113 42 30 
271 107 277 118 32 33 
270 106 278 114 74 53 
270 107 278 115 55 39 
268 108 279 103 64 37 
268 109 279 107 51 35 
269 108 279 109 61 39 
269 109 279 112 48 37 
268 110 279 108 32 34 
268 111 279 108 15 32 
269 110 279 113 34 36 
269 111 279 111 24 32 
271 108 277 121 26 38 
271 109 277 121 22 40 
270 108 278 117 42 37 
270 109 278 118 35 38 
271 110 277 119 21 38 
271 111 277 116 23 38 
270 110 278 117 28 37 
270 111 278 114 24 34 
265 104 283 94 43 30 
265 105 283 96 35 28 
265 106 282 96 48 31 
265 106 283 103 34 34 
265 107 282 109 45 45 
265 107 283 113 34 47 
266 104 281 97 83 63 
266 105 281 91 76 52 
267 104 281 105 91 75 
267 105 280 108 94 78 
267 105 281 102 88 70 
266 104 282 90 69 46 
266 105 282 88 58 33 
266 106 281 92 66 38 
266 107 281 98 60 35 
267 106 280 103 88 67 
267 106 281 99 81 60 
267 107 280 99 76 51 
267 107 281 97 79 55 
266 106 282 91 61 33 
266 107 282 99 57 37 
264 104 285 119 30 40 
264 105 285 120 25 40 
265 104 284 106 28 33 
265 105 284 115 39 48 
264 104 286 117 23 38 
264 104 287 116 26 41 
264 105 286 119 18 37 
264 105 287 117 25 40 
264 106 284 121 31 47 
264 106 285 119 21 39 
264 107 284 120 26 46 
264 107 285 120 24 46 
265 106 284 118 38 52 
265 107 284 117 25 47 
264 106 286 119 16 41 
264 106 287 117 23 43 
264 107 286 119 19 45 
264 107 287 116 24 46 
265 108 282 113 32 45 
265 108 283 116 23 47 
265 109 282 114 25 45 
265 109 283 115 20 46 
265 110 282 112 19 39 
265 110 283 110 21 35 
265 111 282 104 21 27 
265 111 283 104 32 30 
266 108 281 104 51 40 
266 109 281 110 35 41 
267 108 280 102 60 39 
267 109 280 107 50 39 
266 110 281 111 15 38 
266 111 281 109 17 37 
267 110 280 108 25 36 
267 111 280 107 12 34 
267 111 281 106 17 36 
266 110 282 110 10 36 
266 111 282 106 17 30 
264 108 284 118 23 44 
264 108 285 116 21 41 
264 109 284 115 24 43 
264 109 285 110 19 33 
265 108 284 117 21 46 
265 109 284 116 26 48 
264 108 286 113 27 41 
264 108 287 108 27 39 
264 109 286 110 36 40 
264 109 287 105 40 39 
264 110 284 107 27 35 
264 110 285 108 40 39 
264 111 284 109 50 47 
264 111 285 112 67 56 
265 110 284 108 21 32 
265 111 284 108 48 45 
264 110 286 109 55 46 
264 110 287 105 58 44 
264 111 286 108 70 52 
264 111 287 105 71 48 
268 104 280 111 97 81 
268 105 280 110 96 81 
268 106 280 105 91 72 
268 107 280 100 78 55 
268 108 280 102 61 38 
268 109 280 105 49 34 
268 110 280 109 31 35 
268 111 280 108 14 33 
263 121 285 105 68 54 
263 121 286 103 79 58 
263 121 287 100 80 59 
263 122 285 105 56 49 
263 123 285 103 43 34 
263 122 286 103 67 49 
263 122 287 101 69 49 
263 123 286 105 51 40 
263 123 287 105 56 42 
263 124 285 105 38 34 
263 125 285 109 31 37 
263 124 286 108 43 38 
263 124 287 110 42 38 
263 125 286 112 26 38 
263 125 287 113 23 36 
263 126 287 112 18 37 
268 112 279 106 21 30 
268 113 279 104 24 28 
269 112 279 107 28 28 
269 113 279 105 29 26 
268 114 279 104 24 27 
268 115 279 105 24 26 
269 114 279 105 29 28 
269 115 279 105 24 27 
271 112 277 112 24 34 
271 113 277 109 24 30 
270 112 278 111 25 32 
270 113 278 110 27 32 
271 114 277 109 30 33 
271 115 277 109 31 33 
270 114 278 109 29 31 
270 115 278 106 27 28 
268 116 279 107 29 31 
268 117 279 105 28 34 
269 116 279 106 26 31 
269 117 279 103 28 33 
268 118 279 101 32 31 
268 119 279 98 37 30 
269 118 278 96 40 30 
269 118 279 98 36 31 
269 119 278 92 47 32 
269 119 279 95 46 34 
271 116 277 107 30 32 
271 117 277 102 29 28 
270 116 278 104 25 29 
270 117 278 101 27 30 
270 118 277 97 45 40 
270 119 277 94 50 42 
271 118 277 97 36 30 
271 119 277 95 50 41 
270 118 278 96 37 32 
270 119 278 89 48 33 
265 112 282 101 33 30 
265 112 283 104 51 41 
265 113 282 108 62 54 
265 113 283 111 74 61 
265 114 282 106 76 58 
265 114 283 108 83 63 
265 115 282 104 75 54 
265 115 283 102 79 56 
266 112 281 105 25 30 
266 113 281 101 34 30 
267 112 280 105 17 33 
267 112 281 103 24 31 
267 113 280 103 28 34 
267 113 281 102 31 31 
266 112 282 102 29 27 
266 113 282 104 47 38 
266 114 281 109 60 53 
266 115 281 108 63 53 
267 114 280 104 28 33 
267 114 281 105 46 44 
267 115 280 103 19 26 
267 115 281 104 42 41 
266 114 282 110 71 60 
266 115 282 107 71 56 
264 112 285 112 80 59 
264 113 285 112 88 64 
265 112 284 112 75 58 
265 113 284 112 86 64 
264 112 286 107 78 55 
264 112 287 105 79 54 
264 113 286 110 86 62 
264 113 287 108 84 60 
264 114 285 115 94 73 
264 115 285 114 94 74 
265 114 284 109 88 66 
265 115 284 108 89 70 
264 114 286 114 92 71 
264 114 287 112 90 68 
264 115 286 116 96 75 
264 115 287 114 94 71 
265 116 282 103 72 49 
265 116 283 101 79 55 
265 117 282 103 65 46 
265 117 283 104 78 57 
265 118 282 102 50 37 
265 118 283 103 66 47 
265 119 282 102 35 33 
265 119 283 102 52 39 
266 116 281 105 48 42 
266 117 281 105 27 36 
267 116 280 105 25 34 
267 116 281 103 29 34 
267 117 280 105 23 39 
267 117 281 104 22 33 
266 116 282 105 64 50 
266 117 282 103 51 40 
266 118 281 105 22 38 
266 119 281 105 21 41 
267 118 280 105 25 40 
267 119 280 102 25 36 
266 118 282 102 37 32 
266 119 282 102 27 35 
264 116 285 113 93 73 
264 117 284 108 89 69 
264 117 285 112 93 73 
265 116 284 106 88 68 
265 117 284 105 85 65 
264 116 286 114 95 73 
264 116 287 113 92 69 
264 117 286 111 92 71 
264 117 287 109 90 68 
264 118 284 106 85 61 
264 118 285 108 90 68 
264 119 284 104 78 53 
264 119 285 105 87 63 
265 118 284 105 79 57 
265 119 284 105 66 46 
264 118 286 107 90 70 
264 118 287 106 89 68 
264 119 286 107 90 71 
264 119 287 102 86 69 
268 112 280 105 17 30 
268 113 280 105 23 30 
268 114 280 106 26 29 
268 115 280 106 18 25 
268 116 280 109 27 32 
268 117 280 108 29 36 
268 118 280 105 28 33 
268 119 280 101 29 29 
267 123 279 79 61 45 
267 124 279 73 61 46 
267 125 279 67 58 43 
267 126 279 68 58 42 
267 127 279 74 59 37 
268 120 279 94 45 32 
268 121 279 88 54 37 
269 120 278 87 57 37 
269 120 279 89 54 36 
269 121 278 82 62 42 
269 121 279 85 60 40 
268 122 279 81 59 43 
268 123 279 75 60 44 
269 122 278 77 61 43 
269 123 278 71 57 41 
270 120 277 90 59 46 
270 121 277 83 65 48 
271 120 276 94 63 50 
271 120 277 93 60 47 
271 121 276 91 69 53 
271 121 277 88 68 52 
270 120 278 86 58 40 
270 121 278 79 62 43 
270 122 277 79 66 51 
270 123 277 77 67 52 
271 122 276 88 70 54 
271 122 277 84 69 53 
271 123 276 83 70 54 
270 122 278 76 63 46 
270 123 278 73 61 45 
268 124 279 69 59 43 
268 125 279 66 58 44 
269 124 278 67 57 41 
269 125 278 69 61 49 
268 126 278 71 62 48 
268 126 279 68 59 45 
268 127 278 73 62 43 
268 127 279 74 61 40 
269 126 278 73 65 53 
269 127 278 76 66 50 
270 124 277 76 67 54 
270 125 277 77 69 58 
271 124 276 81 69 54 
271 125 276 82 69 53 
270 124 278 71 61 47 
270 125 278 72 64 54 
270 126 277 78 70 58 
270 127 277 81 70 53 
271 126 276 85 70 54 
271 127 276 89 68 47 
264 121 283 100 27 26 
265 120 282 103 20 35 
265 120 283 103 39 37 
265 121 282 104 22 40 
265 121 283 101 28 34 
265 122 281 98 22 42 
265 123 281 93 30 38 
264 122 283 102 28 35 
264 123 283 102 26 39 
265 122 282 102 19 43 
265 122 283 102 23 34 
265 123 282 99 23 41 
266 120 281 105 23 42 
266 121 280 95 38 40 
266 121 281 100 25 39 
267 120 280 97 28 33 
267 120 281 99 20 35 
267 121 280 92 41 35 
266 122 280 90 45 39 
266 122 281 93 37 39 
266 123 280 82 54 38 
266 123 281 86 46 38 
267 122 280 86 52 39 
267 123 280 80 57 40 
264 120 284 105 63 45 
264 120 285 105 83 58 
264 121 284 103 47 36 
264 121 285 105 69 52 
264 120 286 105 88 67 
264 120 287 101 86 68 
264 121 286 104 84 64 
264 121 287 101 85 66 
264 122 284 103 40 33 
264 123 284 103 36 34 
265 124 281 88 41 31 
265 125 281 80 45 22 
264 124 283 102 24 39 
264 125 283 103 21 37 
265 124 282 96 32 36 
265 125 282 92 34 28 
265 126 281 80 46 23 
265 127 281 88 42 34 
264 126 283 106 28 40 
264 127 283 112 30 48 
265 126 282 92 39 29 
265 127 282 101 43 41 
265 127 283 108 39 47 
266 124 280 78 60 42 
266 124 281 78 57 38 
266 125 280 68 57 38 
266 125 281 73 57 35 
267 124 280 77 61 46 
267 125 280 71 60 44 
266 126 280 66 53 33 
266 126 281 73 52 28 
266 127 280 75 52 29 
266 127 281 80 45 28 
267 126 280 67 56 37 
267 127 280 72 55 29 
264 124 284 103 26 30 
264 125 284 106 24 34 
264 125 285 112 25 37 
264 126 284 114 32 47 
264 126 285 114 27 43 
264 127 284 114 25 45 
264 127 285 115 25 45 
264 126 286 113 22 40 
264 126 287 112 23 40 
264 127 286 114 28 45 
264 127 287 111 25 39 
278 96 271 105 28 24 
278 97 271 103 30 24 
279 96 271 107 25 24 
279 97 271 104 32 26 
278 98 271 101 37 28 
278 99 271 96 38 27 
279 98 271 102 39 31 
279 99 271 98 44 28 
278 100 271 93 46 32 
278 101 271 95 54 40 
279 100 271 96 57 35 
279 101 271 100 70 51 
279 102 271 104 82 62 
279 103 271 109 90 70 
279 104 271 114 94 74 
279 105 271 116 95 74 
279 106 271 117 95 74 
280 96 271 108 19 26 
280 97 271 105 24 24 
281 96 270 107 16 25 
281 96 271 108 18 26 
281 97 270 103 19 21 
281 97 271 105 16 23 
280 98 271 103 37 28 
280 99 271 100 50 31 
281 98 270 102 34 25 
281 99 270 102 56 35 
282 96 270 108 22 28 
282 96 271 109 23 33 
282 97 270 104 22 22 
283 96 270 108 20 29 
283 97 270 106 20 28 
283 99 269 99 55 33 
282 98 270 102 35 23 
282 99 270 100 53 32 
283 98 270 103 30 25 
283 99 270 100 46 31 
280 100 271 99 68 43 
280 101 271 104 80 58 
281 100 270 102 75 47 
281 101 270 103 84 60 
280 102 271 108 89 69 
280 103 271 112 94 75 
281 102 270 107 91 72 
281 102 271 109 93 74 
281 103 270 112 96 80 
281 103 271 112 95 78 
283 100 269 98 65 40 
283 101 269 96 75 51 
282 100 270 100 72 43 
282 101 270 100 82 56 
283 100 270 98 68 42 
283 101 270 96 77 49 
283 102 269 99 81 58 
283 103 269 102 84 65 
282 102 270 104 89 69 
282 103 270 108 94 78 
287 98 267 108 19 26 
287 99 267 107 22 24 
284 97 269 105 24 26 
285 96 269 107 20 29 
285 97 269 106 23 27 
284 96 270 107 20 30 
284 97 270 106 21 27 
285 96 270 106 27 31 
284 98 269 102 31 25 
284 99 269 100 42 27 
285 98 269 104 27 23 
285 99 268 103 35 27 
285 99 269 101 33 24 
284 98 270 103 30 26 
286 96 269 106 27 30 
286 97 268 107 19 26 
286 97 269 107 19 27 
287 96 268 108 25 31 
287 96 269 106 29 32 
287 97 268 108 16 27 
286 96 270 106 32 34 
286 98 268 106 26 25 
286 98 269 106 25 25 
286 99 268 105 29 25 
287 98 268 108 19 26 
287 99 268 107 22 25 
286 100 267 103 26 26 
286 101 267 105 27 24 
287 100 267 107 24 25 
287 101 267 107 26 23 
286 102 267 109 28 23 
286 103 267 110 30 23 
287 102 266 108 32 22 
287 102 267 108 28 22 
287 103 266 110 31 19 
287 103 267 111 31 19 
284 100 269 97 55 35 
284 101 269 94 60 36 
285 100 268 102 39 30 
285 100 269 100 44 32 
285 101 268 99 41 24 
284 102 268 96 54 31 
284 102 269 95 62 39 
284 103 268 98 50 30 
284 103 269 97 65 43 
285 102 268 101 42 25 
285 103 268 104 40 27 
286 100 268 104 32 29 
286 101 268 103 33 24 
286 102 268 106 31 24 
280 104 271 115 97 78 
280 105 271 116 97 79 
281 104 270 113 98 82 
281 104 271 114 97 80 
281 105 270 114 97 82 
281 105 271 115 99 82 
280 106 271 118 98 80 
280 107 271 118 100 82 
281 106 270 113 96 82 
281 106 271 117 100 85 
281 107 271 114 97 81 
283 104 269 102 80 64 
283 105 269 103 74 59 
282 104 270 109 94 79 
282 105 270 108 91 77 
283 106 269 102 62 47 
282 106 270 108 86 73 
282 107 270 106 79 64 
283 106 270 103 72 59 
283 107 270 102 59 43 
280 108 271 116 100 84 
281 108 271 111 90 74 
281 109 271 107 82 66 
281 110 271 102 63 49 
281 111 271 100 51 37 
282 108 270 103 65 53 
282 108 271 104 74 59 
282 109 270 101 57 46 
282 109 271 101 59 46 
283 108 270 101 50 37 
283 109 270 99 44 31 
282 110 271 99 47 37 
282 111 271 99 35 31 
283 110 270 100 30 27 
283 111 270 103 22 27 
286 104 267 113 30 24 
286 105 267 114 29 27 
287 104 266 114 33 24 
287 104 267 113 32 22 
287 105 266 115 33 26 
287 105 267 115 32 26 
286 106 267 116 27 28 
286 107 267 117 18 30 
287 106 267 116 28 26 
287 107 267 116 18 30 
284 104 268 101 46 30 
284 104 269 100 59 43 
284 105 268 103 38 27 
284 105 269 101 52 39 
285 104 268 106 34 25 
285 105 268 109 28 24 
284 106 268 106 33 27 
284 106 269 103 43 34 
284 107 269 104 36 28 
285 106 268 112 26 27 
285 107 268 114 23 32 
285 107 269 114 21 33 
286 106 268 115 23 29 
286 107 268 116 19 31 
287 108 267 117 15 34 
287 109 267 117 23 35 
284 108 269 107 21 26 
284 109 269 110 19 31 
285 108 268 115 15 32 
285 108 269 113 18 30 
285 109 269 113 15 32 
284 108 270 101 37 26 
284 109 270 104 31 28 
284 110 269 110 19 32 
284 111 269 108 18 30 
285 110 269 111 21 32 
285 111 269 106 25 29 
284 110 270 106 25 30 
284 111 270 107 19 31 
286 108 268 117 11 32 
286 109 268 115 19 33 
287 108 268 117 13 33 
287 109 268 116 25 34 
286 110 268 108 27 30 
286 110 269 107 29 31 
286 111 268 97 40 25 
286 111 269 100 36 28 
287 110 268 106 29 27 
287 111 268 96 42 27 
272 96 275 109 18 26 
272 97 275 108 40 33 
273 96 274 106 20 23 
273 96 275 109 18 26 
273 97 274 104 29 26 
272 98 275 110 62 50 
272 99 275 107 73 57 
273 98 274 105 46 37 
273 99 274 105 47 39 
273 99 275 107 61 49 
274 96 273 105 23 21 
274 97 273 103 25 23 
275 96 273 106 24 23 
275 97 273 103 26 27 
274 96 274 105 22 21 
274 97 274 102 25 22 
274 98 273 102 28 25 
274 99 273 102 31 29 
275 98 273 101 29 29 
275 99 273 102 29 31 
274 98 274 102 33 26 
274 99 274 103 36 32 
272 100 275 102 66 45 
272 101 275 102 58 37 
273 100 274 103 39 31 
273 100 275 103 53 37 
273 101 274 105 32 31 
273 101 275 104 44 30 
272 102 275 103 55 34 
273 102 274 104 29 29 
273 102 275 104 39 29 
273 103 275 106 30 28 
274 100 273 102 28 28 
275 100 273 101 25 30 
275 101 273 102 27 34 
274 100 274 103 28 29 
274 101 274 104 28 32 
275 102 273 99 30 33 
275 103 273 97 31 30 
274 102 274 104 28 32 
274 103 274 104 24 30 
274 103 275 105 19 28 
275 102 274 102 28 32 
275 103 274 99 32 32 
272 100 276 102 69 49 
272 101 276 103 71 51 
272 102 276 104 59 38 
272 103 276 106 48 33 
273 103 276 106 31 28 
276 96 272 106 24 30 
276 96 273 106 24 27 
276 97 272 102 24 29 
276 97 273 103 25 30 
277 96 272 107 24 30 
277 97 272 102 25 26 
276 98 272 100 25 28 
276 98 273 101 29 31 
276 99 272 98 24 31 
276 99 273 99 25 31 
277 98 272 100 27 26 
277 99 272 96 27 29 
278 96 272 107 24 26 
278 99 272 94 35 29 
276 100 272 96 28 32 
276 100 273 97 28 33 
276 101 273 97 34 34 
277 100 272 94 34 29 
277 101 272 93 41 31 
276 102 273 94 36 31 
276 103 273 92 40 29 
277 102 272 92 46 30 
277 102 273 91 42 27 
277 103 272 95 60 38 
277 103 273 91 51 31 
278 100 272 92 41 30 
278 101 272 95 53 40 
278 102 272 97 64 46 
278 103 272 103 78 56 
273 104 275 109 23 33 
273 105 275 109 21 35 
273 106 275 108 22 34 
273 107 275 105 25 32 
274 104 274 103 26 31 
274 104 275 105 22 31 
274 105 275 103 25 30 
275 104 274 97 37 32 
275 105 274 94 39 30 
274 106 275 100 27 27 
274 107 275 99 42 28 
275 106 274 96 47 31 
275 107 274 100 62 39 
275 107 275 99 59 36 
272 104 276 109 41 31 
272 105 276 112 33 31 
273 104 276 108 27 29 
273 105 276 112 17 34 
272 106 276 115 19 35 
272 106 277 114 27 31 
272 107 276 119 17 41 
272 107 277 118 19 37 
273 106 276 113 16 37 
273 107 276 111 18 36 
274 108 275 99 56 35 
274 109 275 101 66 46 
275 108 274 110 84 62 
275 108 275 105 72 51 
275 109 274 115 91 71 
275 109 275 112 88 68 
274 110 275 106 85 65 
274 111 275 104 89 70 
275 110 275 116 97 79 
275 111 275 114 97 81 
272 108 276 118 15 39 
272 108 277 120 16 40 
272 109 277 117 19 38 
273 108 276 105 24 31 
273 109 276 101 36 32 
272 110 277 113 24 35 
272 111 277 108 24 29 
273 110 276 97 41 29 
273 111 276 90 46 25 
274 110 276 98 70 48 
274 111 276 92 73 49 
276 104 273 93 46 31 
276 105 273 95 53 38 
277 104 272 101 72 48 
277 104 273 97 62 42 
277 105 272 109 87 64 
277 105 273 103 72 53 
276 105 274 93 49 33 
276 106 273 102 67 49 
276 107 273 106 77 57 
277 106 272 114 93 72 
277 106 273 109 84 64 
277 107 273 114 92 70 
276 106 274 97 58 39 
276 107 274 108 80 59 
278 104 272 109 89 66 
278 105 272 113 93 69 
279 104 272 113 93 72 
279 105 272 115 94 72 
278 106 272 116 95 73 
278 107 272 117 95 73 
278 107 273 118 96 74 
279 106 272 116 94 72 
279 107 272 118 96 75 
277 108 273 118 95 73 
277 109 273 118 97 75 
276 108 274 115 93 71 
276 109 274 119 98 78 
277 108 274 118 96 74 
277 109 274 119 98 76 
277 110 273 117 98 77 
276 110 274 119 99 80 
276 110 275 121 101 83 
276 111 274 115 98 80 
276 111 275 118 99 82 
277 110 274 118 98 77 
277 111 274 116 99 81 
278 108 272 118 96 75 
278 108 273 118 97 75 
278 109 273 118 97 76 
