ply
format ascii 1.0
comment Created by CloudCompare v2.10.1 (Zephyrus)
comment Created 1/31/20 11:55 AM
obj_info Generated by CloudCompare!
element vertex 2120
property float x
property float y
property float z
property uchar red
property uchar green
property uchar blue
end_header
239 475 244 158 16 51 
236 476 240 152 16 54 
236 476 241 151 15 50 
236 477 240 149 15 51 
237 476 241 137 12 46 
237 477 240 132 12 46 
237 477 241 118 8 40 
236 478 240 154 15 48 
237 478 240 141 18 51 
237 479 240 154 19 50 
238 476 241 116 10 42 
238 477 241 86 4 29 
238 476 242 131 16 47 
238 477 242 79 14 29 
239 476 242 112 16 43 
239 476 243 135 16 49 
239 477 242 55 19 26 
239 477 243 84 17 29 
238 478 240 130 15 49 
238 478 241 95 14 38 
238 479 240 148 20 49 
238 479 241 127 18 46 
239 478 241 75 13 28 
239 479 241 103 12 34 
239 478 242 43 20 28 
240 461 255 36 26 25 
240 463 253 90 28 39 
240 462 254 63 22 29 
240 462 255 44 24 26 
240 463 254 60 28 29 
241 462 255 39 26 25 
241 463 254 42 26 25 
241 463 255 33 25 23 
240 471 247 37 24 26 
240 465 251 133 37 59 
240 466 250 125 11 32 
240 466 251 113 16 36 
240 467 250 133 31 53 
240 467 251 116 19 42 
241 467 251 105 32 52 
240 464 252 98 9 32 
240 464 253 64 19 25 
240 465 252 96 23 37 
241 464 253 42 20 24 
241 465 252 65 26 31 
241 465 253 42 22 28 
241 464 254 34 24 27 
241 464 255 30 23 25 
241 465 254 37 23 32 
240 466 252 107 30 46 
241 466 252 66 20 26 
241 466 253 40 23 27 
241 467 252 69 20 31 
242 464 255 34 24 27 
242 465 254 38 24 31 
242 465 255 39 28 30 
243 465 255 36 29 29 
242 466 252 46 21 23 
242 466 253 39 24 26 
242 467 252 45 26 25 
242 467 253 36 25 26 
243 467 253 36 24 28 
242 466 254 42 26 29 
243 466 254 41 28 29 
243 466 255 40 28 30 
243 467 254 43 24 30 
243 467 255 53 29 36 
240 468 249 133 41 62 
240 469 248 93 30 39 
240 469 249 95 25 36 
241 469 249 71 17 24 
240 468 250 127 34 56 
241 468 250 114 40 57 
241 468 251 100 41 53 
241 469 250 74 19 27 
241 469 251 76 26 33 
240 470 248 31 26 27 
240 470 249 46 21 23 
240 471 248 29 28 28 
241 470 248 28 29 28 
241 470 249 37 27 26 
241 471 248 35 30 28 
241 471 249 36 30 27 
241 470 250 46 26 27 
242 468 251 80 39 43 
242 469 251 56 27 27 
242 471 249 36 28 31 
242 470 250 41 26 29 
242 470 251 39 25 27 
242 471 250 35 27 31 
243 470 251 33 25 28 
243 471 250 32 25 32 
243 471 251 33 24 29 
242 468 252 54 30 29 
242 469 252 47 31 30 
243 468 252 39 31 29 
243 468 253 34 25 29 
243 469 252 38 31 29 
243 469 253 34 28 29 
243 468 254 37 19 28 
243 470 252 34 25 26 
244 466 255 52 29 34 
244 467 255 62 28 35 
244 469 253 37 25 28 
244 468 254 42 18 27 
244 468 255 66 18 31 
244 469 254 43 20 25 
245 468 255 83 15 32 
245 469 254 49 18 23 
245 469 255 75 16 28 
244 470 252 40 22 25 
244 470 253 44 24 26 
244 471 252 45 26 30 
245 470 253 50 22 25 
245 471 252 63 35 40 
245 471 253 62 27 35 
245 470 254 55 20 25 
245 470 255 68 14 24 
245 471 254 59 18 27 
246 470 254 61 18 26 
246 470 255 85 23 34 
246 471 254 71 21 30 
246 471 255 90 36 44 
247 471 255 94 30 39 
240 472 247 77 10 29 
240 473 246 149 18 52 
240 473 247 114 16 39 
241 472 247 65 16 23 
241 473 246 148 15 54 
241 473 247 118 11 40 
240 474 245 159 15 46 
240 475 244 158 17 51 
240 475 245 160 16 48 
241 475 245 159 20 52 
240 474 246 158 16 48 
241 474 246 158 16 51 
241 474 247 158 16 53 
241 475 246 160 18 48 
242 474 247 156 20 52 
242 475 246 156 24 54 
242 475 247 155 23 54 
243 475 247 148 29 57 
240 476 243 122 16 44 
240 477 242 32 23 25 
240 477 243 66 19 25 
241 477 243 44 22 23 
240 478 242 30 24 30 
240 478 243 26 25 30 
240 479 242 68 13 29 
241 478 243 33 25 30 
241 479 242 47 21 28 
241 479 243 44 22 29 
242 479 243 52 25 32 
240 476 244 140 19 50 
241 476 244 143 23 54 
241 476 245 142 24 56 
241 477 244 77 21 28 
241 477 245 107 21 39 
241 478 244 39 26 30 
242 476 245 138 24 53 
242 477 244 44 22 22 
242 477 245 77 20 31 
243 477 245 51 20 25 
242 476 246 139 30 56 
243 476 246 120 25 49 
243 476 247 124 25 50 
243 477 246 61 17 25 
242 478 244 42 25 28 
242 479 244 57 26 35 
243 478 244 54 23 29 
243 478 245 55 23 29 
243 479 244 65 29 38 
243 479 245 73 32 41 
244 476 247 96 17 38 
244 477 246 47 21 24 
244 477 247 48 20 24 
245 477 247 42 30 26 
244 478 245 71 28 38 
244 479 245 85 35 48 
244 478 246 68 26 33 
244 479 246 98 46 57 
245 478 246 80 32 37 
245 478 247 69 30 32 
245 479 246 98 43 54 
245 479 247 98 49 56 
246 479 247 86 32 42 
241 472 248 43 24 27 
241 473 248 107 11 33 
242 472 248 46 25 29 
242 472 249 38 26 29 
242 473 248 99 18 34 
242 473 249 60 20 28 
243 472 249 42 22 26 
243 473 248 125 34 53 
243 473 249 84 34 42 
243 472 250 33 25 27 
243 472 251 32 25 27 
243 473 250 49 21 28 
242 474 248 149 25 52 
243 474 248 141 36 58 
243 474 249 115 48 59 
243 475 248 140 37 56 
244 472 251 38 24 28 
244 473 250 56 27 31 
244 473 251 37 24 25 
245 473 251 35 25 25 
244 474 249 93 37 41 
244 475 248 108 34 45 
244 475 249 73 29 32 
245 475 249 49 25 25 
244 474 250 61 28 29 
245 474 250 45 27 27 
245 474 251 31 27 27 
245 475 250 35 23 27 
245 475 251 26 26 28 
246 475 251 25 25 28 
244 472 252 53 30 35 
245 472 252 64 34 39 
245 472 253 72 38 47 
245 473 252 42 20 24 
246 472 253 72 32 42 
246 473 252 43 20 24 
246 473 253 69 25 33 
247 473 253 76 29 38 
246 472 254 73 15 29 
247 472 254 82 11 26 
247 472 255 90 11 24 
247 473 254 100 42 52 
246 474 252 36 25 27 
246 475 252 30 25 27 
247 474 252 47 24 27 
247 474 253 67 30 32 
247 475 252 40 21 24 
244 476 248 83 20 36 
244 477 248 49 18 27 
245 476 248 46 19 26 
245 476 249 38 24 29 
245 477 248 39 25 28 
245 477 249 33 22 33 
245 476 250 28 27 29 
245 478 248 59 26 28 
246 477 248 44 26 31 
246 477 249 35 25 29 
246 476 250 26 27 27 
246 476 251 31 25 26 
246 477 250 32 26 23 
247 476 251 47 24 25 
247 477 250 55 20 24 
247 477 251 63 26 28 
246 478 248 52 22 29 
246 478 249 42 23 28 
246 479 248 69 20 30 
247 478 249 51 19 26 
247 479 248 73 17 28 
247 479 249 54 14 23 
247 478 250 65 18 26 
247 476 252 55 23 28 
248 472 255 96 18 33 
248 473 254 101 36 48 
248 473 255 98 36 48 
248 474 253 78 36 37 
248 475 253 69 29 33 
248 474 254 79 29 34 
248 474 255 70 19 24 
248 475 254 67 25 29 
249 474 255 53 20 23 
249 475 254 54 18 25 
250 475 255 39 20 25 
248 477 251 97 34 43 
248 479 249 84 12 30 
248 478 250 79 14 28 
248 478 251 103 24 38 
248 479 250 95 12 29 
249 478 251 112 21 40 
249 479 250 109 13 31 
249 479 251 111 15 32 
250 479 251 119 17 38 
248 476 252 81 32 39 
248 476 253 80 30 35 
248 477 252 107 38 50 
249 476 253 81 28 31 
249 477 252 108 22 43 
249 477 253 91 25 37 
249 476 254 64 20 26 
249 478 252 115 16 41 
250 477 253 92 15 32 
250 476 254 56 14 29 
250 476 255 47 17 28 
250 477 254 73 13 29 
251 476 255 51 19 28 
251 477 254 87 12 34 
251 477 255 76 23 35 
250 478 252 111 13 40 
250 478 253 103 9 33 
250 479 252 119 19 43 
251 478 253 106 4 33 
251 479 252 120 12 33 
251 479 253 121 21 45 
251 478 254 101 14 36 
252 477 255 91 33 46 
252 478 254 103 23 40 
252 478 255 100 28 42 
252 479 254 116 28 46 
252 479 255 101 19 33 
253 479 255 96 15 26 
233 509 223 120 14 37 
232 510 223 119 7 37 
232 511 223 117 9 41 
233 510 223 120 9 37 
233 511 223 119 8 39 
234 509 223 122 14 39 
234 510 223 120 9 37 
234 511 223 120 7 38 
235 510 223 120 7 37 
235 511 223 119 7 37 
227 482 235 143 11 45 
227 483 235 142 10 43 
224 480 237 144 9 42 
224 481 237 145 8 45 
225 480 236 145 11 44 
225 480 237 145 10 43 
225 481 236 146 9 46 
224 482 236 144 8 46 
224 482 237 143 7 46 
224 483 236 142 7 45 
224 483 237 142 7 45 
225 482 236 144 8 45 
225 483 236 142 8 44 
226 480 236 146 12 45 
226 481 236 146 10 48 
227 480 236 147 13 46 
227 481 236 145 12 48 
226 482 236 144 10 46 
226 483 236 143 9 42 
227 482 236 144 11 47 
227 483 236 143 10 44 
225 484 235 139 8 40 
225 485 235 139 8 42 
225 487 233 140 8 45 
225 486 234 138 9 41 
225 486 235 138 8 42 
225 487 234 140 9 44 
226 484 235 141 9 40 
226 485 234 139 9 41 
226 485 235 139 9 41 
227 484 234 140 10 42 
227 484 235 141 10 41 
227 485 234 138 10 39 
226 487 233 141 8 47 
227 486 233 139 9 41 
227 487 233 141 8 47 
226 486 234 138 9 40 
226 487 234 139 9 43 
227 486 234 138 9 38 
224 484 236 140 7 43 
225 484 236 141 8 42 
228 481 235 144 13 45 
229 481 235 144 14 45 
228 482 235 143 12 44 
228 483 235 141 11 41 
229 482 235 141 14 42 
229 483 235 140 12 41 
230 481 235 145 14 44 
231 481 235 146 14 46 
230 482 235 142 14 41 
230 483 235 140 13 41 
231 482 235 144 14 44 
231 483 235 140 13 42 
228 480 236 148 14 48 
228 481 236 145 13 48 
229 480 236 149 14 48 
229 481 236 146 13 47 
230 480 236 150 14 49 
230 481 236 147 14 45 
231 480 236 152 14 49 
231 481 236 148 14 47 
229 485 233 138 9 37 
228 484 234 139 10 39 
228 484 235 140 10 40 
228 485 234 138 9 37 
229 484 234 139 10 38 
229 485 234 138 9 37 
228 486 233 139 8 42 
228 487 233 141 8 46 
229 486 233 140 9 43 
229 487 233 141 8 42 
230 485 233 138 10 40 
231 485 233 137 11 42 
230 484 234 138 11 40 
230 485 234 138 10 39 
231 484 234 137 12 42 
231 485 234 137 12 43 
230 486 233 139 9 44 
230 487 233 139 9 42 
231 486 233 138 10 45 
231 487 233 138 10 44 
227 491 231 140 10 45 
227 492 231 140 10 41 
227 493 230 139 10 39 
227 493 231 140 10 40 
227 494 230 140 11 43 
227 494 231 140 10 44 
228 490 231 141 11 49 
228 491 231 139 10 47 
229 490 231 139 10 45 
229 491 230 135 10 42 
229 491 231 137 10 45 
230 490 231 136 10 41 
230 491 230 134 10 42 
230 491 231 135 10 42 
231 490 231 134 11 40 
231 491 231 134 11 42 
228 492 230 138 10 47 
228 492 231 139 9 43 
228 493 230 139 9 41 
229 492 230 137 10 46 
229 493 230 137 10 43 
228 495 229 138 9 45 
229 494 229 136 9 41 
229 495 229 137 9 43 
228 494 230 139 9 42 
228 495 230 138 9 42 
229 494 230 137 9 41 
230 492 230 135 10 44 
230 493 230 135 10 42 
231 492 230 133 11 42 
231 492 231 133 11 43 
231 493 230 133 10 42 
230 494 229 136 10 42 
230 495 229 136 10 44 
230 494 230 135 10 43 
230 495 230 135 10 44 
231 494 230 134 10 43 
231 495 230 134 10 43 
226 488 232 143 8 44 
226 488 233 143 8 46 
226 489 232 143 10 40 
227 488 232 141 8 42 
227 488 233 142 8 44 
227 489 232 142 10 42 
226 490 232 144 10 47 
226 491 232 142 10 45 
227 490 232 143 10 47 
227 491 232 141 10 45 
228 488 232 141 8 42 
228 489 232 141 9 43 
229 488 232 140 8 39 
229 489 232 140 9 43 
228 490 232 142 10 46 
230 488 232 139 9 39 
230 489 232 138 10 44 
231 488 232 137 10 42 
231 488 233 138 10 43 
231 489 232 136 11 43 
231 490 232 134 11 40 
232 482 235 144 14 46 
232 483 235 141 14 43 
233 482 235 144 14 45 
233 483 235 141 14 44 
234 483 235 142 14 45 
232 480 236 153 15 49 
232 481 236 148 14 47 
233 480 236 153 15 48 
233 480 237 155 15 48 
233 481 236 149 15 49 
233 482 236 146 14 46 
234 480 237 155 15 48 
234 481 236 150 15 48 
234 481 237 151 15 48 
235 480 237 155 15 47 
235 481 237 153 16 47 
234 480 238 157 16 48 
235 480 238 157 16 48 
234 482 236 147 15 47 
234 483 236 144 15 46 
235 482 236 148 15 48 
235 482 237 150 15 48 
235 483 236 145 15 47 
232 485 233 136 11 41 
232 484 234 137 12 41 
232 485 234 136 12 42 
233 484 234 136 13 41 
233 484 235 137 13 41 
233 485 234 135 13 41 
232 486 233 137 11 45 
232 487 233 137 11 43 
233 486 233 136 12 44 
233 487 233 135 11 43 
233 486 234 135 12 44 
234 484 234 136 13 40 
234 484 235 138 13 43 
234 485 234 135 13 41 
234 485 235 135 13 41 
235 484 235 138 13 42 
235 485 235 136 13 43 
234 487 233 134 12 42 
234 486 234 134 12 42 
234 487 234 133 12 40 
235 486 234 134 13 42 
235 486 235 135 13 43 
235 487 234 132 12 41 
235 484 236 141 14 45 
236 480 238 157 16 47 
236 480 239 158 16 50 
236 481 238 156 16 47 
237 480 239 158 16 50 
237 481 238 156 16 47 
237 481 239 156 16 52 
236 482 237 151 15 47 
236 483 236 145 15 46 
236 483 237 148 15 47 
237 483 237 148 15 47 
236 482 238 154 16 44 
237 482 238 154 15 47 
237 482 239 155 16 49 
237 483 238 151 15 46 
238 481 239 157 16 55 
238 482 239 155 16 50 
238 483 238 153 15 47 
238 483 239 154 15 49 
236 485 235 138 13 45 
236 486 235 135 13 44 
236 487 234 133 12 42 
236 487 235 133 12 42 
237 486 235 136 13 44 
237 487 235 134 13 43 
238 487 235 136 13 43 
236 484 236 142 14 45 
236 484 237 145 15 47 
236 485 236 140 14 46 
237 484 236 142 14 47 
237 484 237 146 15 47 
237 485 236 141 14 45 
237 485 237 143 14 45 
237 486 236 138 13 44 
238 485 236 143 14 45 
238 485 237 145 14 45 
238 484 238 150 15 47 
238 484 239 154 15 48 
238 485 238 147 15 45 
239 484 238 151 15 48 
239 484 239 153 15 47 
239 485 238 148 15 47 
239 485 239 151 15 47 
238 486 236 140 13 45 
238 486 237 144 14 45 
238 487 236 139 13 45 
239 486 237 145 14 44 
239 487 236 140 14 47 
239 487 237 143 14 48 
239 486 238 147 15 45 
232 491 231 132 11 41 
232 492 231 132 11 41 
232 493 230 132 11 42 
232 493 231 131 11 41 
233 492 231 130 11 41 
233 493 231 130 11 42 
232 494 230 132 11 42 
232 494 231 131 10 41 
232 495 230 132 10 42 
232 495 231 131 11 41 
233 494 231 129 10 41 
233 495 231 128 10 41 
234 494 231 127 10 41 
232 488 232 137 11 43 
232 488 233 137 11 44 
232 489 232 135 11 42 
233 488 233 135 12 44 
233 489 232 134 12 42 
233 489 233 133 12 42 
232 490 232 133 11 41 
232 491 232 132 11 41 
233 490 232 132 12 41 
233 491 232 130 11 41 
234 488 233 133 12 42 
234 489 233 131 12 40 
234 488 234 133 12 42 
235 488 234 132 12 42 
235 489 234 131 12 40 
234 490 233 130 12 40 
234 491 232 129 11 40 
234 491 233 130 12 40 
235 490 233 129 12 39 
235 491 233 129 12 41 
235 490 234 129 12 38 
235 491 234 129 12 41 
233 492 232 129 11 40 
233 493 232 127 10 41 
234 492 232 127 10 40 
234 492 233 127 11 40 
234 493 232 127 10 41 
235 492 233 128 11 40 
235 493 233 126 10 40 
234 494 232 126 10 40 
234 495 232 125 10 40 
235 494 233 125 10 39 
235 495 232 124 10 39 
235 495 233 124 10 39 
236 488 234 132 12 42 
236 489 234 131 12 41 
237 488 234 132 12 42 
237 488 235 133 12 43 
237 489 234 131 12 41 
237 489 235 131 12 41 
236 490 234 129 12 39 
236 491 234 129 12 42 
237 490 234 129 12 39 
237 490 235 129 12 39 
237 491 234 128 11 39 
238 488 235 134 13 43 
238 489 235 132 12 40 
239 489 235 134 12 41 
238 490 235 130 12 38 
238 491 235 129 12 38 
239 490 235 131 12 40 
239 491 235 130 12 41 
238 488 236 138 13 44 
239 488 236 138 14 46 
239 489 236 136 13 42 
239 490 236 133 15 40 
236 492 233 127 10 39 
236 492 234 127 11 41 
236 493 234 126 10 42 
237 492 234 127 11 39 
237 493 234 126 10 39 
236 495 233 124 10 38 
236 494 234 125 10 39 
236 495 234 123 10 37 
237 494 234 125 10 38 
237 495 234 124 10 36 
238 492 234 128 11 37 
238 492 235 127 10 37 
238 493 234 127 10 38 
239 492 235 129 12 39 
239 493 234 127 10 39 
239 493 235 128 11 39 
238 494 234 126 10 38 
238 495 234 125 10 39 
239 494 234 126 10 38 
239 495 234 125 10 39 
237 480 240 158 19 47 
238 480 240 156 17 51 
238 480 241 146 26 54 
238 481 240 158 16 56 
239 480 241 144 18 47 
239 481 240 160 16 54 
239 481 241 158 16 52 
238 482 240 157 16 52 
239 482 240 159 16 50 
239 483 240 155 15 46 
239 484 240 154 15 46 
228 496 229 139 10 46 
228 497 229 137 10 44 
229 496 229 138 10 45 
229 497 229 137 10 44 
228 498 229 136 10 45 
229 498 229 136 10 44 
229 499 229 135 10 44 
230 496 229 137 10 43 
230 497 229 137 10 43 
230 496 230 136 10 44 
230 497 230 136 10 43 
231 496 230 134 10 43 
231 497 230 134 11 41 
230 498 229 135 10 42 
230 499 229 135 10 41 
231 499 229 134 11 40 
230 498 230 135 10 41 
231 498 230 134 11 40 
231 499 230 133 11 39 
231 503 227 131 12 42 
229 500 229 135 10 44 
229 501 229 135 10 45 
230 500 229 135 10 41 
230 501 229 135 11 41 
231 500 229 134 11 40 
231 501 229 133 11 39 
230 502 228 133 10 41 
230 502 229 134 10 41 
230 503 228 132 10 41 
231 502 228 132 12 40 
231 502 229 132 12 40 
231 503 228 129 10 40 
230 504 227 132 10 43 
231 504 227 131 11 43 
231 505 226 132 11 43 
231 506 225 128 10 42 
231 507 225 126 10 38 
231 506 226 129 11 43 
231 508 225 125 10 39 
232 496 230 131 11 42 
232 497 230 131 11 41 
233 496 231 128 10 41 
233 497 230 130 12 42 
233 497 231 127 10 40 
232 498 230 132 11 40 
232 499 230 131 12 40 
233 498 230 127 11 40 
233 499 230 127 10 40 
234 496 231 124 10 38 
234 497 231 124 10 39 
234 498 230 125 10 39 
234 498 231 125 10 39 
234 499 230 125 10 40 
235 498 231 124 10 38 
235 499 230 123 10 39 
235 499 231 122 10 37 
232 503 227 129 11 41 
233 503 227 126 10 40 
234 503 227 125 10 39 
232 500 229 130 11 41 
232 501 229 131 11 39 
233 500 229 126 10 39 
233 501 229 127 10 39 
232 500 230 128 10 40 
233 500 230 126 10 40 
232 502 228 128 10 40 
232 502 229 130 11 39 
232 503 228 128 10 40 
233 502 228 126 10 40 
233 502 229 127 10 41 
233 503 228 126 10 40 
234 501 229 125 10 38 
235 501 229 124 10 39 
234 500 230 124 10 38 
235 500 230 123 10 39 
235 501 230 122 10 39 
234 502 228 124 10 37 
234 502 229 125 10 39 
234 503 228 124 10 37 
235 502 229 123 10 39 
235 503 228 123 10 37 
235 503 229 121 10 37 
236 498 231 122 10 37 
236 499 231 122 10 38 
237 499 231 121 10 39 
236 500 230 121 9 39 
236 500 231 120 8 38 
236 501 230 120 7 39 
237 500 231 119 7 36 
237 501 230 119 7 36 
237 501 231 119 7 36 
236 502 229 120 8 37 
236 503 228 121 10 37 
236 503 229 120 7 36 
237 503 229 118 7 35 
236 502 230 120 8 37 
237 502 230 118 7 35 
237 503 230 118 7 35 
238 500 231 119 7 36 
238 501 231 119 7 37 
239 501 231 119 7 40 
238 502 230 118 7 37 
238 502 231 118 7 35 
238 503 230 118 7 36 
238 503 231 117 7 34 
239 502 231 118 7 36 
239 503 231 117 7 35 
234 496 232 124 10 39 
235 496 232 123 10 39 
235 496 233 124 10 39 
235 497 232 124 10 39 
236 496 233 123 10 38 
236 497 232 123 10 38 
236 497 233 123 10 38 
237 496 233 123 10 38 
237 497 233 122 9 38 
237 496 234 123 10 37 
237 497 234 122 10 37 
236 498 232 122 10 37 
237 498 232 121 8 36 
237 498 233 122 9 38 
237 499 232 120 7 37 
238 497 233 121 9 37 
239 496 233 124 10 38 
239 497 233 122 9 37 
238 496 234 124 10 37 
238 497 234 122 10 36 
239 496 234 124 10 38 
238 498 232 119 7 36 
238 498 233 120 7 36 
238 499 232 119 7 36 
239 498 232 119 7 38 
239 498 233 121 8 38 
239 499 232 118 7 36 
238 500 232 118 7 36 
239 500 232 118 7 37 
232 504 227 129 11 42 
232 505 226 130 12 44 
233 504 227 127 10 42 
233 505 226 127 10 40 
232 506 225 128 10 42 
232 507 225 126 10 40 
233 506 225 125 10 38 
233 507 225 123 10 36 
232 506 226 128 11 44 
233 506 226 125 10 39 
234 504 227 125 10 41 
234 505 226 124 10 38 
235 504 227 124 10 37 
235 505 227 123 10 37 
234 507 225 123 10 35 
235 507 225 122 9 36 
234 506 226 123 10 37 
235 506 226 122 9 37 
235 504 228 123 10 37 
232 508 224 123 10 38 
232 508 225 124 10 38 
232 509 224 121 10 37 
233 508 224 122 10 36 
233 509 224 121 12 35 
232 510 224 118 8 37 
234 508 224 123 10 38 
234 509 224 123 12 39 
235 508 224 122 9 39 
235 508 225 122 9 39 
235 509 224 121 8 39 
235 510 224 120 7 38 
236 505 227 121 7 38 
236 506 226 121 7 38 
236 506 227 119 7 37 
236 507 226 120 7 38 
236 507 227 119 7 38 
237 506 227 118 7 36 
237 507 227 118 7 37 
238 507 226 115 7 36 
236 504 228 120 7 37 
236 504 229 120 8 36 
236 505 228 120 7 38 
237 504 229 118 7 35 
237 505 228 118 7 36 
237 505 229 118 7 37 
237 504 230 117 7 35 
236 506 228 120 7 38 
237 506 228 117 7 36 
237 507 228 117 7 37 
238 505 229 117 7 36 
238 504 230 117 7 35 
238 505 230 117 7 36 
239 504 230 117 7 35 
239 504 231 117 7 35 
239 505 230 117 7 37 
238 506 229 116 7 35 
238 507 228 116 7 37 
238 507 229 116 7 37 
239 507 228 116 7 37 
239 507 229 116 7 37 
238 506 230 117 7 37 
239 506 230 116 7 38 
239 507 230 116 7 38 
236 508 224 120 8 39 
236 508 225 120 7 39 
236 509 224 120 7 39 
236 509 225 119 7 39 
237 508 225 118 7 38 
237 509 225 118 7 39 
236 508 226 119 7 38 
237 508 226 117 7 37 
237 508 227 118 7 38 
237 509 226 118 7 37 
237 509 227 117 7 37 
236 510 224 119 7 38 
236 511 224 118 7 37 
237 510 224 118 7 38 
237 510 225 119 7 38 
237 511 225 118 7 38 
237 510 226 118 7 38 
238 509 225 116 7 37 
238 508 227 116 7 37 
238 509 226 117 7 37 
238 509 227 117 7 38 
239 508 227 116 7 36 
239 509 227 116 7 37 
238 510 225 119 7 38 
238 511 225 118 7 38 
238 510 226 117 7 38 
238 510 227 117 7 38 
238 511 226 117 7 37 
238 511 227 116 7 38 
239 510 226 116 7 36 
239 510 227 116 7 36 
239 511 227 115 7 37 
238 508 228 116 7 37 
239 508 228 115 8 36 
239 508 229 116 7 37 
239 509 228 115 8 36 
239 511 228 115 7 35 
240 484 239 153 15 48 
240 485 239 152 15 49 
241 485 239 153 15 50 
240 487 237 146 14 47 
240 486 238 150 15 46 
240 486 239 151 15 48 
240 487 238 149 15 43 
241 486 239 152 15 45 
241 487 238 150 15 44 
241 487 239 151 15 44 
242 486 239 154 15 45 
242 487 238 152 14 45 
242 487 239 154 16 43 
243 487 239 155 15 45 
240 491 235 133 12 44 
241 491 235 133 12 45 
240 488 236 140 14 46 
240 488 237 144 14 49 
240 489 236 138 14 42 
241 488 237 147 15 46 
241 489 236 141 14 43 
241 489 237 145 14 47 
241 488 238 151 15 43 
240 490 236 136 14 43 
240 491 236 135 12 46 
241 490 236 138 16 47 
241 490 237 142 14 48 
241 491 236 133 13 46 
242 489 237 145 17 50 
242 488 238 153 16 49 
242 488 239 154 15 48 
242 489 238 148 20 52 
243 488 239 153 19 51 
243 489 238 144 18 53 
243 489 239 151 24 56 
242 490 237 134 20 48 
242 491 236 123 11 39 
242 491 237 115 15 38 
243 490 237 119 15 43 
243 491 237 105 13 35 
243 490 238 124 17 49 
243 491 238 82 15 31 
240 492 235 131 12 40 
240 493 234 129 12 38 
240 493 235 129 13 39 
241 492 235 127 15 41 
241 493 235 122 17 38 
240 494 234 127 11 40 
240 495 234 121 10 38 
241 494 234 122 10 42 
241 494 235 115 10 42 
241 495 234 105 3 39 
241 495 235 101 11 39 
242 492 235 112 15 32 
242 493 235 106 18 30 
242 494 235 88 15 30 
242 495 235 71 14 30 
243 494 235 59 22 24 
243 495 235 48 24 26 
242 492 236 107 15 35 
242 493 236 87 21 24 
243 492 237 80 9 29 
243 493 236 70 18 27 
243 493 237 74 11 26 
243 494 236 57 22 26 
243 495 236 46 25 27 
244 488 239 140 20 50 
244 489 238 133 16 48 
244 489 239 138 25 53 
245 489 239 107 27 43 
244 490 238 114 16 44 
244 490 239 99 19 40 
244 491 238 84 12 33 
245 490 239 81 27 38 
245 491 238 55 18 25 
245 491 239 53 20 26 
246 490 239 47 27 29 
246 491 239 36 26 25 
244 492 237 60 15 28 
244 493 237 54 22 29 
245 493 237 45 28 28 
244 492 238 62 18 28 
245 492 238 39 23 25 
245 493 238 37 28 27 
244 494 236 53 24 29 
244 494 237 53 27 30 
244 495 236 44 23 27 
245 494 237 48 28 29 
245 495 236 45 26 29 
245 495 237 41 27 29 
246 492 238 31 26 27 
246 492 239 30 26 26 
246 493 238 33 27 28 
247 492 239 29 27 28 
247 493 238 32 28 29 
247 493 239 30 27 29 
246 494 237 42 29 28 
246 495 237 34 27 28 
246 494 238 35 28 28 
247 494 238 31 28 28 
247 494 239 30 28 30 
247 495 238 25 28 27 
248 494 239 34 25 30 
248 495 238 28 25 24 
248 495 239 31 25 27 
249 495 239 46 23 30 
240 480 241 135 13 42 
240 481 241 156 17 51 
241 481 241 155 18 54 
240 480 242 111 13 40 
241 480 242 113 17 42 
241 480 243 73 19 29 
241 481 242 153 19 53 
240 482 241 159 16 49 
240 483 240 156 15 47 
240 483 241 157 15 47 
241 482 241 159 16 46 
241 483 241 158 15 49 
241 482 242 159 16 49 
242 480 243 82 15 28 
242 481 242 150 17 50 
242 481 243 135 15 46 
243 480 243 90 14 28 
243 481 243 135 14 47 
242 483 241 158 15 49 
242 482 242 159 16 49 
242 483 242 159 15 52 
243 482 242 159 16 49 
243 482 243 157 17 53 
243 483 242 159 15 49 
243 480 244 71 21 31 
240 484 240 155 15 48 
241 484 240 156 15 51 
241 484 241 157 15 50 
241 485 240 155 15 52 
242 484 241 157 15 49 
242 485 240 157 15 53 
242 485 241 157 15 52 
243 484 241 157 15 47 
243 485 240 158 15 52 
243 485 241 158 15 51 
243 484 242 158 15 48 
242 486 240 156 15 50 
243 486 240 156 15 49 
243 487 240 154 15 47 
244 481 243 143 16 50 
244 482 243 158 17 52 
244 483 242 158 15 52 
244 483 243 158 15 49 
245 482 243 158 21 54 
245 483 243 153 20 52 
244 480 244 78 14 30 
244 480 245 79 23 37 
244 481 244 123 15 42 
245 480 245 88 13 31 
245 481 244 130 18 46 
245 481 245 128 21 49 
245 480 246 89 21 34 
245 482 244 152 20 53 
245 483 244 145 26 49 
246 481 245 137 37 57 
246 480 246 105 23 39 
246 480 247 89 10 25 
246 481 246 134 41 60 
247 480 247 122 27 47 
247 481 246 135 39 59 
247 481 247 132 32 55 
246 482 245 144 35 58 
246 483 244 128 20 46 
246 483 245 129 20 48 
247 482 245 122 24 48 
247 483 245 107 15 40 
247 482 246 114 23 42 
247 483 246 85 9 27 
244 485 241 155 15 49 
244 484 242 156 15 51 
244 485 242 153 16 47 
245 484 242 142 14 44 
245 484 243 133 12 43 
245 485 242 139 28 48 
245 485 243 114 15 26 
244 486 240 152 15 50 
244 486 241 151 15 50 
244 487 240 146 15 48 
245 486 241 140 23 51 
245 487 240 124 9 40 
245 487 241 124 13 43 
245 486 242 130 35 54 
246 484 243 96 7 30 
246 485 243 80 14 28 
246 487 241 103 14 39 
246 486 242 104 36 48 
246 486 243 89 32 43 
246 487 242 82 22 36 
247 486 243 89 19 38 
247 487 242 76 19 33 
247 487 243 90 27 41 
246 484 244 91 11 30 
247 484 244 79 19 32 
247 484 245 92 26 38 
247 485 244 75 14 29 
247 486 244 89 19 35 
247 480 248 114 29 45 
244 488 240 139 15 46 
245 488 240 107 13 36 
245 488 241 87 9 29 
245 489 240 77 21 33 
246 488 240 67 15 24 
246 488 241 57 17 24 
246 489 240 45 23 28 
246 489 241 33 25 28 
247 488 241 42 25 26 
247 489 241 34 26 26 
247 488 242 58 22 27 
247 489 242 46 26 27 
246 490 240 39 26 29 
246 491 240 33 26 26 
247 490 240 33 25 27 
247 490 241 35 24 27 
247 491 240 33 25 26 
247 491 241 34 23 27 
247 492 240 31 27 28 
248 481 247 121 28 45 
248 482 246 90 12 23 
248 482 247 87 19 32 
248 483 246 66 13 23 
248 483 247 55 17 26 
249 483 247 39 20 25 
248 487 243 97 31 42 
248 484 245 102 27 44 
248 485 244 105 21 35 
248 485 245 112 28 44 
249 485 245 130 33 49 
248 484 246 97 17 39 
249 484 246 122 26 49 
249 484 247 103 22 42 
249 485 246 136 29 49 
248 486 244 104 23 37 
248 486 245 118 26 44 
248 487 244 105 31 40 
249 486 245 120 36 47 
249 487 244 102 30 39 
249 487 245 100 24 37 
249 486 246 127 38 49 
250 484 247 124 38 55 
250 485 246 136 35 52 
250 485 247 137 40 60 
251 485 247 128 46 61 
250 487 245 81 16 32 
250 486 246 110 24 41 
250 486 247 112 24 40 
250 487 246 70 12 29 
251 486 247 97 19 34 
251 487 246 54 19 28 
251 487 247 71 15 26 
252 487 247 91 18 33 
248 480 248 135 33 53 
248 480 249 128 33 55 
248 481 248 125 31 45 
249 480 249 134 28 52 
249 481 248 125 33 47 
249 481 249 123 30 48 
249 480 250 124 17 42 
249 480 251 121 17 35 
248 482 248 92 21 34 
249 482 248 73 19 28 
249 483 248 35 22 25 
250 481 249 106 22 42 
250 480 250 122 15 42 
250 480 251 126 25 46 
250 481 250 104 12 38 
250 481 251 115 20 46 
251 480 251 128 31 54 
251 481 251 102 15 34 
250 482 248 52 20 26 
250 482 249 62 19 28 
250 483 248 40 21 26 
250 483 249 38 22 27 
251 483 249 39 23 29 
251 482 250 54 17 24 
251 482 251 56 14 22 
251 483 250 33 24 28 
250 480 252 125 20 41 
251 480 252 126 20 42 
251 480 253 127 24 47 
251 481 252 102 16 34 
250 484 248 84 24 35 
251 484 248 104 36 46 
251 484 249 77 28 36 
251 485 248 108 37 50 
251 486 248 89 15 30 
252 482 251 41 20 24 
252 483 250 37 21 31 
252 483 251 35 22 30 
253 483 251 43 23 33 
252 480 252 127 32 51 
252 480 253 128 33 53 
252 481 252 109 24 41 
252 481 253 111 34 45 
253 481 253 104 30 39 
252 480 254 119 27 46 
253 480 254 115 35 47 
253 480 255 98 31 42 
253 481 254 96 32 39 
252 482 252 64 21 26 
252 483 252 40 27 30 
253 482 252 60 29 29 
253 482 253 67 26 29 
253 483 252 49 26 30 
253 483 253 47 25 26 
253 482 254 63 24 25 
254 480 255 79 30 40 
254 481 254 73 24 29 
254 481 255 64 23 29 
254 483 253 45 21 24 
254 482 254 46 22 22 
254 482 255 44 20 23 
254 483 254 41 21 23 
255 482 255 47 18 25 
255 483 254 47 19 25 
255 483 255 52 18 27 
252 484 249 78 25 32 
252 485 248 95 30 40 
252 485 249 76 18 29 
252 484 250 68 33 40 
252 484 251 54 23 34 
252 485 250 65 16 25 
253 484 251 56 21 28 
253 485 250 62 15 24 
253 485 251 66 14 25 
252 486 248 85 15 29 
252 486 249 85 16 30 
252 487 248 104 27 44 
253 486 249 83 18 30 
253 487 248 125 36 56 
253 487 249 120 29 50 
253 486 250 81 13 27 
253 487 250 101 13 33 
254 484 251 72 21 28 
254 485 251 91 22 35 
254 486 250 80 11 28 
254 486 251 107 29 42 
254 487 250 116 22 41 
254 487 251 112 25 40 
255 487 251 105 28 44 
253 484 252 56 16 27 
254 484 252 79 25 35 
254 484 253 80 32 40 
254 485 252 111 40 54 
255 484 253 99 48 54 
255 485 252 117 45 60 
255 485 253 102 41 50 
254 484 254 67 29 36 
255 484 254 76 32 38 
255 484 255 68 23 30 
255 485 254 83 36 38 
255 486 252 114 35 52 
255 486 253 90 23 38 
255 487 252 91 23 37 
248 488 243 81 29 38 
248 489 242 47 25 27 
248 489 243 56 25 29 
249 488 243 79 29 34 
249 489 243 54 24 26 
248 490 241 36 24 29 
248 491 241 39 23 31 
248 490 242 39 25 29 
248 491 242 41 26 31 
249 490 243 39 27 28 
249 491 242 45 28 33 
249 491 243 42 28 31 
250 490 243 36 25 26 
250 491 243 42 25 31 
249 488 244 87 33 39 
249 489 244 61 23 26 
250 488 245 73 23 34 
250 489 244 59 23 27 
250 489 245 57 26 30 
251 489 245 63 24 28 
250 488 246 61 16 31 
251 488 246 61 20 29 
251 488 247 70 17 27 
251 489 246 75 19 29 
250 490 244 39 23 25 
250 490 245 43 23 24 
250 491 244 40 21 27 
251 490 245 65 22 29 
251 491 244 58 24 29 
251 491 245 68 23 31 
251 490 246 78 19 30 
248 492 240 32 26 27 
248 492 241 38 26 28 
248 493 240 33 25 27 
249 492 241 46 28 30 
249 493 241 46 29 29 
249 492 242 48 28 33 
249 493 242 50 28 30 
248 494 240 34 24 28 
249 494 240 42 23 29 
249 494 241 47 28 29 
249 495 240 47 23 32 
250 492 242 47 25 31 
250 492 243 44 27 30 
250 493 242 48 28 27 
251 492 243 48 26 29 
251 493 243 45 25 27 
250 494 241 49 28 29 
250 495 240 61 23 29 
250 495 241 53 22 29 
251 494 241 41 25 30 
251 495 241 59 25 31 
250 494 242 46 29 28 
251 494 242 40 24 29 
251 494 243 41 24 28 
251 495 242 38 23 30 
251 492 244 61 29 33 
252 488 247 105 13 33 
252 489 246 106 22 42 
252 489 247 118 26 47 
253 489 247 134 23 47 
252 491 245 93 38 44 
252 490 246 109 34 49 
252 490 247 126 32 55 
252 491 246 109 35 47 
253 490 247 132 32 58 
253 491 246 97 32 40 
253 491 247 105 27 42 
254 491 247 83 23 30 
252 494 243 37 24 30 
252 495 242 42 24 29 
252 495 243 40 24 31 
253 495 243 52 19 24 
252 492 244 67 37 39 
252 492 245 78 40 43 
252 493 244 49 25 28 
253 492 245 73 33 34 
253 493 244 47 24 25 
253 493 245 50 25 28 
253 492 246 69 27 27 
252 494 244 37 24 26 
253 494 244 37 26 28 
253 494 245 43 25 30 
253 495 244 54 21 24 
254 492 247 41 24 25 
254 493 246 41 25 27 
254 493 247 35 25 29 
255 493 247 34 25 30 
254 494 245 47 23 29 
254 495 244 57 21 24 
254 495 245 75 17 29 
255 495 245 112 35 50 
254 494 246 49 20 28 
255 494 246 58 24 29 
255 494 247 55 28 30 
255 495 246 98 38 46 
255 495 247 95 41 45 
253 488 248 131 18 37 
253 488 249 133 22 44 
253 489 248 136 24 44 
253 490 248 134 31 56 
254 488 249 130 28 49 
254 489 248 130 26 47 
254 489 249 120 21 40 
254 488 250 119 32 49 
254 488 251 106 28 39 
254 489 250 104 19 37 
255 488 250 101 29 39 
255 488 251 78 23 31 
255 489 250 82 19 30 
255 489 251 55 20 25 
254 490 248 121 35 54 
254 490 249 103 28 42 
254 491 248 78 26 31 
255 490 249 79 25 35 
255 491 248 48 28 23 
255 491 249 55 27 28 
255 490 250 63 17 29 
255 490 251 44 21 29 
255 491 250 42 21 29 
255 491 251 33 22 30 
255 488 252 61 20 26 
254 492 248 42 28 25 
255 492 248 34 27 27 
255 492 249 31 29 28 
255 493 248 31 24 30 
255 493 249 29 28 29 
255 492 250 31 28 32 
255 494 248 44 24 27 
240 501 231 118 7 42 
241 501 231 118 7 38 
240 502 231 116 7 38 
240 503 231 117 7 35 
241 502 231 118 7 35 
241 503 231 118 7 35 
242 503 231 118 7 35 
240 497 233 119 10 35 
241 497 233 107 11 28 
240 496 234 119 11 37 
241 496 234 98 6 31 
241 497 234 93 11 26 
240 498 232 122 10 37 
240 498 233 122 11 39 
240 499 232 122 8 39 
241 498 232 119 10 36 
241 498 233 111 10 33 
241 499 232 122 9 39 
242 496 234 70 2 25 
242 496 235 62 13 28 
242 497 234 82 8 29 
243 496 235 37 24 28 
243 497 234 65 13 27 
243 497 235 53 17 24 
242 498 233 107 10 35 
242 499 232 122 9 41 
242 499 233 120 9 42 
243 499 233 121 13 40 
243 498 234 98 10 39 
243 499 234 119 14 40 
240 500 232 121 8 41 
241 500 232 123 9 40 
241 501 232 119 7 37 
241 502 232 118 7 34 
242 500 232 124 9 42 
242 500 233 124 9 43 
242 501 232 121 8 37 
243 500 233 125 10 40 
243 501 232 123 9 40 
243 501 233 123 10 41 
242 502 232 119 7 34 
242 503 232 119 7 34 
243 502 232 120 7 36 
243 502 233 121 8 39 
243 503 232 120 7 37 
244 496 235 33 23 26 
244 497 235 65 20 31 
245 497 235 56 20 26 
244 498 234 104 16 41 
244 498 235 91 17 35 
244 499 234 125 14 43 
245 498 235 106 17 41 
245 499 234 134 15 44 
245 499 235 133 17 46 
246 499 235 137 20 47 
244 496 236 33 25 25 
245 496 236 31 25 26 
245 497 236 58 20 26 
246 496 236 32 24 29 
246 496 237 31 24 28 
246 497 236 69 20 30 
247 496 237 28 25 28 
247 497 237 72 17 30 
247 496 238 30 25 25 
246 498 236 110 17 40 
246 499 236 140 20 48 
247 498 236 127 22 50 
247 498 237 117 21 48 
247 499 236 144 17 49 
244 500 233 126 11 36 
244 501 233 125 12 39 
244 500 234 131 12 39 
244 501 234 128 12 41 
245 500 234 134 14 38 
245 500 235 137 15 39 
245 501 234 133 13 39 
244 502 232 121 8 38 
244 502 233 123 10 40 
244 503 232 121 8 39 
244 503 233 122 10 40 
245 502 233 125 11 38 
245 503 233 126 11 39 
245 502 234 129 12 39 
246 500 235 141 14 43 
246 501 235 138 13 41 
247 501 235 143 13 47 
246 502 234 135 12 40 
246 502 235 138 12 42 
246 503 234 133 12 40 
247 502 235 142 13 44 
247 503 235 140 13 43 
247 500 236 146 14 47 
247 501 236 145 13 47 
247 502 236 145 13 46 
240 504 230 116 7 35 
240 504 231 117 7 35 
240 505 230 116 7 36 
241 504 231 117 7 36 
241 505 230 116 7 35 
241 505 231 116 7 36 
240 507 229 115 7 35 
240 506 230 116 7 36 
240 507 230 115 7 35 
241 506 230 116 7 36 
241 507 230 116 7 36 
242 504 231 117 7 38 
242 505 231 116 7 38 
243 504 231 117 7 39 
243 505 231 117 7 38 
242 506 230 116 7 34 
242 506 231 115 7 35 
242 507 230 116 7 37 
243 506 231 116 7 36 
243 507 230 116 7 38 
243 507 231 117 7 38 
240 510 227 114 7 32 
240 508 229 115 8 33 
240 509 228 114 10 34 
240 509 229 114 10 34 
241 508 229 115 7 36 
241 509 229 115 7 37 
241 508 230 115 7 36 
240 510 228 114 10 35 
240 510 229 114 11 35 
240 511 228 115 7 35 
240 511 229 113 7 32 
241 510 228 114 8 35 
241 510 229 114 7 35 
241 511 228 113 7 34 
241 511 229 112 7 32 
241 511 230 112 7 32 
242 508 230 115 7 37 
242 509 230 115 7 39 
243 508 230 116 7 38 
243 508 231 117 7 40 
243 509 230 116 7 38 
243 509 231 116 7 40 
242 510 230 115 7 36 
242 511 230 114 7 34 
243 510 230 114 7 36 
243 511 230 114 7 37 
244 505 231 118 7 38 
244 506 231 117 7 35 
244 507 231 117 7 38 
245 507 231 118 7 38 
244 508 231 117 7 39 
244 509 230 115 7 37 
244 509 231 116 7 37 
245 508 231 117 7 36 
245 509 231 117 7 37 
244 510 230 115 9 37 
244 510 231 115 10 38 
244 511 230 114 7 38 
245 510 231 116 13 38 
245 511 230 116 7 38 
245 511 231 116 11 37 
246 510 231 118 10 39 
246 511 231 117 11 39 
243 504 232 118 7 40 
243 505 232 118 7 39 
244 504 232 122 9 41 
244 505 232 119 8 39 
245 504 233 125 11 39 
245 505 232 121 10 38 
245 505 233 122 9 38 
244 506 232 119 8 37 
244 507 232 118 7 38 
245 506 232 120 9 38 
245 506 233 121 8 38 
245 507 232 120 10 38 
245 507 233 121 7 37 
246 504 233 128 11 39 
246 505 233 126 9 38 
246 504 234 132 11 39 
246 505 234 130 11 37 
247 504 234 139 12 43 
247 504 235 142 13 46 
247 505 234 136 12 41 
246 506 233 125 9 38 
246 507 233 122 8 35 
247 507 233 126 11 36 
247 506 234 132 11 41 
247 507 234 132 11 41 
245 508 232 119 8 35 
245 509 232 119 8 36 
246 508 232 120 7 33 
246 508 233 121 7 31 
246 509 232 120 7 35 
246 509 233 122 7 38 
247 508 233 125 8 35 
247 509 233 127 10 39 
247 508 234 132 11 40 
247 509 234 132 11 42 
246 510 232 120 7 39 
246 511 232 120 7 39 
247 510 233 128 11 41 
247 511 232 125 10 40 
247 511 233 128 10 42 
248 497 237 89 11 31 
248 496 238 47 21 23 
248 496 239 42 21 24 
248 497 238 75 11 23 
249 496 239 77 15 28 
249 497 238 110 15 36 
249 497 239 114 18 43 
248 498 237 136 18 52 
248 499 236 150 16 49 
248 499 237 153 16 48 
249 498 238 143 19 51 
249 499 238 154 14 45 
250 497 239 130 25 53 
250 498 239 153 18 51 
250 499 238 153 13 45 
250 499 239 155 13 45 
251 499 239 154 13 46 
248 503 235 144 13 45 
248 500 236 149 13 46 
248 500 237 150 13 48 
248 501 236 148 13 48 
248 501 237 150 13 49 
249 500 237 152 13 49 
249 501 237 152 13 51 
249 500 238 152 13 49 
248 502 236 148 13 45 
248 503 236 147 13 46 
249 502 236 150 13 45 
249 502 237 151 13 48 
249 503 236 150 13 47 
249 503 237 151 13 48 
250 500 238 152 13 48 
250 500 239 153 13 45 
250 501 238 152 13 51 
251 500 239 153 13 46 
251 501 238 153 13 50 
251 501 239 153 13 50 
250 502 237 152 13 48 
250 503 237 152 13 48 
250 502 238 152 13 49 
251 502 238 152 13 47 
251 502 239 152 12 48 
251 503 238 152 13 46 
252 501 239 153 12 51 
252 502 239 153 12 48 
252 503 239 153 13 46 
248 504 235 145 13 47 
248 505 235 143 12 45 
249 505 235 147 13 48 
248 506 234 139 12 44 
248 506 235 142 12 45 
248 507 234 139 12 43 
249 506 235 147 12 47 
249 507 235 146 12 45 
250 507 235 149 12 48 
248 504 236 148 13 48 
249 504 236 150 13 49 
249 505 236 150 13 49 
249 506 236 150 13 48 
250 504 236 152 13 49 
250 504 237 152 13 49 
250 505 236 152 13 49 
250 505 237 152 13 49 
251 504 237 153 13 48 
251 505 237 152 13 47 
251 504 238 152 13 48 
251 505 238 152 13 49 
250 506 236 151 12 49 
250 507 236 150 12 48 
251 506 236 151 12 48 
251 506 237 152 12 47 
251 507 236 151 12 48 
248 508 234 138 12 42 
248 509 234 136 12 42 
249 508 234 142 12 42 
249 508 235 146 12 45 
249 509 234 143 12 44 
249 509 235 146 12 45 
248 510 233 133 11 43 
248 511 233 134 12 42 
248 510 234 137 12 42 
249 510 234 142 12 43 
249 511 234 141 11 45 
250 508 235 149 12 47 
250 509 235 148 12 47 
251 509 235 150 12 48 
250 510 234 147 12 45 
250 510 235 148 12 45 
250 511 234 147 12 47 
251 510 235 150 12 47 
251 511 234 149 12 48 
251 511 235 150 12 47 
251 508 236 151 12 48 
251 509 236 151 12 48 
252 504 238 152 13 49 
252 504 239 152 13 46 
252 505 238 152 13 48 
253 504 239 153 12 47 
253 505 239 152 12 48 
252 506 237 151 12 48 
252 507 237 151 12 49 
252 506 238 152 13 48 
253 506 238 152 12 48 
253 506 239 153 12 49 
253 507 238 152 12 48 
254 506 239 153 12 47 
254 507 238 152 12 47 
254 507 239 152 12 46 
255 506 239 153 12 44 
255 507 239 152 11 46 
252 510 235 151 12 48 
252 511 235 151 12 49 
253 511 235 151 12 49 
252 508 236 151 12 49 
252 508 237 151 12 49 
252 509 236 151 12 48 
252 509 237 151 12 49 
253 508 237 151 12 48 
253 509 237 151 12 49 
253 508 238 152 11 48 
252 510 236 151 12 49 
253 510 236 151 11 49 
253 510 237 151 11 49 
253 511 236 152 12 49 
254 509 237 151 11 49 
254 508 238 152 12 47 
254 508 239 152 11 48 
254 509 238 152 11 48 
255 508 239 152 11 47 
255 509 239 152 11 48 
254 510 237 152 11 49 
254 511 236 152 11 47 
254 511 237 152 11 47 
255 511 237 151 11 46 
254 510 238 152 11 47 
255 510 238 152 11 46 
255 510 239 152 11 48 
255 511 238 152 11 46 
250 496 240 97 24 39 
250 497 240 136 26 56 
251 496 241 95 27 38 
251 497 240 140 27 57 
251 497 241 137 25 56 
251 498 240 155 17 52 
251 498 241 153 17 54 
251 499 240 155 13 46 
251 500 240 153 13 46 
252 496 241 103 23 38 
252 497 241 134 20 47 
252 496 242 73 16 27 
252 497 242 103 8 28 
253 496 243 81 12 28 
253 497 242 115 9 35 
253 497 243 123 17 44 
252 498 241 154 14 50 
252 499 240 155 13 47 
252 499 241 155 13 47 
253 498 241 155 14 52 
253 499 241 155 13 47 
253 498 242 148 15 53 
253 499 242 154 13 47 
254 497 243 142 24 52 
254 498 242 154 12 50 
254 498 243 152 15 50 
254 499 242 154 12 43 
254 499 243 153 12 45 
255 499 243 150 12 48 
253 496 244 87 12 27 
254 496 244 110 21 40 
254 496 245 121 29 50 
254 497 244 141 23 55 
255 496 245 137 38 60 
255 497 245 147 26 53 
255 496 246 135 40 60 
254 498 244 152 19 53 
255 498 244 152 15 51 
255 498 245 149 17 48 
255 499 244 141 17 50 
252 500 240 153 13 47 
252 500 241 153 12 44 
252 501 240 153 12 49 
253 500 241 153 13 45 
253 501 241 153 12 48 
253 500 242 153 13 47 
252 502 240 153 12 51 
253 502 240 154 12 52 
253 502 241 153 12 48 
253 503 240 153 12 48 
253 503 241 152 12 46 
254 500 242 153 12 46 
254 500 243 152 12 47 
254 501 242 153 12 48 
255 500 243 145 12 48 
255 501 242 151 11 51 
255 501 243 138 13 50 
254 502 241 152 12 48 
254 503 241 152 12 48 
254 502 242 153 12 51 
254 503 242 152 12 46 
255 502 242 150 12 52 
255 502 243 130 8 47 
255 503 242 145 11 47 
255 503 243 122 7 39 
255 500 244 127 15 43 
253 504 240 152 12 49 
253 505 240 152 12 50 
254 504 240 152 12 51 
254 504 241 152 12 50 
254 505 240 152 12 49 
255 504 241 153 12 50 
255 505 241 153 12 47 
255 504 242 151 12 49 
254 506 240 152 12 46 
255 506 240 153 12 47 
255 506 241 153 12 45 
255 507 240 152 12 47 
238 459 256 40 20 28 
239 459 256 31 26 31 
239 460 256 30 26 27 
240 459 256 36 27 31 
240 459 257 40 26 31 
241 459 257 43 24 33 
240 459 258 40 28 28 
241 459 258 40 27 31 
241 459 259 37 26 29 
242 459 259 39 26 31 
242 459 260 41 25 26 
242 459 261 52 22 24 
243 459 260 38 24 29 
243 459 261 50 21 25 
243 459 262 80 30 37 
240 460 256 35 25 28 
240 460 257 41 24 32 
240 461 256 38 25 28 
241 460 257 41 25 30 
241 461 256 46 26 30 
241 461 257 46 26 29 
241 460 258 40 26 29 
240 462 256 47 30 34 
241 462 256 54 34 37 
241 462 257 52 28 30 
241 463 256 44 25 28 
242 461 257 45 25 25 
242 460 258 38 27 26 
242 460 259 39 27 28 
242 461 258 43 26 24 
242 461 259 44 32 28 
243 460 259 42 26 32 
243 461 259 49 31 32 
242 462 256 61 35 40 
242 462 257 53 28 31 
242 463 256 47 25 29 
242 463 257 48 24 29 
243 463 257 45 25 32 
242 462 258 48 26 27 
243 462 258 47 25 28 
243 462 259 53 34 36 
243 463 258 40 23 30 
243 460 260 37 24 31 
243 460 261 31 22 30 
243 461 260 42 27 30 
244 459 262 56 24 28 
244 459 263 91 34 40 
245 459 263 63 26 28 
244 462 259 49 32 37 
244 463 258 27 25 28 
244 463 259 29 24 27 
245 463 259 34 23 26 
244 460 261 31 25 28 
244 461 260 40 27 31 
244 461 261 33 25 29 
245 461 261 32 26 31 
244 460 262 29 23 24 
245 460 262 34 30 30 
245 460 263 41 33 30 
245 461 262 31 27 33 
244 462 260 40 28 33 
245 462 260 29 24 25 
245 462 261 32 23 26 
245 463 260 45 19 23 
246 460 263 35 28 28 
246 461 262 28 25 31 
246 461 263 28 27 29 
247 461 263 27 27 27 
246 462 261 47 21 23 
246 463 260 82 10 26 
246 463 261 87 14 27 
247 463 261 119 17 40 
246 462 262 49 20 24 
246 462 263 41 25 26 
247 462 262 88 15 31 
247 462 263 79 30 33 
247 463 262 125 20 47 
247 463 263 130 28 53 
245 459 264 80 18 30 
246 459 264 62 20 28 
246 459 265 87 32 43 
247 459 265 68 23 30 
246 459 266 98 37 45 
247 459 266 77 19 29 
246 460 264 38 23 26 
247 460 264 31 24 27 
247 460 265 48 24 27 
247 461 264 26 27 27 
247 461 265 31 26 28 
247 460 266 72 35 40 
247 462 264 44 28 23 
248 462 263 110 29 41 
248 463 263 144 29 60 
248 459 266 74 25 34 
248 459 267 77 19 31 
249 459 267 76 22 34 
248 459 268 78 27 37 
249 459 268 70 20 32 
249 459 269 63 24 31 
250 459 269 55 24 30 
250 459 270 51 21 27 
251 459 270 45 22 26 
251 459 271 45 22 26 
248 461 265 39 25 24 
248 460 266 83 41 48 
248 461 266 62 27 28 
249 460 266 92 41 51 
249 460 267 85 31 42 
249 461 266 74 22 31 
249 461 267 87 24 37 
248 462 264 81 20 30 
248 462 265 55 18 24 
248 463 264 127 24 55 
249 462 265 85 15 28 
249 463 264 135 30 59 
249 463 265 119 28 47 
249 462 266 71 18 27 
250 461 267 92 21 35 
250 463 265 116 27 41 
250 462 266 96 26 38 
250 462 267 111 35 51 
250 463 266 100 18 32 
251 462 267 122 43 58 
251 463 266 98 24 33 
251 463 267 114 41 51 
249 460 268 72 19 28 
250 460 268 72 20 28 
250 460 269 60 25 31 
250 461 268 90 19 35 
251 460 269 62 27 32 
251 461 268 97 24 41 
251 461 269 79 26 34 
251 460 270 51 26 30 
251 461 270 56 26 27 
251 462 268 123 46 61 
251 462 269 107 41 53 
252 459 271 41 25 29 
252 463 267 108 43 48 
252 460 270 44 27 28 
252 460 271 38 26 30 
252 461 270 48 24 27 
252 461 271 34 23 29 
253 461 271 34 25 30 
252 462 268 117 45 55 
252 462 269 92 36 45 
252 463 268 100 30 44 
252 463 269 69 27 34 
253 463 269 52 29 29 
252 462 270 59 28 30 
253 462 270 45 26 29 
253 462 271 46 24 28 
253 463 270 51 26 29 
254 462 271 72 20 25 
254 463 270 76 24 29 
254 463 271 101 22 32 
255 463 271 140 22 50 
251 459 272 51 19 31 
252 459 272 40 24 30 
252 459 273 49 18 29 
253 459 273 68 16 30 
253 459 274 110 19 44 
254 459 274 124 7 34 
254 459 275 152 10 45 
255 459 275 162 5 48 
255 459 276 168 5 53 
252 460 272 30 27 29 
253 460 272 36 23 28 
253 460 273 60 18 26 
253 461 272 50 22 31 
254 460 273 88 14 29 
254 461 272 77 21 33 
254 461 273 108 17 42 
254 460 274 115 7 33 
254 461 274 137 18 50 
255 460 274 153 8 50 
255 460 275 166 6 51 
255 461 274 162 10 55 
254 462 272 106 14 36 
254 462 273 131 13 49 
255 462 272 148 8 49 
255 462 273 159 9 56 
255 463 272 159 16 55 
255 463 273 169 7 54 
255 462 274 168 9 58 
242 464 256 35 25 26 
243 464 256 32 26 27 
243 464 257 36 26 31 
243 465 256 28 28 26 
243 466 256 31 27 25 
244 464 257 26 23 27 
244 465 256 28 25 24 
244 465 257 37 21 25 
244 464 258 29 23 27 
244 464 259 28 23 25 
244 465 258 40 18 23 
245 464 259 68 15 28 
245 465 258 73 12 25 
245 465 259 91 8 29 
244 466 256 52 21 26 
244 466 257 59 15 24 
244 467 256 91 42 53 
245 466 256 92 18 31 
245 466 257 108 18 38 
245 467 256 112 35 49 
245 467 257 128 23 44 
245 466 258 119 30 52 
246 464 259 116 22 49 
246 465 259 138 18 53 
246 467 257 138 26 48 
246 466 258 146 24 56 
246 466 259 153 17 54 
246 467 258 150 21 51 
247 466 259 156 14 47 
247 467 258 152 20 52 
247 467 259 154 18 50 
246 464 260 122 23 50 
247 464 260 142 19 55 
247 464 261 144 18 51 
247 465 260 154 16 52 
247 465 261 156 13 48 
247 464 262 150 22 57 
247 466 260 156 13 46 
245 468 256 109 27 46 
245 469 256 103 25 41 
246 468 256 118 20 41 
246 468 257 131 21 43 
246 469 256 107 16 37 
247 468 257 136 26 49 
247 469 256 105 9 22 
247 469 257 120 15 36 
247 468 258 147 25 53 
247 469 258 136 30 53 
246 470 256 99 20 34 
247 470 256 102 28 40 
247 470 257 106 10 26 
247 471 256 99 29 40 
248 466 259 154 14 45 
248 467 259 149 17 50 
248 465 261 156 13 44 
248 464 262 156 15 50 
248 464 263 157 19 54 
248 465 262 157 13 42 
249 464 263 157 19 53 
249 465 262 156 13 44 
249 465 263 156 15 43 
248 466 260 153 12 46 
248 466 261 155 13 47 
248 467 260 141 13 47 
249 466 261 147 15 49 
249 467 260 134 10 40 
249 467 261 129 19 43 
249 466 262 150 18 52 
249 466 263 152 20 49 
250 465 263 150 18 49 
250 467 261 119 27 42 
250 466 262 139 19 54 
250 466 263 135 31 52 
250 467 262 114 24 43 
250 467 263 103 15 30 
251 466 263 98 28 38 
251 467 263 74 17 24 
248 468 258 145 26 55 
248 468 259 141 21 51 
248 469 258 130 33 55 
248 469 259 127 27 51 
249 468 259 123 18 44 
249 469 259 104 16 35 
248 470 256 96 23 36 
248 470 257 99 22 36 
248 471 256 83 16 28 
248 471 257 80 16 29 
249 471 257 66 17 26 
248 470 258 112 36 51 
249 470 258 87 26 38 
249 470 259 85 26 37 
249 471 258 61 22 27 
250 470 259 60 26 34 
250 471 258 47 21 25 
250 471 259 47 26 30 
251 471 259 38 29 30 
249 468 260 111 10 30 
249 468 261 108 20 31 
249 469 260 89 9 22 
250 468 261 89 26 33 
250 469 260 70 17 24 
250 469 261 58 22 26 
251 469 261 48 25 25 
250 468 262 78 26 34 
251 468 262 65 25 31 
251 468 263 56 21 29 
251 469 262 47 26 28 
251 469 263 48 24 31 
250 470 260 52 23 28 
251 470 260 37 26 27 
251 470 261 39 25 26 
251 471 260 36 28 28 
251 471 261 35 27 26 
251 470 262 43 29 30 
252 468 263 51 22 35 
252 469 263 44 25 30 
252 471 261 39 27 26 
252 470 262 41 27 28 
252 470 263 41 28 30 
252 471 262 43 27 27 
253 470 263 38 28 26 
253 471 262 47 31 31 
253 471 263 45 31 30 
254 471 263 48 28 29 
249 464 264 150 24 55 
250 464 264 145 23 55 
250 464 265 120 19 43 
250 465 264 132 19 48 
251 464 265 100 19 34 
251 465 265 81 15 31 
251 464 266 81 18 29 
251 465 266 63 16 29 
250 466 264 121 30 51 
251 466 264 86 26 37 
251 466 265 63 23 32 
251 467 264 66 21 28 
252 464 266 73 19 27 
252 464 267 81 27 34 
252 465 266 61 18 27 
252 465 267 68 22 31 
253 465 267 71 25 37 
252 466 265 55 30 35 
252 467 264 55 22 32 
252 467 265 61 31 33 
252 466 266 65 25 34 
252 467 266 76 31 38 
253 466 266 85 34 44 
