ply
format ascii 1.0
comment Created by CloudCompare v2.10.1 (Zephyrus)
comment Created 1/31/20 11:43 AM
obj_info Generated by CloudCompare!
element vertex 2104
property float x
property float y
property float z
property uchar red
property uchar green
property uchar blue
end_header
531 867 254 91 72 59 
531 867 255 94 75 61 
528 868 251 78 59 52 
528 868 252 82 62 55 
528 869 252 73 52 50 
528 869 253 85 65 56 
529 868 252 86 67 56 
529 868 253 87 68 56 
529 869 253 88 68 56 
528 868 255 91 73 59 
528 869 254 87 69 58 
528 869 255 91 73 59 
529 868 254 92 74 60 
532 864 254 78 65 52 
532 864 255 78 65 53 
532 865 254 85 72 59 
532 865 255 86 72 58 
533 864 254 86 71 57 
533 865 255 95 80 65 
532 866 255 92 75 61 
532 867 254 92 74 61 
532 867 255 92 73 60 
533 866 254 99 82 65 
533 866 255 91 74 60 
534 864 254 86 72 58 
534 865 254 93 78 64 
535 864 254 89 76 62 
535 865 254 86 71 57 
535 865 255 89 75 62 
534 866 254 87 72 58 
534 866 255 95 77 63 
534 867 255 95 78 64 
535 866 254 93 76 63 
535 866 255 90 74 61 
535 867 254 95 78 64 
535 867 255 95 78 64 
532 869 255 93 75 63 
534 868 254 95 78 64 
535 868 255 96 79 64 
535 869 254 97 79 66 
534 870 254 95 78 65 
534 870 255 94 76 64 
534 871 255 93 77 64 
535 871 254 96 78 67 
535 871 255 94 77 64 
528 873 255 77 61 51 
529 873 255 76 59 49 
528 875 255 79 61 56 
529 874 255 72 55 51 
529 875 255 80 62 60 
530 874 255 72 55 49 
530 875 255 78 60 57 
531 874 255 74 56 49 
531 875 255 77 59 56 
536 864 254 89 76 64 
536 865 255 91 75 61 
537 864 254 91 78 65 
537 865 254 92 76 62 
537 865 255 89 73 57 
536 866 254 91 75 61 
536 867 254 97 80 65 
537 866 254 94 77 63 
538 864 254 88 76 65 
538 865 254 87 72 57 
538 865 255 89 73 58 
539 864 254 93 78 63 
539 865 254 90 74 58 
539 865 255 89 74 58 
538 866 254 93 77 63 
539 866 254 99 81 66 
537 870 253 97 80 66 
536 870 254 97 79 66 
537 871 254 97 79 66 
537 871 255 98 80 67 
539 868 253 97 81 66 
539 869 253 97 81 65 
539 870 253 96 81 67 
538 871 254 97 79 65 
538 871 255 98 80 65 
539 870 254 96 80 66 
539 870 255 97 80 65 
541 864 253 103 88 74 
540 864 254 101 85 70 
540 865 254 97 80 64 
540 865 255 97 80 63 
541 864 254 95 78 62 
540 867 253 99 81 67 
540 866 254 99 81 67 
541 866 254 100 82 67 
541 867 254 100 82 67 
542 864 253 100 86 71 
543 864 253 105 92 80 
542 865 254 93 77 61 
543 865 254 97 81 67 
542 866 254 96 79 66 
542 867 254 97 80 66 
542 867 255 97 80 65 
543 866 254 94 78 64 
543 866 255 96 79 63 
540 868 253 100 83 70 
540 869 253 98 81 66 
541 868 254 100 83 69 
541 869 254 99 80 64 
540 870 254 99 81 66 
544 837 223 96 83 70 
545 836 223 95 82 70 
545 838 221 97 80 63 
544 838 222 98 80 63 
544 839 222 97 79 61 
544 839 223 96 78 63 
545 838 222 98 80 63 
545 839 223 99 81 65 
547 837 223 94 80 68 
546 838 220 99 80 63 
546 838 221 100 81 64 
546 839 220 101 81 63 
547 839 220 105 83 63 
547 839 221 104 82 63 
546 838 222 102 82 65 
546 839 222 101 83 66 
546 839 223 101 83 67 
547 839 222 104 84 67 
547 839 223 102 84 68 
548 839 220 106 84 65 
548 839 221 107 85 67 
549 839 221 108 87 67 
548 839 222 105 85 68 
548 839 223 104 86 70 
549 839 222 106 86 68 
549 839 223 104 85 70 
551 836 222 101 83 69 
551 837 223 102 85 69 
550 839 221 109 86 66 
551 839 221 110 87 68 
550 839 222 105 85 67 
550 839 223 102 83 68 
551 839 222 103 84 68 
551 839 223 102 84 69 
545 842 221 119 92 71 
545 843 221 117 92 68 
544 843 222 119 95 75 
545 843 222 116 93 69 
546 841 220 116 88 66 
547 840 220 107 84 64 
547 841 220 119 88 65 
546 842 220 116 88 66 
546 842 221 117 90 67 
546 843 221 116 91 65 
547 842 220 117 91 69 
547 842 221 120 94 71 
547 843 221 121 98 74 
544 844 223 118 96 74 
544 845 223 118 100 85 
545 844 222 115 92 66 
545 844 223 113 93 71 
545 845 223 112 95 77 
547 844 221 119 97 73 
546 844 222 114 93 69 
546 845 222 112 94 75 
546 845 223 111 93 74 
547 844 222 118 97 75 
547 845 222 115 94 72 
546 846 223 110 92 73 
547 846 222 112 91 69 
547 846 223 110 91 69 
547 847 223 111 91 71 
548 840 220 108 85 65 
548 840 221 108 85 66 
548 841 220 113 88 67 
549 840 220 111 87 66 
549 840 221 109 85 66 
549 841 220 118 89 66 
548 842 221 117 91 70 
548 843 221 118 94 73 
549 842 221 116 90 71 
549 843 221 118 93 74 
550 840 220 113 87 66 
550 840 221 111 86 66 
550 841 220 127 89 62 
550 841 221 118 87 64 
551 840 220 112 87 66 
551 840 221 111 87 67 
551 841 220 124 92 66 
550 842 221 112 85 67 
550 843 221 113 86 68 
551 842 220 112 87 68 
551 842 221 112 86 69 
551 843 221 117 91 72 
548 844 221 118 94 73 
549 844 221 117 93 74 
548 844 222 119 95 75 
548 845 222 121 99 78 
549 844 222 116 91 73 
549 845 222 115 91 71 
548 846 222 117 97 77 
548 846 223 116 95 77 
548 847 223 117 96 79 
549 846 222 114 91 72 
549 846 223 111 87 70 
549 847 223 110 87 69 
550 844 221 114 88 69 
550 844 222 112 86 68 
550 845 222 113 87 71 
550 845 223 113 86 72 
551 844 222 114 88 71 
551 845 223 113 89 70 
550 846 223 111 85 71 
551 846 223 111 88 70 
553 835 221 102 84 69 
555 835 220 104 88 73 
555 835 221 104 88 73 
553 839 219 115 91 69 
554 838 219 114 90 69 
554 839 218 115 89 67 
554 839 219 113 89 66 
555 838 218 114 92 71 
555 838 219 114 92 71 
555 839 218 117 90 69 
552 836 221 102 85 70 
553 837 221 104 85 69 
552 836 222 102 84 69 
553 836 222 102 85 70 
552 838 221 107 87 68 
552 839 220 111 89 67 
552 839 221 110 87 68 
553 838 220 112 89 69 
553 838 221 106 86 69 
553 839 220 112 90 69 
552 838 222 103 85 69 
552 838 223 103 85 70 
552 839 223 103 85 70 
553 838 222 103 85 69 
553 838 223 101 84 69 
553 839 223 101 85 71 
554 836 221 104 87 72 
554 837 220 113 90 70 
554 837 221 109 87 70 
555 837 220 113 92 72 
555 837 221 109 89 72 
554 837 222 107 85 69 
555 837 222 108 86 70 
555 837 223 107 85 69 
554 838 220 111 88 69 
554 838 221 105 86 70 
554 838 222 104 85 69 
554 838 223 102 84 70 
555 838 223 102 86 71 
556 835 220 103 88 74 
556 835 221 103 88 74 
557 834 221 103 87 73 
557 834 222 103 87 73 
557 835 222 103 88 74 
557 835 223 103 88 73 
559 833 220 103 87 72 
559 833 221 101 86 71 
558 834 221 103 87 73 
559 835 221 102 87 71 
558 834 222 103 87 73 
558 834 223 101 87 72 
558 835 223 101 87 72 
559 834 222 101 86 71 
559 834 223 101 86 70 
559 835 222 102 87 71 
557 837 219 112 91 70 
556 838 218 113 91 69 
556 838 219 112 91 69 
556 839 218 117 93 68 
557 838 218 112 91 69 
557 838 219 112 91 69 
557 839 218 122 97 70 
558 837 219 111 90 68 
559 837 219 110 89 67 
558 838 219 111 89 67 
558 839 219 126 101 71 
559 838 219 123 97 67 
559 839 219 125 98 67 
556 836 221 108 89 71 
556 837 220 112 91 71 
556 837 221 109 89 72 
557 836 220 112 90 70 
557 836 221 109 89 71 
557 837 220 112 91 70 
556 837 222 107 86 70 
556 837 223 100 86 71 
557 836 222 105 87 71 
557 836 223 102 89 77 
557 837 223 101 87 74 
556 838 223 100 85 71 
558 836 220 111 90 70 
558 836 221 106 89 71 
559 836 220 109 89 68 
559 836 221 108 89 70 
559 837 220 111 89 67 
558 836 222 103 87 71 
558 836 223 102 89 76 
558 837 223 102 90 78 
559 836 222 102 87 72 
559 836 223 102 90 80 
553 840 218 131 97 60 
553 840 219 121 93 65 
553 841 218 118 90 61 
553 841 219 121 92 63 
553 842 218 113 88 60 
553 842 219 114 89 63 
553 843 219 112 89 63 
554 840 217 119 92 64 
554 841 217 115 89 63 
555 840 217 117 92 65 
555 841 217 116 91 65 
554 840 218 124 95 64 
554 840 219 139 101 55 
554 841 218 117 90 61 
554 842 217 113 88 66 
554 843 217 113 88 66 
555 842 217 114 89 65 
555 843 217 113 88 66 
554 842 218 112 88 62 
554 843 218 112 87 66 
554 843 219 112 89 66 
555 843 218 112 87 65 
552 840 220 116 90 66 
552 841 220 123 93 65 
553 840 220 114 89 67 
552 842 220 116 90 64 
552 843 220 114 90 65 
552 843 221 115 91 68 
553 842 220 116 90 64 
553 843 220 112 89 65 
554 844 219 110 86 65 
555 844 218 111 86 64 
555 844 219 110 85 63 
552 844 221 114 90 70 
553 844 220 111 88 66 
553 844 221 112 88 64 
552 844 222 112 88 72 
552 845 223 109 87 68 
553 844 222 110 87 68 
553 845 222 114 91 65 
553 845 223 108 84 64 
553 846 223 108 81 61 
554 844 220 112 87 66 
554 844 221 115 90 65 
554 845 221 111 85 62 
555 844 220 111 85 61 
555 845 220 114 86 62 
555 845 221 115 88 63 
554 845 222 112 85 61 
554 845 223 112 84 62 
555 845 222 118 90 67 
555 845 223 120 93 72 
554 846 223 114 87 66 
555 846 223 121 93 70 
556 840 217 120 95 67 
556 841 217 117 91 63 
557 840 217 123 98 70 
557 841 217 125 100 74 
556 840 218 122 97 67 
557 840 218 121 95 64 
557 841 218 121 92 59 
556 842 217 115 88 60 
556 843 217 113 87 59 
557 842 217 121 95 67 
556 843 218 113 87 60 
557 842 218 123 95 65 
557 843 218 123 97 70 
557 843 219 125 97 71 
558 840 218 126 99 69 
558 840 219 127 99 69 
558 841 218 127 97 67 
558 841 219 132 100 73 
559 840 219 126 96 65 
559 841 219 132 100 72 
558 842 218 125 95 64 
558 842 219 133 100 73 
558 843 219 128 98 71 
559 842 219 135 102 75 
557 843 220 124 93 65 
559 840 220 126 93 65 
559 841 220 128 95 70 
558 843 220 128 98 72 
559 842 220 129 97 71 
559 843 220 126 95 70 
559 843 221 122 92 66 
556 844 218 112 86 62 
556 844 219 115 89 64 
557 844 219 123 96 70 
556 844 220 117 90 65 
556 845 220 119 91 66 
556 845 221 122 94 69 
557 844 220 124 95 68 
557 844 221 124 95 68 
557 845 221 124 94 69 
556 845 222 122 93 69 
556 845 223 121 92 68 
557 845 222 123 93 66 
557 845 223 122 93 65 
556 846 223 121 92 69 
557 846 223 120 91 68 
558 844 220 128 97 70 
558 844 221 125 94 65 
559 844 221 121 90 61 
558 844 222 121 90 60 
558 845 222 121 91 62 
558 845 223 119 90 61 
559 844 222 120 92 65 
559 844 223 119 92 67 
559 845 223 119 92 66 
558 846 223 118 90 67 
563 833 219 102 84 67 
560 833 221 101 86 71 
561 833 220 101 86 72 
561 833 222 101 86 71 
560 835 221 105 87 69 
561 835 220 108 89 68 
561 835 221 107 88 68 
560 834 223 100 85 69 
560 835 222 101 86 70 
561 834 222 100 85 70 
561 835 222 101 86 70 
562 833 221 101 86 72 
563 833 220 102 84 67 
563 833 221 101 85 70 
562 835 220 104 85 66 
562 835 221 103 84 66 
563 835 220 103 84 66 
563 835 221 109 97 87 
561 837 219 118 95 69 
560 838 219 124 97 68 
560 839 219 126 97 66 
562 836 219 107 85 63 
562 837 219 119 96 71 
563 836 219 108 84 63 
563 837 219 111 86 64 
563 838 219 111 88 64 
560 836 220 109 89 67 
560 837 220 118 94 68 
561 836 220 110 89 67 
561 837 220 120 96 69 
560 836 222 101 86 70 
560 836 223 102 90 79 
561 836 222 100 88 76 
561 836 223 102 90 79 
560 838 220 123 97 69 
560 839 220 126 98 68 
561 838 220 121 96 65 
561 839 220 120 95 64 
562 836 220 106 85 64 
563 836 220 106 85 66 
563 836 221 105 94 83 
562 836 222 102 88 77 
562 836 223 102 90 79 
562 837 223 104 91 78 
563 836 222 101 90 79 
563 836 223 102 90 79 
563 837 223 103 90 78 
562 838 220 119 96 71 
562 839 220 117 96 72 
563 838 220 109 87 65 
563 839 220 107 85 67 
565 833 219 104 87 72 
566 833 219 102 87 73 
567 832 219 101 87 73 
564 833 220 102 84 68 
565 833 220 101 86 72 
565 833 222 101 87 73 
564 834 221 100 85 71 
565 834 221 99 85 71 
564 834 222 100 85 71 
564 834 223 100 85 71 
564 835 223 101 91 81 
565 834 222 101 86 72 
565 834 223 101 91 82 
565 835 223 101 90 79 
566 833 220 101 86 72 
567 833 220 100 86 72 
567 833 221 100 86 73 
567 833 222 101 89 78 
566 834 221 99 84 71 
567 834 221 100 88 76 
566 834 222 100 88 78 
566 835 223 102 91 82 
567 834 222 100 91 82 
567 835 222 101 90 79 
564 836 219 107 84 65 
564 837 219 108 83 70 
565 836 219 107 85 65 
565 837 219 109 87 69 
564 836 220 106 91 77 
564 836 221 102 90 80 
565 836 220 107 91 75 
565 836 221 109 92 74 
565 837 220 105 86 68 
565 837 221 106 90 76 
564 836 222 101 90 80 
564 837 222 104 91 78 
564 837 223 104 90 77 
565 836 223 100 89 78 
565 837 222 103 91 79 
565 837 223 106 89 73 
564 838 220 105 81 65 
564 839 220 106 83 65 
565 838 220 110 89 65 
565 839 220 111 89 67 
565 839 221 108 85 63 
565 838 223 96 81 68 
566 837 220 102 87 73 
566 837 221 101 86 72 
566 836 223 102 89 77 
566 837 222 102 85 68 
567 836 223 102 89 77 
566 838 220 108 88 68 
566 838 221 106 83 63 
566 839 221 106 81 60 
567 839 221 99 76 56 
566 838 222 105 83 62 
566 838 223 98 79 57 
567 838 222 101 80 56 
567 838 223 95 75 58 
567 839 222 99 78 57 
560 840 220 127 98 71 
560 841 220 127 96 72 
561 840 220 120 94 66 
561 840 221 113 87 63 
561 841 220 122 94 69 
561 841 221 115 88 65 
560 842 220 128 97 73 
560 842 221 123 94 70 
560 843 221 121 92 69 
561 842 221 115 87 65 
560 843 222 120 93 69 
561 842 222 111 84 65 
561 843 222 113 87 65 
562 840 220 115 91 72 
562 840 221 111 85 70 
562 841 221 110 82 71 
563 840 220 103 77 63 
563 840 221 103 76 64 
563 841 221 103 77 62 
562 842 221 108 80 69 
562 842 222 109 82 71 
562 843 222 111 86 68 
563 842 222 103 79 60 
563 843 222 108 83 65 
560 844 222 117 90 67 
560 844 223 116 90 66 
560 845 223 115 90 65 
561 844 222 114 88 66 
561 844 223 113 88 65 
562 844 223 112 89 66 
563 844 223 112 86 65 
563 845 223 114 88 66 
564 840 220 103 80 58 
564 840 221 103 80 57 
564 841 221 105 81 61 
565 840 220 112 90 70 
565 840 221 110 85 68 
565 841 221 113 87 72 
565 841 222 112 87 71 
564 842 222 108 83 65 
564 843 222 112 85 70 
565 842 222 113 87 72 
565 843 222 114 86 73 
566 840 221 103 77 60 
567 840 221 101 78 59 
566 840 222 104 79 63 
566 841 222 106 79 64 
567 840 222 102 80 60 
567 841 222 106 82 65 
566 842 222 107 79 66 
566 843 222 109 80 66 
567 842 222 108 82 67 
567 843 222 108 80 66 
567 843 223 110 84 66 
564 844 223 114 86 69 
564 845 223 118 89 68 
565 844 223 115 86 70 
565 845 223 117 88 69 
564 846 223 118 89 68 
565 846 223 117 90 70 
565 847 223 129 106 84 
566 844 222 114 83 67 
566 845 222 117 87 67 
567 844 223 110 83 65 
567 845 223 113 87 68 
566 847 221 112 87 70 
567 847 221 112 87 68 
566 846 222 117 90 69 
566 847 222 114 91 72 
566 847 223 125 102 81 
567 846 222 115 90 70 
567 846 223 114 90 70 
567 847 222 114 90 69 
568 832 219 101 87 73 
568 832 220 100 86 73 
568 832 221 100 86 73 
568 833 221 100 88 77 
569 832 221 100 86 73 
569 833 221 100 86 73 
568 833 222 100 86 73 
568 834 221 101 91 82 
569 834 221 100 90 81 
568 835 222 101 89 78 
569 834 222 100 89 78 
569 835 222 96 86 77 
569 835 223 98 87 76 
570 832 222 100 86 72 
570 833 222 100 88 76 
571 832 222 101 86 72 
571 833 222 99 88 78 
570 834 222 99 88 77 
570 835 223 97 86 76 
571 834 222 98 86 76 
571 835 223 98 86 74 
568 836 223 102 89 76 
569 836 223 102 88 75 
568 838 223 100 75 61 
568 839 222 101 77 62 
568 839 223 103 77 63 
569 838 223 105 80 62 
569 839 223 106 81 64 
570 836 223 97 84 73 
570 838 223 107 87 71 
570 839 223 107 86 70 
571 838 223 102 80 63 
571 839 223 108 83 66 
573 833 221 86 76 66 
572 832 222 100 86 74 
572 833 223 98 87 77 
573 832 223 101 91 82 
573 833 223 97 87 77 
573 834 221 92 82 72 
573 835 221 102 85 70 
572 834 223 98 86 75 
572 835 223 97 85 74 
573 834 222 96 84 72 
573 835 222 99 80 63 
574 833 221 95 82 71 
575 832 221 95 85 75 
575 833 221 97 81 67 
574 832 223 99 88 76 
574 833 222 94 80 67 
575 832 222 97 86 76 
575 832 223 99 89 80 
575 833 222 95 85 75 
575 833 223 104 90 75 
574 834 221 97 83 69 
574 835 221 96 79 60 
575 834 221 90 69 51 
574 834 222 94 79 64 
574 834 223 97 85 74 
574 835 222 93 76 54 
574 835 223 100 85 69 
575 834 223 99 86 74 
572 836 222 104 85 69 
572 836 223 103 85 69 
572 837 222 104 83 67 
572 837 223 106 87 66 
573 836 222 101 82 64 
573 836 223 102 84 64 
573 837 222 105 86 63 
572 838 223 104 81 63 
572 839 223 109 83 67 
573 838 223 109 85 63 
573 839 223 111 84 69 
574 836 222 97 79 57 
574 836 223 103 87 72 
568 840 222 107 83 65 
568 841 222 110 84 65 
568 841 223 113 88 68 
569 840 223 110 86 69 
569 841 223 115 90 72 
568 842 222 111 86 67 
568 842 223 113 87 68 
568 843 223 113 87 68 
569 842 223 116 91 71 
569 843 223 116 91 71 
570 840 223 111 87 69 
570 841 223 115 90 70 
571 840 223 112 88 69 
571 841 223 115 90 70 
570 842 223 116 91 70 
568 844 223 112 87 68 
568 845 223 114 90 72 
569 844 223 117 92 72 
569 845 223 117 93 74 
568 847 221 108 85 61 
568 846 222 112 89 70 
568 846 223 113 90 72 
568 847 222 109 85 59 
569 846 223 113 90 71 
569 847 222 112 84 60 
569 847 223 116 87 66 
570 846 223 112 88 66 
572 840 223 112 86 68 
565 849 211 121 88 72 
564 850 211 117 90 71 
564 851 211 117 89 71 
565 850 210 127 89 72 
565 850 211 117 89 71 
565 851 210 120 88 69 
566 849 210 126 89 74 
566 849 211 119 84 68 
567 849 210 119 84 68 
567 849 211 112 81 66 
567 851 209 125 90 75 
566 850 210 127 89 74 
566 851 210 125 92 78 
566 851 211 124 94 78 
567 850 210 119 86 70 
567 851 210 121 90 74 
567 851 211 113 85 71 
565 849 212 116 86 69 
565 849 213 112 84 68 
564 849 214 118 85 69 
565 849 214 105 81 68 
565 849 215 107 83 70 
564 850 212 116 89 70 
564 850 213 116 87 70 
564 851 212 116 88 71 
564 851 213 115 87 71 
565 850 212 116 88 70 
564 850 214 108 83 68 
564 850 215 114 88 72 
564 851 214 112 86 70 
564 851 215 115 89 73 
566 849 212 112 83 67 
566 849 213 106 81 66 
567 849 212 106 79 68 
567 849 213 103 77 69 
566 849 214 107 82 67 
566 849 215 106 82 69 
567 849 214 100 74 64 
567 849 215 107 83 69 
567 851 212 105 78 69 
567 851 215 99 74 62 
565 852 210 122 87 74 
565 852 211 122 88 75 
566 852 211 123 92 77 
567 852 211 118 90 75 
564 852 212 119 87 74 
564 852 213 115 87 72 
565 852 212 122 91 77 
565 853 212 122 92 78 
565 853 213 121 92 78 
564 852 214 114 87 72 
564 852 215 114 88 72 
564 853 215 116 90 74 
565 853 214 117 90 75 
565 853 215 111 87 73 
566 852 212 120 92 78 
566 852 213 114 88 76 
567 852 212 112 86 73 
567 852 213 101 75 69 
566 852 214 106 82 74 
566 852 215 103 80 73 
566 853 214 112 88 76 
566 853 215 107 84 75 
567 852 214 96 72 66 
567 852 215 100 77 68 
565 849 216 108 85 68 
565 849 217 109 85 66 
565 849 218 108 84 66 
565 849 219 106 82 63 
564 850 216 113 88 71 
564 850 217 109 85 67 
564 851 216 112 87 70 
564 851 217 109 85 67 
564 850 218 108 84 65 
564 850 219 104 80 60 
564 851 218 107 84 65 
564 851 219 104 81 63 
565 850 218 107 84 66 
565 850 219 105 81 62 
566 849 216 107 85 70 
566 849 217 108 85 68 
567 849 216 106 83 69 
567 849 217 110 86 69 
566 848 219 108 84 64 
566 849 218 108 85 67 
566 849 219 107 83 64 
567 848 219 108 84 64 
567 849 218 108 83 67 
567 849 219 109 84 65 
565 849 220 104 81 61 
565 849 221 108 84 63 
565 848 222 135 112 90 
565 848 223 128 104 82 
565 849 222 110 86 65 
565 849 223 113 89 68 
564 850 220 103 79 59 
564 850 221 108 84 62 
564 851 220 103 81 62 
564 851 221 108 85 64 
565 850 220 104 80 60 
565 850 221 107 83 62 
564 850 222 109 85 64 
564 850 223 112 87 66 
564 851 222 110 85 64 
564 851 223 111 86 66 
565 850 222 110 86 64 
565 850 223 112 87 66 
566 848 220 107 83 63 
566 848 221 109 84 67 
566 849 220 107 83 63 
567 848 220 107 83 63 
567 848 221 109 83 66 
566 848 222 130 105 86 
564 852 216 111 87 70 
564 852 217 110 85 68 
564 853 216 112 88 72 
564 853 217 110 85 69 
565 853 216 107 84 73 
565 853 217 105 83 74 
564 852 218 107 84 66 
564 852 219 105 83 64 
564 853 219 106 83 65 
565 853 218 107 84 73 
565 853 219 107 83 70 
565 854 219 110 82 71 
566 853 216 103 82 72 
566 853 217 106 81 70 
567 852 216 102 77 65 
567 852 217 106 77 64 
566 853 218 109 80 69 
566 853 219 112 81 67 
567 852 218 109 78 64 
567 852 219 109 80 62 
567 853 219 113 82 66 
564 852 220 107 83 64 
564 852 221 109 83 65 
564 853 220 108 84 67 
564 853 221 109 83 65 
564 852 222 110 85 65 
564 852 223 111 85 65 
564 853 222 111 85 66 
564 853 223 111 85 66 
564 854 220 109 83 65 
564 854 221 111 83 66 
565 854 220 113 83 70 
565 854 221 116 86 71 
564 854 222 111 85 66 
564 854 223 110 85 66 
565 854 222 115 86 69 
565 854 223 111 86 68 
566 853 220 114 83 68 
567 852 220 107 81 61 
567 853 220 111 83 65 
567 853 221 110 84 65 
567 853 222 112 87 65 
567 853 223 112 86 65 
566 854 220 116 86 70 
566 854 221 114 87 70 
566 854 222 112 87 70 
566 854 223 112 88 64 
568 849 211 104 77 65 
568 850 210 110 80 66 
568 850 211 103 75 64 
568 851 211 103 76 66 
568 849 212 102 76 68 
568 849 213 94 68 58 
568 849 214 91 66 54 
568 849 215 97 72 61 
568 850 212 100 75 70 
568 850 213 95 72 61 
568 851 212 99 73 68 
568 851 213 98 75 67 
568 850 214 95 69 59 
568 850 215 97 70 61 
568 851 214 95 71 59 
568 851 215 99 72 61 
568 849 216 98 73 64 
568 849 217 103 77 68 
568 849 218 106 80 68 
568 849 219 104 78 60 
568 850 216 102 74 63 
568 850 217 104 77 63 
568 851 216 104 76 66 
568 851 217 106 77 64 
568 850 218 105 78 61 
568 851 218 104 77 61 
568 851 219 104 78 57 
568 848 220 104 78 57 
568 848 221 106 80 57 
568 849 220 104 77 58 
569 848 220 103 76 54 
569 848 221 104 76 52 
569 848 222 110 82 59 
568 851 220 104 76 59 
568 851 221 108 80 67 
568 851 222 106 80 67 
568 851 223 104 79 67 
544 837 224 89 77 66 
544 838 225 87 76 66 
544 839 224 88 72 57 
544 839 225 84 70 55 
545 839 224 95 79 63 
545 839 225 86 73 59 
546 837 224 98 83 70 
546 839 224 98 80 65 
546 839 225 92 78 66 
547 839 224 100 83 68 
547 839 225 95 82 68 
548 837 224 102 84 69 
549 837 224 104 86 70 
548 839 224 100 84 70 
548 839 225 98 85 71 
549 839 224 100 86 72 
549 839 225 101 87 73 
550 839 224 102 88 74 
550 839 225 102 87 74 
551 839 224 103 89 76 
551 839 225 100 85 69 
544 840 225 85 71 57 
545 840 225 90 76 64 
544 840 226 90 77 65 
544 840 227 94 83 71 
544 841 227 94 83 72 
545 840 226 93 80 68 
545 840 227 95 83 71 
545 841 227 94 84 74 
546 840 226 96 83 70 
546 840 227 97 84 71 
546 841 227 96 85 74 
547 840 226 99 86 72 
547 840 227 100 86 72 
544 841 228 95 85 75 
544 841 229 96 85 73 
545 840 229 99 86 74 
545 841 228 98 86 74 
545 841 229 100 87 74 
544 841 230 97 85 74 
544 842 228 94 81 68 
544 842 229 101 88 74 
545 842 229 98 86 75 
544 842 230 100 86 73 
544 843 230 100 88 76 
544 843 231 93 82 70 
545 842 230 97 85 73 
545 843 230 96 85 73 
545 843 231 88 76 63 
546 840 229 98 83 69 
546 841 228 102 88 75 
546 841 229 99 87 74 
547 840 228 103 90 76 
547 841 228 103 90 77 
547 841 229 93 80 66 
547 841 230 91 75 59 
546 842 229 98 86 75 
546 842 230 93 79 66 
546 843 230 89 76 62 
546 843 231 89 75 60 
547 842 230 91 76 60 
547 842 231 90 76 60 
547 843 231 90 76 60 
544 845 224 116 98 80 
544 845 225 118 100 83 
545 845 224 115 99 85 
544 845 226 103 89 75 
544 846 225 118 100 85 
545 846 224 110 93 76 
545 846 225 111 95 80 
544 846 226 119 102 87 
544 846 227 108 95 83 
544 847 227 101 91 81 
545 846 226 112 96 81 
545 847 226 109 95 81 
545 847 227 107 94 82 
546 846 224 107 91 75 
546 847 224 103 86 70 
546 847 225 103 87 73 
547 847 224 111 91 73 
547 847 225 111 92 75 
546 847 226 106 90 77 
546 847 227 107 93 80 
547 847 226 110 90 74 
544 844 231 93 81 70 
544 846 228 100 90 80 
544 846 229 118 100 82 
544 847 228 114 98 81 
544 847 229 115 98 80 
545 847 228 111 95 82 
545 847 229 108 95 83 
544 847 230 110 95 81 
544 847 231 103 91 81 
548 840 226 101 87 74 
548 840 227 103 88 75 
549 840 226 103 88 74 
549 840 227 97 82 66 
550 840 226 99 84 69 
550 840 227 95 79 60 
551 840 226 96 80 61 
551 840 227 97 80 62 
548 840 228 97 82 66 
548 841 229 92 77 61 
549 840 228 94 78 60 
549 840 229 97 82 66 
549 841 229 94 79 63 
548 841 230 92 77 60 
549 841 230 94 78 62 
549 841 231 94 79 63 
548 842 230 93 77 61 
548 842 231 91 77 61 
549 842 231 93 79 63 
550 840 228 96 80 64 
550 840 229 95 80 65 
550 841 229 94 80 65 
551 840 228 96 81 65 
551 840 229 96 82 68 
550 840 230 95 82 69 
550 841 230 94 80 66 
550 841 231 90 77 64 
551 840 230 95 82 70 
551 840 231 91 79 68 
551 841 230 92 81 69 
551 841 231 90 78 67 
550 842 231 92 78 64 
548 847 224 112 93 77 
549 847 224 109 86 69 
549 847 225 108 87 66 
550 846 224 108 85 69 
550 847 224 107 84 65 
550 847 225 109 86 65 
551 846 224 111 89 66 
551 847 225 111 88 67 
551 847 226 113 89 69 
546 843 232 89 76 62 
547 843 232 89 76 61 
547 843 233 90 76 63 
544 844 232 86 73 59 
544 845 233 81 67 50 
545 844 232 86 73 58 
545 844 233 85 70 54 
545 845 233 81 67 50 
544 845 234 85 70 52 
545 844 235 87 74 61 
545 845 234 81 66 48 
545 845 235 85 72 59 
544 846 234 82 68 52 
544 846 235 82 70 58 
544 847 235 72 62 51 
545 846 234 80 64 46 
545 846 235 92 77 61 
546 844 232 89 75 61 
546 844 233 85 71 54 
547 844 233 89 76 62 
546 844 235 88 76 64 
546 845 234 85 70 54 
547 844 234 89 76 63 
547 845 234 92 80 67 
547 845 235 88 76 64 
546 846 235 89 76 63 
547 846 235 87 73 59 
544 845 236 82 70 56 
544 845 237 84 72 60 
545 845 236 86 74 61 
545 845 237 83 71 59 
544 846 237 82 70 58 
544 847 236 73 61 48 
544 847 237 83 69 55 
545 846 236 90 77 63 
545 847 236 77 68 59 
545 847 237 81 70 58 
544 846 238 80 69 57 
544 846 239 76 65 53 
544 847 238 90 75 60 
545 846 238 79 68 55 
545 847 238 84 71 59 
546 845 236 85 73 60 
546 845 237 81 69 56 
546 846 236 85 74 62 
546 847 237 85 72 59 
547 846 236 84 72 60 
547 846 237 80 68 56 
547 847 237 79 66 53 
546 846 238 77 65 51 
546 847 238 80 68 54 
547 847 238 74 62 48 
548 842 232 90 76 62 
548 843 232 89 76 62 
548 843 233 89 76 64 
549 842 232 89 76 64 
549 843 232 88 76 63 
549 843 233 87 76 65 
549 843 234 85 74 63 
550 841 232 87 76 66 
551 841 232 87 76 66 
550 842 232 87 76 66 
550 842 233 85 75 65 
550 843 233 86 75 65 
551 842 233 85 74 63 
551 843 233 82 70 59 
550 843 234 81 70 59 
551 843 234 79 67 55 
548 844 234 86 74 62 
548 845 235 80 68 56 
549 844 234 82 70 59 
549 845 235 77 65 52 
550 844 234 78 67 55 
550 844 235 76 63 50 
550 845 235 76 63 50 
551 844 234 77 65 53 
551 844 235 76 64 52 
551 845 235 78 66 53 
549 845 236 75 62 49 
548 846 236 76 64 51 
548 846 237 76 64 51 
548 847 237 73 60 47 
549 846 236 74 61 48 
549 846 237 73 60 46 
549 847 237 72 60 46 
548 847 238 71 58 45 
549 847 238 70 59 48 
549 847 239 76 63 48 
550 845 236 76 63 49 
551 845 236 77 64 52 
550 846 236 76 62 48 
550 847 237 84 70 55 
551 846 236 79 66 53 
551 847 236 79 65 49 
551 847 237 85 68 50 
550 846 238 76 63 49 
550 846 239 74 60 46 
550 847 238 75 61 46 
550 847 239 75 61 46 
551 846 238 76 63 48 
551 846 239 77 63 49 
552 839 224 101 86 71 
552 839 225 98 82 65 
553 839 224 99 83 67 
553 839 225 98 82 65 
552 839 226 97 80 63 
553 839 226 99 83 66 
553 839 227 98 83 67 
554 838 224 97 82 67 
554 839 224 97 82 66 
554 839 225 98 83 66 
555 838 224 100 85 70 
555 838 225 99 85 71 
555 839 225 99 85 70 
554 839 226 100 84 69 
554 839 227 99 85 71 
555 838 226 100 85 71 
555 839 226 99 85 71 
555 839 227 99 85 71 
553 839 228 98 83 69 
554 839 228 97 84 71 
554 839 229 95 82 70 
555 839 228 98 85 72 
555 839 229 95 82 68 
554 839 230 92 79 67 
555 839 230 91 78 65 
558 835 224 98 83 67 
557 837 224 103 89 76 
557 837 225 103 89 76 
556 838 224 101 87 72 
556 838 225 102 87 73 
557 838 224 103 88 73 
557 838 225 102 88 74 
556 838 226 101 87 72 
556 838 227 99 85 72 
556 839 227 98 84 71 
557 838 226 102 88 73 
557 838 227 101 86 72 
557 839 227 99 85 71 
558 837 224 103 90 78 
558 837 225 103 89 76 
559 836 224 102 90 78 
559 837 224 103 89 76 
559 837 225 102 89 75 
559 837 226 103 89 74 
558 838 226 103 89 75 
558 838 227 103 87 72 
559 838 226 104 89 76 
559 838 227 104 88 73 
556 839 228 98 84 70 
556 839 229 97 83 69 
557 839 228 99 84 69 
557 839 229 99 84 68 
556 839 230 93 80 65 
556 839 231 93 78 63 
557 839 230 96 81 65 
557 839 231 95 79 62 
558 839 228 101 85 69 
558 839 229 101 84 66 
559 839 228 102 85 68 
559 839 229 101 84 65 
558 839 230 100 83 64 
559 839 230 102 84 65 
552 840 226 96 79 61 
552 840 227 98 81 64 
553 840 227 98 83 68 
552 840 228 98 83 67 
552 840 229 97 84 71 
553 840 228 98 84 69 
553 840 229 97 84 70 
552 840 230 94 81 69 
552 840 231 92 80 68 
552 841 231 92 80 69 
553 840 230 94 81 69 
553 840 231 90 78 66 
554 840 230 92 80 67 
554 840 231 88 75 63 
555 840 231 88 74 61 
552 846 224 110 87 66 
552 846 225 110 86 67 
552 847 225 112 87 67 
553 846 224 109 83 63 
553 846 225 112 85 64 
553 847 225 114 87 64 
552 847 226 113 87 66 
553 847 226 116 88 65 
553 847 227 119 91 66 
554 846 224 115 88 65 
554 846 225 116 88 64 
554 847 225 117 89 64 
555 846 224 122 92 68 
555 846 225 121 91 67 
555 847 225 120 90 66 
554 847 226 119 90 65 
554 847 227 119 92 65 
555 847 226 119 90 65 
555 847 227 117 90 61 
556 840 231 91 76 60 
557 840 231 93 77 61 
558 840 230 98 81 64 
558 840 231 96 79 62 
559 840 230 100 83 64 
559 840 231 100 82 62 
556 846 224 122 91 69 
556 846 225 121 90 68 
556 847 225 119 89 66 
557 846 224 118 89 66 
557 846 225 116 88 64 
557 847 225 117 92 62 
556 847 226 118 91 63 
556 847 227 118 92 62 
557 847 226 117 92 63 
557 847 227 120 95 65 
558 846 224 117 90 67 
558 846 225 116 90 68 
558 847 225 115 89 67 
559 846 224 118 91 70 
559 846 225 115 88 69 
559 847 225 114 87 68 
558 847 226 119 94 66 
558 847 227 121 96 68 
559 847 226 119 94 67 
559 847 227 121 97 69 
559 847 231 111 86 65 
552 841 232 89 77 66 
552 841 233 85 73 62 
553 840 232 89 77 65 
553 841 232 87 75 64 
553 841 233 84 71 59 
552 842 233 83 71 59 
553 842 233 83 70 56 
552 842 234 81 68 55 
552 843 234 80 67 53 
553 842 234 82 68 54 
553 843 234 82 68 53 
554 840 232 86 74 61 
554 841 233 84 71 57 
555 840 232 86 73 60 
555 840 233 86 73 60 
555 841 233 86 73 59 
554 841 234 84 70 55 
555 841 234 86 72 57 
554 842 234 84 69 54 
554 843 234 84 69 54 
554 843 235 83 69 54 
555 842 234 87 72 56 
555 842 235 87 72 55 
555 843 235 85 69 53 
552 844 234 79 67 53 
552 844 235 79 67 54 
552 845 235 80 67 54 
553 844 234 82 68 54 
553 844 235 82 69 55 
553 845 235 83 69 56 
554 844 235 84 69 52 
554 845 235 82 68 53 
555 844 235 86 70 52 
555 845 235 88 72 53 
554 846 235 84 68 52 
555 846 235 87 71 55 
552 845 239 78 63 48 
552 846 236 80 67 53 
552 847 236 82 72 62 
552 847 237 91 72 52 
553 846 236 78 65 52 
553 847 236 71 58 44 
553 847 237 74 60 44 
552 846 239 79 64 49 
554 845 239 83 67 49 
555 845 239 87 70 52 
554 846 236 85 69 53 
554 847 236 78 64 51 
554 847 237 78 64 48 
555 846 236 78 66 54 
555 847 236 82 68 54 
554 846 239 86 70 52 
554 847 238 90 72 51 
555 846 238 91 73 54 
555 846 239 88 71 52 
555 847 238 93 75 54 
555 847 239 90 73 53 
556 840 232 89 75 60 
556 840 233 88 74 60 
556 841 233 88 75 60 
557 840 232 90 75 59 
557 840 233 91 76 60 
557 841 233 92 76 60 
556 841 234 89 75 60 
557 841 234 91 76 60 
556 842 235 88 73 57 
556 843 235 85 70 54 
557 842 235 90 74 58 
557 843 235 87 72 56 
558 840 232 95 79 61 
558 840 233 93 77 60 
558 841 233 94 78 60 
559 840 232 98 81 62 
559 841 232 98 81 62 
559 841 233 96 79 60 
558 841 234 93 77 60 
559 841 234 93 77 60 
558 842 234 92 76 59 
558 842 235 90 74 57 
558 843 235 90 74 57 
559 842 234 93 76 58 
559 843 234 95 78 58 
559 843 235 92 75 57 
559 842 237 95 78 59 
559 843 237 95 77 57 
559 842 238 94 77 58 
559 843 238 94 76 57 
556 844 235 87 71 55 
556 845 235 89 73 56 
557 844 235 88 73 56 
557 845 235 90 74 57 
556 846 235 86 70 53 
557 846 235 91 74 55 
557 847 235 99 80 59 
558 844 235 92 76 59 
558 845 235 92 75 57 
559 844 234 98 78 62 
559 844 235 90 75 60 
559 845 234 84 70 55 
559 845 235 96 80 63 
559 847 232 106 83 66 
559 847 233 106 84 66 
558 846 235 94 77 58 
558 847 235 107 85 63 
559 846 234 97 77 58 
559 847 234 106 85 67 
557 845 237 94 75 53 
556 845 238 90 72 53 
556 845 239 87 70 52 
557 845 238 93 74 53 
556 846 236 78 66 53 
556 847 236 100 79 55 
556 847 237 95 76 56 
557 846 237 95 76 54 
557 847 236 102 81 60 
557 847 237 98 78 54 
556 846 238 93 74 53 
556 847 238 96 77 55 
558 844 237 94 75 54 
558 845 237 95 76 54 
559 844 236 98 78 57 
559 844 237 97 78 57 
559 845 236 98 79 56 
558 846 237 96 77 55 
558 847 237 98 79 56 
559 846 236 100 80 58 
559 847 236 101 81 60 
559 847 237 100 81 59 
544 847 240 73 62 51 
544 847 241 71 59 47 
549 847 240 76 62 47 
549 847 242 77 63 48 
550 847 240 78 63 45 
551 847 240 78 63 46 
551 847 241 82 66 47 
550 847 242 77 63 47 
552 847 240 79 63 47 
547 848 225 112 93 76 
546 848 227 107 91 77 
547 848 226 109 90 73 
547 848 227 108 89 72 
547 849 227 107 87 67 
545 848 228 103 90 79 
545 848 229 104 90 77 
544 848 230 107 93 81 
544 848 231 110 95 81 
545 848 230 108 92 79 
545 848 231 101 88 75 
545 849 231 106 90 74 
546 848 228 106 90 75 
546 848 229 106 90 73 
546 849 229 101 86 72 
547 848 228 106 89 73 
547 849 228 106 87 67 
547 849 229 106 88 69 
546 848 230 100 87 73 
546 849 230 102 86 71 
546 849 231 105 88 71 
547 849 230 102 86 68 
547 849 231 102 84 65 
547 850 229 105 86 64 
547 850 230 105 85 64 
547 850 231 102 82 61 
548 848 225 108 88 70 
549 848 225 106 85 65 
548 848 226 106 85 64 
548 849 227 106 84 61 
549 848 226 107 84 61 
549 849 227 108 83 60 
549 850 227 111 85 60 
550 848 225 109 86 64 
550 848 226 109 84 62 
550 849 227 114 88 63 
551 848 226 113 88 66 
551 848 227 114 89 65 
551 849 227 116 90 64 
550 850 227 116 89 61 
551 850 227 117 90 60 
548 849 228 105 82 61 
548 850 228 109 84 61 
548 850 229 109 85 63 
548 851 229 108 82 53 
549 850 228 112 86 61 
549 851 228 115 89 63 
549 851 229 115 89 64 
548 851 230 110 86 60 
548 851 231 110 86 59 
549 851 230 115 89 63 
549 851 231 119 90 65 
550 850 228 118 92 67 
550 851 228 123 97 71 
551 850 228 120 93 66 
551 851 228 122 95 71 
549 852 229 119 93 66 
549 852 230 117 89 60 
549 852 231 119 90 64 
550 852 228 126 100 76 
550 852 229 125 98 76 
550 853 229 128 100 82 
551 852 229 125 95 76 
551 853 229 126 95 78 
550 852 230 124 96 72 
550 852 231 123 90 72 
550 853 230 126 96 76 
550 853 231 135 101 72 
551 853 230 119 89 73 
551 853 231 110 76 66 
544 848 232 102 87 73 
544 848 233 95 81 67 
544 849 233 97 80 63 
545 848 232 97 83 69 
545 849 232 95 80 64 
545 849 233 96 80 61 
544 849 234 96 79 61 
544 849 235 91 75 58 
545 849 234 101 83 63 
544 850 235 101 82 64 
545 850 234 103 84 63 
545 850 235 104 84 62 
545 851 235 101 81 58 
546 849 232 102 84 66 
546 849 233 100 82 63 
546 850 233 100 81 62 
547 850 232 103 84 62 
547 850 233 103 83 60 
547 851 233 111 87 56 
546 850 234 102 83 63 
546 850 235 102 83 61 
546 851 235 101 80 56 
547 850 234 105 85 62 
547 851 234 107 85 58 
547 851 235 107 83 57 
544 848 238 87 73 57 
544 848 239 85 71 56 
545 848 239 81 69 57 
544 851 236 98 79 57 
545 851 236 101 81 57 
546 848 239 75 62 47 
547 848 238 74 61 47 
547 848 239 75 62 48 
546 851 236 100 79 54 
547 851 236 104 82 56 
544 852 235 101 82 61 
544 854 235 102 78 59 
545 854 235 105 79 57 
544 852 237 108 84 67 
545 852 236 101 80 57 
545 852 237 108 83 62 
544 853 238 107 82 65 
544 853 239 108 79 66 
545 853 238 111 81 61 
545 853 239 97 72 57 
544 854 236 104 79 61 
544 855 237 101 76 55 
545 854 236 109 81 63 
544 854 239 105 77 60 
545 854 239 105 78 61 
546 852 236 101 79 54 
546 852 237 104 80 56 
547 852 236 108 83 56 
547 852 237 108 83 57 
546 853 238 107 79 58 
546 853 239 97 74 55 
547 853 238 110 85 60 
547 853 239 112 86 62 
546 855 238 109 84 64 
548 851 232 111 85 57 
548 851 233 111 86 58 
549 851 232 116 87 60 
548 851 234 113 86 59 
548 848 238 70 58 46 
548 848 239 75 62 47 
549 848 238 72 60 48 
549 848 239 70 57 43 
549 849 239 68 56 43 
550 848 238 81 66 50 
550 848 239 81 66 51 
550 849 239 81 65 49 
551 848 238 84 67 51 
551 849 238 91 73 55 
551 849 239 92 73 53 
551 850 239 98 78 58 
549 852 232 117 87 65 
549 852 233 121 89 65 
548 852 234 115 87 63 
548 852 235 113 87 60 
549 852 234 120 89 66 
549 852 235 122 93 66 
550 852 232 131 97 69 
550 852 233 130 96 71 
550 853 232 136 102 73 
550 853 233 129 98 71 
551 853 232 127 96 74 
551 853 233 121 93 79 
550 852 234 124 93 68 
550 853 234 132 100 69 
550 853 235 131 100 71 
551 853 234 131 103 76 
551 853 235 123 95 70 
548 852 236 116 88 57 
548 852 237 116 88 54 
548 853 237 115 90 58 
549 852 236 121 92 63 
549 853 236 125 95 67 
549 853 237 122 95 65 
548 853 238 104 81 54 
548 853 239 113 88 55 
549 853 238 125 97 66 
549 853 239 126 95 63 
548 854 236 115 85 64 
550 853 236 132 101 74 
550 853 237 134 103 74 
551 853 236 130 101 67 
551 853 237 133 102 67 
550 853 238 133 102 75 
550 853 239 127 97 72 
551 852 239 108 84 62 
551 853 238 138 106 68 
551 853 239 115 91 64 
551 855 238 105 78 66 
544 858 239 108 84 64 
544 859 239 105 82 65 
547 856 239 105 82 62 
547 857 239 105 83 63 
551 857 237 102 76 61 
550 856 238 111 91 68 
550 857 238 97 76 62 
551 856 238 106 82 67 
550 858 237 101 74 63 
550 860 236 100 73 60 
550 861 236 99 73 60 
552 848 226 114 87 65 
552 848 227 115 87 65 
552 849 227 115 88 63 
553 848 227 117 90 64 
554 848 227 118 92 65 
555 848 227 117 91 61 
552 849 228 118 91 66 
553 849 228 120 95 66 
552 850 228 117 90 66 
552 851 228 120 93 71 
552 851 229 121 93 75 
553 850 228 120 94 71 
553 850 229 122 98 73 
553 851 229 123 96 77 
553 851 230 124 100 79 
554 848 228 119 93 65 
554 849 228 122 96 67 
554 849 229 123 98 70 
555 848 228 119 92 63 
555 848 229 122 95 64 
555 849 229 124 97 67 
554 849 230 124 100 74 
555 849 230 125 100 72 
554 850 229 123 98 74 
554 850 230 124 99 75 
554 851 230 124 101 78 
554 851 231 123 99 77 
555 850 230 125 101 76 
555 850 231 122 98 75 
555 851 231 122 98 76 
552 852 229 122 94 78 
552 852 230 122 94 78 
552 853 230 120 91 75 
552 853 231 118 91 77 
553 852 230 124 98 80 
553 852 231 123 98 79 
553 853 231 122 97 78 
554 852 231 120 97 79 
556 848 227 120 93 63 
557 848 227 121 96 67 
558 848 227 123 98 69 
559 848 227 123 98 70 
556 848 228 120 94 65 
556 848 229 123 96 64 
556 849 229 123 96 64 
557 848 228 122 97 68 
557 848 229 123 98 70 
556 849 230 124 99 70 
556 849 231 119 95 72 
557 848 230 124 100 73 
557 849 230 124 99 71 
557 849 231 121 97 73 
556 850 231 127 104 78 
558 848 228 125 100 73 
558 848 229 122 100 76 
559 848 228 124 99 71 
559 848 229 122 100 75 
558 848 230 121 99 75 
558 848 231 120 98 74 
558 849 231 116 93 74 
559 848 230 120 99 77 
559 848 231 118 97 76 
554 851 232 121 97 77 
555 850 232 122 98 77 
555 851 232 122 97 77 
555 851 233 124 99 79 
552 848 237 91 71 53 
553 848 237 83 68 50 
552 848 238 95 74 54 
552 848 239 87 69 50 
552 849 238 87 69 49 
553 848 239 92 74 53 
553 849 238 82 66 46 
553 849 239 94 75 55 
552 850 238 83 68 52 
552 850 239 103 82 59 
552 851 239 92 72 53 
553 850 238 88 70 50 
553 850 239 102 81 56 
553 851 238 108 85 57 
553 851 239 105 82 60 
554 848 237 84 68 52 
554 849 237 99 79 60 
555 848 236 97 78 57 
555 848 237 102 81 59 
555 849 237 103 83 61 
554 848 239 94 76 55 
554 849 238 98 78 60 
554 849 239 97 78 56 
555 848 238 97 77 55 
555 848 239 96 77 54 
555 849 239 99 79 56 
555 850 237 103 82 62 
555 851 237 106 84 65 
554 850 238 102 80 62 
554 850 239 102 81 58 
554 851 238 104 82 62 
555 850 238 105 83 64 
555 850 239 104 84 61 
555 851 238 103 82 61 
555 851 239 108 87 65 
552 853 232 119 93 80 
552 853 233 121 94 81 
553 852 232 116 93 75 
553 853 232 120 95 80 
553 853 233 120 91 81 
552 853 234 119 90 80 
553 853 234 119 89 81 
552 854 234 118 86 79 
552 854 235 112 85 72 
553 854 234 116 86 79 
553 854 235 113 86 74 
554 852 232 117 95 77 
554 852 233 116 95 78 
554 853 232 119 98 81 
554 853 233 118 92 81 
555 852 233 120 97 79 
554 853 234 114 89 75 
555 852 234 119 95 77 
555 853 234 115 88 72 
555 853 235 114 87 69 
554 854 234 113 87 74 
554 854 235 108 85 70 
555 854 235 115 87 70 
552 853 237 119 93 64 
553 853 237 120 95 65 
552 852 239 105 82 61 
552 853 238 117 91 61 
553 852 238 92 75 61 
553 852 239 103 81 62 
553 853 238 97 78 61 
552 854 236 116 91 67 
552 854 237 118 93 63 
553 854 236 112 84 71 
553 854 237 106 83 62 
553 855 238 110 87 69 
554 853 237 114 87 66 
555 852 237 110 89 65 
555 853 236 114 88 67 
555 853 237 111 88 68 
554 852 238 102 82 62 
554 853 238 101 80 62 
554 853 239 107 89 70 
555 852 238 113 90 68 
555 852 239 108 89 67 
555 853 239 110 92 73 
554 854 236 111 86 71 
554 854 237 100 81 65 
554 855 237 108 85 67 
555 854 236 114 89 69 
554 855 238 104 91 78 
557 849 232 121 99 75 
557 848 235 109 86 64 
556 850 232 123 99 78 
556 850 233 118 94 77 
556 851 233 122 98 79 
557 850 232 127 104 80 
557 850 233 120 97 78 
556 851 234 131 108 85 
557 850 234 129 108 85 
557 851 234 123 98 77 
557 851 235 108 84 64 
558 848 232 122 100 77 
558 849 232 123 101 77 
558 849 233 118 96 75 
559 848 232 113 92 69 
559 848 233 109 86 68 
558 848 235 106 82 63 
558 849 234 123 102 81 
558 849 235 106 85 66 
559 848 234 110 88 67 
559 849 234 112 92 70 
558 850 233 112 88 72 
558 850 234 120 99 80 
558 850 235 104 87 70 
558 851 234 106 82 66 
558 851 235 103 81 63 
556 848 236 85 70 53 
556 849 236 102 81 61 
556 849 237 103 82 61 
557 848 236 99 79 60 
557 849 236 105 85 66 
556 848 238 98 78 56 
556 849 238 101 81 56 
556 849 239 101 81 59 
557 848 238 101 81 59 
557 849 238 102 82 61 
557 849 239 101 81 59 
556 850 237 97 80 62 
556 851 237 107 85 64 
557 850 236 104 85 67 
557 850 237 103 84 65 
557 851 236 110 88 66 
557 851 237 111 89 66 
556 850 238 103 81 57 
556 850 239 103 83 61 
556 851 239 108 88 67 
557 850 238 105 84 62 
557 850 239 105 84 63 
557 851 238 110 90 68 
557 851 239 106 86 66 
558 848 237 100 81 57 
559 848 237 102 83 61 
559 849 237 105 86 66 
558 848 238 101 81 58 
558 849 238 103 83 60 
559 849 238 102 83 62 
558 850 236 104 82 64 
558 851 236 104 82 64 
559 850 237 108 88 68 
558 850 238 107 87 64 
558 851 238 108 89 68 
558 851 239 107 89 70 
559 851 238 112 93 73 
559 851 239 106 89 72 
556 852 234 133 109 84 
556 853 235 110 87 67 
557 852 234 111 87 67 
557 852 235 108 85 65 
557 853 235 108 85 64 
556 852 237 104 83 61 
556 853 236 112 89 66 
556 853 237 106 84 65 
557 852 236 106 83 63 
557 852 237 106 83 63 
557 853 236 107 84 64 
557 853 237 105 83 63 
556 852 239 109 90 70 
556 853 239 107 90 74 
557 852 238 106 89 71 
557 852 239 108 90 71 
557 853 238 105 87 68 
557 853 239 106 91 75 
556 854 237 109 95 83 
556 855 237 105 89 75 
556 854 239 108 91 75 
557 854 239 106 91 77 
557 855 239 111 88 71 
558 852 236 105 83 63 
558 852 238 108 91 74 
558 852 239 108 90 71 
558 853 238 105 90 75 
558 853 239 105 89 72 
559 852 238 106 90 74 
559 852 239 105 90 75 
559 853 239 104 90 75 
558 854 239 105 92 80 
559 854 239 104 89 76 
559 855 239 104 88 75 
552 857 237 104 84 70 
552 856 238 108 84 69 
552 857 239 104 82 68 
553 856 238 106 84 69 
553 857 239 102 77 60 
555 856 236 111 98 85 
554 856 238 103 88 74 
554 856 239 105 88 71 
556 856 236 105 91 78 
557 856 237 100 82 68 
557 856 238 101 83 69 
544 848 240 77 66 55 
544 849 240 75 65 55 
544 849 241 72 62 51 
545 848 240 75 64 52 
545 849 241 72 61 49 
544 849 242 68 58 48 
545 849 242 70 59 48 
544 850 242 67 57 46 
544 850 243 67 56 45 
545 850 243 69 58 46 
546 848 240 75 62 47 
546 849 241 73 60 49 
547 848 240 74 61 48 
547 849 241 76 62 48 
546 849 242 70 59 48 
547 849 242 72 60 46 
546 850 242 70 59 47 
546 850 243 70 58 45 
547 850 242 72 59 44 
547 850 243 68 55 41 
547 851 243 66 53 38 
544 850 244 67 57 46 
544 851 244 64 53 42 
544 851 245 64 52 40 
545 850 244 67 55 42 
545 851 244 67 55 40 
545 851 245 69 55 40 
546 850 244 70 57 42 
546 851 244 72 58 42 
546 851 245 72 57 40 
547 851 244 69 54 38 
546 851 247 73 58 42 
547 851 246 77 62 45 
544 854 240 99 74 57 
544 855 240 105 79 58 
544 855 241 107 82 61 
545 854 240 106 79 58 
545 854 241 109 84 60 
545 855 241 110 85 61 
545 855 242 112 88 64 
546 853 240 109 83 60 
547 853 240 114 88 63 
547 853 241 115 88 70 
547 852 243 93 77 60 
547 853 242 100 76 61 
547 853 243 97 79 61 
546 854 240 106 80 62 
546 854 241 112 87 66 
546 855 241 112 88 64 
547 854 241 113 88 68 
546 854 242 113 88 68 
546 854 243 113 85 69 
546 855 242 112 88 65 
546 855 243 113 87 65 
547 854 242 114 87 70 
547 854 243 112 84 69 
544 852 245 65 53 39 
545 852 245 64 52 38 
544 852 246 62 51 40 
544 853 246 65 52 40 
544 853 247 68 54 41 
545 852 246 63 52 40 
545 853 246 69 56 40 
545 853 247 73 57 42 
544 854 247 73 58 43 
545 854 247 75 60 44 
546 852 245 82 65 48 
546 853 245 63 50 36 
547 852 244 84 69 55 
547 852 245 69 56 41 
547 853 244 81 65 47 
547 853 245 61 48 34 
546 852 247 75 59 42 
546 853 246 76 61 43 
547 852 246 78 62 44 
547 852 247 79 63 43 
547 853 247 83 66 47 
546 854 244 112 86 66 
546 854 245 89 70 52 
546 855 244 112 85 65 
546 855 245 106 81 64 
547 854 244 90 69 55 
547 854 245 79 62 47 
546 854 246 78 63 45 
546 854 247 76 61 45 
546 855 246 81 66 50 
546 855 247 75 62 49 
547 854 247 86 70 51 
547 855 247 96 79 59 
548 848 240 74 61 47 
548 849 240 68 56 43 
548 849 241 72 59 45 
549 849 240 70 57 43 
549 849 241 64 53 41 
548 850 241 74 60 47 
549 850 241 78 64 48 
549 851 241 88 70 53 
548 850 242 65 53 40 
548 851 242 74 59 42 
548 851 243 69 55 39 
549 851 242 94 74 53 
549 851 243 85 68 49 
550 848 240 83 66 46 
550 849 240 90 72 51 
551 848 240 82 65 47 
551 848 241 85 69 49 
551 849 241 85 68 49 
550 848 242 86 69 50 
550 848 243 85 69 50 
550 849 242 87 69 51 
550 849 243 92 73 54 
551 849 242 90 72 52 
550 850 240 80 65 48 
550 850 241 73 62 50 
550 851 240 95 78 60 
550 851 241 100 79 58 
551 850 240 99 77 53 
551 850 241 89 71 51 
551 851 240 92 73 55 
550 850 242 88 70 51 
550 850 243 86 69 50 
550 851 243 85 68 50 
551 850 242 91 72 52 
551 851 242 94 75 55 
549 849 245 80 64 47 
549 849 246 79 64 48 
548 851 245 83 66 49 
549 850 244 84 67 47 
549 850 245 80 64 47 
549 851 244 85 68 47 
549 851 245 82 66 50 
548 850 246 78 63 46 
548 851 246 81 65 48 
550 848 244 80 65 47 
550 848 245 80 64 45 
550 849 244 82 66 47 
550 849 245 82 65 46 
550 849 246 79 63 46 
548 853 240 120 91 54 
548 853 241 114 87 53 
549 852 241 101 81 60 
549 853 240 121 92 58 
549 853 241 126 93 55 
548 852 242 85 67 47 
548 852 243 78 64 48 
548 853 242 105 85 61 
548 853 243 119 94 65 
549 852 242 88 74 61 
549 852 243 88 70 51 
549 853 243 100 79 54 
548 855 243 102 81 61 
549 854 243 102 80 59 
549 855 243 92 76 60 
550 852 240 100 79 60 
550 852 241 97 78 60 
550 853 240 130 98 70 
551 852 240 97 77 58 
550 852 243 90 72 54 
550 853 243 93 76 57 
551 852 242 95 76 57 
551 853 242 98 80 60 
550 854 240 92 73 60 
550 854 242 97 80 64 
550 854 243 101 82 64 
550 855 243 104 87 69 
551 854 242 98 81 65 
551 855 243 99 83 67 
548 852 244 86 68 48 
548 853 244 94 74 52 
548 853 245 90 72 51 
549 852 244 89 71 49 
549 852 245 85 68 49 
549 853 244 88 71 52 
548 852 246 81 64 46 
548 853 246 83 66 47 
548 854 244 99 79 56 
548 854 245 97 78 58 
548 855 245 100 80 56 
549 854 244 88 72 55 
549 855 245 91 76 60 
548 854 246 96 78 58 
548 854 247 90 74 57 
548 855 246 91 74 57 
548 855 247 95 78 60 
549 855 246 92 77 62 
550 855 245 93 79 66 
551 855 245 94 81 69 
550 855 247 91 78 66 
551 855 246 92 78 65 
544 854 248 74 58 42 
544 855 248 76 61 45 
544 855 249 77 62 46 
545 854 248 77 62 45 
545 855 248 79 64 49 
546 852 248 75 59 44 
546 854 248 86 69 50 
546 855 248 77 64 51 
547 854 248 86 70 51 
547 855 248 95 78 59 
547 855 249 96 78 57 
546 855 251 86 70 54 
545 855 252 85 70 54 
546 855 252 85 70 54 
544 856 241 110 84 62 
544 857 240 107 83 65 
544 857 241 107 84 64 
545 856 241 112 88 64 
544 857 242 113 90 67 
544 857 243 112 89 68 
545 856 242 105 83 59 
545 856 243 110 86 67 
545 857 242 120 96 68 
545 857 243 108 85 66 
544 858 240 108 84 67 
544 858 242 104 81 61 
544 858 243 118 93 65 
546 856 240 106 83 62 
546 857 240 105 83 62 
546 856 243 113 87 67 
546 858 241 104 82 65 
547 858 241 104 79 65 
546 859 242 94 77 68 
546 859 243 106 76 64 
547 859 243 107 80 64 
545 857 244 120 95 70 
545 857 245 113 86 69 
544 858 244 111 88 70 
544 858 245 110 84 67 
544 859 245 123 97 75 
545 858 244 127 101 69 
545 858 245 109 81 66 
544 859 246 112 89 72 
544 859 247 112 85 70 
545 858 246 104 81 66 
545 858 247 104 79 65 
545 859 247 111 84 68 
546 856 244 119 94 68 
546 856 245 110 86 62 
546 857 245 111 84 67 
547 857 244 103 81 64 
547 857 245 115 84 68 
546 856 246 89 73 57 
546 856 247 92 74 61 
546 857 246 114 90 68 
546 857 247 95 78 58 
547 856 247 92 77 63 
547 858 245 100 77 64 
546 858 246 110 82 67 
546 858 247 103 82 59 
547 858 246 95 73 61 
547 858 247 114 84 66 
546 860 242 104 79 66 
544 860 247 108 82 67 
547 862 247 104 86 74 
548 856 243 98 79 62 
548 857 243 109 82 65 
549 856 243 100 82 66 
548 858 242 100 79 64 
548 858 243 112 84 68 
549 858 243 109 86 71 
550 857 241 108 78 63 
550 856 243 90 76 63 
551 859 243 106 84 69 
549 857 244 107 85 70 
