ply
format ascii 1.0
comment Created by CloudCompare v2.10.1 (Zephyrus)
comment Created 1/31/20 11:43 AM
obj_info Generated by CloudCompare!
element vertex 2137
property float x
property float y
property float z
property uchar red
property uchar green
property uchar blue
end_header
360 891 150 89 82 79 
362 888 148 98 87 79 
360 892 144 97 88 85 
360 892 145 97 87 83 
360 893 144 95 86 83 
360 893 145 96 86 83 
361 892 144 94 84 80 
361 892 145 93 84 80 
360 892 146 92 84 82 
360 892 147 91 83 80 
360 893 146 92 83 80 
360 893 147 94 86 82 
361 892 146 90 82 79 
361 892 147 89 81 78 
360 892 148 89 81 77 
360 892 149 86 77 73 
360 892 150 88 80 77 
364 888 144 95 85 77 
368 864 132 97 71 49 
369 864 132 109 80 51 
368 864 135 108 84 64 
368 865 135 113 89 69 
369 864 134 104 82 61 
369 864 135 105 81 59 
369 865 135 106 84 62 
369 867 133 107 86 68 
368 866 135 108 86 63 
368 867 135 111 88 64 
370 864 133 105 81 61 
370 865 133 109 84 67 
371 864 132 110 85 66 
371 865 132 106 80 63 
370 864 135 100 78 58 
370 865 135 95 74 53 
370 867 132 107 85 67 
371 866 132 107 83 65 
371 867 132 104 82 66 
369 869 131 104 83 69 
368 871 129 95 74 64 
369 871 129 92 73 63 
368 870 131 102 81 68 
368 871 130 97 75 63 
368 871 131 97 75 66 
369 870 130 93 74 65 
369 870 131 103 82 69 
370 869 131 102 81 67 
371 868 131 102 79 62 
371 869 130 99 78 63 
371 869 131 99 77 61 
370 871 129 93 74 64 
370 870 130 94 75 63 
370 871 130 90 73 61 
370 871 131 91 74 63 
371 870 130 98 78 66 
371 870 131 100 80 70 
371 871 130 94 75 64 
371 871 131 100 80 69 
368 868 133 105 83 63 
368 869 133 104 83 69 
369 868 132 108 85 69 
369 868 133 112 86 67 
369 869 132 106 86 71 
369 869 133 106 84 69 
368 869 134 106 82 71 
368 870 132 103 81 69 
368 870 133 104 80 67 
368 871 132 98 77 69 
368 870 134 105 82 67 
370 868 132 105 83 68 
370 869 132 103 81 67 
371 868 132 102 80 63 
372 864 131 102 79 59 
372 865 131 103 80 60 
373 864 131 102 78 61 
373 865 130 94 71 51 
373 865 131 100 77 59 
373 867 129 87 66 51 
372 866 131 102 80 60 
372 867 130 97 75 59 
372 867 131 100 78 62 
373 866 130 92 69 50 
373 866 131 90 68 50 
373 867 130 90 69 53 
374 865 129 97 74 59 
375 865 129 95 72 59 
374 864 131 103 78 60 
374 865 130 94 71 55 
375 864 131 102 79 61 
374 866 129 89 68 53 
374 867 128 84 65 50 
374 867 129 84 65 49 
375 866 128 93 70 58 
375 867 128 84 66 48 
372 864 132 106 80 61 
373 864 132 100 74 56 
374 864 132 102 76 59 
372 869 129 91 71 61 
373 868 128 85 64 56 
373 868 129 88 67 53 
373 869 128 88 67 60 
372 868 130 95 73 58 
372 868 131 97 76 62 
372 869 130 95 74 61 
372 870 128 88 69 59 
372 870 129 96 78 67 
372 871 128 88 70 61 
372 871 129 93 75 64 
374 868 128 84 64 50 
374 871 128 91 72 65 
375 871 128 87 68 56 
369 865 136 104 84 62 
368 866 136 104 83 61 
368 867 136 102 81 61 
369 866 136 98 77 57 
369 867 136 98 78 60 
370 864 136 93 71 59 
370 865 136 92 71 56 
371 864 136 94 72 55 
371 864 137 97 77 60 
371 865 136 98 78 62 
371 865 137 96 75 58 
371 865 138 90 69 53 
371 865 139 90 70 58 
370 866 136 97 75 58 
370 867 136 105 83 64 
370 867 137 102 80 60 
371 866 137 95 75 57 
371 867 137 95 75 57 
371 866 138 91 73 54 
371 866 139 86 67 54 
371 867 138 91 72 53 
371 867 139 85 65 51 
369 864 141 79 70 62 
369 865 141 77 67 59 
368 864 142 84 73 63 
368 864 143 85 75 66 
368 865 142 83 73 64 
369 864 142 79 70 62 
369 865 142 79 70 62 
368 866 141 78 65 59 
368 867 141 75 61 56 
369 866 141 74 62 55 
369 867 141 71 59 51 
368 866 142 80 68 60 
368 867 142 80 66 60 
370 864 141 79 70 62 
370 865 140 75 64 55 
370 865 141 77 67 58 
371 864 140 84 72 63 
371 864 141 86 74 66 
371 865 140 85 71 60 
370 864 142 80 71 64 
370 866 140 78 62 54 
370 866 141 76 63 55 
370 867 140 76 60 51 
371 866 140 82 66 57 
371 867 140 82 63 54 
368 868 136 99 76 57 
368 869 136 98 76 57 
368 869 137 98 76 60 
369 868 136 104 83 64 
369 869 137 94 74 53 
368 869 139 76 59 53 
369 869 138 88 67 53 
369 869 139 81 61 55 
368 870 137 95 73 60 
368 870 138 84 63 54 
368 870 139 77 60 52 
370 868 136 105 83 64 
370 868 137 101 79 59 
370 869 137 96 75 54 
371 868 137 98 77 57 
370 868 138 90 71 55 
370 868 139 83 63 53 
370 869 138 89 70 53 
370 869 139 83 63 55 
371 868 138 89 72 53 
371 868 139 85 67 52 
368 868 141 75 61 55 
368 869 140 72 57 49 
368 869 141 76 63 55 
369 868 140 74 58 51 
369 868 141 68 55 45 
369 869 140 73 57 50 
368 870 140 73 59 52 
370 868 140 77 60 53 
372 864 137 103 82 64 
372 864 138 95 74 59 
372 864 139 92 75 62 
372 865 138 92 72 56 
372 865 139 91 72 59 
368 872 129 94 74 64 
368 873 129 94 74 64 
369 872 129 94 74 66 
369 873 128 110 94 81 
369 873 129 94 74 64 
369 873 130 96 77 66 
368 874 129 96 76 66 
368 875 129 115 98 90 
369 875 129 104 86 76 
368 874 131 91 72 61 
368 875 131 93 75 65 
369 874 130 95 75 63 
369 875 131 99 81 73 
370 872 129 89 72 60 
370 873 128 126 113 105 
371 872 128 93 74 61 
370 873 130 94 75 65 
371 872 130 93 75 65 
371 873 130 93 75 63 
370 874 131 96 79 69 
370 875 131 106 89 79 
371 874 131 95 78 63 
368 873 132 89 73 63 
368 873 133 91 74 64 
369 872 132 90 74 62 
369 872 133 88 72 60 
369 873 132 89 71 60 
369 873 133 92 75 60 
368 873 134 91 73 63 
368 874 132 91 72 61 
369 874 132 90 72 60 
369 874 133 98 80 63 
369 875 132 93 76 63 
368 874 134 103 84 66 
368 874 135 97 80 66 
368 875 135 100 83 70 
369 874 134 104 84 67 
369 875 134 107 89 73 
369 875 135 104 87 73 
370 875 132 96 78 62 
370 875 133 97 80 64 
370 875 134 106 88 72 
368 877 129 90 73 64 
369 876 129 108 97 91 
369 877 129 89 72 64 
368 876 131 101 83 77 
368 877 131 102 86 77 
369 876 131 93 77 68 
369 877 131 95 79 70 
368 878 129 92 76 67 
368 879 129 101 85 75 
369 878 129 92 76 69 
368 878 131 105 90 81 
368 879 131 95 81 72 
369 878 131 102 87 81 
369 879 130 90 74 66 
369 879 131 97 84 76 
370 877 129 94 77 73 
371 877 128 94 75 66 
371 877 129 92 74 68 
370 877 131 92 78 69 
371 877 130 98 78 70 
370 878 129 89 74 65 
371 878 129 92 76 66 
370 878 130 90 76 68 
370 879 130 91 75 66 
371 878 130 93 77 66 
371 879 130 88 73 61 
369 876 132 91 75 63 
368 876 135 103 87 75 
369 876 135 105 88 74 
368 879 132 92 79 70 
369 878 132 95 82 71 
369 879 132 94 78 69 
370 876 132 94 78 64 
370 876 133 95 78 62 
370 877 132 98 80 71 
371 876 133 96 80 66 
371 877 132 93 78 68 
371 877 133 97 81 69 
370 876 134 103 85 68 
370 876 135 106 89 74 
370 877 135 104 87 73 
371 876 134 97 80 63 
371 877 134 97 81 67 
370 878 132 97 77 69 
370 879 132 88 74 65 
370 879 133 82 69 60 
371 878 132 88 74 64 
371 878 133 87 73 63 
371 879 133 81 69 59 
370 878 135 97 81 65 
370 879 135 88 74 62 
371 878 134 93 79 68 
371 878 135 94 80 67 
371 879 134 84 72 63 
371 879 135 85 72 61 
372 872 129 92 73 63 
372 873 129 94 74 61 
373 873 128 93 69 58 
372 875 129 95 71 60 
373 874 128 93 68 56 
373 874 129 96 72 59 
373 875 128 93 70 61 
373 875 129 95 71 60 
373 875 130 97 75 64 
374 874 128 93 69 58 
374 875 128 92 72 60 
372 876 128 95 72 63 
372 877 128 93 75 63 
372 876 130 94 75 64 
372 877 130 103 81 73 
373 876 130 99 78 70 
373 877 130 108 80 76 
372 878 128 90 73 62 
372 878 129 90 75 61 
373 878 128 90 74 66 
373 878 129 90 74 66 
373 879 128 89 75 69 
372 878 130 91 75 63 
372 878 131 93 76 67 
372 879 130 86 71 59 
373 878 131 100 79 73 
374 877 130 92 74 67 
375 876 130 93 75 66 
375 877 130 93 76 69 
374 878 128 89 74 65 
374 879 128 88 74 66 
375 878 128 88 70 61 
374 878 130 85 70 63 
374 878 131 75 61 52 
375 878 131 82 68 59 
373 878 132 80 68 59 
373 878 133 83 73 65 
373 879 132 79 66 58 
373 879 133 78 66 57 
374 879 133 78 66 57 
368 875 136 96 81 68 
368 876 136 101 86 74 
368 876 137 99 85 74 
368 877 136 101 86 74 
368 877 137 101 84 69 
369 876 136 104 88 74 
369 877 136 105 89 76 
368 878 137 91 75 63 
368 879 137 86 71 59 
369 878 136 94 77 63 
369 879 136 81 66 56 
369 879 137 80 65 55 
368 879 138 85 71 59 
370 878 136 99 82 65 
370 879 136 86 72 60 
376 864 129 91 70 52 
376 865 129 91 70 57 
377 864 128 106 84 68 
377 864 129 96 73 61 
377 865 129 89 69 59 
376 866 128 93 71 60 
376 867 128 91 69 59 
377 866 128 92 70 62 
377 867 128 89 68 59 
378 865 128 93 70 64 
379 865 128 89 70 64 
378 866 128 89 69 62 
378 867 128 92 70 64 
378 867 129 91 68 60 
379 866 128 86 65 59 
379 866 129 89 67 59 
379 867 129 87 65 57 
379 867 130 87 64 55 
376 868 128 82 63 51 
377 868 128 89 65 56 
377 869 128 78 58 41 
377 870 128 84 65 51 
378 868 129 91 67 58 
378 869 130 87 66 54 
379 868 131 86 65 54 
378 870 130 92 72 59 
378 871 130 90 69 56 
380 864 128 103 82 75 
380 865 128 92 72 67 
381 865 128 100 73 65 
381 866 129 85 64 54 
381 867 130 84 60 52 
382 864 128 94 72 65 
382 864 129 85 69 65 
382 865 128 74 59 51 
383 864 128 74 59 54 
383 864 129 79 65 59 
383 865 128 82 62 55 
382 866 129 77 63 51 
383 866 128 82 63 57 
383 867 128 89 65 65 
383 867 129 82 65 59 
382 867 130 81 65 53 
380 868 131 91 69 61 
381 868 131 90 69 60 
383 868 128 90 71 62 
383 868 129 85 67 59 
383 869 128 98 82 73 
382 868 131 90 69 61 
383 868 130 104 77 71 
383 869 130 92 72 65 
383 870 131 94 74 68 
383 871 130 94 74 68 
377 873 128 92 75 65 
376 875 128 92 74 65 
377 874 128 96 80 70 
377 875 129 89 71 60 
378 874 129 90 74 64 
378 875 129 89 73 62 
378 875 130 96 80 66 
379 875 131 90 71 61 
379 874 132 93 76 71 
376 876 129 93 75 67 
376 877 128 92 74 66 
376 877 129 97 77 69 
377 876 129 93 74 62 
377 877 128 90 77 73 
377 877 129 101 83 74 
376 877 130 100 81 76 
376 878 129 84 65 62 
378 877 128 91 71 65 
378 877 129 86 76 73 
379 877 128 90 71 64 
379 877 129 86 71 62 
378 876 130 86 71 62 
378 877 130 84 70 60 
379 876 131 87 73 63 
379 877 130 86 71 61 
379 878 131 82 68 58 
379 877 132 83 69 59 
379 878 132 76 63 54 
381 874 129 88 72 66 
381 875 128 89 73 67 
381 875 129 87 71 65 
380 875 131 87 70 62 
381 874 130 87 70 64 
381 875 130 87 71 65 
381 875 131 99 77 74 
383 873 128 90 74 69 
382 874 128 88 71 66 
382 874 129 88 71 65 
380 875 132 93 76 66 
381 874 132 91 73 66 
380 876 129 89 72 64 
380 877 128 86 72 65 
380 876 130 86 70 63 
368 880 132 90 76 65 
368 881 132 90 76 65 
368 881 133 88 73 62 
369 880 132 91 77 66 
369 881 133 86 73 62 
368 882 132 88 72 62 
368 882 133 88 73 64 
368 883 132 90 74 65 
368 883 133 90 75 66 
369 882 133 89 75 65 
369 883 133 90 76 68 
370 880 132 91 76 67 
370 880 133 86 73 63 
370 881 133 83 70 61 
371 880 133 83 71 63 
371 881 133 80 68 60 
370 881 134 78 66 58 
371 880 134 76 65 57 
371 880 135 76 65 57 
371 881 134 77 65 57 
371 881 135 71 60 53 
370 882 133 87 73 65 
370 883 133 89 75 67 
370 882 134 86 72 63 
370 883 134 88 75 67 
371 882 134 82 69 61 
371 882 135 76 63 56 
371 883 134 87 74 65 
371 883 135 83 70 61 
368 886 128 98 83 74 
368 887 128 100 85 80 
368 886 131 95 83 74 
368 887 131 97 85 76 
368 884 132 91 75 68 
368 884 133 90 75 68 
368 885 132 91 78 70 
368 885 133 91 77 71 
369 884 133 90 76 69 
369 885 133 91 78 71 
368 886 132 92 80 71 
368 887 132 97 85 77 
369 886 132 95 82 74 
369 886 133 95 82 74 
369 887 132 94 82 75 
369 887 133 93 82 74 
370 884 133 89 75 68 
370 885 133 90 76 69 
370 884 134 88 75 67 
370 885 134 89 75 67 
371 884 134 91 77 69 
371 884 135 95 82 73 
371 885 135 90 76 66 
370 886 133 94 81 73 
370 887 133 94 83 75 
370 886 134 88 75 66 
370 887 134 94 82 74 
370 887 135 92 79 71 
371 886 134 88 74 67 
371 886 135 88 73 64 
371 887 134 95 83 74 
371 887 135 93 80 72 
373 880 128 89 75 69 
373 881 128 89 74 65 
373 881 129 90 76 66 
373 880 130 85 71 60 
373 880 131 84 70 60 
373 881 130 89 74 64 
373 882 129 90 75 66 
373 880 132 82 70 61 
369 880 137 79 65 55 
368 880 138 79 65 53 
368 880 139 76 61 51 
368 881 139 75 61 52 
369 880 138 79 63 52 
369 881 138 78 62 52 
368 882 139 79 64 56 
369 882 138 78 61 52 
369 882 139 78 63 56 
369 883 139 77 60 54 
370 880 136 83 70 60 
370 880 137 77 62 52 
370 881 136 75 62 55 
370 881 137 76 61 51 
371 880 136 73 61 54 
371 881 136 70 57 49 
370 881 138 77 62 50 
370 882 137 74 56 47 
371 882 136 73 58 52 
371 882 137 73 56 48 
371 883 136 80 64 57 
371 883 137 77 59 52 
370 882 138 77 60 52 
370 883 138 78 57 50 
370 883 139 74 58 53 
371 883 138 73 59 53 
368 881 140 74 60 53 
368 882 140 77 62 56 
368 882 141 75 61 56 
369 882 140 79 62 56 
369 883 140 77 61 56 
369 883 141 75 60 56 
368 882 142 76 60 56 
368 883 142 73 58 54 
369 883 142 75 63 60 
370 883 140 76 63 59 
370 883 141 75 62 59 
369 887 139 89 78 71 
371 884 136 86 71 61 
371 884 137 81 67 57 
371 885 136 90 76 66 
371 885 137 87 74 65 
370 884 139 74 61 56 
371 884 138 76 64 58 
371 884 139 74 63 57 
371 885 138 85 72 64 
371 885 139 83 71 63 
371 886 136 92 77 68 
371 886 137 93 79 72 
371 887 136 93 80 72 
371 887 137 93 80 72 
370 886 139 91 79 73 
370 887 139 92 81 73 
371 886 138 93 80 72 
371 886 139 92 79 73 
371 887 138 93 81 72 
369 884 141 77 66 61 
369 885 141 81 72 65 
368 884 142 78 68 62 
368 884 143 80 70 64 
368 885 142 83 73 67 
368 885 143 82 72 66 
369 884 142 78 68 63 
369 885 142 81 71 64 
368 887 140 90 78 69 
368 887 141 91 80 71 
369 886 141 90 79 72 
369 887 140 90 79 70 
368 886 142 89 78 71 
368 887 142 91 81 73 
369 886 142 87 77 71 
370 884 140 76 64 60 
370 884 141 76 64 58 
370 885 140 84 72 66 
370 885 141 82 72 66 
370 886 140 88 78 71 
370 886 141 86 77 70 
372 885 137 88 74 64 
368 888 128 104 91 87 
368 889 128 104 90 87 
368 889 130 102 90 86 
369 889 130 102 90 85 
370 888 129 101 89 84 
371 888 129 99 86 81 
370 889 130 102 91 86 
371 889 130 102 90 85 
368 888 132 98 86 79 
368 888 133 98 88 81 
368 889 133 99 89 82 
369 888 132 99 88 81 
369 888 133 96 85 78 
369 889 133 98 87 81 
368 889 134 98 88 81 
368 889 135 99 88 81 
369 888 134 94 84 77 
369 888 135 95 84 77 
369 889 135 97 86 78 
370 888 133 93 82 74 
370 888 134 92 81 73 
370 888 135 92 81 74 
372 888 129 95 83 78 
373 888 129 96 86 81 
373 889 128 95 87 84 
372 889 130 97 85 80 
373 889 130 96 84 79 
372 890 131 101 90 85 
373 890 130 96 85 80 
373 890 131 101 90 85 
374 889 130 95 84 79 
374 890 130 96 85 80 
372 889 133 94 84 77 
372 889 135 93 82 75 
373 889 135 93 82 74 
373 890 132 98 87 81 
368 888 137 94 83 76 
368 889 136 96 85 78 
368 889 137 95 84 77 
369 888 136 95 84 77 
369 888 137 95 84 76 
369 889 136 95 84 77 
368 888 138 91 81 73 
368 888 139 92 81 74 
369 888 138 92 82 75 
369 888 139 91 81 73 
370 888 136 94 82 75 
370 888 137 92 80 71 
371 888 136 93 81 73 
371 888 137 91 79 71 
370 888 138 92 81 72 
370 888 139 93 82 74 
371 888 138 92 80 71 
368 888 140 94 82 73 
369 888 140 90 79 71 
372 889 136 93 81 73 
355 885 160 67 60 62 
354 886 160 67 59 62 
354 886 161 64 57 59 
354 887 160 69 61 64 
354 887 161 64 56 60 
355 886 160 67 59 62 
356 884 160 64 57 60 
356 885 160 67 60 61 
353 888 160 70 62 65 
353 888 161 72 66 69 
353 889 160 69 61 62 
353 889 161 69 61 63 
353 889 162 62 55 57 
352 890 160 68 60 60 
352 890 161 69 61 62 
352 891 160 67 59 58 
352 891 161 69 62 62 
353 890 160 67 59 58 
353 891 160 73 67 66 
352 890 162 71 64 67 
352 890 163 66 58 59 
352 891 162 74 68 71 
352 891 163 70 64 66 
353 890 162 63 56 57 
354 888 160 70 62 64 
354 888 161 67 61 65 
354 889 162 61 54 57 
352 892 160 69 62 61 
352 892 161 70 64 65 
352 893 160 72 64 63 
347 896 160 77 70 67 
347 896 161 78 71 69 
347 896 162 77 72 71 
347 896 163 73 66 67 
347 897 163 72 66 66 
347 896 164 71 65 64 
347 897 164 71 65 64 
347 897 165 70 64 63 
346 898 165 72 65 63 
346 899 165 72 65 63 
347 898 165 70 64 63 
346 898 166 72 65 63 
346 899 166 74 67 65 
347 898 166 71 65 63 
347 899 166 72 65 64 
347 899 167 73 66 65 
345 903 167 81 74 73 
346 900 167 75 68 66 
346 901 167 74 67 66 
346 903 167 80 71 72 
347 903 167 80 72 72 
348 896 162 72 67 65 
348 896 163 78 73 74 
348 896 164 72 65 65 
348 896 165 69 60 61 
348 897 164 72 66 66 
348 897 165 69 61 62 
349 896 164 71 64 64 
349 896 165 70 62 62 
349 897 166 68 60 61 
348 898 166 69 63 64 
349 898 166 68 60 61 
348 903 167 76 69 69 
346 901 168 75 68 67 
346 902 168 77 69 69 
346 903 168 79 71 71 
347 902 168 77 70 70 
347 903 168 79 71 72 
348 903 168 75 69 69 
346 905 163 83 74 74 
345 904 166 84 75 75 
345 904 167 84 76 76 
345 905 166 83 75 75 
345 907 165 85 76 77 
346 905 164 84 74 74 
346 905 165 84 75 74 
347 905 165 81 72 71 
346 904 166 82 73 72 
346 904 167 85 77 77 
346 905 166 84 75 75 
347 904 166 80 71 70 
347 904 167 82 74 73 
347 905 166 80 72 70 
346 906 164 85 75 76 
346 906 165 86 77 76 
346 907 165 85 76 76 
347 906 165 84 75 74 
347 907 165 84 76 76 
347 906 166 83 73 73 
347 907 166 82 73 73 
345 908 165 87 77 78 
345 908 166 87 77 77 
345 909 166 86 76 75 
345 909 167 83 74 71 
345 910 167 83 75 71 
346 908 165 85 77 78 
347 908 165 85 77 77 
346 908 166 85 77 77 
346 909 166 85 76 75 
347 908 166 84 76 75 
347 909 166 84 76 75 
346 910 166 84 75 73 
346 910 167 83 75 73 
347 910 166 83 74 73 
347 910 167 79 71 70 
348 904 167 80 73 73 
348 905 167 79 71 70 
349 904 167 76 70 71 
349 905 167 77 70 70 
348 906 166 84 75 73 
348 906 167 77 70 69 
348 907 166 80 72 71 
348 907 167 79 70 69 
349 907 167 76 69 68 
348 908 166 80 72 71 
348 909 166 80 72 71 
349 908 167 78 71 70 
349 909 166 80 72 72 
349 909 167 79 72 72 
348 910 166 81 73 72 
348 910 167 79 71 70 
348 911 167 78 71 69 
349 910 167 81 74 73 
344 910 168 87 79 77 
344 911 168 86 77 75 
344 911 169 83 75 73 
345 910 168 85 76 73 
345 910 169 84 75 73 
345 911 169 82 74 72 
344 911 170 82 75 72 
345 911 170 82 74 72 
346 910 168 86 78 77 
346 911 168 84 78 77 
346 911 169 81 74 72 
347 911 168 85 78 79 
347 911 169 80 74 73 
346 911 170 80 72 72 
347 911 170 78 72 72 
349 904 168 74 68 68 
349 905 168 78 72 72 
349 906 168 78 71 71 
349 907 168 78 70 70 
349 907 169 78 72 71 
349 908 168 76 68 68 
349 908 169 77 70 69 
349 909 168 79 73 72 
349 909 169 78 70 68 
348 911 168 82 76 76 
348 911 169 76 69 67 
349 910 168 81 74 73 
349 910 169 76 69 66 
349 911 168 78 71 68 
348 911 170 76 69 67 
349 910 170 75 68 66 
349 911 170 75 68 66 
343 913 172 85 76 74 
343 914 172 87 77 76 
343 915 173 89 79 78 
343 916 173 91 81 80 
343 918 174 90 81 80 
342 920 175 93 84 84 
344 912 171 83 75 74 
345 912 170 81 73 72 
345 912 171 81 74 73 
346 912 170 78 70 69 
346 912 171 79 71 70 
347 912 170 79 72 71 
347 912 171 78 71 70 
344 912 172 83 76 75 
344 913 172 84 76 73 
345 913 172 82 74 73 
344 914 172 85 75 73 
344 916 173 90 79 79 
344 919 174 90 80 79 
348 912 170 78 71 69 
348 912 171 78 71 69 
341 928 175 95 86 86 
341 929 175 97 88 86 
341 930 175 96 86 86 
341 928 176 101 91 93 
341 928 177 103 95 97 
341 929 176 95 86 85 
341 929 177 103 94 96 
341 929 178 105 98 99 
340 931 177 101 93 94 
341 930 176 96 86 86 
341 930 177 100 92 93 
340 930 178 106 99 101 
384 827 109 89 72 61 
385 826 108 88 71 58 
385 826 109 90 73 62 
385 827 108 91 74 62 
385 827 109 90 73 62 
384 826 110 89 73 63 
384 826 111 97 83 76 
384 827 110 89 73 63 
384 827 111 88 72 62 
385 826 110 89 74 64 
385 826 111 95 80 70 
386 826 108 93 76 63 
386 826 109 90 73 62 
386 827 108 91 75 64 
386 827 109 90 74 64 
387 826 108 93 74 63 
386 826 110 87 72 61 
386 827 110 87 76 68 
386 827 111 79 69 63 
384 828 109 78 65 56 
385 828 108 87 73 61 
385 828 109 79 66 56 
384 828 110 83 68 59 
384 828 111 83 67 56 
384 829 110 74 62 56 
384 829 111 76 62 53 
385 829 110 77 65 58 
385 829 111 78 66 57 
385 830 109 96 75 64 
384 831 110 85 73 66 
384 831 111 93 76 59 
385 830 110 93 75 61 
385 831 111 81 67 55 
386 828 108 91 77 68 
386 828 109 88 75 64 
386 829 109 91 75 63 
387 829 109 90 75 62 
386 828 110 90 78 68 
386 828 111 82 72 65 
386 829 111 78 64 55 
387 828 111 88 78 71 
387 829 110 93 81 70 
386 830 110 91 75 60 
386 830 111 85 70 57 
391 827 104 116 90 68 
389 829 109 85 76 72 
388 829 110 89 78 70 
389 829 111 76 68 64 
388 830 111 78 68 62 
389 830 111 72 64 59 
391 828 109 81 74 71 
390 829 110 76 68 65 
390 829 111 71 62 57 
391 829 111 103 81 61 
395 823 103 111 91 73 
396 823 103 111 91 73 
395 823 104 116 93 71 
396 822 106 128 105 85 
396 823 106 116 92 71 
396 823 107 116 91 72 
397 822 107 121 99 79 
397 823 108 116 98 85 
398 821 108 119 97 78 
398 822 108 116 98 85 
398 822 109 129 110 98 
398 822 110 125 105 92 
399 823 111 112 93 79 
392 825 103 110 90 72 
393 825 102 108 88 70 
393 826 102 109 88 70 
394 825 101 109 88 71 
394 824 102 111 90 71 
395 824 102 108 88 71 
395 825 102 109 88 72 
394 826 101 108 87 70 
394 826 103 107 86 70 
396 825 102 109 88 72 
392 827 104 110 86 66 
393 826 104 112 87 67 
393 826 105 106 82 64 
393 827 104 112 87 68 
393 827 105 88 76 68 
393 827 106 84 77 74 
395 824 105 115 90 71 
394 825 106 111 87 68 
395 825 106 112 88 69 
395 825 107 114 90 70 
395 826 104 108 87 71 
395 826 105 112 89 72 
394 826 106 101 79 64 
394 826 107 96 76 63 
394 827 106 101 79 63 
394 827 107 98 77 64 
395 825 108 101 80 66 
394 827 108 93 74 62 
395 826 108 99 79 66 
395 827 108 93 74 61 
393 828 106 78 71 67 
394 828 108 91 72 61 
396 824 106 115 90 71 
396 824 107 115 91 71 
397 824 106 115 90 71 
397 824 107 115 91 71 
396 825 108 107 85 69 
397 824 108 115 93 75 
397 825 108 112 89 70 
397 825 110 105 84 71 
396 826 109 103 82 68 
396 827 109 98 78 64 
397 826 109 103 82 68 
397 827 109 101 79 64 
397 826 110 101 82 70 
397 827 110 102 82 68 
398 825 109 113 90 72 
398 824 110 113 93 80 
398 825 110 102 82 69 
399 824 110 110 91 78 
399 825 111 103 85 74 
398 826 110 102 82 69 
398 827 110 103 83 70 
399 826 110 103 82 69 
399 827 110 102 81 67 
399 831 107 91 73 63 
396 828 109 93 73 59 
396 828 110 95 77 66 
397 828 110 97 82 72 
397 829 111 94 83 74 
396 830 110 85 75 67 
398 828 110 99 83 71 
398 829 110 95 79 67 
398 829 111 92 78 66 
399 828 110 99 77 61 
399 829 110 96 78 64 
399 830 108 89 71 61 
399 831 108 89 71 61 
398 830 111 94 79 67 
399 830 111 94 79 67 
399 831 111 98 80 69 
384 826 112 96 82 73 
384 826 113 93 77 68 
384 827 113 95 76 65 
385 826 112 100 87 80 
385 827 112 90 77 71 
385 827 113 93 76 65 
384 827 114 95 77 69 
386 827 112 75 66 61 
384 829 112 81 65 54 
384 829 113 84 68 56 
385 828 113 90 75 65 
385 829 112 80 66 57 
385 829 113 83 70 59 
384 828 114 95 76 61 
385 828 114 96 78 64 
385 829 114 86 70 56 
385 831 112 86 71 57 
385 831 113 89 74 61 
386 828 112 82 70 63 
386 828 113 83 71 63 
386 829 112 79 67 58 
386 829 113 81 70 63 
386 831 112 83 70 57 
386 831 113 87 74 62 
387 830 112 79 65 54 
387 831 112 79 67 58 
387 831 113 70 57 47 
387 831 114 84 70 57 
387 831 115 87 72 57 
387 831 116 84 70 56 
388 830 112 72 62 54 
388 831 113 66 55 47 
389 830 112 63 54 48 
389 830 113 62 51 43 
388 830 114 68 55 45 
388 831 115 63 49 33 
389 830 115 64 55 46 
390 829 113 59 48 36 
391 829 112 99 79 61 
391 829 114 99 77 59 
390 830 113 68 57 47 
390 830 114 51 42 38 
391 830 115 94 74 59 
388 831 116 58 51 51 
388 831 117 77 63 47 
389 831 116 56 47 38 
390 831 117 64 54 44 
391 830 116 89 65 34 
391 831 117 79 63 44 
395 831 113 102 83 70 
392 830 116 97 74 59 
392 831 116 100 75 60 
399 824 112 110 91 78 
398 826 113 89 79 72 
398 827 112 92 83 75 
398 827 113 90 81 74 
399 826 112 91 81 72 
399 826 113 90 80 72 
399 827 112 93 83 75 
399 827 113 90 80 73 
398 826 114 89 79 72 
398 827 114 89 79 74 
399 827 114 90 81 74 
397 829 112 91 79 70 
397 829 114 97 83 75 
396 831 113 102 83 71 
396 831 115 91 78 71 
397 830 114 93 80 73 
397 830 115 93 80 73 
397 831 114 91 78 72 
397 831 115 92 79 73 
398 828 112 93 83 76 
398 828 113 92 81 75 
398 829 112 92 83 75 
398 829 113 93 81 75 
399 828 112 94 84 77 
399 829 112 94 84 77 
399 829 113 93 82 75 
398 828 114 90 78 73 
398 829 114 92 79 73 
398 829 115 95 82 75 
399 828 114 92 80 74 
399 829 114 92 80 74 
399 829 115 91 79 73 
398 830 112 95 79 67 
398 830 113 94 81 73 
398 831 112 96 79 68 
398 831 113 92 78 69 
399 830 113 92 79 70 
399 831 113 92 78 69 
398 830 114 97 83 75 
398 830 115 94 80 74 
398 831 114 92 78 71 
398 831 115 93 80 74 
399 830 114 96 82 75 
399 830 115 96 81 75 
399 831 114 92 77 69 
399 831 115 93 80 73 
400 824 110 110 91 78 
400 825 110 104 86 78 
401 826 109 100 78 63 
401 827 109 99 77 62 
400 826 110 101 81 68 
400 827 110 100 78 62 
402 827 108 93 75 62 
403 826 109 94 74 61 
400 831 107 89 71 61 
400 828 109 99 77 61 
400 826 112 95 85 77 
400 826 113 91 81 72 
400 827 112 95 85 77 
400 827 113 92 83 75 
400 828 112 93 84 77 
400 828 113 93 83 76 
400 829 112 94 84 77 
400 829 113 94 83 76 
400 829 114 94 82 75 
387 834 108 71 53 32 
387 835 108 84 67 49 
386 835 110 80 57 31 
387 834 110 76 58 39 
389 834 105 86 70 57 
388 834 107 76 60 43 
388 835 107 85 68 49 
389 834 106 85 70 58 
389 834 107 84 69 54 
391 834 105 101 76 59 
390 834 106 89 70 51 
390 835 107 98 75 52 
391 835 106 113 86 65 
388 833 111 72 60 48 
389 837 107 119 95 68 
388 836 108 92 74 55 
394 836 103 94 71 69 
397 836 103 97 72 56 
398 836 103 97 72 56 
399 836 103 95 71 55 
399 837 103 99 74 57 
392 835 105 121 95 74 
393 835 106 123 97 76 
394 835 105 108 90 80 
394 832 111 131 100 71 
395 832 111 123 96 69 
393 836 107 115 86 64 
395 836 105 99 74 58 
394 836 106 110 89 72 
395 836 106 93 71 62 
396 835 105 91 79 69 
399 832 107 92 73 64 
399 833 107 92 73 64 
398 835 104 84 75 69 
399 835 106 97 72 56 
399 835 107 100 76 57 
396 833 111 111 89 72 
399 833 109 95 78 67 
398 832 111 100 82 70 
398 833 111 100 82 71 
399 832 110 96 79 68 
399 832 111 97 80 69 
399 833 110 98 80 69 
398 835 108 107 81 61 
398 835 109 142 110 79 
398 834 110 154 121 91 
398 834 111 153 120 90 
396 836 105 98 73 57 
397 836 104 97 72 56 
397 836 105 97 72 56 
396 836 106 101 75 60 
397 837 106 100 74 60 
398 837 104 101 75 58 
398 837 105 101 75 58 
399 836 105 84 79 77 
399 837 104 100 74 57 
399 837 105 99 73 58 
398 836 107 121 93 72 
398 837 107 104 79 62 
399 836 106 101 75 61 
399 838 104 98 74 59 
399 838 105 99 75 59 
398 838 107 104 79 63 
399 838 106 101 76 60 
399 838 107 102 78 62 
399 839 106 101 76 60 
399 839 107 101 76 60 
396 837 111 103 79 63 
397 837 110 112 86 65 
397 837 111 111 83 57 
397 839 109 76 57 40 
396 838 111 100 77 65 
396 839 111 97 73 68 
397 838 110 107 83 62 
397 838 111 106 81 60 
397 839 110 88 66 59 
397 839 111 102 77 70 
398 837 108 101 76 60 
398 838 108 104 82 64 
398 839 108 100 75 59 
398 839 109 98 73 57 
399 839 108 101 76 60 
393 845 111 75 59 49 
394 845 110 78 60 38 
394 845 111 80 62 42 
397 840 111 99 75 60 
398 840 109 98 74 58 
398 840 110 99 74 59 
396 845 110 106 86 71 
397 845 111 104 80 61 
398 845 110 99 75 55 
398 845 111 98 76 58 
399 845 110 98 74 54 
399 846 111 96 74 56 
399 847 110 105 78 55 
384 833 112 99 76 62 
384 833 113 103 82 67 
385 832 112 92 76 60 
385 832 113 88 70 58 
385 832 114 89 72 56 
384 835 114 138 110 95 
386 832 114 88 73 60 
386 835 115 100 79 56 
386 832 116 81 67 55 
387 832 117 87 75 63 
387 832 118 85 73 62 
387 833 119 108 88 68 
386 834 117 96 77 62 
386 835 117 109 89 78 
387 835 117 117 94 74 
386 835 118 117 95 77 
387 834 118 98 80 63 
387 835 118 103 86 69 
387 835 119 111 91 72 
385 836 113 114 95 80 
385 836 114 116 92 74 
385 836 115 120 97 85 
385 837 115 119 93 77 
386 836 112 99 67 35 
386 836 113 109 81 57 
386 836 114 126 99 77 
386 836 115 113 94 81 
384 837 116 132 104 92 
384 837 117 121 94 81 
385 836 117 132 110 99 
385 837 116 117 93 79 
385 837 117 108 84 72 
384 837 118 120 98 82 
385 836 119 119 97 81 
384 838 118 116 98 87 
384 838 119 114 95 82 
385 838 118 110 90 78 
385 838 119 109 89 70 
386 836 116 116 91 76 
386 837 117 104 83 65 
386 836 119 137 109 88 
386 837 118 113 88 55 
386 838 119 114 88 54 
387 838 119 149 114 71 
388 833 112 84 67 49 
388 833 113 65 55 47 
388 833 114 98 75 56 
389 833 114 69 57 47 
389 833 115 83 67 52 
388 834 115 87 69 51 
389 835 115 123 91 58 
391 832 115 93 69 54 
391 834 113 121 90 64 
391 834 114 129 98 66 
391 835 114 143 112 76 
388 832 118 89 75 60 
388 832 119 98 86 74 
388 833 119 101 89 78 
389 832 118 98 85 72 
389 833 119 104 89 73 
388 834 116 103 83 59 
388 835 119 120 95 68 
389 834 119 114 90 67 
389 835 118 128 96 58 
389 835 119 117 87 52 
390 832 116 96 79 64 
390 832 117 78 67 57 
390 833 116 102 81 60 
391 832 117 87 73 59 
390 836 115 145 110 72 
391 836 114 150 116 75 
391 836 115 148 113 78 
389 836 116 144 110 69 
389 837 117 145 115 80 
388 836 119 129 98 64 
388 837 118 146 115 85 
389 836 118 137 108 73 
389 837 119 152 118 80 
388 838 119 153 118 85 
389 838 119 139 104 66 
390 836 116 149 115 73 
390 836 117 144 114 79 
390 837 116 143 112 75 
391 836 117 139 109 73 
390 837 118 136 104 67 
390 838 118 114 81 48 
390 838 119 116 80 41 
391 838 118 90 56 41 
385 834 121 103 80 63 
385 835 121 112 91 73 
384 834 123 110 89 71 
384 835 123 111 90 72 
385 834 122 104 84 69 
385 834 123 112 90 71 
385 835 122 114 94 76 
386 833 121 91 72 61 
387 833 120 87 71 54 
387 833 121 98 79 64 
386 833 122 86 68 58 
386 833 123 107 87 69 
387 833 122 100 82 68 
387 833 123 102 85 71 
386 834 121 100 79 63 
386 835 121 115 92 74 
387 834 120 98 80 62 
387 835 120 108 84 62 
387 835 121 112 87 61 
386 834 123 113 90 70 
387 834 123 111 91 72 
384 834 124 109 87 71 
384 834 125 120 91 68 
385 834 124 113 90 70 
385 834 125 111 87 67 
384 834 126 115 82 58 
384 835 126 116 82 59 
384 835 127 111 84 64 
385 834 126 110 89 69 
385 835 126 110 88 67 
385 835 127 110 87 66 
386 834 124 113 90 68 
386 834 125 109 86 65 
387 834 124 111 88 66 
387 834 125 108 86 64 
386 834 126 109 86 66 
386 835 126 110 88 67 
386 835 127 109 87 66 
387 834 126 109 87 66 
387 835 126 106 84 64 
387 835 127 108 86 66 
385 836 121 137 111 97 
384 836 123 122 101 84 
384 837 123 239 211 208 
385 836 122 188 156 152 
385 836 123 215 180 184 
385 837 123 183 151 148 
384 838 120 110 93 81 
384 838 121 111 89 66 
385 838 120 112 93 78 
385 838 121 120 91 47 
385 839 121 135 104 61 
384 838 122 105 82 56 
384 839 123 129 98 60 
385 839 122 152 117 76 
385 839 123 165 132 98 
386 836 121 131 102 79 
387 836 121 138 107 80 
386 836 122 200 154 150 
386 837 122 155 106 93 
386 837 123 138 105 90 
387 837 122 151 73 52 
387 837 123 138 94 41 
386 838 120 142 111 76 
386 838 121 150 116 73 
386 839 121 157 123 84 
387 838 120 155 120 84 
387 838 121 152 119 81 
387 839 121 149 117 79 
386 838 123 133 102 67 
386 839 122 157 123 88 
386 839 123 156 122 91 
387 838 123 131 98 66 
387 839 122 136 103 66 
384 836 124 239 228 222 
384 837 124 172 136 125 
385 837 124 178 148 138 
384 838 124 126 78 64 
384 838 125 128 82 35 
384 839 124 135 103 61 
385 838 124 141 103 54 
385 838 125 133 102 70 
385 839 125 161 125 82 
384 839 126 138 89 39 
384 839 127 151 104 54 
385 839 126 159 114 69 
385 839 127 161 126 92 
387 836 127 108 86 65 
386 838 124 130 100 73 
386 839 125 150 114 78 
387 838 124 121 90 55 
387 839 124 112 77 25 
387 839 125 97 56 32 
386 839 126 140 102 77 
388 832 121 98 86 76 
388 833 120 96 81 67 
388 833 121 97 88 79 
389 832 121 95 85 76 
389 833 120 101 89 78 
389 833 121 97 85 74 
388 833 122 97 86 77 
388 833 123 95 84 73 
389 833 122 93 85 78 
389 833 123 91 82 73 
388 834 120 107 89 70 
388 835 120 118 93 71 
389 834 120 113 94 74 
389 834 121 109 90 68 
389 835 120 126 95 75 
389 835 121 119 95 75 
388 834 123 102 86 72 
389 834 123 95 82 69 
389 835 123 92 76 62 
390 833 121 98 85 72 
390 834 121 112 92 73 
390 835 121 124 102 80 
390 834 122 96 83 71 
390 835 122 112 92 71 
390 835 123 87 73 66 
388 834 124 103 84 66 
388 834 125 108 86 64 
388 835 125 100 79 60 
389 834 124 93 78 63 
389 835 124 92 76 63 
389 835 125 96 79 65 
388 835 126 103 82 63 
388 835 127 103 81 63 
389 835 126 102 80 64 
388 836 121 122 94 69 
389 836 121 116 88 68 
388 837 122 137 104 67 
388 837 123 121 88 49 
389 836 122 126 84 60 
389 837 122 113 84 52 
389 837 123 113 91 73 
388 838 120 139 104 66 
388 838 121 132 96 58 
388 839 121 124 88 46 
389 838 120 119 83 34 
389 838 121 106 73 38 
388 838 123 120 92 59 
388 839 122 99 64 30 
389 838 123 95 64 49 
390 836 121 118 100 85 
390 836 122 114 94 84 
390 836 123 88 69 56 
390 837 123 85 70 60 
390 838 120 81 53 24 
389 836 125 99 80 69 
388 836 127 102 81 62 
389 836 126 100 80 65 
389 836 127 101 80 62 
389 837 127 87 69 56 
388 838 124 133 104 72 
388 839 124 85 50 29 
388 839 125 82 45 51 
389 838 124 64 34 44 
389 839 124 97 69 46 
389 839 125 79 58 50 
390 836 124 76 59 48 
390 836 125 109 87 82 
390 837 124 68 57 47 
391 837 124 75 58 49 
391 837 125 51 45 37 
390 836 126 96 78 66 
390 837 126 85 69 57 
390 837 127 84 67 55 
391 837 126 64 53 41 
391 837 127 82 65 53 
390 838 124 69 53 45 
390 839 124 66 53 39 
390 839 125 75 61 44 
391 838 125 71 52 39 
391 839 125 67 54 44 
391 838 127 79 61 48 
391 841 119 60 47 43 
391 842 119 70 55 43 
384 840 125 117 89 67 
385 840 124 150 113 79 
385 840 125 131 93 60 
385 841 125 115 81 56 
384 840 126 160 130 104 
384 840 127 168 133 94 
384 841 126 119 93 75 
386 841 125 83 30 29 
387 841 125 69 33 37 
386 840 126 121 74 64 
386 840 127 122 64 70 
387 840 126 73 22 39 
387 840 127 68 19 38 
386 842 126 73 29 31 
387 842 126 87 67 46 
389 840 122 54 36 47 
389 841 122 49 40 40 
390 841 121 63 50 41 
391 840 120 58 48 42 
391 841 120 64 49 40 
391 841 123 81 63 46 
391 842 120 70 52 45 
390 842 122 72 53 40 
391 842 123 81 64 49 
391 843 123 82 64 48 
388 841 125 67 47 46 
389 840 125 77 60 51 
389 841 125 64 46 40 
388 840 126 66 33 52 
388 840 127 70 44 54 
389 840 126 64 46 45 
389 840 127 72 55 49 
388 842 126 70 53 35 
389 842 126 71 55 43 
390 840 125 66 56 41 
390 841 125 75 60 41 
391 840 125 71 65 61 
391 841 125 84 68 48 
390 840 126 72 59 44 
390 840 127 76 62 53 
391 840 126 75 61 51 
391 840 127 76 60 55 
390 842 125 81 56 52 
391 842 125 85 62 55 
391 843 125 85 65 43 
390 842 126 80 61 51 
390 842 127 82 59 50 
391 843 126 83 63 32 
391 844 123 82 63 43 
391 845 122 86 67 51 
391 845 123 86 65 45 
391 846 121 85 63 50 
391 847 121 79 57 46 
391 846 122 86 64 50 
391 846 123 83 61 42 
391 847 123 81 59 45 
391 845 125 80 60 36 
390 845 127 100 86 71 
390 846 125 79 57 44 
390 847 124 100 79 62 
391 846 125 80 57 40 
390 846 126 88 76 66 
390 847 126 84 73 64 
392 833 113 117 93 66 
393 832 113 142 107 68 
393 833 112 119 94 67 
393 833 113 146 114 87 
393 832 114 110 85 64 
393 833 114 122 95 70 
393 834 113 153 120 85 
392 834 114 141 109 77 
392 834 115 158 123 82 
392 835 114 145 113 81 
393 834 114 147 115 78 
393 835 114 140 107 77 
394 832 113 120 96 71 
394 833 112 141 110 81 
394 833 113 103 82 67 
395 832 113 102 84 70 
395 833 113 128 101 77 
394 833 114 154 120 85 
395 832 115 90 77 70 
395 833 114 147 115 83 
395 833 115 89 77 69 
394 834 113 150 118 82 
394 834 114 135 105 71 
394 835 114 123 93 63 
394 835 115 120 86 63 
395 834 114 105 77 51 
395 835 114 101 80 66 
395 833 116 85 73 65 
395 834 116 86 71 63 
392 836 114 138 102 66 
392 836 115 133 98 68 
393 836 115 122 84 61 
395 836 113 73 64 65 
394 836 114 81 60 51 
394 836 115 99 65 54 
394 837 115 84 61 46 
395 836 114 85 71 60 
395 837 114 88 65 54 
395 838 113 90 72 60 
394 838 115 82 65 51 
394 839 115 71 62 56 
395 838 114 86 65 52 
395 839 114 87 71 57 
395 839 115 83 68 55 
392 836 116 112 79 58 
392 837 116 107 73 47 
392 837 117 88 60 32 
393 836 116 97 65 49 
393 837 116 95 66 42 
393 837 117 90 67 45 
392 838 117 80 55 28 
392 839 117 69 55 47 
393 838 116 78 63 54 
393 838 117 78 59 45 
393 839 116 63 55 52 
392 839 118 68 52 41 
394 837 116 77 56 37 
394 838 116 83 68 55 
394 839 116 69 61 56 
396 832 113 102 83 70 
396 833 112 158 124 87 
396 833 113 95 77 66 
397 832 112 99 80 68 
397 832 113 98 80 68 
397 833 112 102 82 71 
396 832 114 97 86 77 
396 832 115 93 80 72 
396 833 115 87 73 65 
397 832 114 92 78 70 
397 832 115 95 84 77 
397 833 115 92 77 69 
397 834 112 120 98 82 
397 834 113 109 89 74 
396 834 114 91 75 66 
396 835 114 88 72 68 
398 832 112 97 79 68 
398 833 112 96 77 67 
398 832 114 91 77 70 
398 832 115 93 77 71 
399 832 114 91 76 69 
396 832 116 99 89 81 
396 833 116 92 73 63 
396 836 112 105 80 64 
396 836 113 98 76 63 
396 837 112 68 57 58 
396 838 112 95 75 67 
396 839 112 93 71 61 
396 839 113 86 69 57 
396 839 114 86 71 60 
392 838 121 78 70 66 
392 839 121 75 61 54 
392 838 125 79 58 45 
392 839 125 77 63 54 
392 838 126 92 68 49 
392 838 127 81 63 49 
392 839 126 84 66 50 
392 839 127 84 66 51 
394 841 115 79 60 46 
395 840 115 73 60 52 
395 841 115 71 54 51 
395 842 115 73 53 47 
395 843 114 85 64 50 
395 843 115 88 67 49 
392 840 116 60 52 51 
393 840 117 55 46 41 
393 841 117 73 57 47 
392 840 119 56 47 46 
392 841 119 61 48 41 
393 841 118 64 50 44 
392 842 117 74 58 47 
392 843 117 78 64 48 
393 842 116 75 59 50 
393 842 117 81 64 50 
392 842 118 64 50 40 
392 842 119 71 56 41 
392 843 118 80 66 49 
392 843 119 77 61 46 
394 840 116 65 52 40 
394 841 116 73 55 44 
394 841 117 73 54 41 
395 840 116 71 58 47 
394 842 116 86 63 49 
394 843 116 77 55 41 
393 844 113 74 59 47 
393 845 112 79 62 44 
393 844 114 70 56 43 
393 844 115 70 56 39 
393 845 114 76 61 46 
393 845 115 77 61 45 
394 845 112 86 67 45 
394 845 113 88 69 47 
395 844 113 86 66 50 
395 845 113 91 70 43 
394 844 115 79 61 61 
394 845 114 91 70 49 
394 845 115 95 73 51 
395 844 114 95 72 59 
395 846 112 89 70 47 
395 846 113 92 73 51 
395 846 114 96 75 51 
395 846 115 92 72 47 
395 847 115 98 76 61 
393 844 116 82 65 47 
393 844 117 84 67 49 
392 844 119 80 64 47 
393 844 118 100 79 60 
393 844 119 85 67 50 
393 845 118 89 70 49 
393 845 119 79 62 41 
392 847 119 88 64 48 
393 847 118 94 70 50 
393 847 119 99 71 49 
394 845 117 86 67 45 
394 845 118 89 70 50 
394 846 117 86 67 45 
394 847 117 95 79 69 
395 846 116 98 77 61 
394 847 118 99 76 53 
396 840 113 97 76 59 
397 840 112 95 74 60 
397 840 113 108 86 68 
397 841 112 133 105 78 
397 841 113 116 95 77 
396 840 114 98 82 68 
396 841 115 87 68 56 
397 841 114 120 94 73 
397 842 113 101 79 60 
397 843 113 99 77 60 
396 842 114 103 78 64 
396 842 115 73 54 44 
396 843 114 88 65 49 
397 842 114 117 90 73 
396 844 113 96 73 56 
396 845 112 106 82 64 
396 845 113 99 76 56 
397 844 113 95 71 56 
397 845 112 101 78 61 
396 844 114 88 64 47 
396 846 113 106 83 65 
396 846 114 106 83 65 
396 847 115 106 84 66 
398 844 112 99 77 60 
398 844 113 98 76 59 
399 844 112 100 76 56 
398 846 112 106 82 65 
398 847 112 103 82 67 
398 847 113 102 82 67 
399 846 112 94 76 60 
392 842 121 72 57 46 
392 843 120 82 65 46 
392 841 124 74 58 43 
392 840 126 72 57 45 
392 840 127 75 58 46 
392 844 120 78 62 47 
392 844 121 85 68 51 
392 845 120 87 68 53 
392 845 121 86 68 53 
392 844 122 83 65 47 
392 846 121 88 67 52 
392 847 120 86 64 50 
397 849 108 106 85 69 
397 849 109 104 84 69 
397 850 108 106 86 70 
397 850 109 104 84 69 
397 850 111 98 74 55 
398 849 111 104 82 65 
399 849 111 101 80 65 
398 850 111 95 75 65 
399 850 111 100 79 67 
399 851 111 96 78 68 
391 848 121 78 57 47 
391 848 122 81 60 49 
391 848 123 81 60 48 
391 849 123 81 60 48 
390 848 124 90 68 53 
390 849 125 81 59 47 
391 849 124 81 60 47 
387 858 117 108 87 73 
388 858 114 109 87 73 
388 858 115 109 87 73 
389 858 114 112 90 74 
388 858 116 108 87 73 
388 859 116 108 87 73 
388 859 117 108 87 72 
389 859 116 103 83 71 
389 859 117 102 82 71 
388 859 119 107 85 73 
389 861 114 104 85 73 
390 861 115 103 83 71 
390 862 115 101 83 73 
391 860 116 106 86 73 
388 860 120 113 86 69 
388 861 121 110 84 66 
388 863 123 99 79 70 
389 862 122 96 80 72 
389 863 122 102 79 67 
389 863 123 96 80 74 
390 863 121 99 78 66 
390 863 122 94 77 70 
393 848 119 92 68 49 
394 848 118 97 74 55 
396 849 113 103 84 74 
397 848 113 106 82 63 
396 849 115 100 82 73 
396 850 114 101 84 73 
396 850 115 101 84 73 
398 849 112 107 83 66 
398 851 113 96 78 66 
397 850 116 103 83 71 
398 852 113 95 80 68 
399 852 112 95 80 69 
399 852 113 95 80 69 
398 852 115 96 82 75 
398 853 114 96 82 75 
398 853 115 95 82 75 
397 852 116 97 82 75 
398 852 116 97 82 76 
398 852 117 92 83 76 
398 853 117 94 84 78 
398 853 118 103 84 68 
392 848 120 87 64 50 
392 848 121 83 63 51 
392 849 121 86 64 50 
393 848 120 87 65 50 
392 848 122 82 61 49 
392 860 117 105 86 74 
392 861 116 103 85 74 
393 861 117 102 85 75 
393 861 118 102 85 75 
393 862 116 102 86 77 
394 861 119 100 85 76 
395 861 118 100 86 75 
392 863 127 106 90 83 
393 862 127 100 83 77 
393 863 127 96 79 72 
394 862 127 99 81 75 
394 863 127 92 75 67 
395 862 127 100 80 74 
395 863 127 91 74 67 
399 861 123 87 70 63 
396 860 127 99 79 72 
396 861 127 99 79 72 
396 862 127 97 78 71 
396 863 127 89 72 65 
397 862 126 91 74 67 
397 863 126 90 72 66 
399 861 124 89 72 65 
399 862 125 89 72 66 
399 863 125 89 72 66 
398 862 126 89 73 66 
398 863 126 89 73 66 
401 836 101 81 75 71 
400 836 102 89 78 71 
400 836 103 95 71 55 
400 837 102 89 79 73 
400 837 103 100 75 58 
401 837 102 86 79 75 
401 837 103 100 75 58 
401 838 103 98 75 58 
403 836 101 79 76 76 
402 837 102 100 75 59 
402 838 103 98 75 58 
404 836 101 89 70 61 
400 833 107 92 73 64 
400 835 105 96 72 56 
401 837 105 157 126 93 
400 837 106 170 137 103 
401 837 106 169 136 100 
400 838 104 98 74 58 
400 838 105 99 75 59 
400 839 104 98 74 59 
400 839 105 99 75 59 
401 838 104 96 74 58 
401 839 104 99 75 59 
400 840 106 100 75 60 
402 842 111 93 75 61 
403 843 110 94 75 63 
403 843 111 93 75 63 
400 845 110 92 73 60 
403 844 110 94 75 62 
403 844 111 88 73 61 
402 846 110 97 80 66 
404 843 111 93 75 63 
405 844 107 92 72 57 
405 846 107 94 75 60 
406 845 107 91 73 59 
407 845 107 92 73 59 
406 846 107 98 79 64 
407 847 106 108 86 71 
405 845 108 91 70 53 
405 845 109 90 70 53 
404 844 111 88 73 61 
405 844 111 88 73 61 
405 845 111 88 73 61 
405 847 108 95 75 60 
404 847 110 94 75 61 
406 844 109 91 72 56 
406 845 108 93 72 57 
406 845 109 92 72 56 
407 845 108 94 73 61 
415 847 99 102 88 76 
412 847 101 107 90 73 
413 846 101 107 88 74 
413 847 100 107 89 74 
413 847 101 108 88 73 
412 847 102 111 92 75 
412 847 103 110 91 73 
413 846 102 104 87 70 
413 847 103 112 92 76 
414 846 100 106 88 75 
414 846 101 104 86 73 
414 847 100 106 87 72 
415 846 100 102 86 74 
414 846 102 109 87 72 
414 846 103 110 92 76 
415 846 103 112 94 79 
409 845 107 95 78 64 
409 847 105 112 91 70 
408 847 106 108 87 72 
409 846 106 99 80 68 
409 846 107 98 79 66 
409 847 106 112 90 75 
410 845 106 98 79 67 
411 845 106 98 81 67 
411 845 107 98 79 66 
410 846 105 101 85 72 
410 847 105 120 94 77 
411 846 105 100 83 69 
411 847 105 115 92 75 
410 846 106 99 82 67 
410 847 106 118 94 75 
408 845 108 92 74 60 
409 845 108 94 77 64 
410 845 108 96 82 70 
412 845 105 99 82 67 
413 845 104 99 84 70 
413 845 105 99 83 69 
412 845 106 99 80 65 
412 845 107 97 80 64 
413 845 106 98 80 64 
412 846 104 100 84 71 
412 846 105 100 84 71 
412 847 104 124 96 76 
412 847 105 115 93 74 
413 846 104 127 98 79 
413 847 104 115 93 73 
413 847 105 112 91 72 
414 845 105 127 97 78 
415 845 106 120 90 67 
415 845 107 112 85 60 
414 846 105 126 96 76 
414 847 105 113 91 72 
415 846 105 120 93 73 
415 847 104 102 84 68 
415 847 105 108 89 73 
404 842 113 94 75 62 
404 843 112 92 74 61 
405 843 112 91 74 61 
405 843 113 91 74 61 
405 843 114 90 73 60 
407 849 103 118 94 73 
407 850 103 119 95 74 
406 853 101 99 84 73 
407 853 101 94 84 77 
406 855 100 94 81 72 
407 854 100 97 83 74 
407 855 100 91 78 69 
401 851 105 110 87 74 
403 849 106 101 81 67 
402 851 105 110 88 74 
403 850 105 104 82 68 
403 851 105 109 88 73 
402 850 106 102 82 68 
400 849 111 100 79 64 
401 848 110 99 79 65 
401 849 110 100 79 63 
401 849 111 99 78 63 
400 850 111 104 82 68 
400 851 111 101 81 69 
401 851 111 102 81 69 
402 849 110 105 84 70 
403 848 110 95 77 63 
402 850 110 106 84 71 
402 850 111 105 84 70 
403 851 110 104 84 70 
400 853 104 95 82 75 
405 848 107 102 83 67 
405 849 107 105 85 70 
404 850 104 109 88 71 
404 851 105 110 89 70 
405 850 104 115 93 75 
405 850 105 115 92 72 
406 849 104 115 93 75 
406 849 105 115 93 73 
407 849 104 117 93 73 
406 849 107 109 88 72 
407 848 106 114 92 72 
407 849 106 120 95 76 
406 850 104 116 92 73 
404 848 108 102 82 66 
404 849 109 101 81 68 
405 848 108 102 83 67 
405 848 109 98 78 65 
405 849 108 105 85 70 
404 849 110 99 80 67 
405 849 110 100 80 68 
405 850 109 106 83 69 
404 850 110 100 80 67 
406 850 108 120 95 76 
406 850 109 120 94 75 
407 850 108 121 96 78 
407 851 109 115 90 69 
408 849 102 119 98 80 
408 849 103 117 93 73 
409 848 103 114 92 73 
409 849 102 117 97 79 
409 849 103 115 94 75 
408 850 102 119 98 80 
410 849 101 116 96 79 
411 848 101 112 93 76 
411 849 101 107 89 74 
410 848 102 114 94 76 
410 848 103 112 90 72 
411 848 102 111 92 74 
411 848 103 111 91 73 
410 850 101 99 84 71 
410 851 101 99 85 73 
411 851 101 98 83 70 
408 853 101 94 84 77 
409 852 101 97 85 75 
409 853 101 94 84 77 
408 854 100 97 83 74 
408 855 100 91 78 69 
409 854 100 88 83 80 
409 854 101 94 83 77 
409 855 100 91 78 69 
410 852 101 96 83 74 
410 853 101 93 83 75 
411 852 101 96 82 71 
411 853 101 94 83 75 
410 855 100 87 83 79 
411 855 100 87 82 79 
413 850 99 99 79 64 
415 848 99 103 88 76 
414 851 99 96 80 66 
415 850 99 95 79 66 
415 851 99 95 80 67 
412 848 100 108 90 73 
412 848 101 108 90 73 
413 848 100 107 86 67 
412 850 100 99 81 66 
412 851 100 99 83 70 
413 851 100 99 80 65 
415 849 103 103 85 71 
414 851 100 94 78 65 
413 852 99 87 78 69 
413 853 99 85 78 72 
413 855 97 82 78 75 
412 855 99 82 78 74 
413 854 98 81 77 73 
413 854 99 81 76 72 
413 855 98 82 77 74 
415 853 97 83 77 72 
414 852 99 90 80 70 
414 853 98 86 79 72 
415 853 98 83 77 72 
414 854 97 83 78 74 
414 855 96 82 77 74 
414 855 97 83 78 75 
415 854 97 82 78 74 
415 855 96 81 76 73 
414 854 98 83 78 74 
412 852 100 99 83 71 
412 852 101 96 83 71 
412 853 100 84 77 71 
412 853 101 96 81 70 
413 852 100 89 79 69 
413 853 100 83 77 71 
412 854 100 89 82 76 
408 848 105 116 93 73 
408 849 104 116 92 72 
409 848 105 118 94 73 
408 848 106 114 92 73 
408 848 107 117 94 78 
409 848 106 122 98 80 
409 850 107 119 95 75 
410 848 104 113 91 73 
410 848 105 115 93 75 
411 848 105 117 96 76 
411 849 106 111 92 77 
411 850 107 113 94 77 
411 851 107 111 92 76 
408 850 108 120 95 74 
409 850 108 121 96 75 
412 848 105 109 91 74 
413 848 105 104 86 71 
413 849 105 104 86 71 
412 850 106 109 90 75 
414 848 105 102 84 69 
414 849 104 101 84 70 
415 848 104 102 85 70 
415 848 105 102 84 69 
409 856 100 91 78 69 
410 857 100 90 78 69 
411 856 100 87 82 79 
411 857 100 87 82 79 
411 858 100 87 82 80 
413 856 97 82 76 72 
413 857 97 83 78 72 
412 856 98 87 81 77 
412 856 99 87 82 79 
412 857 98 87 81 77 
412 857 99 87 82 78 
413 856 98 81 76 71 
413 858 97 86 81 76 
413 859 97 86 80 75 
412 858 98 87 82 78 
412 858 99 87 81 77 
412 859 99 87 81 77 
413 859 98 86 81 76 
413 859 99 86 81 77 
414 856 96 81 76 72 
414 856 97 82 77 73 
414 857 96 78 73 70 
414 857 97 81 75 70 
415 856 96 78 74 70 
415 857 96 78 73 70 
414 858 96 85 80 75 
414 858 97 86 80 75 
414 859 97 86 80 75 
415 858 96 85 80 75 
415 858 97 85 80 75 
415 859 97 86 80 75 
414 859 98 86 80 75 
412 858 100 87 81 77 
412 859 100 87 81 77 
413 860 99 87 81 77 
415 860 97 85 80 75 
414 860 98 86 80 76 
415 860 98 85 80 75 
400 854 115 91 83 77 
401 861 123 87 70 63 
403 860 121 87 78 74 
402 861 122 88 79 75 
403 862 123 88 79 75 
400 862 124 87 70 63 
400 863 125 99 76 61 
406 859 120 85 77 73 
404 860 121 87 78 74 
405 860 120 85 77 73 
404 862 122 86 77 73 
404 863 123 86 77 73 
405 862 122 86 77 73 
405 863 122 86 77 73 
405 863 123 86 77 73 
406 862 121 97 85 77 
406 862 123 86 77 73 
406 863 122 96 80 69 
407 862 122 90 81 75 
385 869 119 86 70 60 
386 868 119 77 62 50 
386 869 119 88 71 60 
387 869 119 87 69 58 
391 867 119 89 72 62 
388 868 119 86 69 58 
388 869 119 86 70 60 
389 868 119 88 71 61 
391 868 119 84 68 57 
384 867 121 90 71 59 
385 867 121 83 65 56 
384 866 122 95 77 68 
384 866 123 95 79 69 
384 867 123 92 73 63 
385 866 122 95 77 67 
387 865 123 92 73 66 
386 866 121 84 66 58 
386 867 120 73 55 45 
387 866 121 90 72 64 
387 867 120 86 67 56 
387 867 121 88 70 63 
386 866 122 90 72 65 
386 866 123 86 70 61 
386 867 122 90 73 67 
385 864 124 103 43 59 
384 865 127 85 65 64 
385 865 127 87 70 65 
384 867 124 96 78 69 
384 866 127 90 65 65 
384 867 127 90 71 62 
