ply
format ascii 1.0
comment Created by CloudCompare v2.10.1 (Zephyrus)
comment Created 1/31/20 11:55 AM
obj_info Generated by CloudCompare!
element vertex 2026
property float x
property float y
property float z
property uchar red
property uchar green
property uchar blue
end_header
204 532 236 171 125 102 
204 532 237 174 123 103 
204 533 236 166 120 97 
204 533 237 167 117 97 
204 532 238 177 124 106 
204 532 239 179 125 105 
204 533 238 169 114 96 
204 533 239 172 117 97 
204 534 236 157 110 87 
204 534 237 161 111 90 
204 535 236 158 109 87 
204 535 237 161 111 89 
205 535 236 155 107 84 
204 534 238 166 113 94 
204 534 239 170 116 97 
204 535 238 168 114 95 
204 535 239 171 117 98 
205 536 234 160 113 92 
205 536 235 156 107 85 
205 537 234 164 115 95 
205 537 235 165 115 95 
205 538 234 169 119 100 
205 538 235 172 120 102 
205 539 235 177 121 104 
206 536 233 166 123 101 
206 537 233 167 121 99 
207 536 232 161 121 99 
207 537 232 165 121 101 
206 536 234 165 120 98 
206 537 234 165 118 96 
206 538 233 167 117 98 
206 539 233 168 116 98 
207 538 232 164 116 99 
207 539 232 163 114 97 
207 539 233 167 116 99 
206 538 234 168 118 98 
206 539 234 171 118 99 
204 536 236 162 112 90 
204 536 237 166 116 93 
204 537 236 168 119 97 
204 537 237 175 123 102 
205 536 236 159 110 87 
205 537 236 169 119 99 
204 536 238 172 118 98 
204 536 239 174 120 100 
204 537 238 179 125 106 
204 537 239 179 124 104 
204 538 237 181 128 107 
205 538 236 177 126 106 
205 538 237 181 127 106 
205 539 236 182 127 108 
205 539 237 187 132 109 
204 538 238 184 128 107 
204 538 239 186 129 109 
205 538 238 184 126 103 
205 539 238 190 133 110 
205 539 239 191 134 112 
205 540 235 178 121 103 
206 540 233 170 117 99 
207 540 232 161 111 93 
207 540 233 167 115 97 
207 541 232 165 114 95 
207 541 233 172 118 99 
206 540 234 174 119 100 
206 540 235 179 121 103 
206 541 234 179 124 104 
206 541 235 184 125 107 
207 542 232 170 118 99 
207 542 233 176 122 102 
207 543 233 181 126 105 
206 542 234 186 129 109 
206 542 235 190 131 113 
206 543 235 194 135 115 
207 542 234 183 127 106 
207 543 234 189 132 111 
207 543 235 194 136 114 
205 540 236 185 127 108 
205 540 237 191 135 112 
205 541 236 188 129 109 
205 541 237 193 135 113 
205 540 238 196 140 116 
205 540 239 196 140 116 
205 541 238 198 141 118 
205 541 239 198 141 118 
205 542 238 200 142 120 
205 542 239 199 141 119 
206 541 236 188 129 110 
206 541 237 194 135 114 
206 542 236 194 134 115 
206 542 237 197 137 117 
206 543 236 197 137 117 
206 543 237 199 138 117 
206 542 238 200 140 119 
206 542 239 199 140 119 
206 543 238 198 137 117 
206 543 239 196 136 115 
199 528 241 220 152 126 
198 528 243 212 146 122 
199 528 242 216 150 126 
199 528 243 212 146 123 
198 528 244 210 144 121 
198 528 245 211 144 122 
199 528 244 211 145 124 
199 528 245 210 145 124 
199 529 244 207 142 120 
199 529 245 207 141 120 
198 528 246 213 143 121 
198 528 247 213 142 120 
199 529 246 208 140 118 
199 529 247 211 140 117 
199 530 247 211 143 120 
197 528 248 215 142 120 
197 528 249 220 147 128 
197 528 250 219 148 128 
198 528 248 215 143 121 
198 528 249 220 149 128 
198 529 248 215 145 120 
198 529 249 221 152 127 
199 529 248 215 146 121 
199 530 248 217 148 123 
199 530 249 218 149 124 
200 528 240 227 161 133 
200 528 241 222 154 128 
201 528 240 227 162 135 
201 528 241 223 156 131 
201 529 241 217 151 127 
200 528 242 215 149 125 
200 529 242 213 146 123 
200 529 243 208 142 119 
201 529 242 210 145 121 
201 529 243 205 141 118 
201 530 242 207 144 121 
201 530 243 201 138 115 
202 529 240 221 157 134 
202 529 241 219 155 132 
202 530 240 214 153 131 
202 530 241 211 150 127 
202 531 241 203 145 123 
203 530 240 209 150 129 
203 531 240 197 141 120 
203 531 241 197 140 118 
202 530 242 205 144 121 
202 530 243 199 138 116 
202 531 242 199 141 119 
202 531 243 193 134 112 
203 531 242 190 134 112 
200 529 244 204 138 116 
200 529 245 203 137 117 
200 530 244 201 136 115 
200 530 245 201 135 114 
201 530 244 198 134 112 
201 531 244 192 130 108 
201 531 245 194 129 108 
200 530 246 206 140 119 
200 530 247 211 143 119 
200 531 246 202 135 113 
200 531 247 210 142 119 
201 531 246 200 134 113 
201 531 247 208 139 116 
202 531 244 188 128 106 
202 531 245 188 126 105 
203 532 240 184 129 108 
203 532 241 184 129 106 
203 533 241 178 123 100 
203 532 242 182 126 103 
203 532 243 182 124 103 
203 533 242 175 119 97 
203 533 243 175 116 95 
203 534 243 173 114 93 
201 532 246 199 133 113 
201 532 247 207 140 117 
202 532 244 184 124 103 
202 532 245 188 125 104 
202 533 245 187 123 102 
203 532 244 181 121 101 
203 533 244 177 116 97 
203 533 245 183 121 99 
202 532 246 198 133 111 
202 533 246 196 131 109 
203 534 244 176 115 94 
203 534 245 184 122 100 
204 532 240 180 125 105 
204 533 240 174 120 98 
204 533 241 175 122 98 
204 533 242 174 119 97 
204 534 240 172 119 98 
204 534 241 173 120 98 
204 535 240 173 119 99 
204 535 241 173 120 99 
204 534 242 173 117 96 
204 534 243 173 114 93 
204 535 242 174 118 98 
204 535 243 177 119 98 
204 534 244 176 116 95 
204 535 244 181 122 100 
200 530 248 216 148 124 
200 531 248 216 148 124 
204 536 240 175 120 100 
204 536 241 175 120 99 
204 537 240 177 122 102 
204 537 241 176 120 99 
204 536 242 175 119 98 
204 536 243 179 121 99 
204 537 242 177 119 99 
204 537 243 180 121 100 
204 538 240 183 126 106 
204 538 241 179 121 101 
205 539 240 189 132 110 
205 539 241 184 126 104 
204 538 242 179 120 101 
204 538 243 180 122 101 
205 538 243 181 123 102 
205 539 242 182 123 103 
205 539 243 182 124 103 
204 536 244 183 125 102 
204 537 244 184 127 104 
204 538 244 185 127 104 
205 538 244 185 127 104 
205 539 244 184 127 104 
205 540 240 193 136 114 
205 540 241 188 130 108 
205 541 240 195 137 114 
205 541 241 188 130 107 
205 540 242 183 125 104 
205 540 243 182 124 101 
205 541 242 182 124 101 
205 541 243 180 122 98 
205 542 240 195 137 114 
205 542 241 190 132 109 
206 541 243 179 121 98 
206 542 240 196 137 116 
206 542 241 189 131 109 
206 543 240 194 135 115 
206 543 241 189 131 110 
206 542 242 183 125 102 
206 542 243 180 122 99 
206 543 242 184 126 104 
206 543 243 180 122 98 
205 540 244 182 123 101 
210 512 225 136 14 32 
211 512 224 143 20 38 
211 512 225 137 16 33 
211 513 224 140 23 36 
211 513 225 131 24 36 
210 512 226 129 18 29 
210 512 227 116 19 32 
210 513 227 116 29 39 
211 512 226 129 24 31 
211 513 226 122 28 33 
211 513 227 116 28 34 
211 514 227 115 28 35 
211 515 227 118 25 34 
209 512 228 103 31 43 
209 512 229 99 27 39 
209 513 229 109 27 39 
208 512 230 67 28 29 
208 512 231 50 34 25 
208 513 230 80 35 36 
208 513 231 68 39 31 
209 512 230 89 29 33 
209 513 230 98 30 38 
209 514 229 115 30 37 
209 515 229 114 32 36 
208 514 231 89 38 38 
208 515 231 108 45 41 
209 514 230 105 32 37 
209 515 230 111 39 36 
210 512 228 109 26 38 
210 513 228 112 27 39 
210 513 229 111 26 35 
210 514 228 114 27 35 
210 514 229 112 31 36 
210 515 228 114 27 34 
210 515 229 114 30 36 
211 514 228 112 27 35 
211 515 228 114 27 33 
211 516 227 118 28 33 
211 517 227 118 29 31 
209 516 229 116 36 37 
208 516 230 118 54 41 
208 516 231 118 61 46 
208 517 230 127 59 49 
208 517 231 130 64 53 
209 516 230 119 46 41 
209 517 230 123 50 44 
208 518 230 131 63 52 
208 518 231 134 71 57 
208 519 231 138 73 60 
209 518 230 127 55 51 
209 519 230 134 63 57 
209 519 231 139 73 64 
210 516 229 115 31 36 
210 517 229 116 33 42 
211 516 228 116 28 33 
211 517 228 115 27 37 
210 518 229 121 40 46 
210 519 229 124 45 46 
211 518 228 117 23 38 
211 518 229 117 29 43 
211 519 228 119 25 36 
211 519 229 120 34 41 
210 519 230 129 52 51 
212 513 224 131 22 38 
212 513 225 123 26 35 
212 514 224 114 21 35 
212 514 225 113 30 38 
212 515 224 99 21 33 
212 515 225 113 22 41 
212 514 226 118 29 39 
212 514 227 116 27 37 
212 515 226 115 28 38 
212 515 227 119 25 37 
212 516 224 86 24 31 
212 516 225 106 21 38 
212 517 224 88 22 29 
212 517 225 109 21 35 
213 516 224 76 27 32 
213 517 224 83 22 31 
212 516 226 120 20 34 
212 516 227 119 26 35 
212 517 226 123 17 32 
212 517 227 124 25 33 
212 518 225 115 19 33 
212 519 225 122 21 37 
213 518 224 92 22 30 
213 519 224 105 19 29 
213 519 225 120 16 34 
212 518 226 129 21 32 
212 518 227 127 21 32 
212 519 226 132 20 38 
212 519 227 130 17 33 
212 519 228 121 22 35 
208 520 231 143 79 66 
209 520 230 139 68 61 
209 520 231 142 74 64 
209 521 231 144 78 69 
209 522 231 143 78 68 
211 520 228 120 29 37 
211 520 229 126 40 43 
211 521 229 129 48 49 
210 520 230 137 61 59 
210 521 231 142 71 66 
211 520 230 137 58 60 
211 521 230 137 60 60 
210 522 231 141 74 65 
210 523 231 136 73 63 
211 522 230 138 62 58 
211 522 231 140 68 61 
211 523 230 138 65 57 
211 523 231 136 69 59 
210 524 231 133 77 67 
211 524 230 136 67 61 
211 524 231 132 70 63 
211 525 230 136 69 65 
211 525 231 129 72 65 
210 527 231 128 73 59 
211 526 231 129 70 62 
211 527 230 133 68 60 
211 527 231 129 70 59 
212 520 225 128 17 40 
213 520 224 121 20 38 
213 520 225 130 16 41 
213 521 224 143 21 46 
213 521 225 140 12 35 
212 520 226 132 17 37 
212 520 227 130 17 35 
212 521 227 128 15 40 
213 520 226 134 15 39 
213 521 226 136 12 37 
213 521 227 132 11 41 
213 522 224 150 17 41 
213 522 225 144 13 30 
213 523 224 154 15 35 
213 523 225 144 16 33 
212 522 227 124 22 40 
213 522 226 136 13 33 
213 522 227 128 18 40 
213 523 226 135 14 34 
213 523 227 125 23 38 
212 520 228 123 25 36 
212 521 228 121 27 36 
212 521 229 126 40 42 
212 522 228 119 29 37 
212 522 229 127 45 47 
212 523 228 118 34 40 
212 523 229 127 46 49 
213 522 228 118 28 39 
213 523 228 116 31 39 
212 522 230 136 58 58 
212 523 230 135 58 55 
213 524 224 154 14 37 
213 524 225 143 15 36 
213 525 225 142 15 34 
213 524 226 134 18 38 
213 524 227 121 25 35 
213 525 226 132 19 35 
213 525 227 119 28 34 
213 526 226 126 23 35 
213 526 227 116 32 36 
213 527 226 111 26 38 
213 527 227 107 33 42 
214 524 224 155 13 32 
214 525 224 151 14 38 
214 525 225 140 17 36 
214 526 224 145 15 42 
214 526 225 136 19 37 
214 527 224 128 14 38 
214 527 225 125 27 43 
214 526 226 128 24 36 
214 527 226 120 26 38 
212 524 229 127 51 52 
212 525 229 130 59 56 
213 524 228 113 33 40 
213 525 228 112 39 42 
213 525 229 123 54 54 
212 524 230 137 61 57 
212 525 230 137 63 58 
212 526 229 130 61 58 
212 527 229 127 62 60 
213 526 228 113 44 44 
213 526 229 122 57 54 
213 527 228 113 48 52 
213 527 229 123 58 56 
212 526 230 136 63 60 
212 527 230 133 65 62 
208 521 232 147 84 72 
209 521 232 145 82 71 
208 522 232 147 90 76 
208 523 232 146 92 76 
208 523 233 147 97 82 
209 522 232 144 82 70 
209 523 232 141 82 69 
208 524 233 143 96 79 
208 525 233 144 100 82 
209 524 232 135 82 69 
209 524 233 139 91 74 
209 525 232 134 85 68 
209 525 233 138 92 72 
208 526 233 145 102 83 
208 527 233 142 102 80 
209 526 232 130 85 67 
209 526 233 136 92 71 
209 527 232 131 86 68 
209 527 233 136 94 73 
210 524 232 130 76 66 
210 525 232 126 77 65 
210 526 232 125 76 61 
210 527 232 127 78 62 
209 530 231 111 67 48 
209 531 231 106 67 42 
210 528 231 126 74 57 
210 529 231 118 69 52 
211 528 230 126 66 57 
211 528 231 125 69 55 
211 529 230 115 62 52 
211 531 229 96 61 50 
210 530 231 109 65 49 
210 531 230 99 61 46 
210 531 231 103 62 45 
211 530 230 105 60 50 
211 531 230 97 60 51 
208 532 231 108 75 43 
208 533 231 115 82 52 
209 532 230 99 64 39 
209 532 231 102 68 39 
209 533 230 104 68 42 
209 533 231 108 74 44 
208 534 231 131 95 70 
208 535 231 143 106 81 
209 534 230 117 76 52 
209 534 231 125 89 64 
209 535 230 128 87 65 
209 535 231 137 99 75 
211 532 229 99 62 51 
211 533 229 107 63 51 
210 532 230 97 62 44 
210 533 230 102 64 45 
210 534 229 113 66 45 
210 535 229 116 67 45 
211 534 229 114 66 50 
211 535 229 112 65 48 
210 534 230 111 67 45 
210 535 230 120 72 51 
213 528 226 98 25 36 
213 528 227 94 34 38 
213 529 226 84 33 42 
213 529 227 83 36 37 
212 531 227 96 57 45 
213 530 226 85 38 45 
213 530 227 80 41 42 
213 531 226 88 45 42 
213 531 227 87 48 40 
214 528 224 117 20 34 
214 528 225 106 30 35 
214 529 224 114 29 35 
214 529 225 99 31 33 
214 528 226 104 27 35 
214 529 226 91 30 36 
214 530 224 116 35 43 
214 530 225 99 33 40 
214 531 224 118 40 45 
214 531 225 98 37 41 
214 530 226 88 37 41 
214 531 226 89 43 43 
212 528 229 124 62 60 
212 529 228 99 57 49 
212 529 229 111 63 54 
213 528 228 108 50 51 
213 529 228 90 49 44 
212 528 230 127 63 57 
212 529 230 119 63 53 
212 530 228 90 56 47 
212 530 229 101 61 48 
212 531 228 95 60 49 
212 531 229 94 61 48 
213 530 228 83 50 45 
212 532 227 106 59 47 
212 533 227 115 63 53 
213 532 226 94 50 43 
213 532 227 100 52 40 
213 533 226 102 54 45 
213 533 227 111 59 49 
212 534 227 119 65 54 
213 534 226 107 54 48 
213 534 227 115 62 52 
213 535 227 114 65 53 
214 532 224 119 42 38 
214 532 225 98 40 38 
214 533 224 114 43 41 
214 533 225 104 44 40 
215 533 224 123 41 41 
214 532 226 91 47 40 
214 533 226 99 50 43 
214 534 224 112 42 44 
214 534 225 104 43 44 
214 535 224 108 45 44 
214 535 225 100 46 44 
215 534 224 120 38 44 
215 535 224 112 43 44 
214 534 226 103 49 46 
214 535 226 106 55 47 
212 532 228 106 63 51 
212 533 228 115 64 53 
212 534 228 118 66 55 
212 535 228 114 66 56 
208 528 233 141 102 80 
208 529 233 134 98 74 
209 528 232 130 85 68 
209 528 233 136 97 78 
209 529 232 125 85 64 
208 530 232 124 90 65 
208 530 233 127 93 68 
208 531 232 115 80 52 
209 530 232 118 78 54 
209 531 232 112 77 49 
210 528 232 127 78 62 
208 532 232 109 75 43 
208 533 232 117 82 53 
208 536 231 152 113 90 
208 537 231 159 118 96 
209 536 230 135 95 75 
209 536 231 144 105 84 
209 537 230 140 101 81 
209 537 231 150 112 90 
208 538 231 160 117 96 
208 539 231 158 114 92 
209 538 230 146 108 88 
209 538 231 155 116 94 
209 539 230 149 112 89 
209 539 231 156 117 92 
211 536 229 109 65 49 
211 537 229 109 66 52 
210 536 230 120 75 57 
210 537 230 123 83 66 
210 539 229 136 97 77 
211 538 229 119 75 57 
211 539 229 128 84 64 
210 538 230 131 92 73 
210 539 230 139 101 78 
208 540 231 155 112 89 
208 541 231 154 109 87 
209 540 230 149 110 87 
209 540 231 153 113 88 
209 541 230 148 108 85 
209 541 231 152 109 86 
208 542 231 158 110 89 
208 543 231 163 115 93 
209 542 230 149 107 84 
209 542 231 153 108 85 
209 543 230 150 107 81 
209 543 231 156 110 86 
210 540 229 140 101 80 
210 541 229 141 103 80 
211 540 229 131 90 68 
211 541 229 133 95 71 
210 540 230 144 105 84 
210 541 230 144 105 84 
210 542 229 141 104 79 
210 543 229 142 105 77 
211 542 229 135 99 74 
211 543 229 136 102 75 
210 542 230 144 106 82 
210 543 230 146 106 80 
213 536 227 111 64 51 
213 537 227 113 64 52 
213 538 227 117 67 57 
213 539 227 120 69 57 
214 536 225 98 50 42 
214 537 225 100 49 41 
215 536 224 107 47 41 
215 537 224 104 45 44 
215 537 225 101 47 41 
214 536 226 104 57 44 
214 537 226 105 56 41 
214 537 227 114 64 46 
214 538 225 109 55 45 
214 539 225 115 59 45 
215 538 224 105 46 45 
215 538 225 106 51 44 
215 539 224 108 48 42 
215 539 225 112 53 43 
214 538 226 114 61 48 
214 538 227 117 66 52 
214 539 226 118 63 47 
214 539 227 120 67 53 
212 536 228 109 66 55 
212 536 229 108 65 53 
212 537 228 107 66 54 
212 537 229 108 68 54 
213 536 228 108 65 54 
213 537 228 110 66 53 
212 538 228 113 68 55 
212 538 229 115 69 55 
212 539 228 119 71 52 
212 539 229 122 74 54 
213 538 228 113 68 56 
213 540 227 119 71 54 
213 541 227 120 73 53 
212 542 227 122 82 60 
212 543 227 123 86 65 
213 542 227 120 74 53 
213 543 227 120 76 56 
214 540 225 117 61 47 
215 540 224 111 49 42 
215 540 225 114 57 46 
215 541 224 112 52 43 
215 541 225 118 62 51 
214 540 226 120 67 51 
214 540 227 121 69 54 
214 541 226 120 69 54 
214 541 227 121 71 54 
215 542 224 115 58 47 
215 542 225 120 67 55 
215 543 224 120 67 52 
215 543 225 121 70 55 
214 542 226 120 71 56 
214 542 227 121 73 54 
214 543 226 120 73 55 
212 540 228 122 76 55 
212 540 229 124 79 57 
212 541 228 125 82 60 
212 542 228 126 86 64 
212 543 228 128 94 71 
208 539 232 159 112 93 
208 540 232 156 110 90 
208 541 232 160 112 92 
208 542 232 166 116 96 
208 543 232 172 121 101 
216 542 224 112 53 43 
216 543 224 116 61 49 
223 544 209 50 31 31 
223 545 209 61 35 38 
222 544 210 49 31 33 
222 544 211 49 35 35 
222 545 210 59 33 39 
222 545 211 56 37 38 
223 544 210 49 29 30 
223 545 210 60 34 38 
222 546 210 59 31 39 
222 546 211 55 33 38 
222 547 211 51 34 39 
223 546 210 63 39 43 
223 547 210 57 34 36 
223 547 211 49 32 34 
220 544 213 56 36 37 
221 544 212 50 34 34 
221 544 213 56 37 39 
221 545 212 52 34 35 
221 545 213 56 37 39 
220 544 214 61 37 39 
220 544 215 63 38 38 
220 545 214 67 41 42 
220 545 215 71 43 44 
221 545 214 57 33 39 
221 546 212 52 34 35 
221 546 213 51 32 39 
221 547 212 48 34 35 
221 547 213 49 34 39 
220 546 214 56 34 34 
220 546 215 63 38 37 
220 547 215 63 31 33 
221 546 214 55 29 37 
221 547 214 56 32 37 
222 546 212 50 33 37 
222 547 212 49 33 40 
222 548 211 44 32 38 
222 549 211 43 33 40 
223 548 210 47 32 34 
223 548 211 46 33 37 
223 549 210 39 34 36 
223 549 211 42 34 39 
223 550 210 39 34 37 
223 550 211 48 35 41 
223 551 210 44 35 39 
223 551 211 56 35 40 
221 548 213 53 36 36 
221 549 213 64 32 33 
220 548 215 92 32 46 
220 549 215 106 32 43 
221 548 214 68 35 40 
221 549 214 82 34 38 
221 549 215 102 35 44 
221 550 213 97 29 38 
221 550 214 111 30 38 
221 550 215 126 32 35 
221 551 214 134 37 51 
221 551 215 145 38 49 
222 548 212 46 33 37 
222 549 212 54 33 38 
222 549 213 66 31 35 
222 550 212 76 36 40 
222 550 213 92 34 38 
222 551 212 94 33 40 
222 551 213 118 33 46 
223 550 212 68 38 37 
223 551 212 74 37 36 
219 544 216 61 34 35 
219 544 217 78 37 42 
219 545 216 73 38 38 
219 545 217 89 39 42 
218 544 218 89 36 44 
218 544 219 99 33 40 
218 545 218 100 34 41 
218 545 219 111 35 46 
219 545 218 97 37 44 
219 546 216 90 43 47 
219 546 217 96 38 45 
219 547 216 92 32 40 
219 547 217 100 33 41 
218 546 219 116 34 44 
218 547 219 122 36 42 
219 546 218 103 30 39 
219 547 218 109 32 35 
219 547 219 118 35 38 
217 544 221 118 36 40 
217 545 221 120 41 44 
216 544 223 114 54 47 
216 545 223 119 61 49 
217 544 222 115 40 38 
217 544 223 113 45 41 
217 545 222 116 45 39 
217 545 223 117 53 44 
217 546 221 117 44 40 
217 547 221 116 47 41 
216 546 223 122 64 50 
216 547 223 124 67 52 
217 546 222 117 52 44 
217 546 223 119 57 42 
217 547 222 119 57 45 
218 544 220 112 36 39 
218 544 221 115 37 42 
218 545 220 121 37 47 
218 545 221 124 39 48 
218 546 220 124 36 46 
218 546 221 122 40 43 
218 547 220 126 38 46 
218 547 221 121 41 42 
219 548 217 113 34 43 
219 549 217 132 41 42 
218 548 219 128 39 46 
218 549 219 131 40 51 
219 548 218 124 31 43 
219 548 219 126 36 44 
219 549 218 134 39 48 
219 549 219 132 38 51 
219 550 217 142 43 45 
219 550 218 139 39 45 
219 550 219 130 39 45 
219 551 218 139 40 44 
219 551 219 129 39 39 
217 548 221 118 52 42 
217 549 221 121 57 42 
216 548 223 125 69 51 
216 549 223 124 70 53 
217 548 222 122 61 46 
217 549 222 124 64 49 
217 550 221 123 61 46 
216 550 223 123 71 53 
216 551 223 121 72 52 
217 550 222 125 65 52 
217 550 223 125 70 55 
217 551 222 126 67 56 
217 551 223 124 72 56 
218 548 220 126 41 46 
218 548 221 118 46 39 
218 549 220 124 44 45 
218 549 221 119 50 39 
218 550 220 120 50 42 
218 550 221 121 57 45 
218 551 220 120 53 43 
218 551 221 124 60 50 
219 550 220 124 45 43 
219 551 220 120 45 36 
220 544 216 64 31 35 
220 545 216 67 36 37 
220 546 216 77 40 41 
220 547 216 87 30 37 
220 548 216 103 33 45 
220 549 216 122 34 41 
220 549 217 133 33 39 
220 550 216 138 36 43 
220 550 217 142 37 42 
220 551 216 148 39 49 
220 551 217 145 38 45 
223 552 211 68 36 45 
223 553 211 83 30 42 
223 554 211 91 25 41 
223 555 211 104 23 39 
220 552 215 156 40 53 
221 552 214 148 37 57 
221 552 215 156 39 55 
221 553 214 155 33 50 
221 553 215 158 36 47 
221 554 214 159 28 46 
221 554 215 157 33 46 
221 555 214 161 28 48 
221 555 215 155 33 44 
222 552 212 103 29 39 
222 552 213 129 34 47 
222 553 212 113 27 42 
222 553 213 140 32 44 
223 552 212 88 34 41 
223 553 212 98 24 43 
222 554 212 134 26 44 
222 554 213 149 28 45 
222 555 212 142 25 43 
222 555 213 154 25 45 
223 554 212 111 23 43 
223 555 212 127 26 44 
222 554 214 159 27 46 
222 555 214 161 28 45 
223 556 211 131 19 43 
221 556 215 153 32 44 
221 557 215 147 31 42 
222 556 213 159 25 48 
223 556 212 145 21 47 
223 556 213 158 25 49 
223 557 212 160 23 51 
223 557 213 164 22 50 
222 556 214 162 26 47 
222 556 215 158 30 46 
222 557 214 162 27 46 
222 557 215 153 27 43 
223 558 212 166 18 49 
223 558 213 165 18 44 
223 559 212 169 12 48 
223 559 213 164 14 41 
222 558 214 159 20 41 
222 558 215 148 24 41 
222 559 214 156 31 46 
222 559 215 142 22 41 
223 558 214 162 17 40 
223 559 214 158 24 43 
219 552 218 131 41 44 
219 552 219 124 44 35 
219 553 219 121 46 39 
216 552 223 120 73 51 
216 553 223 118 76 53 
217 552 222 123 67 54 
217 552 223 120 69 50 
217 553 222 118 68 50 
217 553 223 116 71 50 
216 554 223 123 86 62 
216 555 223 126 89 65 
217 554 222 119 70 50 
217 554 223 120 75 54 
217 555 222 121 74 54 
217 555 223 123 79 58 
218 552 220 122 58 45 
218 552 221 126 60 54 
218 553 221 124 64 55 
219 552 220 119 49 36 
219 553 220 124 58 48 
219 553 221 124 61 53 
218 552 222 126 63 56 
218 553 222 122 66 52 
218 554 221 122 66 51 
218 555 221 122 67 51 
219 554 220 129 57 55 
219 554 221 123 61 48 
219 555 220 125 58 51 
219 555 221 122 65 50 
218 554 222 121 68 49 
218 555 222 121 71 51 
216 556 223 127 92 67 
216 557 223 129 94 68 
217 556 222 124 80 59 
217 556 223 126 87 64 
217 557 222 126 82 62 
217 557 223 127 90 66 
216 558 223 130 96 69 
216 559 223 130 97 69 
217 558 222 127 89 65 
217 558 223 128 93 67 
217 559 222 128 93 66 
218 556 221 121 70 53 
218 557 221 124 73 56 
219 556 220 125 63 49 
219 556 221 123 67 51 
219 557 220 126 68 53 
219 557 221 125 72 57 
218 556 222 123 75 54 
218 557 222 125 76 58 
218 558 221 125 76 56 
218 559 221 124 79 55 
219 558 220 126 69 53 
219 558 221 124 72 54 
219 559 220 125 71 52 
219 559 221 123 74 52 
218 558 222 126 82 59 
218 559 222 127 88 62 
220 552 216 153 39 47 
220 552 217 146 38 45 
220 553 216 151 37 41 
220 553 217 142 39 42 
220 552 218 139 40 44 
220 553 218 129 40 43 
220 553 219 121 44 42 
220 554 216 147 38 47 
220 554 217 136 41 43 
220 555 216 144 36 49 
220 555 217 131 42 44 
221 554 216 152 36 51 
221 555 216 146 35 48 
220 554 218 125 43 42 
220 554 219 124 48 46 
220 555 218 122 46 41 
220 555 219 124 51 48 
220 555 220 125 57 50 
220 556 217 124 46 42 
221 556 216 139 36 44 
221 556 217 127 42 46 
221 557 216 135 35 44 
221 557 217 123 40 45 
220 556 218 120 48 42 
220 556 219 123 56 48 
220 557 219 124 57 46 
221 556 218 121 45 42 
221 557 218 120 46 47 
221 557 219 121 52 41 
221 558 217 121 39 42 
220 558 219 127 61 50 
221 558 218 120 45 42 
221 558 219 123 54 47 
221 559 218 122 49 46 
221 559 219 127 59 52 
222 557 216 144 32 40 
222 558 216 129 32 41 
222 558 217 120 38 44 
222 559 216 124 30 38 
222 559 217 117 39 38 
222 559 218 119 48 42 
220 556 220 123 59 47 
220 557 220 127 63 51 
220 558 220 128 68 56 
220 559 220 126 68 55 
215 566 223 141 103 73 
215 567 223 143 104 75 
215 568 223 146 108 78 
215 569 223 148 109 80 
215 570 223 149 109 80 
215 571 223 149 109 79 
215 572 223 152 110 80 
215 573 223 156 112 82 
215 574 223 158 113 83 
215 575 223 159 114 83 
223 560 212 169 6 48 
223 560 213 164 10 47 
223 561 213 163 10 50 
223 560 214 151 17 43 
223 560 215 136 21 38 
223 561 214 141 18 43 
223 561 215 123 23 35 
223 562 213 160 10 49 
223 562 214 138 18 41 
223 562 215 116 28 39 
223 563 214 128 14 37 
223 563 215 114 30 41 
216 560 223 130 97 67 
216 561 223 132 98 68 
217 560 222 128 94 64 
217 561 222 129 94 64 
216 562 223 133 98 68 
216 563 223 134 99 69 
217 562 222 129 94 64 
217 563 222 130 95 64 
218 560 221 127 86 61 
218 561 221 128 89 62 
219 560 220 124 72 53 
219 560 221 124 78 54 
219 561 220 124 76 55 
219 561 221 126 83 59 
218 560 222 128 91 64 
218 561 222 129 91 63 
218 562 221 128 91 64 
218 563 221 127 92 62 
219 562 220 125 81 59 
219 562 221 127 88 62 
219 563 220 127 87 62 
219 563 221 126 89 63 
219 566 219 126 87 60 
219 567 219 126 89 60 
216 564 223 135 100 71 
216 565 223 136 100 71 
217 564 222 131 96 65 
217 565 222 132 97 69 
217 566 221 131 96 69 
217 567 221 132 98 69 
216 566 223 137 99 70 
216 567 223 138 100 71 
217 566 222 134 98 70 
217 567 222 135 99 69 
218 564 221 128 92 63 
218 565 221 128 93 66 
219 564 220 126 88 61 
219 565 220 126 87 61 
219 565 221 126 90 62 
218 566 221 128 93 66 
218 567 220 128 95 64 
218 567 221 130 96 66 
219 566 220 126 90 62 
219 567 220 127 92 61 
220 561 219 123 68 48 
221 560 218 125 55 50 
221 560 219 126 62 50 
221 561 219 124 63 45 
220 562 219 123 70 50 
220 563 219 125 78 56 
221 562 219 123 66 47 
221 563 219 124 70 52 
222 560 216 122 33 38 
222 560 217 115 39 38 
222 561 217 119 43 46 
223 560 216 124 29 37 
223 561 216 117 33 41 
223 561 217 115 40 46 
222 560 218 123 53 48 
222 561 218 124 53 48 
223 562 216 110 40 43 
223 562 217 116 42 48 
223 563 216 111 42 44 
223 563 217 118 45 44 
222 562 218 124 53 45 
222 563 218 124 58 48 
223 562 218 123 49 48 
220 560 220 125 67 50 
220 561 220 123 70 49 
220 562 220 124 75 54 
220 563 220 125 80 58 
220 564 219 125 78 58 
220 565 219 125 79 57 
221 564 218 125 71 55 
221 564 219 124 74 57 
221 565 218 125 70 52 
221 565 219 124 74 54 
220 566 219 126 82 58 
220 567 219 125 84 57 
221 566 218 125 72 53 
221 566 219 125 77 55 
221 567 218 124 76 53 
223 564 216 112 44 40 
223 564 217 120 51 43 
223 565 217 122 55 47 
222 564 218 125 62 50 
222 565 218 125 65 50 
222 566 217 124 65 48 
222 567 217 121 68 47 
223 566 216 123 55 48 
223 566 217 123 60 48 
223 567 216 121 58 45 
223 567 217 123 63 45 
222 566 218 124 69 49 
222 567 218 124 69 50 
220 564 220 126 83 59 
223 570 215 117 64 47 
223 571 215 116 65 47 
223 572 215 114 64 47 
223 573 215 114 66 48 
223 574 215 116 72 50 
223 575 215 118 76 51 
219 568 219 126 89 62 
219 569 219 127 91 62 
219 570 219 126 91 61 
219 571 219 126 93 62 
217 568 221 133 98 66 
217 569 221 134 100 69 
216 568 222 137 102 71 
216 568 223 140 104 73 
216 569 222 138 103 73 
216 569 223 142 105 75 
217 568 222 135 101 69 
217 569 222 137 103 72 
217 570 221 135 102 72 
217 571 221 136 103 73 
216 570 222 140 105 75 
216 570 223 143 106 76 
216 571 222 140 105 75 
216 571 223 144 107 77 
217 570 222 138 104 74 
217 571 222 138 104 74 
218 568 220 129 96 64 
218 568 221 130 97 66 
218 569 220 130 97 66 
219 568 220 128 93 63 
219 569 220 128 94 64 
218 570 220 130 97 66 
218 571 220 132 99 68 
218 571 221 136 102 72 
219 571 220 130 97 66 
219 572 219 128 96 65 
219 573 219 130 98 66 
219 574 219 131 99 66 
219 575 219 134 99 66 
217 572 221 138 102 73 
217 573 221 138 102 71 
216 572 222 142 105 75 
216 572 223 146 107 77 
216 573 222 147 108 76 
216 573 223 152 110 80 
217 572 222 140 104 74 
217 573 222 142 104 73 
217 574 221 140 103 71 
217 575 221 144 107 75 
216 574 222 150 109 79 
216 574 223 154 112 82 
216 575 222 151 110 79 
216 575 223 156 113 82 
217 574 222 145 107 75 
217 575 222 147 109 77 
218 572 220 135 100 71 
218 572 221 137 102 72 
218 573 220 135 100 70 
218 573 221 138 101 71 
219 572 220 131 98 68 
219 573 220 133 100 69 
218 574 220 136 100 69 
218 574 221 139 101 70 
218 575 220 138 102 70 
218 575 221 142 104 73 
219 574 220 134 100 68 
219 575 220 136 101 69 
221 569 217 121 74 52 
220 568 218 125 82 57 
220 568 219 125 87 61 
220 569 218 124 85 59 
221 568 218 123 78 54 
221 569 218 123 80 56 
221 570 217 120 76 54 
221 571 217 121 82 58 
220 570 218 124 85 59 
220 571 218 123 88 60 
221 570 218 122 83 58 
222 568 216 120 66 49 
222 568 217 120 70 49 
222 569 216 119 67 52 
222 569 217 119 70 51 
223 568 216 118 60 46 
223 568 217 121 64 46 
223 569 216 119 63 49 
222 570 216 118 69 50 
222 570 217 118 71 51 
222 571 216 118 72 49 
222 571 217 119 74 52 
223 570 216 118 67 49 
223 571 216 117 69 47 
221 572 217 122 84 56 
221 573 217 122 85 56 
220 572 218 124 90 60 
220 572 219 126 94 63 
220 573 218 125 90 60 
220 573 219 127 95 63 
221 574 217 124 90 60 
221 575 217 126 93 62 
220 574 218 127 95 63 
220 574 219 128 96 64 
220 575 218 130 97 64 
221 574 218 126 93 62 
221 575 218 128 95 63 
222 572 216 119 75 49 
222 572 217 120 79 51 
222 573 216 119 78 50 
222 573 217 120 82 52 
223 572 216 116 70 47 
223 573 216 116 71 47 
222 574 216 121 82 53 
222 575 216 122 85 56 
223 574 216 119 75 48 
207 544 233 185 129 107 
207 544 234 190 134 111 
207 544 235 196 138 116 
207 545 234 191 134 112 
207 545 235 194 136 114 
207 546 234 191 135 114 
207 546 235 192 134 114 
207 547 235 189 132 111 
206 544 236 198 138 117 
206 544 237 198 137 117 
207 544 236 197 138 117 
207 545 236 194 135 114 
207 545 237 194 133 114 
206 544 238 197 136 116 
206 544 239 193 133 112 
206 545 238 195 135 115 
206 545 239 192 133 112 
207 545 238 193 134 114 
207 545 239 191 133 112 
207 546 236 191 132 112 
207 546 237 192 133 113 
207 547 236 188 130 109 
207 547 237 188 130 108 
207 546 238 191 133 112 
207 546 239 189 132 109 
207 547 238 188 131 108 
207 547 239 185 129 106 
207 548 238 185 128 105 
207 548 239 185 129 107 
206 544 240 192 132 112 
206 544 241 188 130 110 
206 545 240 190 131 111 
206 545 241 186 128 108 
207 545 240 189 131 110 
207 545 241 187 130 109 
206 544 242 184 127 105 
206 544 243 182 124 101 
206 545 242 183 125 103 
207 545 242 183 125 102 
207 546 240 187 130 108 
207 546 241 185 127 105 
207 547 240 185 129 107 
207 547 241 183 127 105 
207 546 242 182 125 102 
207 547 242 180 124 101 
207 548 240 183 128 106 
207 548 241 181 126 102 
207 548 242 180 124 100 
207 548 243 180 124 100 
208 544 231 166 117 95 
209 544 230 152 108 81 
209 544 231 160 113 89 
209 545 230 157 113 87 
209 545 231 165 116 92 
209 546 230 159 114 89 
209 546 231 169 120 96 
209 547 231 170 122 97 
210 544 229 144 107 78 
211 544 229 137 103 76 
211 545 229 138 104 75 
210 544 230 148 108 81 
210 545 230 149 110 81 
211 546 229 140 105 77 
211 547 229 140 103 77 
210 546 230 150 110 81 
210 547 230 153 109 84 
209 548 231 169 120 97 
209 549 231 170 120 97 
209 550 231 176 124 102 
209 551 231 179 126 102 
210 548 229 145 104 79 
210 549 229 146 105 80 
211 548 229 136 100 74 
211 549 229 139 101 76 
210 548 230 152 109 85 
210 549 230 156 110 87 
211 549 230 147 104 80 
210 551 229 152 106 85 
211 550 228 138 100 76 
211 550 229 142 102 79 
211 551 228 140 100 76 
211 551 229 145 102 80 
210 550 230 159 111 88 
210 550 231 170 119 97 
210 551 230 165 115 94 
210 551 231 174 123 101 
211 550 230 149 105 82 
211 551 230 153 107 86 
212 544 227 124 89 66 
213 544 227 121 81 59 
213 545 227 122 88 64 
213 546 227 125 94 69 
213 547 227 126 97 70 
214 545 225 119 73 52 
215 544 224 121 69 53 
215 544 225 121 71 53 
215 545 224 121 69 53 
215 545 225 120 72 52 
214 544 226 118 73 52 
214 545 226 118 75 52 
214 546 225 119 73 51 
214 547 225 121 77 56 
215 546 224 122 70 55 
215 546 225 120 73 53 
215 547 224 122 70 54 
215 547 225 120 75 55 
214 546 226 119 81 58 
214 547 226 123 86 63 
212 544 228 129 96 72 
212 545 228 130 99 72 
212 546 228 131 101 73 
212 547 228 131 100 72 
213 548 227 128 97 70 
213 549 227 128 97 70 
212 551 227 135 99 75 
213 550 226 129 98 71 
213 550 227 131 99 72 
213 551 226 131 100 73 
213 551 227 133 100 74 
214 548 225 122 80 57 
214 549 225 123 86 62 
215 548 224 122 72 54 
215 548 225 120 75 54 
215 549 224 121 72 53 
215 549 225 121 79 56 
214 548 226 124 90 64 
214 549 226 126 94 67 
214 550 225 125 91 65 
214 551 225 126 95 68 
215 550 224 121 75 56 
215 550 225 123 86 63 
215 551 224 123 85 64 
215 551 225 125 91 67 
214 550 226 127 96 68 
214 551 226 129 98 69 
212 548 228 131 99 72 
212 549 228 133 99 72 
212 550 228 135 99 74 
212 551 228 137 99 75 
208 544 232 175 122 101 
208 544 233 181 127 106 
208 545 232 175 124 101 
208 545 233 185 130 107 
208 545 234 189 134 111 
208 546 232 179 127 104 
208 546 233 186 131 109 
208 547 232 180 128 105 
208 547 233 186 131 109 
209 546 232 177 127 103 
209 547 232 177 127 102 
208 546 234 190 134 113 
208 547 234 190 135 114 
208 547 235 190 132 112 
208 547 236 188 130 109 
208 548 232 179 127 103 
208 548 233 185 130 108 
208 549 233 185 131 110 
209 548 232 177 126 102 
209 549 232 181 128 106 
209 549 233 186 132 111 
208 548 234 189 134 113 
208 548 235 189 133 112 
208 549 234 186 131 110 
208 549 235 185 130 109 
209 550 232 182 129 106 
209 550 233 185 131 109 
209 551 232 183 129 106 
209 551 233 185 131 110 
208 550 234 184 128 107 
208 550 235 183 127 105 
208 551 235 181 126 103 
209 550 234 185 130 109 
209 551 234 184 128 107 
209 551 235 181 126 103 
208 548 236 187 131 109 
208 548 237 186 130 106 
208 549 236 185 130 107 
208 549 237 183 129 106 
208 548 238 184 128 105 
208 548 239 184 128 106 
208 549 238 182 127 104 
208 549 239 180 124 102 
208 550 236 182 127 104 
208 550 237 180 125 101 
208 551 236 180 126 102 
208 551 237 178 124 100 
209 551 236 179 124 101 
209 551 237 177 124 100 
208 550 238 177 123 99 
208 550 239 176 122 98 
208 551 238 176 122 98 
208 551 239 173 120 96 
209 551 238 176 123 99 
210 552 229 155 109 88 
210 553 229 165 117 93 
211 552 228 143 101 77 
211 552 229 152 107 84 
211 553 228 149 105 80 
211 553 229 156 111 87 
210 552 230 168 118 97 
210 552 231 177 125 102 
210 553 230 172 121 99 
210 553 231 177 125 102 
210 554 229 167 119 95 
211 554 228 155 111 86 
211 554 229 165 118 94 
211 555 228 158 114 87 
211 555 229 166 120 94 
210 554 230 174 124 100 
210 554 231 178 127 102 
210 555 230 176 126 101 
210 555 231 179 128 102 
211 555 230 172 124 98 
211 556 228 162 116 89 
211 556 229 168 120 95 
211 557 228 165 118 92 
211 557 229 170 121 96 
210 556 230 178 126 100 
210 556 231 178 127 101 
210 557 230 176 125 98 
210 557 231 178 126 100 
211 556 230 175 124 97 
211 557 230 175 124 97 
211 558 229 172 123 96 
211 559 229 172 123 95 
210 558 231 177 126 100 
210 559 231 177 125 100 
211 558 230 176 125 98 
211 558 231 177 126 100 
211 559 230 175 124 97 
211 559 231 176 125 99 
212 552 227 137 100 76 
212 553 227 141 102 76 
213 552 226 134 101 74 
213 552 227 136 101 75 
213 553 226 137 102 76 
213 553 227 139 102 76 
212 554 227 143 104 78 
212 555 227 145 105 79 
213 554 226 139 103 76 
213 555 226 140 103 75 
214 552 225 128 97 69 
214 553 225 132 100 72 
215 552 224 125 89 66 
215 552 225 127 94 68 
215 553 224 127 94 67 
215 553 225 130 97 70 
214 552 226 130 99 72 
214 553 226 134 101 74 
214 554 225 135 101 74 
214 555 225 136 103 74 
215 554 224 129 95 68 
215 554 225 133 100 72 
215 555 224 131 97 69 
215 555 225 134 101 72 
214 554 226 137 102 75 
214 555 226 137 103 74 
212 552 228 140 100 76 
212 553 228 145 103 77 
212 554 228 149 106 80 
212 555 228 152 109 83 
212 556 227 147 106 79 
212 557 227 154 111 85 
213 556 226 143 104 76 
213 557 226 144 106 75 
213 557 227 149 108 79 
212 558 227 156 111 86 
212 559 227 160 114 87 
213 558 226 145 106 77 
213 558 227 151 108 82 
213 559 226 147 107 78 
213 559 227 154 110 83 
214 556 225 137 103 74 
214 557 225 138 103 74 
215 556 224 132 98 69 
215 556 225 135 102 73 
215 557 224 133 99 71 
215 557 225 136 102 74 
214 556 226 139 104 74 
214 557 226 140 105 74 
214 558 225 139 103 74 
214 559 225 139 103 74 
215 558 224 134 100 72 
215 558 225 137 102 74 
215 559 224 135 100 71 
215 559 225 137 102 73 
214 558 226 141 105 75 
214 559 226 142 106 76 
212 556 228 155 111 86 
212 557 228 162 116 90 
212 558 228 165 117 93 
212 559 228 166 119 92 
209 552 232 183 129 106 
209 552 233 184 129 108 
209 553 232 181 127 104 
209 553 233 181 127 105 
209 552 234 183 128 107 
209 552 235 181 127 105 
209 553 234 180 126 104 
209 553 235 179 125 102 
209 554 234 179 126 104 
209 554 235 177 124 101 
210 552 232 181 128 105 
210 553 232 180 127 103 
210 553 233 181 127 105 
210 554 232 180 128 104 
210 554 233 180 127 105 
210 555 232 179 127 103 
210 555 233 178 126 103 
210 554 234 179 126 104 
210 555 234 178 125 103 
210 555 235 177 123 100 
209 552 236 179 125 102 
209 552 237 177 123 100 
209 553 236 177 123 101 
209 553 237 174 121 99 
209 552 238 174 121 98 
209 552 239 172 119 96 
209 553 238 172 119 96 
209 553 239 171 118 94 
209 554 236 175 121 98 
209 554 237 173 120 97 
209 555 236 174 121 98 
209 555 237 173 121 98 
209 554 238 172 120 96 
209 554 239 172 119 94 
209 555 238 173 121 97 
209 555 239 172 120 96 
210 555 236 174 121 98 
210 555 237 174 122 99 
210 555 238 173 121 98 
210 555 239 173 120 97 
210 556 232 178 126 102 
210 556 233 178 125 103 
210 557 232 177 125 101 
210 557 233 177 124 101 
210 556 234 177 125 102 
210 556 235 176 123 100 
210 557 234 176 124 101 
210 557 235 175 124 101 
210 558 232 177 125 101 
210 558 233 176 124 101 
210 559 232 176 125 100 
210 559 233 176 125 100 
211 559 232 176 125 100 
210 558 234 175 123 101 
210 558 235 175 124 101 
210 559 234 174 124 99 
210 559 235 173 122 98 
210 556 236 175 122 99 
210 556 237 174 122 98 
210 557 236 175 124 101 
210 557 237 174 123 100 
210 556 238 173 121 97 
210 556 239 172 120 96 
210 557 238 173 122 99 
210 557 239 172 120 97 
210 558 236 175 124 100 
210 558 237 173 122 99 
210 559 236 172 121 97 
210 559 237 171 121 97 
210 558 238 172 121 98 
210 558 239 172 120 96 
210 559 238 171 121 97 
210 559 239 172 120 97 
216 544 224 118 63 50 
216 545 224 121 65 51 
216 546 224 123 68 55 
216 547 224 123 69 56 
216 551 224 122 77 56 
216 552 224 123 85 62 
216 553 224 123 85 60 
216 554 224 126 91 65 
216 555 224 128 93 67 
216 556 224 128 94 67 
208 549 240 179 124 101 
208 549 241 177 122 99 
208 548 242 178 123 99 
208 549 242 177 122 98 
208 550 240 175 121 98 
208 550 241 175 121 98 
208 551 240 172 119 96 
208 551 241 173 119 97 
208 550 242 175 120 97 
208 551 242 174 119 97 
208 552 241 173 119 96 
209 552 240 171 117 95 
209 552 241 172 118 95 
209 553 240 171 118 95 
209 553 241 173 121 96 
208 552 242 175 121 98 
209 554 240 172 120 96 
209 554 241 174 121 97 
209 555 240 173 121 97 
209 555 241 175 122 98 
210 555 240 173 121 97 
210 556 240 173 120 96 
210 557 240 173 119 95 
210 558 240 172 119 95 
210 558 241 174 120 97 
210 559 240 174 121 97 
210 559 241 175 121 97 
211 560 229 172 123 95 
211 561 229 172 123 95 
211 560 230 175 124 97 
211 560 231 175 125 99 
211 561 230 174 123 95 
211 561 231 174 123 96 
211 562 229 173 123 95 
211 563 229 172 122 94 
211 562 230 173 122 95 
211 562 231 172 121 94 
211 563 230 171 121 94 
211 563 231 171 120 94 
211 564 230 170 120 94 
211 564 231 170 121 95 
212 560 227 164 118 90 
212 561 227 166 120 91 
213 560 226 150 110 80 
213 560 227 159 115 87 
213 561 226 153 113 84 
213 561 227 162 118 90 
212 562 227 166 120 91 
212 563 227 167 121 92 
213 562 226 154 113 85 
213 562 227 161 118 89 
213 563 226 155 112 84 
213 563 227 162 118 89 
214 560 225 141 104 75 
214 561 225 143 105 76 
215 560 224 135 101 71 
215 561 224 136 101 72 
214 560 226 145 107 77 
214 561 226 147 109 80 
214 562 225 144 106 78 
214 563 225 145 106 78 
215 562 224 138 102 73 
215 563 224 139 102 73 
214 562 226 150 109 81 
214 563 226 151 109 81 
212 560 228 169 122 93 
212 561 228 170 122 93 
212 561 229 172 123 94 
212 562 228 170 122 93 
212 562 229 172 123 95 
212 563 228 170 122 94 
212 563 229 170 121 94 
212 564 227 166 119 91 
213 564 226 158 114 86 
213 564 227 164 118 90 
213 565 226 160 115 87 
213 565 227 165 119 91 
213 566 226 162 117 88 
213 566 227 166 119 91 
213 567 227 166 119 90 
214 564 225 147 107 80 
214 565 225 150 108 82 
215 564 224 141 104 75 
215 565 224 141 104 75 
214 564 226 154 111 84 
214 565 226 157 113 86 
214 566 225 154 112 83 
214 567 225 157 115 86 
215 566 224 144 106 77 
215 567 224 149 110 81 
214 566 226 160 116 87 
214 567 226 163 118 89 
212 564 228 168 120 93 
212 564 229 169 120 93 
212 565 228 168 120 93 
212 565 229 168 119 92 
212 564 230 169 120 93 
212 564 231 170 121 94 
212 565 230 169 120 92 
212 565 231 170 121 94 
212 566 228 168 118 91 
212 566 229 168 119 92 
212 567 229 168 120 93 
213 566 228 168 119 91 
213 567 228 168 119 91 
213 567 229 167 119 93 
212 566 230 169 120 94 
212 566 231 169 121 95 
212 567 230 168 120 93 
212 567 231 168 120 94 
210 560 233 173 122 97 
211 560 232 174 124 98 
211 560 233 173 122 96 
211 561 232 173 123 97 
211 561 233 172 121 96 
210 560 234 172 121 96 
210 560 235 171 121 96 
210 561 234 171 120 94 
210 561 235 171 120 95 
211 561 234 170 120 94 
211 561 235 170 120 94 
211 562 232 172 121 96 
211 562 233 171 121 96 
211 563 232 171 121 95 
211 563 233 170 121 96 
211 562 234 170 120 95 
211 562 235 170 120 94 
211 563 234 170 121 95 
211 563 235 170 122 96 
210 560 236 172 122 98 
210 560 237 172 122 99 
210 561 236 171 122 97 
210 561 237 171 122 97 
211 561 236 171 122 97 
210 560 238 172 121 98 
210 560 239 173 121 98 
210 561 238 172 121 96 
210 561 239 174 122 97 
211 561 238 172 121 96 
211 561 239 175 123 98 
211 562 236 170 122 96 
211 562 237 171 122 96 
211 563 236 171 123 97 
211 563 237 172 123 97 
211 562 238 172 122 97 
211 562 239 176 124 99 
211 563 238 173 123 97 
211 563 239 176 125 99 
211 564 232 170 121 95 
211 564 233 169 121 95 
211 565 232 169 121 95 
211 565 233 168 121 94 
211 564 234 169 121 94 
211 564 235 170 122 94 
211 565 234 169 121 94 
211 565 235 169 121 94 
211 564 236 171 122 95 
211 564 237 173 123 97 
211 564 238 174 124 99 
211 564 239 176 125 100 
211 565 238 174 123 98 
211 565 239 175 123 98 
212 565 232 169 121 95 
212 565 233 169 121 95 
212 565 234 170 121 96 
212 565 235 170 120 93 
212 566 232 169 121 95 
212 566 233 169 121 95 
212 567 232 167 119 93 
212 567 233 168 119 93 
212 566 234 169 121 95 
212 566 235 170 120 94 
212 567 234 170 121 94 
212 567 235 172 122 96 
212 565 236 170 120 93 
212 565 237 172 121 95 
212 565 238 173 122 97 
212 565 239 174 121 97 
212 566 236 170 119 92 
212 566 237 172 120 94 
212 567 236 173 122 95 
212 567 237 173 122 96 
212 566 238 173 121 97 
212 566 239 174 121 97 
212 567 238 175 124 99 
212 567 239 175 122 98 
213 568 226 166 119 89 
213 568 227 167 119 90 
213 569 226 165 119 88 
213 569 227 167 119 90 
213 570 226 165 119 89 
213 570 227 166 120 89 
213 571 226 165 119 87 
213 571 227 165 118 87 
214 568 225 159 117 86 
214 569 225 159 117 87 
215 568 224 151 112 82 
215 569 224 154 114 84 
214 568 226 163 119 89 
214 569 226 165 119 90 
214 570 225 161 117 88 
214 571 225 160 116 86 
215 570 224 154 114 84 
215 571 224 155 113 84 
214 570 226 164 119 89 
214 571 226 164 119 88 
213 568 228 167 119 91 
213 568 229 167 119 93 
213 569 228 167 119 91 
213 569 229 167 120 93 
212 568 230 168 121 93 
212 568 231 167 119 93 
212 569 230 167 120 92 
212 569 231 166 119 93 
213 569 230 167 120 92 
213 570 228 167 119 90 
213 570 229 166 120 91 
213 571 228 167 120 90 
213 571 229 167 120 92 
212 570 230 166 119 92 
212 570 231 166 119 93 
213 570 230 166 119 91 
213 570 231 165 118 93 
213 571 230 167 120 93 
213 571 231 165 118 93 
213 572 227 165 118 87 
213 573 227 165 119 88 
213 574 227 165 119 88 
213 575 227 165 118 87 
214 572 225 162 117 86 
214 573 225 162 117 87 
215 572 224 158 114 85 
215 573 224 160 115 85 
214 572 226 164 118 87 
214 573 226 164 118 86 
214 574 224 163 116 86 
214 574 225 163 117 86 
214 575 224 163 115 85 
214 575 225 163 115 85 
215 574 224 161 116 85 
215 575 224 161 115 84 
214 574 226 164 118 87 
214 575 226 164 117 85 
213 572 228 167 120 90 
213 572 229 167 120 93 
213 573 228 167 120 91 
213 573 229 167 120 92 
213 572 230 167 120 94 
213 572 231 166 119 94 
213 573 230 167 120 93 
213 573 231 166 120 93 
213 574 228 166 120 90 
213 574 229 167 120 92 
213 575 228 165 119 89 
213 575 229 166 119 91 
213 574 230 166 119 92 
213 574 231 166 119 92 
213 575 230 166 119 91 
213 575 231 167 120 92 
212 568 232 167 119 93 
212 568 233 169 120 93 
212 569 232 168 120 95 
212 569 233 170 120 95 
212 568 234 171 122 95 
212 568 235 173 122 96 
212 569 234 171 122 96 
212 569 235 174 123 97 
212 570 232 167 119 94 
212 570 233 169 119 94 
213 570 232 166 118 93 
213 571 232 166 118 93 
213 571 233 169 119 94 
212 570 234 171 121 95 
212 570 235 173 122 96 
213 571 234 171 121 94 
213 571 235 174 122 97 
212 568 236 174 123 97 
212 568 237 175 123 98 
212 569 236 175 123 98 
212 569 237 175 124 99 
212 568 238 176 123 100 
212 568 239 176 123 99 
212 569 238 177 124 100 
212 569 239 177 124 100 
212 570 236 174 122 97 
212 570 237 175 123 98 
213 571 236 175 123 98 
213 571 237 175 123 99 
212 570 238 176 123 100 
212 570 239 177 124 101 
213 570 239 177 124 100 
213 571 238 175 123 99 
213 571 239 177 124 100 
213 572 232 167 119 93 
213 572 233 169 119 94 
213 573 232 167 119 93 
213 573 233 169 119 93 
213 572 234 171 120 94 
213 572 235 173 121 95 
213 573 234 171 120 94 
213 573 235 173 121 95 
213 574 232 168 119 92 
213 574 233 170 120 94 
213 575 232 169 121 94 
213 575 233 171 120 95 
213 574 234 171 120 95 
213 574 235 173 121 97 
213 575 234 173 121 97 
213 575 235 175 122 99 
213 572 236 175 122 97 
213 572 237 176 123 99 
213 573 236 174 122 97 
213 573 237 175 123 99 
213 572 238 176 123 99 
213 572 239 177 124 100 
213 573 238 176 123 100 
213 573 239 177 124 101 
213 574 236 175 122 98 
213 574 237 175 122 99 
213 575 236 176 123 100 
213 574 238 176 124 100 
213 574 239 177 125 101 
214 575 236 176 123 99 
214 575 237 176 122 98 
214 575 238 176 124 99 
216 563 224 136 100 71 
216 564 224 138 101 71 
216 565 224 138 101 71 
210 560 240 175 122 98 
210 560 241 176 122 99 
211 561 240 176 124 98 
211 562 240 177 126 99 
211 563 240 178 127 101 
211 564 240 178 126 102 
211 565 240 177 124 100 
212 568 240 176 124 98 
212 569 240 177 125 100 
212 570 240 178 126 102 
224 523 207 130 0 36 
225 523 207 127 0 35 
224 524 206 132 0 38 
224 524 207 131 1 38 
224 525 206 129 1 38 
225 524 207 127 0 36 
225 525 206 128 1 35 
224 526 205 132 0 37 
224 527 204 135 23 41 
224 527 205 135 14 41 
225 526 205 128 9 38 
225 527 205 126 16 39 
224 526 206 128 2 34 
225 526 206 127 8 34 
226 524 207 124 3 36 
226 525 206 117 2 44 
226 525 207 117 9 41 
227 525 207 107 5 41 
226 527 205 119 12 34 
227 527 205 103 9 27 
226 526 206 119 15 38 
226 527 206 110 13 29 
227 526 206 108 5 37 
227 526 207 99 0 40 
227 527 206 100 9 27 
228 526 206 94 1 26 
228 526 207 86 7 28 
228 527 206 82 11 24 
228 527 207 69 22 26 
224 519 211 124 1 38 
225 519 211 126 0 41 
224 518 212 121 7 37 
224 518 213 122 0 37 
224 519 212 122 5 41 
224 519 213 114 8 38 
225 519 212 121 11 45 
224 520 209 128 0 31 
224 521 208 130 0 38 
224 521 209 129 0 37 
225 520 209 126 10 33 
225 521 209 126 0 37 
224 520 210 126 0 32 
225 520 210 125 4 38 
225 520 211 123 2 38 
224 522 208 130 0 38 
225 522 208 127 0 35 
225 522 209 124 0 37 
225 523 208 128 0 35 
226 521 209 121 0 43 
226 520 211 116 4 39 
226 521 210 116 6 46 
226 521 211 97 16 38 
226 522 209 118 6 41 
226 523 208 121 1 36 
226 523 209 117 13 41 
227 523 208 117 2 38 
227 523 209 108 15 39 
226 522 210 109 11 48 
226 522 211 69 26 32 
227 522 210 102 18 47 
227 522 211 71 19 31 
227 523 210 89 14 34 
227 523 211 65 25 31 
224 520 213 101 17 35 
225 520 212 110 15 37 
225 520 213 93 19 32 
225 521 213 71 27 28 
224 520 214 88 20 33 
224 521 214 62 32 30 
225 522 213 49 30 24 
225 523 213 42 32 30 
224 522 214 48 31 30 
224 523 214 41 32 30 
226 520 212 109 5 34 
226 521 212 83 16 33 
226 521 213 69 26 29 
226 522 212 56 23 26 
226 522 213 51 24 24 
226 523 212 50 33 32 
226 523 213 45 31 34 
227 522 212 55 25 25 
227 523 212 54 34 29 
226 524 208 122 0 43 
227 524 208 113 0 38 
227 524 209 102 8 36 
227 525 208 103 6 43 
227 524 210 83 19 34 
227 524 211 70 31 36 
227 526 211 58 32 26 
227 527 210 61 31 32 
227 527 211 58 35 33 
224 524 213 41 30 28 
224 525 213 46 31 28 
225 524 213 43 29 30 
225 525 213 47 29 27 
224 524 214 42 31 28 
224 525 214 46 29 29 
224 526 213 42 29 26 
224 527 213 44 30 27 
225 526 213 44 29 25 
225 527 212 45 32 29 
225 527 213 44 34 29 
226 524 212 55 33 35 
226 524 213 51 32 36 
226 525 212 56 26 30 
226 525 213 51 28 29 
