ply
format ascii 1.0
comment Created by CloudCompare v2.10.1 (Zephyrus)
comment Created 2/3/20 1:25 PM
obj_info Generated by CloudCompare!
element vertex 2132
property float x
property float y
property float z
property uchar red
property uchar green
property uchar blue
end_header
401 609 210 69 32 38 
401 609 211 58 27 38 
400 610 208 78 23 31 
400 610 209 85 30 39 
400 611 208 65 26 29 
400 611 209 89 28 42 
401 610 208 84 24 36 
401 610 209 82 29 36 
400 611 210 96 35 40 
401 610 210 85 36 41 
401 610 211 67 29 43 
401 611 210 89 35 39 
401 611 211 78 28 38 
402 608 209 69 28 35 
402 608 210 56 30 33 
402 608 211 47 30 36 
402 609 211 52 26 37 
401 610 212 47 29 36 
401 610 213 40 33 37 
401 611 212 50 27 32 
401 611 213 45 29 30 
401 611 214 51 27 30 
401 611 215 70 34 38 
402 608 212 39 37 36 
402 608 213 43 36 37 
402 609 212 42 35 34 
402 609 213 46 35 36 
402 608 214 41 34 34 
402 608 215 39 33 31 
402 609 214 48 35 37 
402 609 215 45 35 37 
402 610 212 41 33 34 
402 610 213 41 32 35 
402 610 214 46 31 37 
402 610 215 48 29 37 
402 611 215 59 30 38 
400 612 208 56 26 31 
400 612 209 89 26 44 
400 613 209 98 26 41 
400 612 210 109 39 46 
400 612 211 100 33 41 
400 613 210 119 39 50 
400 613 211 115 36 46 
401 612 211 88 29 40 
400 614 211 114 29 38 
400 612 212 94 35 41 
400 613 212 104 32 42 
400 613 213 106 45 52 
401 612 212 80 32 38 
401 612 213 78 31 37 
401 613 212 100 39 48 
401 613 213 103 46 53 
400 613 214 105 53 57 
401 612 214 76 26 32 
401 612 215 84 35 40 
401 613 214 103 46 51 
401 613 215 97 42 48 
400 614 212 93 24 31 
400 614 213 86 31 35 
400 615 213 94 33 40 
400 614 214 78 35 37 
400 614 215 65 28 36 
400 615 214 72 29 36 
400 615 215 51 25 31 
401 614 215 75 31 42 
401 611 216 75 38 41 
402 608 216 45 30 29 
402 608 217 52 25 25 
402 609 216 40 34 35 
402 609 217 40 30 31 
402 608 218 67 31 31 
402 608 219 81 38 43 
402 609 218 46 29 29 
402 609 219 62 29 29 
402 610 216 45 32 35 
402 610 217 45 32 31 
402 611 216 64 33 35 
402 611 217 58 33 31 
402 610 218 56 36 35 
402 610 219 80 49 53 
402 611 218 59 31 31 
402 611 219 67 36 40 
402 608 220 67 32 34 
402 608 221 49 31 32 
402 609 220 60 30 32 
402 609 221 51 31 36 
403 608 221 47 30 33 
402 608 222 43 31 31 
402 609 222 42 31 33 
402 609 223 37 29 32 
403 608 222 43 32 34 
403 608 223 40 31 33 
403 609 223 38 28 32 
402 610 220 76 41 50 
402 610 221 54 28 37 
402 611 220 64 35 42 
402 611 221 44 27 36 
402 610 222 39 31 34 
402 610 223 32 33 36 
402 611 222 31 30 37 
402 611 223 28 31 38 
401 612 216 86 47 47 
401 612 217 63 35 38 
401 613 216 82 37 43 
401 613 217 55 28 36 
401 612 218 48 30 32 
401 612 219 45 31 30 
401 613 218 45 31 36 
401 613 219 48 32 32 
400 614 216 51 26 32 
400 615 216 38 26 31 
400 615 217 42 29 34 
401 614 216 59 27 35 
401 614 217 44 27 34 
400 615 218 41 29 33 
400 615 219 39 28 29 
401 614 218 40 31 35 
401 614 219 48 31 33 
401 615 218 38 29 29 
401 615 219 42 31 29 
402 612 219 51 31 29 
401 612 220 45 32 29 
401 612 221 43 24 26 
401 613 220 66 35 32 
401 613 221 82 31 35 
401 612 222 47 22 27 
401 612 223 47 23 29 
401 613 222 110 37 47 
401 613 223 124 32 51 
400 615 220 52 31 28 
401 614 220 84 47 46 
401 614 221 123 53 63 
401 615 220 69 35 35 
401 615 221 89 35 40 
400 615 222 70 21 20 
400 615 223 81 16 22 
401 614 222 133 43 61 
401 614 223 129 25 43 
401 615 222 91 23 32 
401 615 223 97 13 26 
402 612 220 48 32 31 
402 612 221 37 27 30 
402 612 222 35 27 32 
400 616 214 76 28 36 
400 616 215 55 29 34 
400 616 216 46 35 35 
400 616 217 54 31 36 
400 617 216 58 37 34 
400 617 217 66 34 38 
400 616 218 53 28 37 
400 616 219 42 27 33 
400 617 218 63 30 35 
400 617 219 52 29 35 
400 618 219 56 32 33 
400 616 220 44 27 34 
400 616 221 46 27 31 
400 617 220 45 26 35 
400 617 221 47 27 36 
400 616 222 45 27 24 
400 616 223 49 23 23 
400 617 222 60 31 43 
400 617 223 68 29 44 
400 618 220 54 31 30 
400 618 221 52 24 26 
400 618 222 67 31 39 
400 618 223 87 42 49 
400 619 222 65 29 33 
400 619 223 81 36 36 
399 617 225 82 36 36 
399 616 227 130 41 57 
399 617 226 81 26 31 
399 617 227 74 26 32 
399 618 225 108 41 47 
399 619 224 115 40 47 
399 619 225 137 45 63 
399 618 226 90 29 34 
399 618 227 66 20 27 
399 619 226 135 41 59 
399 619 227 115 28 41 
399 616 228 111 29 41 
399 616 229 94 18 30 
399 617 228 61 27 30 
399 617 229 52 28 31 
399 616 230 82 25 35 
399 616 231 76 22 33 
399 617 230 44 25 33 
399 617 231 38 23 32 
399 618 228 51 23 26 
399 618 229 53 26 28 
399 619 228 105 31 39 
399 619 229 104 37 44 
398 619 231 81 30 33 
399 618 230 50 25 29 
399 618 231 44 23 31 
399 619 230 96 34 40 
399 619 231 67 24 28 
399 620 224 111 30 44 
399 620 225 140 41 62 
399 621 224 79 16 29 
399 621 225 106 24 41 
399 620 226 147 36 59 
399 620 227 138 35 47 
399 621 226 125 34 53 
399 621 227 121 34 44 
398 623 224 118 35 45 
398 623 225 122 45 53 
399 622 224 72 8 27 
399 622 225 78 9 25 
399 623 224 96 21 28 
399 623 225 103 31 35 
398 623 227 76 21 36 
399 622 226 96 30 42 
399 622 227 98 33 48 
399 623 226 99 26 35 
399 623 227 90 24 42 
397 622 231 62 30 32 
397 623 231 96 35 39 
398 620 229 118 28 40 
398 621 228 91 24 32 
398 621 229 100 24 38 
399 620 228 128 35 44 
399 620 229 122 33 43 
399 621 228 110 27 35 
398 620 230 117 42 51 
398 620 231 99 41 49 
398 621 230 99 31 45 
398 621 231 87 36 45 
398 622 228 76 23 40 
398 622 229 72 20 35 
398 623 228 58 20 29 
398 623 229 70 28 34 
399 622 228 87 27 40 
398 622 230 77 29 40 
398 622 231 68 29 33 
398 623 230 91 35 40 
398 623 231 91 35 36 
399 616 232 63 24 28 
399 616 233 50 31 29 
399 617 232 42 28 32 
399 617 233 42 32 34 
399 616 234 42 29 29 
399 616 235 45 34 41 
399 617 234 39 30 31 
399 617 235 44 31 37 
398 619 232 51 27 28 
398 619 233 45 28 31 
399 618 232 39 28 34 
399 618 233 40 30 35 
398 618 234 42 30 36 
398 618 235 43 33 35 
398 619 234 41 28 35 
398 619 235 40 31 35 
399 618 234 39 29 34 
399 618 235 44 33 35 
399 616 236 43 34 38 
399 617 236 46 34 35 
399 618 236 48 35 36 
397 621 232 50 31 35 
397 621 233 39 30 34 
397 621 234 35 33 31 
397 622 232 47 26 33 
397 622 233 38 27 33 
397 623 232 75 19 28 
397 623 233 72 18 26 
397 622 234 34 31 32 
397 623 234 84 28 36 
398 620 232 66 28 34 
398 620 233 52 28 33 
398 621 232 66 35 39 
398 621 233 51 30 30 
398 620 234 44 32 35 
398 620 235 41 32 34 
398 621 234 42 34 33 
398 621 235 42 35 34 
397 627 224 60 24 28 
398 624 224 139 45 60 
398 624 225 144 42 59 
398 625 224 124 24 43 
398 625 225 139 25 44 
398 624 226 142 37 56 
398 624 227 121 27 46 
398 625 226 159 32 51 
398 625 227 167 30 59 
398 626 224 88 17 31 
398 626 225 119 23 37 
398 627 224 69 21 27 
398 627 225 94 26 29 
398 626 226 151 31 48 
398 626 227 167 27 53 
398 627 226 128 36 47 
398 627 227 143 24 45 
397 624 231 145 29 54 
397 625 230 167 20 49 
397 625 231 166 18 47 
397 626 230 166 17 45 
397 626 231 163 16 45 
397 627 230 161 16 49 
397 627 231 159 16 49 
398 624 228 100 18 32 
398 624 229 112 17 35 
398 625 228 166 23 59 
398 625 229 167 22 58 
398 624 230 134 26 47 
398 625 230 168 20 54 
398 626 228 170 21 51 
398 626 229 169 18 49 
398 627 228 151 18 40 
398 627 229 157 17 45 
398 626 230 168 17 46 
398 627 230 162 17 47 
397 628 224 55 29 30 
397 628 225 55 26 26 
397 629 224 51 32 36 
397 629 225 48 31 32 
397 629 226 47 26 29 
397 629 227 68 22 28 
397 630 224 44 30 35 
397 630 225 42 28 29 
397 631 224 35 30 30 
397 631 225 38 29 28 
397 630 226 47 26 29 
397 630 227 72 27 31 
397 631 226 49 28 29 
397 631 227 81 38 45 
398 628 225 74 29 28 
398 628 226 79 24 35 
398 628 227 95 9 30 
398 629 227 70 16 32 
397 628 229 158 16 52 
397 629 228 125 24 41 
397 629 229 153 21 52 
397 628 230 161 16 48 
397 628 231 161 16 42 
397 629 230 163 20 48 
397 629 231 164 19 42 
397 630 228 126 34 47 
397 630 229 154 38 60 
397 631 228 122 39 51 
397 631 229 142 34 54 
397 630 230 164 32 55 
397 630 231 166 22 50 
397 631 230 153 24 53 
397 631 231 161 20 53 
398 628 228 127 14 38 
398 628 229 150 15 49 
398 629 228 123 22 39 
396 624 233 156 16 51 
396 625 233 163 17 47 
397 624 232 139 20 48 
397 624 233 132 16 41 
397 625 232 162 17 46 
397 625 233 157 18 51 
396 624 234 149 22 56 
396 625 234 162 17 48 
397 624 234 127 22 45 
396 626 232 161 16 42 
396 626 233 161 16 39 
396 627 232 158 16 47 
396 627 233 159 16 44 
397 626 232 159 16 44 
397 627 232 157 16 47 
396 626 234 161 16 40 
396 627 234 159 16 46 
396 628 232 158 16 43 
396 628 233 159 16 43 
396 629 232 160 16 43 
396 629 233 161 16 44 
397 628 232 160 17 42 
397 629 232 162 18 41 
396 628 234 159 16 48 
396 629 234 159 16 45 
396 630 232 163 18 47 
396 630 233 161 17 46 
396 631 232 160 22 49 
396 631 233 160 20 47 
397 630 232 165 21 48 
397 631 232 162 23 49 
396 630 234 157 16 43 
396 631 234 155 18 44 
397 632 224 34 32 31 
397 632 225 38 30 31 
397 633 224 37 36 36 
397 633 225 47 37 41 
397 632 226 55 26 33 
397 632 227 76 21 31 
397 633 226 76 34 45 
397 633 227 105 30 47 
397 634 224 30 32 30 
397 634 225 43 31 32 
397 635 224 33 32 31 
397 635 225 46 29 30 
397 634 226 80 26 37 
397 634 227 122 24 46 
397 635 226 91 26 35 
397 635 227 134 28 45 
397 632 228 96 19 29 
397 632 229 113 12 27 
397 633 228 116 25 37 
397 633 229 126 18 40 
397 632 230 130 13 36 
397 632 231 145 21 46 
397 633 230 130 15 35 
397 633 231 136 12 31 
397 634 228 139 19 47 
397 634 229 144 15 49 
397 635 228 152 21 46 
397 635 229 156 16 46 
397 634 230 144 13 46 
397 634 231 144 14 40 
397 635 230 156 15 48 
397 635 231 157 15 48 
397 636 224 44 35 32 
397 636 225 66 32 38 
397 637 224 52 32 30 
397 637 225 68 26 36 
397 636 226 98 30 39 
397 636 227 137 31 47 
397 637 226 92 20 32 
397 637 227 125 19 37 
397 638 224 66 34 34 
397 638 225 78 34 39 
397 639 224 81 43 42 
397 639 225 77 36 36 
397 638 226 95 25 35 
397 638 227 134 22 44 
397 639 226 94 22 31 
397 639 227 134 17 41 
398 636 227 137 24 43 
398 637 227 144 19 43 
397 636 228 160 18 47 
397 636 229 162 16 48 
397 636 230 163 16 49 
397 636 231 164 16 51 
397 637 230 166 16 48 
397 637 231 168 16 50 
397 638 228 162 20 51 
397 638 229 168 18 54 
397 639 228 160 19 46 
397 639 229 168 18 51 
397 638 230 170 17 51 
397 638 231 172 17 50 
397 639 230 168 19 49 
397 639 231 167 17 50 
398 636 228 159 19 48 
398 636 229 164 16 49 
398 637 228 161 18 50 
398 637 229 165 17 52 
398 637 230 166 16 48 
398 638 229 167 19 54 
396 632 232 152 18 48 
396 632 233 153 16 49 
396 633 233 141 14 31 
397 632 232 152 21 48 
397 633 232 140 14 30 
396 632 234 152 18 51 
396 633 234 142 14 34 
396 634 233 142 16 36 
397 634 232 144 17 39 
397 634 233 145 15 42 
397 635 232 156 16 49 
397 635 233 157 15 47 
396 634 234 144 16 38 
396 635 234 157 16 47 
397 635 234 157 15 47 
397 636 232 165 16 52 
397 636 233 166 16 50 
397 637 232 169 16 51 
397 637 233 171 17 50 
396 636 234 168 17 52 
396 637 234 173 17 51 
397 636 234 168 16 50 
397 637 234 172 17 48 
397 638 232 172 17 51 
397 638 233 173 17 50 
397 639 232 165 17 50 
397 639 233 164 19 49 
396 638 234 173 18 51 
396 639 234 160 23 55 
397 638 234 173 18 48 
397 639 234 159 22 51 
401 611 225 37 30 28 
401 611 226 42 31 27 
401 611 227 47 32 27 
402 609 224 37 30 34 
402 609 225 37 30 36 
403 608 224 38 29 32 
403 608 225 37 30 36 
403 609 224 37 29 33 
403 609 225 38 29 36 
402 609 226 36 30 37 
403 608 226 36 31 36 
403 608 227 36 31 36 
403 609 226 37 29 37 
403 609 227 35 30 37 
402 610 224 30 32 36 
402 610 225 31 34 38 
402 611 224 29 32 36 
402 611 225 29 31 33 
402 610 226 30 33 37 
402 610 227 31 30 35 
402 611 226 32 33 33 
402 611 227 36 32 30 
403 609 228 37 30 37 
403 609 229 35 31 39 
403 609 230 30 34 40 
403 609 231 31 31 31 
402 610 228 35 29 35 
402 610 229 36 29 34 
402 611 228 43 33 32 
402 611 229 41 32 34 
403 610 228 35 27 38 
403 610 229 35 26 38 
402 611 230 39 32 35 
402 611 231 46 30 32 
403 610 230 34 30 35 
403 610 231 43 28 31 
403 611 231 58 34 31 
400 613 225 135 24 38 
401 612 224 63 23 32 
401 612 225 75 25 33 
401 613 224 131 35 55 
401 613 225 133 32 52 
400 613 226 139 28 42 
400 613 227 143 25 40 
401 612 226 82 24 33 
401 612 227 86 30 37 
401 613 226 136 36 56 
401 613 227 134 37 56 
400 614 224 121 22 35 
400 614 225 128 25 36 
400 615 224 96 23 30 
400 615 225 118 28 39 
401 614 224 133 25 45 
400 614 226 144 32 48 
400 614 227 150 29 49 
400 615 226 141 27 49 
400 615 227 154 32 54 
400 613 228 135 36 55 
400 613 229 123 34 48 
401 612 228 78 32 35 
401 612 229 65 32 34 
401 613 228 116 39 54 
401 613 229 106 36 49 
400 613 230 100 23 34 
401 612 230 50 29 31 
401 612 231 43 25 29 
401 613 230 74 26 36 
401 613 231 53 23 28 
400 614 228 150 31 57 
400 614 229 135 34 51 
400 615 228 147 28 53 
400 615 229 134 33 50 
400 614 230 107 27 34 
400 614 231 97 37 43 
400 615 230 116 37 44 
400 615 231 110 47 53 
401 614 231 79 28 35 
402 612 230 44 34 32 
402 612 231 42 27 30 
404 608 226 36 33 36 
404 608 227 38 32 36 
404 608 228 40 31 37 
404 608 229 39 30 37 
404 609 228 38 32 38 
404 609 229 35 32 39 
404 608 230 35 32 36 
404 608 231 28 33 36 
404 609 230 28 33 38 
404 609 231 30 30 32 
405 608 230 35 34 37 
405 608 231 30 33 38 
402 611 232 76 32 36 
402 611 233 103 31 42 
403 610 232 84 39 40 
403 610 233 126 50 58 
403 611 232 86 43 41 
403 611 233 120 46 51 
402 611 234 121 22 43 
403 610 234 157 38 62 
403 610 235 170 34 54 
403 611 234 144 30 54 
403 611 235 155 25 55 
403 610 236 173 24 52 
403 610 237 175 22 54 
403 611 236 165 23 59 
403 611 237 171 22 58 
402 611 238 177 23 56 
402 611 239 178 18 55 
403 610 238 178 20 52 
403 610 239 179 19 51 
403 611 238 175 23 56 
403 611 239 180 19 53 
401 613 232 44 24 28 
401 613 233 39 28 30 
401 613 234 41 32 33 
401 613 235 47 32 32 
400 614 232 90 45 52 
400 614 233 65 32 38 
400 615 232 104 58 61 
400 615 233 78 48 49 
401 614 232 66 25 34 
401 614 233 50 24 31 
400 614 234 44 29 30 
400 614 235 40 26 32 
400 615 234 48 33 33 
400 615 235 40 28 35 
401 614 234 39 28 29 
401 614 235 43 30 34 
402 612 232 58 28 33 
402 612 233 70 26 34 
402 612 234 78 16 30 
402 612 235 107 20 39 
402 613 234 58 30 36 
402 613 235 68 27 30 
401 613 236 56 28 28 
401 613 237 79 21 27 
401 613 238 123 23 39 
400 614 236 39 22 32 
400 615 236 41 26 33 
400 615 237 64 24 33 
401 614 236 43 27 32 
401 614 237 62 22 31 
401 614 238 112 31 45 
402 612 236 133 22 48 
402 612 237 150 28 54 
402 613 236 86 20 26 
402 613 237 115 21 38 
402 612 238 164 29 56 
402 612 239 174 24 55 
402 613 238 144 27 48 
402 613 239 163 27 51 
404 609 232 52 26 28 
404 609 233 93 29 38 
405 608 232 28 30 33 
405 608 233 40 29 29 
404 609 234 128 35 51 
404 609 235 160 39 63 
405 608 234 70 31 31 
405 608 235 98 39 43 
405 609 234 122 38 51 
405 609 235 143 47 63 
404 610 234 155 44 63 
404 610 235 169 36 54 
404 609 236 167 40 58 
404 609 237 167 29 52 
405 608 236 107 37 48 
405 608 237 109 31 48 
405 609 236 152 39 58 
405 609 237 152 29 56 
404 608 239 133 22 47 
404 609 238 160 18 46 
404 609 239 168 20 54 
405 608 238 107 22 40 
405 608 239 114 18 35 
405 609 238 151 20 49 
404 610 236 173 32 52 
404 610 237 174 23 48 
404 610 238 176 21 51 
404 610 239 177 18 51 
400 616 224 71 23 28 
400 616 225 103 26 41 
400 617 224 73 25 39 
400 617 225 82 20 33 
400 616 226 130 33 53 
400 616 227 143 39 59 
400 617 226 99 21 36 
400 618 224 95 37 41 
400 618 225 96 42 41 
400 616 228 136 34 51 
400 616 229 116 24 39 
400 616 230 101 33 44 
400 616 231 94 35 43 
400 616 232 83 40 43 
400 616 233 67 40 37 
400 616 234 47 31 32 
400 616 235 42 31 40 
400 616 236 42 31 35 
400 616 237 53 23 29 
403 609 240 176 23 55 
403 610 240 179 18 52 
403 611 240 180 18 51 
404 608 240 142 27 53 
404 609 240 170 21 56 
416 576 198 162 16 38 
416 576 199 146 16 41 
416 576 200 144 16 39 
416 576 201 153 20 46 
416 577 200 130 21 48 
416 577 201 132 25 46 
417 576 201 172 16 51 
416 576 202 164 23 50 
416 576 203 172 27 53 
416 577 202 145 22 48 
416 577 203 162 19 48 
417 576 202 178 19 50 
417 576 203 183 22 52 
417 577 203 176 22 54 
416 578 203 147 20 40 
416 577 204 173 20 48 
417 576 204 186 19 52 
417 576 205 187 20 52 
417 577 204 180 21 52 
417 577 205 185 22 52 
417 576 206 187 18 52 
417 577 206 188 20 51 
417 577 207 189 19 53 
416 578 204 164 22 49 
416 578 205 176 27 57 
416 579 204 148 28 50 
416 579 205 160 20 52 
416 578 206 181 27 58 
416 579 206 174 21 56 
416 579 207 184 23 57 
417 578 206 186 22 53 
417 578 207 189 21 55 
417 579 207 187 27 60 
418 576 204 187 20 49 
418 576 205 187 18 51 
418 576 206 189 19 55 
418 576 207 188 19 53 
418 577 207 189 18 52 
416 580 206 161 21 51 
416 580 207 174 22 51 
417 577 208 189 22 53 
416 579 208 187 23 55 
417 578 208 189 21 54 
417 578 209 188 19 50 
417 579 208 188 21 56 
417 579 209 188 19 51 
417 578 210 188 16 51 
417 579 210 188 17 51 
417 579 211 188 17 49 
418 576 208 187 17 51 
418 576 209 186 17 49 
418 577 208 189 19 51 
418 577 209 187 19 50 
419 576 209 186 17 49 
418 577 210 186 17 49 
418 577 211 185 16 48 
419 576 210 185 16 49 
419 576 211 183 16 49 
419 577 210 185 16 49 
419 577 211 184 15 49 
418 578 209 188 17 50 
418 578 210 187 18 50 
418 578 211 186 16 48 
417 579 212 187 17 50 
418 577 212 183 16 48 
419 576 212 182 16 48 
419 576 213 184 15 48 
419 577 212 182 16 47 
419 577 213 181 16 49 
419 576 214 184 15 50 
419 576 215 181 16 49 
419 577 214 180 16 50 
419 577 215 180 16 51 
418 578 212 185 16 50 
418 578 213 183 17 50 
418 579 212 186 18 52 
418 579 213 184 18 51 
419 578 213 182 17 50 
418 578 214 183 17 51 
418 578 215 183 17 50 
418 579 214 184 18 50 
418 579 215 185 18 52 
419 578 214 182 17 52 
419 578 215 182 16 50 
416 580 208 182 24 52 
416 580 209 187 20 52 
416 581 209 184 22 53 
416 580 210 189 20 51 
416 580 211 189 17 50 
416 581 210 188 19 52 
416 581 211 189 19 52 
417 580 210 189 21 52 
417 580 211 188 18 50 
416 582 211 187 18 51 
416 581 212 187 18 48 
416 581 213 186 19 47 
417 580 212 187 17 49 
417 580 213 185 18 51 
417 581 212 187 17 50 
417 581 213 186 18 50 
417 580 214 185 21 50 
417 581 214 185 18 50 
417 581 215 184 19 49 
416 582 212 187 20 48 
416 582 213 186 19 47 
416 583 213 186 18 47 
416 582 214 185 19 46 
416 582 215 183 21 50 
416 583 214 184 24 49 
416 583 215 178 25 51 
417 582 215 183 19 50 
418 580 214 184 18 50 
418 580 215 185 18 49 
419 576 216 179 16 49 
419 576 217 178 17 50 
419 577 216 180 16 51 
419 577 217 180 16 51 
419 576 218 177 17 50 
419 576 219 176 17 49 
419 577 218 179 16 50 
419 577 219 178 16 50 
418 578 216 182 16 51 
418 579 216 184 17 50 
418 579 217 183 17 50 
419 578 216 181 16 50 
419 578 217 181 16 49 
418 579 218 182 18 50 
418 579 219 178 20 51 
419 578 218 180 17 48 
419 578 219 179 17 48 
419 576 220 175 17 47 
419 576 221 174 17 46 
419 577 220 178 16 50 
419 577 221 176 17 46 
419 576 222 174 17 49 
419 576 223 173 17 49 
419 577 222 174 17 47 
419 577 223 170 19 52 
418 579 220 168 21 53 
418 579 221 146 24 51 
419 578 220 177 17 52 
419 578 221 173 20 51 
419 579 220 171 19 53 
419 579 221 160 21 52 
418 578 223 144 23 48 
418 579 222 131 24 42 
418 579 223 114 24 39 
419 578 222 165 19 50 
419 578 223 155 22 50 
417 581 216 181 20 50 
417 581 217 166 22 53 
417 581 218 143 26 51 
417 581 219 97 22 35 
416 582 216 173 26 57 
416 583 216 153 25 50 
416 583 217 113 26 36 
417 582 216 172 25 54 
417 582 217 143 25 50 
417 583 217 109 27 35 
416 583 218 57 25 28 
416 583 219 33 28 33 
417 582 218 103 25 38 
417 582 219 64 25 30 
417 583 218 75 24 29 
417 583 219 35 27 33 
418 580 216 184 19 46 
418 580 217 182 19 49 
418 581 216 181 21 47 
418 581 217 176 23 49 
418 580 218 177 20 56 
418 580 219 167 21 55 
418 581 218 158 22 52 
418 581 219 133 23 44 
417 581 220 55 22 28 
417 581 221 30 27 31 
417 581 222 25 28 37 
417 581 223 27 27 38 
417 582 220 35 27 33 
417 582 221 23 29 38 
417 583 220 29 30 35 
417 583 221 30 32 36 
416 583 223 37 33 37 
417 582 222 30 27 39 
417 582 223 35 27 37 
417 583 222 33 31 37 
417 583 223 36 30 36 
418 580 220 141 25 49 
418 580 221 112 25 41 
418 581 220 91 26 33 
418 581 221 60 25 29 
418 580 222 87 29 38 
418 580 223 61 26 32 
418 581 222 42 27 31 
418 581 223 25 29 36 
416 584 216 129 24 45 
416 584 217 83 27 31 
416 584 218 42 29 32 
416 584 219 31 31 37 
416 585 219 34 31 35 
416 584 220 35 31 36 
416 584 221 35 33 35 
416 585 220 38 32 35 
416 585 221 38 31 36 
416 584 222 35 32 35 
416 584 223 38 31 37 
416 585 222 36 31 36 
416 585 223 37 30 37 
417 579 227 24 30 37 
419 576 224 172 18 47 
419 576 225 170 18 45 
419 577 224 168 24 53 
419 577 225 160 25 53 
418 576 227 160 23 54 
418 577 226 137 16 44 
418 577 227 130 14 42 
419 576 226 167 21 53 
419 576 227 164 23 55 
419 577 226 160 21 53 
418 578 224 135 26 50 
418 578 225 118 19 41 
418 579 224 89 22 35 
418 579 225 57 19 27 
419 578 224 154 26 53 
418 578 226 92 14 32 
418 578 227 71 21 31 
418 579 226 41 24 29 
418 579 227 25 29 32 
417 577 229 78 25 36 
416 576 231 106 23 40 
416 577 231 71 22 35 
417 576 230 118 20 38 
417 576 231 108 23 39 
417 577 230 81 23 37 
417 577 231 73 24 35 
417 578 229 34 25 34 
417 579 228 29 29 37 
417 579 229 45 27 34 
416 578 230 56 23 30 
416 578 231 72 22 32 
416 579 230 79 25 32 
416 579 231 124 33 47 
417 578 230 46 23 30 
418 576 228 148 18 46 
418 576 229 133 16 38 
418 577 228 113 20 39 
418 577 229 101 22 39 
418 578 228 58 24 35 
418 578 229 52 24 35 
417 581 224 34 29 36 
417 581 225 33 31 36 
416 581 227 83 29 37 
417 580 226 29 32 34 
417 580 227 35 27 35 
417 581 226 40 30 35 
417 581 227 57 28 33 
416 582 225 41 28 32 
416 583 224 41 29 36 
416 583 225 45 31 33 
417 582 224 39 28 36 
417 582 225 41 28 34 
417 583 224 38 29 36 
416 582 226 58 29 36 
416 582 227 84 28 40 
416 583 226 57 33 38 
416 583 227 86 33 43 
417 582 226 53 27 34 
418 580 224 40 25 28 
418 580 225 28 28 32 
418 581 224 28 30 34 
418 580 226 21 29 33 
416 580 229 98 27 40 
416 581 228 103 33 42 
416 581 229 120 29 45 
417 580 228 49 24 33 
417 580 229 66 25 32 
417 581 228 78 27 31 
416 580 230 126 29 48 
416 580 231 155 32 55 
416 581 230 150 28 55 
416 581 231 166 27 56 
416 582 228 116 29 43 
416 582 229 132 27 43 
416 583 228 114 30 47 
416 583 229 132 36 46 
416 582 230 151 35 53 
416 576 232 99 23 37 
416 577 232 75 20 31 
416 577 233 85 19 32 
416 578 232 102 21 39 
416 579 232 154 36 58 
416 580 232 165 29 56 
416 584 224 42 30 35 
416 584 225 47 30 33 
416 585 224 40 31 35 
416 585 225 46 31 33 
416 584 226 58 33 39 
416 584 227 76 35 41 
416 585 226 53 32 34 
416 584 228 103 33 48 
384 640 186 94 26 29 
384 640 187 95 24 27 
384 641 186 93 27 27 
384 641 187 93 25 27 
385 641 187 93 23 30 
384 643 185 85 30 28 
384 642 186 90 28 25 
384 642 187 90 27 27 
384 643 186 89 28 25 
385 642 187 87 26 29 
385 643 187 84 27 24 
386 643 187 80 25 24 
385 640 188 95 22 29 
385 641 188 94 22 31 
386 640 188 95 23 31 
386 640 189 96 24 30 
386 641 188 92 21 31 
386 641 189 93 25 31 
387 640 189 97 25 28 
387 641 189 95 24 28 
387 640 190 98 24 27 
387 641 190 96 23 28 
386 642 188 87 23 30 
386 643 188 82 25 26 
387 642 189 92 24 29 
387 643 188 86 27 27 
387 643 189 90 25 32 
387 642 190 96 23 31 
384 644 185 85 29 27 
384 645 185 85 29 27 
384 644 186 88 29 26 
384 645 186 89 31 30 
385 644 186 84 30 24 
385 644 187 80 27 23 
385 645 186 84 31 27 
384 646 184 82 27 27 
384 646 185 87 30 31 
384 647 184 82 28 28 
384 647 185 87 30 32 
385 647 185 88 31 32 
385 646 186 86 31 30 
385 647 186 84 31 31 
386 644 187 76 23 21 
386 645 187 77 28 26 
387 645 187 77 28 27 
386 646 186 81 32 29 
386 646 187 77 33 29 
386 647 186 77 32 30 
386 647 187 74 32 28 
387 646 187 77 32 29 
387 647 187 73 31 27 
386 644 188 82 26 25 
387 644 188 83 28 27 
387 644 189 88 28 32 
387 645 188 81 28 28 
387 645 189 86 27 33 
387 646 188 80 30 30 
387 647 188 79 31 30 
388 640 190 99 24 27 
388 640 191 103 20 31 
388 641 190 99 22 29 
388 641 191 101 17 28 
389 641 191 102 18 26 
388 642 190 97 21 32 
388 642 191 99 19 31 
388 643 190 93 22 35 
388 643 191 95 22 35 
389 642 191 99 21 31 
389 643 191 95 26 35 
388 644 189 90 26 37 
388 645 189 87 25 34 
388 644 190 90 25 37 
388 645 190 88 23 34 
389 644 191 90 27 33 
389 645 190 87 24 31 
389 645 191 85 25 28 
388 646 188 81 28 31 
388 646 189 87 27 32 
388 647 188 83 29 30 
388 647 189 89 28 30 
388 646 190 90 25 31 
389 646 190 91 25 30 
389 646 191 87 25 28 
389 647 190 95 29 32 
389 647 191 97 30 32 
390 645 191 82 22 26 
390 646 191 83 21 26 
390 647 191 96 28 32 
384 650 183 84 32 26 
384 651 183 84 31 27 
384 652 183 85 29 27 
384 653 183 84 26 29 
385 653 183 82 28 30 
384 654 182 84 28 29 
384 654 183 83 27 28 
384 655 182 83 29 28 
384 655 183 82 29 30 
385 654 183 81 28 29 
385 655 183 79 29 30 
384 648 184 84 30 30 
384 649 184 83 29 26 
385 648 185 86 29 30 
385 649 184 84 30 28 
385 649 185 85 31 30 
384 650 184 84 32 27 
384 651 184 85 30 28 
385 650 184 84 29 29 
385 650 185 81 31 30 
385 651 184 85 30 31 
385 651 185 83 34 35 
386 649 185 80 32 31 
386 648 186 78 30 30 
386 648 187 69 28 27 
386 649 186 72 30 30 
387 648 187 68 26 25 
387 649 187 63 26 27 
386 650 185 77 31 29 
386 651 185 79 33 33 
386 650 186 73 28 28 
386 651 186 72 29 30 
387 650 186 67 28 30 
387 650 187 60 26 29 
387 651 186 72 29 30 
387 651 187 69 30 32 
385 652 184 84 30 32 
385 653 184 81 29 31 
385 654 184 78 29 29 
386 652 184 80 33 35 
386 652 185 78 32 33 
386 653 184 75 26 30 
386 653 185 74 28 31 
387 653 185 76 31 34 
387 652 186 76 31 32 
387 653 186 79 31 35 
386 654 184 73 26 30 
386 654 185 70 23 28 
386 655 184 72 28 33 
387 654 185 75 26 31 
387 655 185 73 25 30 
388 649 187 65 32 30 
388 650 187 60 27 30 
388 651 187 65 27 30 
388 648 188 79 32 30 
388 648 189 85 31 32 
388 649 188 74 34 32 
389 648 189 91 31 31 
389 649 189 84 35 36 
389 648 190 96 30 33 
389 648 191 100 30 36 
389 649 190 92 34 37 
388 650 188 66 31 33 
388 651 188 68 30 33 
389 650 188 71 33 33 
389 650 189 78 36 36 
389 651 188 71 31 35 
389 651 189 75 37 39 
389 650 190 86 37 40 
390 648 191 100 27 36 
390 649 190 92 35 40 
390 649 191 95 27 38 
390 650 190 82 35 37 
390 650 191 82 27 36 
390 651 190 72 29 33 
390 651 191 64 26 30 
391 651 191 65 28 32 
388 652 187 73 28 28 
388 653 186 82 34 35 
388 653 187 83 33 34 
389 653 187 82 34 32 
388 654 186 81 31 32 
388 654 187 87 36 35 
388 655 186 84 33 33 
389 654 187 87 37 32 
389 655 187 88 34 29 
389 652 188 72 29 28 
389 652 189 75 34 34 
389 653 188 79 31 28 
389 654 188 86 35 30 
390 652 189 73 34 35 
390 653 188 81 33 28 
390 653 189 74 32 30 
390 652 190 61 28 28 
390 653 190 61 31 28 
391 652 191 47 28 29 
391 653 190 52 31 28 
391 653 191 43 33 31 
390 654 188 84 34 29 
390 654 189 76 32 28 
390 655 188 86 33 29 
390 655 189 80 30 30 
391 655 189 76 29 30 
391 654 190 65 32 30 
391 654 191 53 34 34 
391 655 190 70 30 32 
391 655 191 59 30 33 
392 654 191 48 34 36 
392 655 191 53 32 34 
384 656 182 80 28 27 
384 656 183 80 27 27 
384 657 182 80 30 28 
385 656 183 77 28 31 
385 657 182 78 30 32 
385 657 183 77 29 34 
384 658 181 81 34 30 
384 659 181 79 34 31 
384 658 182 80 32 29 
384 659 182 77 34 32 
385 658 182 78 33 32 
385 658 183 74 34 34 
385 659 182 72 33 31 
385 659 183 71 32 31 
386 656 183 73 30 32 
386 657 183 72 29 32 
386 658 183 67 33 31 
386 659 183 63 30 28 
384 660 181 73 34 29 
384 661 180 68 35 32 
384 661 181 69 35 32 
385 660 181 71 36 32 
385 661 181 68 38 35 
385 660 182 70 36 31 
385 661 182 67 39 39 
384 662 180 64 38 32 
384 662 181 65 37 33 
384 663 180 60 39 33 
385 662 181 63 39 35 
385 663 181 59 40 36 
386 660 182 62 34 34 
386 660 183 62 33 31 
386 661 182 59 36 36 
387 660 183 57 35 33 
387 661 183 53 34 34 
386 663 181 54 37 35 
386 662 182 56 36 35 
386 663 182 51 35 34 
387 662 183 50 36 35 
387 663 183 49 35 36 
386 656 184 70 29 33 
386 657 184 67 29 28 
387 656 184 66 28 27 
387 656 185 69 27 29 
387 657 184 63 27 25 
387 657 185 67 29 26 
386 658 184 64 32 28 
387 658 184 61 31 27 
387 659 184 60 34 28 
387 660 184 59 38 34 
387 661 184 54 37 37 
387 662 184 52 38 38 
388 656 185 77 32 34 
388 657 185 76 35 34 
388 656 186 83 33 33 
388 657 186 83 36 34 
389 656 186 87 35 33 
389 656 187 90 32 31 
389 657 186 85 33 33 
389 657 187 87 32 32 
388 658 185 72 34 30 
388 659 184 62 34 30 
388 659 185 68 35 30 
389 659 185 73 37 31 
388 658 186 79 33 32 
389 658 186 83 31 32 
389 659 186 80 34 34 
390 656 187 89 30 31 
390 657 187 88 31 34 
390 658 187 85 31 33 
390 659 186 80 36 33 
390 659 187 83 33 35 
390 656 188 88 30 34 
390 657 188 89 30 38 
391 656 189 83 30 37 
391 657 188 86 30 39 
391 657 189 83 32 39 
391 656 190 76 31 37 
391 656 191 66 31 34 
391 657 190 77 30 35 
390 658 188 85 31 37 
391 658 188 83 30 36 
391 658 189 80 33 38 
391 659 188 81 32 37 
391 659 189 79 35 39 
388 660 184 60 38 33 
388 660 185 65 38 33 
388 661 184 56 37 37 
389 660 185 68 38 30 
389 661 185 64 37 34 
389 660 186 75 39 31 
389 661 186 72 41 29 
388 662 184 54 37 39 
388 663 184 52 37 39 
389 662 185 59 36 35 
389 663 185 56 36 34 
390 660 186 80 40 33 
390 660 187 78 38 33 
390 661 186 71 40 30 
390 661 187 74 42 33 
390 663 185 58 37 33 
390 662 186 65 37 31 
390 662 187 68 40 35 
390 663 186 61 37 34 
390 663 187 65 40 39 
391 662 187 68 41 36 
391 663 187 65 41 38 
391 660 188 76 37 34 
391 661 188 72 38 33 
391 661 189 69 36 31 
391 662 188 67 38 34 
391 662 189 68 36 33 
391 663 188 66 41 39 
384 665 179 52 38 35 
384 667 179 51 38 41 
384 664 180 55 39 35 
384 665 180 52 39 36 
385 664 181 56 41 36 
385 665 181 51 40 37 
384 666 180 52 40 41 
384 667 180 52 41 42 
385 666 180 52 42 41 
385 666 181 52 43 41 
385 667 180 51 39 41 
385 667 181 53 43 42 
386 664 181 54 40 38 
386 665 181 51 40 38 
386 664 182 50 37 35 
386 665 182 48 39 38 
387 664 182 46 36 35 
387 664 183 47 38 35 
387 665 183 49 43 39 
386 666 181 52 42 41 
386 667 181 51 42 42 
386 666 182 51 45 42 
386 667 182 53 46 44 
387 666 182 50 44 43 
387 666 183 51 45 41 
387 667 182 56 47 45 
387 667 183 57 48 45 
384 668 178 50 45 48 
384 668 179 51 42 45 
384 669 178 50 43 45 
384 669 179 48 42 46 
385 668 179 51 41 45 
385 669 179 53 42 44 
386 669 179 63 43 44 
385 668 180 51 41 44 
386 668 180 54 41 42 
386 668 181 55 43 43 
386 669 180 62 44 46 
387 668 181 61 42 47 
387 669 180 61 44 50 
387 669 181 61 42 49 
387 668 182 58 45 45 
388 665 183 51 44 40 
388 666 183 55 45 39 
388 667 183 59 47 43 
388 669 181 57 38 43 
388 668 182 64 45 37 
388 668 183 63 44 40 
388 669 182 60 39 40 
389 668 183 62 42 37 
389 669 183 63 42 41 
388 664 184 50 40 37 
388 665 184 53 44 40 
389 664 184 55 42 39 
389 664 185 58 42 38 
389 665 184 57 46 40 
389 665 185 62 46 42 
388 666 184 59 46 38 
389 666 184 64 48 40 
389 666 185 70 50 44 
389 667 184 67 47 43 
390 664 185 61 42 37 
390 665 185 66 47 43 
390 664 186 63 42 39 
390 665 186 69 45 43 
391 664 187 66 44 40 
391 665 187 75 48 46 
390 666 185 71 45 42 
390 667 185 71 40 41 
390 666 186 70 39 40 
391 666 186 72 40 40 
391 666 187 76 45 42 
391 667 186 76 40 42 
391 667 187 82 49 45 
391 664 188 69 42 39 
391 665 188 77 50 44 
391 666 188 79 49 42 
391 667 188 84 52 47 
389 668 184 62 40 37 
390 668 184 68 41 44 
390 668 185 71 38 43 
390 669 184 64 38 44 
391 668 185 74 37 43 
391 669 185 76 38 46 
391 668 186 80 39 41 
391 668 187 86 48 46 
391 669 186 83 41 43 
392 656 191 60 32 35 
392 657 190 75 32 35 
392 657 191 61 33 32 
392 658 189 78 33 38 
392 659 189 77 36 39 
392 658 190 73 30 34 
392 658 191 63 32 31 
392 659 190 71 34 35 
392 659 191 66 34 34 
393 658 191 56 33 30 
393 659 191 58 31 32 
392 660 189 74 38 37 
392 661 189 67 37 35 
392 660 190 68 37 34 
392 661 190 67 39 36 
393 660 191 60 32 33 
393 661 191 66 37 35 
392 662 189 67 36 35 
392 663 188 65 37 36 
392 663 189 67 37 37 
392 662 190 68 37 35 
392 663 190 70 38 36 
393 662 191 72 41 38 
393 663 191 75 41 36 
392 667 187 88 52 47 
392 664 188 71 41 39 
392 664 189 74 42 39 
392 665 189 75 45 36 
392 664 190 79 45 42 
392 665 190 83 47 42 
393 664 191 82 45 40 
393 665 191 88 49 42 
392 666 188 80 49 42 
392 666 189 78 48 39 
392 667 188 85 52 47 
392 667 189 84 51 44 
393 667 189 86 50 45 
392 666 190 80 47 37 
393 666 190 83 46 36 
393 666 191 87 45 37 
393 667 190 85 47 39 
393 667 191 87 45 37 
394 667 191 92 44 35 
392 668 187 91 51 49 
392 669 186 83 41 41 
392 669 187 92 49 42 
392 668 188 92 52 48 
392 669 188 98 51 45 
393 668 189 90 51 45 
393 669 188 96 47 41 
393 669 189 94 47 39 
393 668 190 88 47 40 
393 668 191 90 46 39 
394 669 189 96 46 38 
394 668 190 92 48 40 
394 668 191 94 46 39 
394 669 190 95 47 40 
394 669 191 96 47 40 
395 669 190 100 45 40 
395 669 191 99 45 39 
389 640 192 104 17 29 
389 640 193 105 20 28 
389 641 192 102 22 27 
389 641 193 102 24 29 
389 642 192 100 25 31 
389 643 192 95 26 33 
390 641 193 102 25 29 
390 640 194 106 20 31 
390 640 195 109 21 34 
390 641 194 102 22 28 
390 641 195 106 20 32 
391 641 195 107 19 33 
390 642 193 99 24 32 
390 643 192 95 24 32 
390 643 193 98 22 32 
390 642 194 102 22 32 
390 642 195 104 16 32 
390 643 194 104 20 34 
391 642 195 108 16 34 
391 643 194 107 17 34 
391 643 195 110 15 36 
390 640 196 112 18 33 
391 640 196 113 20 33 
391 640 197 115 21 33 
391 641 196 112 17 34 
391 641 197 116 22 33 
391 640 198 116 22 33 
391 641 198 116 21 29 
391 642 196 114 16 36 
391 642 197 117 20 36 
391 643 196 115 16 33 
391 643 197 117 21 36 
389 644 192 92 26 33 
390 644 192 91 24 31 
390 644 193 99 23 34 
390 645 192 88 24 29 
390 645 193 101 27 36 
390 644 194 105 20 34 
391 644 194 107 20 34 
391 644 195 110 16 31 
391 645 194 108 25 36 
391 645 195 113 20 34 
390 646 192 90 20 27 
390 646 193 102 23 34 
390 647 192 100 23 34 
390 647 193 105 21 36 
391 646 193 106 20 36 
391 647 193 109 22 38 
391 646 194 109 22 38 
391 646 195 113 20 37 
391 647 194 111 20 36 
391 647 195 113 21 36 
391 644 196 114 16 29 
391 645 196 114 17 33 
390 648 192 103 23 38 
390 648 193 107 24 38 
390 649 192 98 19 35 
391 648 193 107 24 37 
391 649 192 95 22 36 
391 649 193 102 24 33 
391 648 194 110 23 35 
391 648 195 110 24 35 
391 649 194 104 27 32 
390 650 192 84 24 34 
391 650 192 82 26 33 
391 650 193 89 30 35 
391 651 192 67 30 33 
391 651 193 72 32 33 
391 650 194 93 29 35 
391 651 194 79 31 34 
391 652 192 49 31 32 
391 652 193 57 32 32 
391 653 192 39 33 33 
392 640 198 114 23 34 
392 640 199 114 25 36 
392 641 198 114 15 29 
392 641 199 114 19 25 
392 642 197 118 21 35 
392 643 197 118 19 35 
392 642 198 120 22 37 
392 642 199 122 22 38 
392 643 198 121 22 39 
392 643 199 121 20 42 
392 647 195 112 21 34 
392 644 196 114 20 29 
392 644 197 117 20 34 
392 645 196 115 20 35 
392 645 197 117 22 34 
392 644 198 118 20 39 
392 644 199 116 25 45 
392 645 198 114 22 38 
392 645 199 111 30 44 
393 644 199 113 26 46 
393 645 199 103 27 39 
392 646 196 115 18 38 
392 646 197 116 21 35 
392 647 196 112 22 35 
392 647 197 112 20 34 
392 646 198 110 22 36 
392 647 198 109 22 33 
393 646 198 103 15 30 
393 646 199 95 14 27 
393 647 198 105 22 30 
393 647 199 100 19 29 
392 640 200 117 25 39 
392 640 201 122 24 40 
392 641 200 121 25 35 
392 641 201 124 23 39 
393 640 201 126 20 39 
393 641 201 123 21 38 
393 640 202 130 22 37 
393 640 203 131 21 35 
393 641 202 126 20 35 
393 641 203 130 20 36 
392 642 200 123 25 39 
392 643 200 121 22 41 
393 642 200 123 25 39 
393 642 201 121 21 35 
393 643 200 118 23 43 
393 643 201 115 22 38 
393 642 202 122 18 38 
393 642 203 125 16 40 
393 643 202 113 18 36 
393 643 203 115 22 40 
394 643 203 118 22 41 
393 640 204 132 22 36 
393 641 204 132 22 37 
394 640 204 131 25 38 
394 640 205 121 33 44 
394 641 204 131 20 37 
394 641 205 127 25 41 
394 640 206 95 28 40 
394 640 207 64 23 30 
394 641 206 111 29 46 
394 641 207 82 19 34 
395 641 207 75 17 30 
394 642 204 128 19 41 
394 642 205 129 20 43 
394 643 204 120 23 43 
394 643 205 124 24 45 
394 642 206 120 25 44 
394 642 207 100 19 33 
394 643 206 124 28 43 
395 642 207 97 23 31 
395 643 207 119 37 42 
393 644 200 107 23 42 
393 644 201 98 21 37 
393 645 200 91 21 33 
393 645 201 80 19 29 
393 644 202 91 19 29 
393 644 203 103 29 37 
393 645 202 72 23 26 
393 646 200 84 15 26 
393 646 201 82 27 31 
393 647 200 103 23 35 
393 647 201 108 32 42 
393 646 202 81 35 32 
393 647 202 109 36 44 
394 644 203 97 30 38 
394 645 203 75 30 32 
394 646 202 86 37 33 
394 646 203 77 32 30 
394 647 202 113 32 45 
394 647 203 112 30 43 
394 644 204 103 27 42 
394 644 205 108 22 41 
394 645 204 70 19 28 
394 645 205 75 16 29 
394 644 206 116 28 43 
394 645 206 93 22 38 
395 644 206 113 32 46 
395 644 207 118 41 50 
395 645 206 84 19 35 
395 645 207 96 26 42 
394 646 204 69 27 26 
394 646 205 63 26 28 
394 647 204 109 35 43 
394 647 205 102 36 41 
395 646 205 59 26 29 
395 647 205 99 35 41 
395 646 206 58 20 29 
395 646 207 61 17 30 
395 647 206 88 27 35 
395 647 207 80 19 27 
392 648 195 111 26 36 
392 649 195 105 28 34 
392 650 194 92 26 35 
392 650 195 94 29 35 
392 651 194 77 27 35 
392 651 195 84 28 38 
392 648 196 109 27 34 
392 648 197 107 20 31 
392 649 196 99 27 30 
392 649 197 97 20 26 
392 648 198 108 22 33 
392 649 198 103 19 29 
393 648 198 109 22 36 
393 648 199 110 22 37 
393 649 198 105 22 31 
393 649 199 113 22 38 
392 650 196 90 29 31 
392 650 197 89 21 26 
392 651 196 87 32 39 
393 650 197 91 24 31 
393 651 196 86 30 39 
393 651 197 92 32 40 
393 650 198 103 26 35 
393 650 199 111 25 34 
393 651 198 103 30 40 
394 650 199 112 27 34 
394 651 199 110 29 35 
392 652 193 51 30 32 
392 653 192 36 34 34 
392 653 193 37 31 34 
392 652 194 59 27 33 
392 652 195 68 29 36 
392 653 194 41 29 34 
393 652 195 67 32 39 
393 653 194 41 27 34 
393 653 195 50 29 36 
392 654 192 38 34 35 
392 654 193 32 34 37 
392 655 192 40 32 35 
392 655 193 32 34 37 
393 655 193 32 35 37 
392 654 194 31 33 37 
393 654 194 33 32 37 
393 654 195 36 30 36 
393 655 194 31 34 38 
393 655 195 33 32 36 
393 652 196 77 31 40 
393 652 197 86 31 41 
393 653 196 58 29 35 
393 653 197 68 28 34 
393 652 198 96 28 40 
393 654 196 40 32 34 
393 655 196 35 34 37 
394 653 197 69 27 30 
394 652 198 101 26 38 
394 652 199 108 28 37 
394 653 198 89 27 36 
394 653 199 102 30 42 
394 654 196 37 30 33 
394 654 197 54 30 28 
394 655 196 33 32 35 
394 655 197 47 31 30 
394 654 198 79 28 33 
394 654 199 98 38 49 
394 655 198 74 34 38 
395 655 199 86 38 45 
393 648 200 114 22 40 
393 648 201 117 25 42 
393 649 200 116 19 39 
394 648 201 119 23 42 
394 649 200 117 19 37 
394 649 201 118 19 35 
394 648 202 122 22 40 
394 648 203 124 22 40 
394 649 202 121 20 34 
394 649 203 124 19 38 
395 649 203 120 20 37 
394 650 200 113 22 35 
394 650 201 113 21 34 
394 651 200 109 25 30 
394 651 201 102 19 32 
394 650 202 112 25 35 
394 650 203 116 26 38 
394 651 202 99 16 30 
395 650 203 111 23 36 
395 651 202 91 15 29 
395 651 203 92 19 30 
394 648 204 125 25 42 
394 649 204 127 18 40 
395 648 204 127 21 39 
395 648 205 124 28 43 
395 649 204 125 18 40 
395 649 205 127 16 39 
395 648 206 118 29 42 
395 648 207 114 26 36 
395 649 206 128 21 39 
395 649 207 127 22 40 
395 650 204 115 21 37 
395 650 205 118 20 34 
395 651 204 99 20 30 
395 651 205 105 19 26 
395 650 206 121 18 35 
394 652 200 108 32 39 
394 652 201 95 22 36 
394 653 200 105 34 46 
394 653 201 99 32 45 
395 652 201 84 21 36 
395 653 200 102 36 49 
395 653 201 86 34 43 
395 652 202 77 18 31 
395 652 203 78 16 27 
395 653 202 69 26 33 
395 653 203 81 21 33 
394 654 200 103 38 50 
395 654 200 94 34 44 
395 654 201 74 30 31 
395 655 200 81 32 36 
395 655 201 66 25 25 
395 654 202 72 25 29 
395 654 203 86 26 38 
395 655 202 71 25 27 
395 652 204 94 20 32 
395 652 205 101 24 29 
395 653 204 93 20 36 
396 649 207 127 20 39 
396 651 205 110 19 27 
396 650 206 120 18 37 
396 650 207 124 20 39 
396 651 206 117 18 35 
396 651 207 122 20 38 
396 654 203 96 29 43 
396 655 202 82 25 33 
396 655 203 98 23 39 
396 652 205 109 24 33 
396 653 204 103 27 39 
396 653 205 114 28 40 
396 652 206 118 21 37 
396 652 207 122 19 36 
396 653 206 121 23 41 
396 653 207 122 23 36 
397 653 206 121 23 39 
397 653 207 122 24 37 
396 654 204 109 30 39 
396 654 205 115 26 35 
396 655 204 109 26 35 
396 655 205 114 29 35 
397 654 205 117 21 36 
397 655 205 115 26 35 
397 654 206 119 20 38 
397 654 207 121 19 36 
397 655 206 118 19 37 
397 655 207 121 16 36 
395 640 208 43 25 30 
395 640 209 35 32 36 
395 641 208 57 21 31 
395 641 209 43 26 32 
395 640 210 36 30 39 
395 640 211 35 28 38 
395 641 210 37 28 35 
395 641 211 32 29 36 
395 642 208 80 22 29 
395 642 209 64 24 29 
395 643 208 108 39 42 
395 643 209 88 33 38 
395 642 210 46 25 30 
395 642 211 36 29 33 
395 643 210 62 28 27 
395 643 211 48 28 27 
395 640 212 33 28 35 
395 641 212 29 30 36 
395 642 212 27 31 35 
395 644 208 117 50 55 
395 644 209 106 46 51 
395 645 208 99 32 43 
395 645 209 99 34 42 
395 644 210 82 37 34 
395 644 211 69 26 24 
395 645 210 94 29 34 
395 646 208 69 14 27 
395 646 209 91 17 32 
395 647 208 87 19 28 
395 647 209 109 29 46 
395 646 210 109 29 46 
396 643 211 50 25 24 
396 640 212 34 26 34 
396 640 213 34 25 33 
396 641 212 29 29 35 
396 641 213 29 28 32 
396 640 214 37 26 28 
396 640 215 65 22 27 
396 641 214 42 26 27 
396 641 215 74 23 31 
396 642 212 29 31 33 
396 642 213 29 29 30 
396 643 212 40 25 28 
396 643 213 43 25 27 
396 642 214 55 27 29 
396 642 215 96 33 44 
396 643 214 68 28 32 
396 643 215 102 39 47 
396 644 211 65 22 24 
396 645 210 104 30 43 
396 645 211 94 31 38 
396 647 209 119 33 55 
396 646 210 115 36 53 
396 646 211 108 43 53 
396 647 210 118 34 53 
396 647 211 100 28 40 
396 644 212 64 25 32 
396 644 213 67 32 38 
396 645 212 87 38 45 
396 645 213 76 35 43 
396 644 214 77 34 36 
396 644 215 89 26 31 
396 645 214 76 26 30 
396 645 215 90 26 34 
396 646 212 83 38 40 
396 646 213 63 23 28 
396 647 212 67 22 23 
396 647 213 64 23 24 
396 646 214 76 20 28 
396 646 215 99 31 42 
396 647 214 90 29 35 
397 646 215 113 34 50 
397 647 214 102 33 38 
397 647 215 112 29 42 
396 640 216 114 18 41 
396 640 217 143 26 47 
396 641 216 121 27 46 
396 641 217 140 25 38 
397 640 218 144 25 46 
397 640 219 123 20 41 
397 641 218 133 23 37 
397 641 219 102 15 31 
396 642 216 126 38 50 
396 642 217 134 32 38 
396 643 216 116 33 46 
396 643 217 123 34 44 
397 643 217 116 31 42 
397 642 218 127 33 47 
397 642 219 96 23 39 
397 643 218 121 36 51 
397 643 219 100 32 46 
397 640 220 78 17 29 
397 640 221 47 28 32 
397 641 220 57 21 28 
397 641 221 40 29 33 
397 640 222 48 31 31 
397 640 223 75 35 38 
397 641 222 54 31 35 
397 641 223 85 46 51 
397 642 220 52 26 33 
397 642 221 39 28 36 
397 643 220 57 29 35 
397 643 221 35 27 34 
397 642 222 45 29 34 
397 642 223 68 35 35 
397 643 222 37 27 28 
397 643 223 58 22 23 
396 644 216 91 13 26 
396 644 217 100 16 29 
396 645 216 95 32 40 
397 644 217 96 19 29 
397 645 216 95 35 38 
397 645 217 88 24 29 
397 644 218 107 35 48 
397 644 219 96 40 50 
397 645 218 90 34 39 
397 645 219 82 39 46 
396 646 216 111 40 54 
397 646 216 112 38 49 
397 646 217 101 33 39 
397 647 216 119 27 42 
397 647 217 114 29 38 
397 646 218 82 24 28 
397 646 219 60 20 27 
397 647 218 98 26 38 
397 647 219 70 20 32 
397 644 220 63 34 42 
397 644 221 43 27 33 
397 645 220 54 30 35 
397 645 221 48 28 29 
397 644 222 47 24 26 
397 644 223 76 26 32 
397 645 222 69 32 34 
397 645 223 100 40 49 
397 646 220 42 24 30 
397 646 221 52 32 35 
397 647 220 43 24 28 
397 647 221 45 30 29 
397 646 222 82 44 47 
397 646 223 100 43 51 
398 647 221 44 31 30 
398 647 222 59 31 28 
398 647 223 72 31 29 
395 648 208 118 30 43 
395 648 209 121 35 52 
395 649 208 126 22 40 
396 648 209 124 30 49 
396 649 208 127 21 38 
396 649 209 125 23 39 
396 648 210 116 25 42 
396 648 211 95 21 31 
396 649 210 117 24 39 
396 649 211 97 29 39 
397 649 211 87 32 40 
396 650 208 125 20 35 
396 650 209 125 23 40 
396 651 208 125 20 38 
396 651 209 125 20 41 
397 651 209 124 21 41 
396 650 210 118 28 42 
397 650 210 116 26 40 
397 650 211 91 30 36 
397 651 210 113 25 39 
397 651 211 86 26 30 
396 648 212 65 22 27 
396 648 213 73 27 29 
396 649 212 66 24 33 
397 648 213 77 25 30 
397 649 212 70 29 34 
397 649 213 91 32 38 
397 648 214 104 32 37 
397 648 215 118 29 41 
397 649 214 115 32 41 
397 649 215 126 25 43 
397 650 212 71 29 31 
397 650 213 96 30 37 
397 651 212 68 23 26 
397 651 213 95 22 35 
397 650 214 119 25 43 
397 650 215 131 22 46 
397 651 214 119 23 45 
398 651 214 119 31 49 
398 651 215 128 28 47 
396 652 208 124 20 35 
397 652 208 125 22 36 
397 652 209 123 22 39 
397 653 208 123 21 34 
397 653 209 121 23 39 
397 652 210 108 28 41 
397 652 211 78 24 30 
397 653 210 108 29 42 
397 653 211 79 26 34 
397 654 208 122 17 37 
397 654 209 121 19 38 
397 655 208 122 15 36 
398 653 210 100 29 40 
398 653 211 77 25 36 
398 654 209 117 22 38 
398 655 208 121 17 38 
398 655 209 116 26 41 
398 654 210 98 28 37 
398 654 211 73 24 35 
398 655 210 94 28 36 
398 655 211 70 26 32 
397 652 212 62 22 29 
398 652 212 69 29 36 
398 652 213 93 29 42 
398 653 212 60 29 31 
398 653 213 78 43 43 
398 652 214 112 39 54 
398 652 215 112 35 49 
398 653 214 85 42 45 
398 653 215 72 29 34 
398 654 212 59 30 32 
398 654 213 60 35 31 
398 655 212 61 33 37 
398 655 213 60 37 35 
399 655 213 61 38 39 
398 654 214 56 30 29 
398 654 215 49 25 29 
398 655 214 54 32 29 
399 654 215 46 26 32 
399 655 214 55 32 34 
399 655 215 50 28 34 
397 648 216 121 24 34 
397 648 217 123 27 36 
397 649 216 130 23 38 
397 649 217 130 23 35 
397 648 218 118 33 44 
397 648 219 94 30 44 
397 650 216 135 20 45 
398 649 217 136 23 41 
398 648 219 106 31 46 
398 649 218 132 31 45 
398 649 219 118 30 45 
398 650 216 136 22 45 
398 650 217 138 22 46 
398 651 216 129 22 43 
398 651 217 130 24 44 
398 650 218 137 25 49 
398 650 219 127 29 48 
398 651 218 131 26 48 
398 651 219 125 33 50 
398 648 220 63 27 32 
398 648 221 43 30 31 
398 649 220 78 29 32 
398 649 221 47 28 29 
398 648 222 46 27 27 
398 648 223 54 27 27 
398 649 222 47 27 31 
398 649 223 58 31 36 
398 650 220 91 33 37 
398 650 221 57 30 27 
398 651 220 98 37 44 
398 651 221 66 29 31 
398 650 222 58 32 34 
398 650 223 68 41 44 
398 651 222 61 32 36 
398 651 223 66 38 43 
399 651 222 60 33 36 
399 651 223 63 39 42 
398 652 216 101 14 31 
398 652 217 99 18 28 
398 653 216 58 19 25 
398 653 217 65 18 22 
399 653 217 47 24 25 
398 652 218 107 29 39 
398 652 219 112 41 49 
398 653 218 84 26 31 
399 653 218 63 23 26 
399 653 219 79 33 35 
399 654 216 41 27 31 
399 654 217 50 27 32 
399 655 216 48 28 35 
399 655 217 62 31 39 
399 654 218 65 30 36 
399 654 219 74 37 38 
399 655 218 76 37 46 
399 655 219 80 39 46 
398 652 220 98 42 48 
399 652 220 93 43 48 
399 652 221 67 33 36 
399 653 220 75 36 37 
399 653 221 57 31 33 
399 652 222 54 30 34 
399 652 223 55 31 37 
399 653 222 42 28 29 
399 653 223 39 27 29 
399 654 220 66 33 34 
399 654 221 59 32 35 
399 655 220 75 33 41 
399 655 221 70 32 40 
399 654 222 51 30 33 
399 654 223 50 28 32 
399 655 222 73 37 47 
399 655 223 76 37 47 
392 656 192 44 33 34 
392 656 193 34 33 35 
392 657 192 49 34 33 
393 656 193 33 32 35 
393 657 192 43 33 32 
393 657 193 38 34 36 
393 656 194 33 33 37 
393 656 195 35 31 35 
393 657 194 38 32 35 
393 658 192 49 33 32 
393 658 193 47 33 34 
393 659 192 54 33 34 
393 659 193 52 32 32 
393 658 194 50 31 32 
394 656 195 37 32 36 
394 657 194 45 30 30 
394 657 195 45 28 31 
394 659 193 60 34 32 
394 658 194 55 31 29 
394 658 195 64 32 33 
394 659 194 68 34 33 
394 659 195 82 35 40 
394 656 196 36 30 34 
394 656 197 48 28 30 
394 657 196 58 29 34 
394 657 197 62 30 33 
395 657 197 75 33 36 
394 656 198 62 31 34 
395 656 198 70 37 39 
395 656 199 74 39 40 
395 657 198 75 31 35 
395 657 199 76 29 32 
394 658 196 73 36 35 
394 659 196 87 40 42 
395 658 196 83 41 40 
395 658 197 84 35 37 
395 659 196 93 41 43 
395 659 197 98 37 42 
395 658 198 90 31 35 
395 658 199 92 30 37 
395 659 198 101 32 39 
393 660 192 60 33 34 
393 660 193 60 35 33 
393 661 192 69 34 34 
393 662 192 79 42 41 
393 663 192 81 44 41 
394 660 193 68 34 31 
394 661 193 80 39 38 
394 660 194 83 40 37 
394 660 195 93 41 41 
394 661 194 87 40 38 
394 661 195 90 40 37 
395 660 195 95 38 38 
395 661 195 95 39 37 
394 662 193 84 41 42 
394 663 193 87 43 43 
394 662 194 88 41 38 
394 662 195 90 41 35 
394 663 194 89 41 40 
394 663 195 89 42 35 
395 662 195 93 38 30 
