ply
format ascii 1.0
comment Created by CloudCompare v2.10.1 (Zephyrus)
comment Created 1/31/20 6:24 PM
obj_info Generated by CloudCompare!
element vertex 2169
property float x
property float y
property float z
property uchar red
property uchar green
property uchar blue
end_header
414 933 249 89 79 76 
415 932 248 87 76 73 
415 932 249 89 79 76 
415 933 249 90 80 77 
415 933 250 90 81 78 
417 911 233 60 52 53 
418 911 233 60 53 54 
419 911 232 60 54 55 
419 911 233 61 55 56 
418 911 234 60 54 53 
419 911 234 60 54 53 
420 911 232 61 54 55 
420 911 233 62 53 54 
421 911 233 60 53 53 
420 911 234 60 54 54 
421 910 234 60 55 54 
422 910 233 62 57 55 
422 911 233 63 55 53 
423 910 233 60 56 54 
423 911 232 64 54 53 
423 911 233 61 53 51 
422 910 234 61 55 56 
427 908 231 64 55 55 
427 909 231 66 58 55 
426 910 231 63 60 57 
426 911 231 66 61 59 
427 910 231 65 58 54 
427 911 231 64 59 56 
431 907 227 64 54 54 
429 907 230 64 54 55 
429 907 231 64 54 55 
430 907 228 64 54 54 
430 907 229 64 55 54 
431 906 228 64 54 55 
431 906 229 65 55 56 
431 907 228 65 55 55 
431 907 229 65 55 56 
430 907 230 65 55 56 
431 908 227 65 55 56 
431 909 227 64 55 55 
429 908 229 62 54 53 
429 909 229 66 54 54 
428 908 230 63 55 54 
428 908 231 68 58 57 
428 909 230 66 54 54 
428 909 231 67 59 56 
429 908 230 66 55 55 
429 909 230 69 54 56 
429 910 229 68 54 53 
429 911 229 66 58 59 
428 910 230 68 57 56 
428 910 231 66 60 56 
428 911 230 66 61 61 
429 910 230 68 55 55 
429 911 230 68 60 60 
430 908 228 63 55 55 
430 908 229 63 54 54 
430 909 228 65 55 56 
430 909 229 65 53 55 
431 908 228 63 55 54 
431 909 228 63 53 54 
430 910 229 68 56 58 
430 911 229 69 58 59 
431 910 228 70 59 61 
431 910 229 72 58 60 
431 911 229 71 60 59 
430 911 230 72 63 61 
431 911 230 74 65 63 
424 909 233 59 54 54 
425 909 232 59 51 52 
425 909 233 65 53 55 
424 910 232 59 56 54 
424 910 233 58 55 53 
424 911 232 63 55 53 
425 910 232 59 54 52 
425 911 232 63 56 56 
426 908 232 61 53 51 
426 909 232 64 54 54 
427 908 232 61 54 53 
427 909 232 63 54 52 
426 910 232 62 56 54 
416 913 231 60 55 56 
417 913 231 59 53 55 
416 914 231 64 60 59 
416 915 231 65 59 60 
417 914 230 61 55 56 
417 914 231 62 57 57 
417 915 230 66 59 59 
417 915 231 65 59 59 
418 913 231 59 55 57 
419 912 231 57 52 56 
419 913 231 59 55 55 
418 914 230 63 57 57 
418 914 231 63 57 57 
418 915 230 66 60 60 
418 915 231 68 62 62 
419 914 231 63 58 57 
419 915 231 69 62 63 
417 916 231 67 60 61 
418 916 231 68 61 62 
419 916 231 69 62 63 
420 913 231 60 56 57 
416 912 232 57 54 55 
416 912 233 57 53 53 
416 913 232 59 54 54 
416 913 233 57 54 54 
417 912 232 56 53 55 
417 912 233 57 52 53 
416 912 234 54 49 48 
416 914 232 59 54 54 
416 915 232 70 64 64 
417 915 232 69 61 62 
418 912 232 57 52 56 
419 912 232 58 53 56 
419 913 232 60 56 55 
416 916 232 71 65 63 
416 916 233 71 64 63 
416 917 233 65 58 58 
417 916 232 69 62 61 
417 916 233 65 58 57 
417 917 233 65 58 57 
416 917 234 68 59 61 
417 917 234 62 56 55 
416 918 234 63 55 55 
416 918 235 64 57 55 
416 919 235 67 60 59 
417 918 234 64 57 56 
417 918 235 67 60 59 
417 919 235 69 62 61 
418 916 232 68 61 61 
418 916 233 66 59 60 
418 917 232 65 59 60 
418 917 233 64 58 58 
419 916 232 67 60 61 
419 917 232 64 57 59 
419 917 233 63 56 58 
419 917 234 64 57 59 
418 918 234 64 57 57 
418 918 235 67 60 59 
418 919 235 68 60 59 
419 918 234 65 58 58 
419 918 235 66 59 59 
416 919 236 70 62 61 
417 919 236 68 61 59 
417 919 237 66 59 58 
418 919 236 66 59 58 
418 919 237 67 60 59 
419 918 236 66 58 58 
419 919 236 66 58 58 
419 919 237 66 59 58 
419 919 238 66 59 59 
420 912 232 58 54 55 
420 913 232 63 58 58 
421 912 232 60 54 53 
421 913 232 63 57 58 
420 914 232 66 60 60 
420 915 232 67 60 61 
421 914 232 64 58 58 
421 915 232 62 55 55 
421 915 233 61 54 55 
422 912 232 62 55 54 
422 912 233 63 55 54 
422 913 232 63 57 56 
423 912 232 62 55 56 
423 913 232 62 56 56 
422 914 232 62 56 56 
422 915 232 62 55 55 
422 915 233 62 55 55 
423 914 232 62 56 56 
423 915 232 64 58 58 
420 916 232 64 58 58 
420 916 233 63 56 58 
420 917 233 64 57 59 
421 916 232 63 56 56 
421 916 233 63 56 56 
421 917 233 64 58 58 
420 917 234 66 58 60 
420 917 235 67 59 60 
421 916 234 64 58 58 
421 917 234 65 58 59 
421 917 235 65 58 59 
420 918 235 66 59 60 
421 918 235 67 59 60 
422 916 233 64 58 57 
423 916 233 65 59 59 
422 916 234 65 58 58 
422 917 234 64 58 58 
422 917 235 67 60 60 
423 916 234 65 59 58 
423 917 234 66 60 59 
423 917 235 68 61 61 
420 918 236 67 59 60 
420 919 236 66 59 59 
420 919 237 67 59 59 
421 918 236 68 60 61 
421 918 237 70 61 62 
421 919 237 70 62 62 
420 919 238 67 59 59 
421 919 238 68 60 60 
421 919 239 67 59 59 
422 917 236 69 61 61 
423 917 236 70 62 62 
422 918 236 68 60 61 
422 918 237 69 62 62 
423 918 237 69 62 62 
422 918 238 69 61 62 
422 919 238 67 60 60 
422 919 239 69 61 61 
423 918 238 68 61 60 
423 919 238 68 61 60 
423 919 239 69 62 61 
416 920 236 69 61 61 
416 920 237 65 58 57 
417 920 237 67 59 58 
416 920 238 64 57 56 
416 920 239 65 58 57 
416 921 238 65 58 57 
416 921 239 66 59 59 
417 920 238 67 59 58 
417 920 239 67 60 58 
417 921 239 68 61 59 
418 920 238 67 60 59 
418 920 239 68 61 59 
418 921 239 69 62 60 
419 920 238 68 61 60 
419 920 239 68 61 59 
419 921 239 68 61 60 
418 922 239 70 62 61 
420 920 238 66 59 59 
420 920 239 68 61 60 
420 921 239 68 60 60 
421 920 238 65 57 57 
421 920 239 67 58 59 
421 921 239 67 59 60 
422 920 239 68 59 61 
425 912 231 65 57 57 
425 913 231 67 60 61 
425 914 231 66 59 60 
426 912 231 66 59 58 
426 913 231 67 61 60 
427 912 231 68 61 60 
427 913 231 69 62 60 
426 914 231 67 61 60 
427 914 231 69 63 62 
428 912 230 71 64 65 
428 912 231 71 64 65 
428 913 231 73 67 67 
429 912 230 73 65 64 
429 912 231 73 64 62 
429 913 231 74 65 63 
428 914 231 74 68 66 
430 912 230 72 64 62 
430 912 231 73 64 62 
430 913 231 74 65 62 
431 912 230 75 67 65 
431 912 231 73 66 63 
424 912 232 63 55 56 
424 913 232 62 57 58 
425 912 232 64 56 56 
425 913 232 63 58 58 
424 914 232 65 59 59 
424 915 232 65 59 59 
424 915 233 66 59 59 
425 914 232 66 59 59 
425 915 232 67 60 60 
425 915 233 68 61 61 
426 915 232 68 61 60 
426 915 233 69 62 61 
427 914 232 72 65 64 
427 915 232 69 61 61 
427 915 233 72 64 62 
427 915 234 73 65 63 
424 916 233 66 60 59 
425 916 233 68 61 60 
424 916 234 67 61 60 
424 916 235 68 61 61 
424 917 235 69 61 61 
425 916 234 69 62 62 
425 916 235 69 61 62 
425 917 235 69 61 61 
426 916 233 69 63 61 
426 916 234 70 63 62 
426 916 235 71 63 62 
426 917 235 70 62 62 
427 916 234 75 66 64 
427 916 235 75 66 64 
424 917 236 70 62 62 
424 917 237 70 63 63 
425 917 236 70 62 62 
425 917 237 71 64 63 
425 917 238 74 66 65 
424 918 237 70 62 62 
424 918 238 69 62 61 
424 918 239 74 64 62 
424 919 239 73 64 62 
425 918 238 76 67 65 
425 918 239 76 67 64 
426 917 236 73 64 64 
426 917 237 76 67 65 
427 916 236 76 66 64 
427 917 236 76 67 66 
427 917 237 78 68 66 
426 917 238 76 68 65 
427 917 238 76 67 65 
427 917 239 74 65 63 
426 918 238 76 67 65 
426 918 239 76 67 65 
427 918 239 75 66 64 
429 913 232 75 65 65 
428 914 232 74 68 65 
428 914 233 75 67 64 
428 915 233 75 67 64 
429 914 232 76 67 66 
429 914 233 76 67 66 
428 915 234 75 66 64 
428 915 235 75 67 65 
429 914 234 75 66 65 
429 915 234 75 65 65 
429 915 235 76 66 65 
430 913 232 75 66 64 
430 913 233 76 67 65 
431 912 232 74 66 64 
431 913 232 74 66 64 
431 913 233 74 67 64 
431 913 234 76 66 63 
430 914 233 77 66 65 
430 914 234 76 66 65 
430 914 235 76 66 65 
430 915 235 76 66 65 
431 914 234 76 65 64 
431 914 235 75 65 65 
429 915 236 76 66 65 
430 915 236 76 67 65 
430 915 237 77 68 66 
431 914 236 76 67 67 
431 915 236 75 66 65 
431 915 237 77 68 68 
430 915 238 77 69 67 
431 915 238 77 68 67 
431 915 239 75 67 64 
428 916 235 77 68 66 
428 916 236 78 68 67 
428 916 237 80 70 67 
429 916 236 78 68 67 
429 916 237 78 68 66 
428 916 238 80 70 67 
428 917 238 78 68 65 
428 917 239 76 66 63 
429 916 238 78 68 65 
429 916 239 78 70 66 
429 917 238 78 68 64 
429 917 239 78 68 64 
430 916 238 77 68 66 
430 916 239 77 69 65 
431 916 239 76 68 65 
423 919 240 74 65 63 
416 921 240 67 59 60 
417 921 240 67 60 59 
416 922 240 68 60 60 
416 923 240 70 62 63 
417 922 240 70 62 61 
417 923 240 69 62 62 
419 921 240 68 60 60 
418 922 240 70 61 62 
418 923 240 69 61 61 
418 923 241 69 61 61 
419 922 240 69 61 61 
419 923 241 68 59 60 
416 924 240 70 63 64 
416 924 241 69 62 63 
417 924 241 69 62 62 
416 925 242 69 62 62 
417 925 242 69 61 62 
416 926 242 70 62 62 
416 926 243 70 62 62 
416 927 243 72 63 61 
417 926 243 71 63 62 
417 927 243 75 66 63 
418 924 241 69 62 62 
419 924 241 67 59 59 
418 924 242 68 61 61 
418 925 242 69 61 62 
418 925 243 73 65 65 
419 924 242 68 60 60 
419 924 243 72 63 61 
419 925 243 73 65 64 
418 926 243 74 66 64 
417 927 244 75 66 62 
419 925 244 73 65 63 
418 926 244 76 68 65 
418 927 244 76 67 64 
418 927 245 79 69 65 
419 926 244 75 67 64 
419 926 245 75 67 63 
419 927 245 77 70 66 
419 927 246 80 71 67 
419 927 247 83 74 70 
420 921 240 67 59 60 
421 920 240 67 57 59 
421 921 240 66 57 59 
421 921 241 67 57 60 
420 922 240 68 60 60 
420 922 241 66 58 58 
420 923 241 66 59 59 
421 922 241 66 57 59 
420 923 242 67 60 59 
421 922 242 67 57 60 
421 923 242 66 57 58 
421 923 243 65 55 56 
422 920 240 68 59 60 
422 921 240 68 59 61 
422 921 241 70 60 63 
423 920 240 72 63 62 
423 921 240 73 64 63 
423 921 241 72 63 62 
423 921 242 70 60 59 
422 922 241 71 60 64 
422 922 242 70 58 62 
422 923 242 67 54 60 
422 923 243 68 56 59 
423 922 242 68 59 60 
423 922 243 67 58 58 
423 923 243 67 57 58 
422 923 244 67 55 58 
423 923 244 69 60 60 
423 923 245 74 65 63 
420 924 242 70 62 61 
420 924 243 68 60 58 
420 925 243 70 62 60 
421 924 243 67 57 57 
420 925 244 70 62 60 
420 925 245 72 63 62 
421 924 244 68 58 58 
421 925 244 69 59 59 
421 925 245 72 63 62 
421 925 246 78 69 68 
420 926 244 72 64 61 
420 926 245 74 65 62 
420 926 246 78 70 66 
420 926 247 82 73 71 
420 927 247 84 75 72 
421 926 246 78 69 67 
421 926 247 83 73 72 
422 924 244 70 58 59 
422 924 245 74 64 64 
422 925 245 76 66 64 
423 924 245 75 65 63 
422 925 246 81 71 69 
422 925 247 83 73 73 
423 924 246 81 71 69 
423 924 247 83 73 71 
423 925 247 83 73 72 
420 926 248 85 76 73 
420 927 248 86 78 74 
420 927 249 85 75 72 
421 926 248 84 75 73 
421 926 249 85 75 73 
421 927 249 84 74 72 
420 927 250 84 73 69 
421 927 250 81 70 66 
421 927 251 78 66 64 
422 925 248 83 72 73 
423 925 248 83 73 73 
423 925 249 82 70 69 
423 925 250 79 68 67 
422 926 248 83 72 72 
422 926 249 82 71 71 
423 926 249 83 71 71 
422 926 250 79 68 68 
422 926 251 75 65 65 
422 927 251 76 66 64 
423 926 250 78 67 67 
423 926 251 76 66 64 
421 927 252 76 67 67 
422 927 252 76 67 66 
422 927 253 75 67 65 
423 926 252 75 66 64 
423 926 253 75 66 64 
423 927 252 75 66 64 
423 927 253 77 67 63 
422 927 254 77 68 66 
422 927 255 80 71 69 
423 927 254 77 68 65 
423 927 255 76 68 66 
424 919 240 74 64 62 
425 919 240 75 65 64 
425 919 241 74 64 64 
426 918 240 76 67 65 
426 919 240 76 67 66 
426 919 241 74 65 65 
427 918 240 76 68 66 
427 918 241 76 67 66 
427 919 240 76 67 67 
427 919 241 76 66 66 
427 919 242 76 67 66 
431 915 240 75 67 65 
428 917 240 77 67 65 
429 917 240 77 68 64 
429 917 241 76 67 65 
428 918 240 77 67 65 
428 918 241 75 66 64 
429 918 241 75 66 64 
428 918 242 75 66 64 
428 919 242 74 65 63 
428 919 243 74 65 62 
429 918 242 74 64 62 
429 918 243 70 61 58 
429 919 243 72 63 61 
430 916 240 75 67 64 
430 917 240 76 68 65 
430 917 241 75 66 63 
431 916 240 74 66 65 
431 916 241 71 63 62 
430 917 242 71 61 57 
430 917 243 69 59 54 
431 916 242 66 58 56 
431 917 242 68 60 58 
431 917 243 66 58 55 
430 918 242 72 62 59 
430 918 243 69 60 56 
428 919 244 75 65 63 
429 918 244 68 59 56 
429 919 244 72 63 60 
429 919 245 74 64 62 
429 919 246 75 64 62 
431 917 244 64 56 54 
431 917 245 69 59 57 
431 917 246 74 64 62 
430 918 244 69 59 55 
430 918 245 71 61 58 
430 919 245 74 62 60 
431 918 245 70 61 59 
430 918 246 74 63 58 
430 919 246 74 65 63 
430 919 247 74 64 60 
431 918 246 74 63 59 
431 918 247 73 62 58 
430 919 248 73 62 59 
431 918 248 70 60 58 
431 919 248 71 59 55 
431 919 249 68 56 53 
424 920 240 74 64 62 
424 920 241 72 62 61 
424 921 241 71 61 60 
425 920 240 74 64 63 
425 920 241 72 62 61 
424 921 242 71 61 60 
424 921 243 69 60 58 
425 920 242 72 62 61 
425 921 242 71 61 61 
425 921 243 71 62 61 
424 922 243 70 60 59 
426 920 241 73 63 63 
426 920 242 72 63 62 
426 920 243 74 64 63 
426 921 243 74 65 64 
427 920 242 76 67 65 
427 920 243 77 68 66 
425 921 244 74 65 65 
424 922 244 72 63 63 
424 922 245 78 69 69 
424 923 244 75 67 65 
424 923 245 80 71 69 
425 922 244 76 66 66 
425 922 245 81 71 70 
424 923 246 84 74 72 
424 923 247 85 75 73 
425 922 246 83 74 72 
425 923 246 84 74 73 
425 923 247 83 73 71 
426 921 244 76 66 65 
426 921 245 80 70 69 
427 920 244 79 68 67 
427 920 245 80 69 66 
427 921 244 80 69 67 
427 921 245 81 71 68 
427 921 246 81 71 67 
427 921 247 78 67 63 
426 922 245 81 71 71 
426 922 246 83 72 71 
426 922 247 79 68 66 
426 923 247 81 70 69 
427 922 246 83 72 70 
427 922 247 76 65 63 
424 924 246 81 72 70 
424 924 247 84 73 72 
428 920 244 76 66 64 
428 920 245 78 67 65 
429 920 245 75 65 64 
428 920 246 77 65 63 
428 920 247 73 61 60 
428 921 246 80 69 66 
428 921 247 76 66 63 
429 920 246 74 63 63 
429 920 247 73 63 61 
425 923 248 80 69 67 
426 922 248 74 63 62 
426 923 248 74 63 63 
426 923 249 73 62 61 
427 922 248 72 62 60 
427 922 249 73 63 62 
427 923 249 73 62 62 
426 923 250 73 60 60 
426 923 251 73 61 61 
427 923 250 72 60 60 
427 923 251 73 63 63 
427 923 252 73 63 62 
424 924 248 82 71 69 
424 924 249 79 68 67 
424 925 248 83 72 71 
424 925 249 78 67 66 
425 924 248 81 70 68 
425 924 249 75 64 62 
424 925 250 72 63 61 
424 925 251 74 66 64 
425 924 250 72 62 61 
425 924 251 70 61 62 
425 925 251 72 64 62 
424 926 251 75 67 66 
426 924 250 70 58 57 
426 924 251 73 63 64 
424 925 252 73 65 63 
425 925 252 73 65 64 
425 925 253 71 63 61 
425 925 254 73 65 64 
424 926 252 74 65 64 
424 926 253 74 65 63 
424 926 254 77 68 65 
424 926 255 75 67 65 
424 927 255 76 67 66 
425 926 254 74 66 64 
425 926 255 73 65 64 
426 924 252 72 62 63 
426 924 253 72 62 63 
426 925 252 72 62 63 
426 925 253 72 64 63 
427 924 252 72 63 60 
427 924 253 72 63 61 
426 925 254 72 64 63 
426 925 255 73 65 65 
427 924 254 73 64 63 
427 925 254 73 65 65 
427 925 255 74 65 65 
428 921 248 75 65 64 
428 921 249 75 64 63 
429 920 248 75 64 62 
429 921 248 78 66 65 
429 921 249 74 62 61 
429 921 250 72 59 60 
428 922 248 73 65 62 
428 922 249 74 64 63 
428 922 250 71 61 61 
428 922 251 69 59 60 
428 923 251 71 61 62 
429 922 250 70 57 58 
429 922 251 70 58 60 
430 920 248 74 62 60 
430 920 249 72 59 57 
430 920 250 69 55 55 
430 921 250 70 57 58 
430 921 251 70 57 59 
431 920 250 66 55 52 
431 921 250 67 55 55 
431 921 251 69 57 58 
430 922 251 71 58 59 
428 923 252 72 62 63 
428 923 253 71 61 59 
429 922 252 70 60 61 
429 923 252 71 59 61 
429 923 253 71 61 59 
429 923 254 74 63 61 
431 921 252 71 60 59 
430 922 252 72 62 62 
430 923 252 73 62 63 
430 923 253 72 61 60 
431 922 252 71 61 61 
431 922 253 74 63 63 
431 923 253 75 64 63 
430 923 254 76 64 62 
430 923 255 80 68 66 
431 923 254 78 67 65 
431 923 255 80 69 66 
428 924 252 74 64 62 
428 924 253 71 61 59 
428 924 254 72 63 61 
428 924 255 75 66 64 
428 925 255 74 66 64 
429 924 254 76 66 64 
429 924 255 80 69 67 
430 924 255 79 67 65 
439 903 226 68 60 55 
433 905 227 63 54 53 
432 906 227 64 54 55 
432 907 226 65 55 55 
432 907 227 65 55 55 
433 906 226 63 54 53 
433 906 227 63 54 53 
433 907 226 63 55 54 
435 905 225 67 57 53 
434 905 226 66 56 53 
434 905 227 65 55 53 
435 904 226 66 55 52 
435 905 226 65 55 52 
434 906 225 66 57 55 
434 907 225 66 57 56 
435 906 224 66 56 54 
435 906 225 68 58 55 
435 907 224 66 57 55 
435 907 225 67 58 56 
434 906 226 66 57 55 
433 905 228 62 53 53 
432 906 228 64 55 55 
432 908 226 65 57 56 
432 908 227 64 55 54 
432 909 227 69 56 59 
433 908 226 65 57 56 
433 909 226 64 56 56 
433 909 227 72 58 61 
432 910 227 67 56 59 
433 910 227 72 59 62 
434 908 225 63 55 55 
435 908 225 65 56 56 
434 908 226 65 57 58 
434 909 226 64 56 57 
434 909 227 72 55 62 
435 909 226 66 57 56 
435 909 227 76 57 63 
434 910 227 72 59 63 
435 910 227 71 61 62 
432 910 228 70 60 60 
432 910 229 71 61 59 
432 911 229 71 61 59 
433 910 228 72 61 61 
433 911 229 73 64 61 
432 911 230 75 66 63 
433 911 230 75 67 65 
433 911 231 76 66 66 
434 910 228 72 63 63 
434 911 229 74 64 63 
435 910 228 71 65 64 
435 910 229 74 67 66 
435 911 229 75 68 68 
434 911 230 76 67 68 
434 911 231 77 66 67 
435 911 230 76 68 68 
435 911 231 77 68 67 
436 905 225 68 58 55 
437 905 225 67 57 54 
436 904 226 66 57 53 
436 904 227 65 56 55 
436 905 226 66 56 53 
437 904 226 66 57 54 
436 906 224 66 56 54 
436 906 225 68 57 55 
436 907 224 62 52 51 
437 906 224 66 56 54 
437 907 224 65 54 54 
438 905 225 69 59 57 
439 904 225 69 61 58 
439 905 225 68 59 57 
438 904 226 68 59 56 
439 904 226 69 60 57 
438 906 224 68 57 56 
438 907 224 62 51 51 
438 907 225 88 65 74 
439 906 225 62 52 52 
439 907 225 72 59 60 
436 908 224 63 54 54 
436 908 225 68 54 55 
437 908 224 66 57 56 
437 908 225 69 56 56 
436 909 226 77 58 62 
436 909 227 74 59 61 
437 909 226 76 59 60 
437 909 227 74 62 61 
436 910 227 72 59 60 
437 910 227 73 63 62 
438 908 225 78 59 64 
439 908 225 82 60 67 
438 908 226 81 58 65 
438 909 226 77 59 61 
438 909 227 75 66 63 
439 908 226 77 57 63 
439 909 226 75 62 61 
439 909 227 74 67 60 
438 910 227 75 67 64 
436 910 228 73 66 66 
436 910 229 76 70 70 
436 911 229 76 70 70 
437 910 228 74 67 66 
437 910 229 74 68 67 
436 911 230 77 71 69 
436 911 231 77 69 65 
437 910 230 76 68 66 
437 911 230 77 71 67 
437 911 231 76 68 64 
439 909 228 75 67 63 
439 909 229 75 65 65 
438 910 228 77 69 66 
438 910 229 74 66 64 
439 910 228 75 66 63 
439 910 229 74 65 63 
438 910 230 73 64 63 
438 910 231 76 68 65 
439 910 230 75 65 64 
439 910 231 76 67 63 
435 911 232 77 66 65 
435 911 233 77 65 64 
435 911 234 77 65 65 
436 911 232 77 67 64 
436 911 233 78 67 65 
437 911 232 76 67 64 
437 911 233 76 68 66 
436 911 234 76 64 64 
436 911 235 74 63 62 
437 911 234 76 65 65 
437 911 235 73 62 61 
439 909 234 72 63 62 
439 909 235 71 63 62 
438 910 232 76 68 66 
438 910 233 77 69 67 
439 910 232 77 67 63 
439 910 233 76 68 64 
438 910 234 72 63 62 
438 910 235 70 61 60 
439 910 234 73 65 63 
439 910 235 70 62 61 
436 911 236 72 64 61 
436 911 237 72 64 61 
437 910 237 67 56 57 
437 911 236 70 59 59 
437 911 237 69 60 60 
436 911 238 70 63 60 
436 911 239 71 64 63 
437 910 238 65 57 57 
437 910 239 64 57 57 
437 911 238 67 60 60 
437 911 239 65 57 58 
439 909 236 66 59 59 
439 909 237 66 59 59 
439 909 238 68 61 59 
439 909 239 68 59 59 
438 910 236 68 59 60 
438 910 237 66 55 57 
439 910 236 69 61 60 
439 910 237 66 59 59 
438 910 238 65 55 56 
438 910 239 70 63 62 
439 910 238 66 57 57 
439 910 239 70 60 59 
440 907 225 68 59 58 
440 908 225 84 56 70 
440 908 226 76 58 66 
440 909 227 73 67 61 
441 908 226 73 59 67 
441 908 227 74 65 57 
441 909 227 75 66 61 
440 909 228 76 67 64 
440 909 229 73 64 63 
441 909 228 76 65 64 
441 909 229 75 64 64 
440 909 230 76 65 63 
440 909 231 77 66 64 
441 909 230 76 65 63 
441 909 231 75 65 64 
442 909 228 75 64 63 
442 909 229 73 63 61 
442 908 231 72 64 60 
442 909 230 72 62 60 
442 909 231 69 61 59 
443 908 230 74 66 63 
443 908 231 74 65 61 
443 909 230 73 63 62 
443 907 238 69 62 59 
443 907 239 64 57 54 
440 909 232 74 64 62 
440 909 233 72 62 62 
441 909 232 71 62 62 
441 909 233 72 61 61 
440 909 234 72 62 61 
440 909 235 67 59 56 
441 909 234 70 61 61 
441 909 235 67 61 60 
442 908 232 72 63 60 
442 908 233 69 60 57 
442 909 232 69 61 60 
442 909 233 70 62 62 
443 908 232 70 61 56 
443 908 233 68 60 57 
442 908 234 66 59 57 
442 908 235 67 60 59 
442 909 234 66 58 56 
443 908 234 63 55 52 
443 908 235 67 59 55 
440 909 236 66 59 57 
440 909 237 68 62 59 
441 908 236 65 58 58 
441 908 237 68 61 60 
441 909 236 67 60 59 
441 909 237 73 67 65 
440 909 238 68 61 58 
440 909 239 69 62 59 
441 908 238 67 60 57 
441 908 239 68 60 58 
441 909 238 68 61 59 
442 908 236 66 59 58 
442 908 237 68 61 60 
443 908 236 67 59 56 
443 908 237 66 60 58 
442 908 238 68 60 59 
442 908 239 66 58 56 
443 908 238 67 62 59 
445 907 235 63 55 53 
444 907 236 61 55 51 
444 907 237 65 58 55 
445 907 236 62 55 52 
445 907 237 62 55 51 
444 907 238 66 59 55 
444 907 239 66 58 54 
445 907 238 62 54 51 
445 907 239 61 54 50 
446 907 237 63 55 53 
446 907 238 62 54 51 
446 907 239 59 51 48 
447 907 239 59 51 49 
444 908 232 67 58 55 
444 908 233 65 56 53 
444 908 234 65 58 54 
444 908 235 66 59 55 
445 908 234 66 58 56 
445 908 235 62 56 52 
444 908 236 65 59 55 
444 908 237 68 62 59 
436 911 240 71 64 63 
436 911 241 68 61 59 
437 910 240 70 62 62 
437 910 241 72 66 64 
437 911 240 66 58 59 
437 911 241 69 61 60 
436 911 242 71 63 60 
437 910 242 71 64 61 
437 911 242 71 63 60 
437 911 243 72 65 60 
439 909 240 68 60 59 
439 909 241 68 60 58 
439 909 242 70 62 60 
439 909 243 68 61 59 
438 910 240 71 65 63 
438 910 241 66 60 57 
438 910 242 66 60 56 
438 910 243 73 66 63 
437 911 244 72 63 61 
439 908 244 75 69 68 
439 909 244 73 66 64 
439 909 245 71 64 62 
438 910 244 73 66 64 
438 910 245 71 65 63 
438 911 244 73 64 63 
438 911 245 69 60 59 
439 910 245 71 64 63 
439 911 245 68 62 59 
439 910 246 69 61 60 
439 911 246 66 59 57 
439 911 247 65 57 54 
441 907 243 63 54 52 
442 907 240 67 61 61 
442 907 241 66 59 58 
443 907 240 65 57 53 
443 907 241 63 55 52 
442 907 242 65 57 56 
442 907 243 65 57 54 
443 906 242 48 42 41 
443 906 243 49 43 39 
443 907 242 63 55 53 
441 907 244 72 65 64 
441 907 245 67 57 56 
442 907 244 63 55 53 
442 907 245 63 56 53 
442 907 246 65 55 53 
443 907 247 75 64 60 
440 908 240 67 58 53 
440 908 241 66 56 53 
440 909 240 70 63 61 
440 909 241 69 58 57 
441 908 240 66 59 56 
441 908 241 69 61 59 
440 908 242 68 59 59 
440 908 243 70 64 64 
441 908 242 64 56 53 
441 908 243 60 52 48 
442 908 240 67 59 58 
442 908 241 64 58 58 
440 908 244 68 61 60 
440 908 245 71 63 61 
440 909 245 70 62 61 
441 908 244 64 55 52 
441 908 245 69 59 58 
440 908 246 71 62 61 
440 909 246 70 62 60 
440 909 247 69 60 58 
441 908 246 70 60 59 
441 908 247 70 59 58 
441 909 247 68 59 57 
440 910 246 71 62 60 
440 910 247 67 58 56 
440 911 247 67 59 56 
441 910 247 67 58 55 
441 911 247 68 59 55 
442 908 246 69 58 56 
442 908 247 73 62 59 
443 908 247 74 64 60 
444 907 240 62 55 51 
444 907 241 52 46 43 
445 906 241 51 45 43 
445 907 240 64 55 51 
445 907 241 61 53 49 
444 906 242 51 44 40 
445 906 242 47 41 37 
446 905 242 48 42 36 
446 905 243 48 42 37 
447 905 243 48 42 37 
446 906 241 61 53 49 
446 907 240 63 55 52 
446 907 241 60 52 48 
447 907 240 60 51 49 
447 907 241 59 51 47 
446 906 242 52 45 42 
446 906 243 47 42 38 
447 906 243 55 49 46 
447 907 242 55 49 45 
447 907 243 58 51 47 
444 907 247 74 63 59 
445 907 247 69 58 54 
447 905 244 48 43 39 
446 906 245 64 55 48 
447 906 244 55 48 44 
447 906 245 57 49 45 
447 907 244 59 50 46 
447 907 245 64 54 49 
446 906 246 65 56 49 
446 906 247 64 54 47 
446 907 246 69 59 53 
446 907 247 67 57 55 
447 907 246 67 57 55 
447 908 245 66 55 53 
446 908 247 65 54 51 
447 908 246 63 53 51 
447 908 247 63 52 49 
441 910 248 67 57 55 
441 911 248 69 60 56 
442 908 248 73 62 58 
442 909 248 70 59 56 
443 908 248 73 63 59 
443 909 248 72 61 57 
443 909 249 72 61 59 
442 910 248 68 58 55 
442 910 249 69 59 57 
442 911 248 69 59 56 
442 911 249 71 61 57 
443 910 249 73 63 59 
443 911 249 73 63 59 
444 907 248 73 61 54 
445 907 248 72 61 54 
444 908 248 74 63 59 
444 908 249 73 62 57 
444 909 249 72 60 58 
445 908 248 71 61 55 
445 908 249 71 60 55 
445 909 249 71 60 55 
444 910 249 73 63 60 
444 911 249 74 63 59 
445 910 249 71 60 57 
445 911 249 71 61 58 
444 911 250 74 63 58 
445 911 250 71 60 57 
446 908 248 66 57 51 
446 909 248 62 53 44 
446 909 249 68 58 52 
447 908 248 64 54 48 
447 909 248 63 53 45 
447 909 249 62 53 44 
446 910 249 71 61 55 
446 911 249 76 66 60 
447 910 249 71 61 55 
447 911 249 76 66 60 
446 911 250 75 64 59 
447 911 250 80 69 61 
432 912 230 76 68 65 
432 912 231 76 67 64 
433 912 231 77 64 65 
432 912 232 75 66 64 
432 912 233 74 65 63 
432 913 233 73 65 63 
433 912 232 75 63 62 
433 912 233 74 63 61 
432 913 234 75 66 64 
432 913 235 75 64 64 
433 912 234 74 65 63 
433 913 234 75 66 65 
433 913 235 76 66 66 
432 914 235 75 65 65 
434 912 232 78 65 66 
434 912 233 76 66 64 
435 912 232 76 64 65 
435 912 233 77 66 65 
434 912 234 75 66 65 
434 912 235 73 64 61 
434 913 235 75 66 66 
435 912 234 75 64 63 
435 912 235 73 63 61 
433 913 236 76 67 67 
433 913 237 75 65 66 
433 913 238 72 63 63 
432 914 236 77 66 67 
432 914 237 76 67 68 
433 914 236 77 66 67 
433 914 237 76 66 67 
432 914 238 74 65 66 
432 914 239 72 64 64 
432 915 238 76 67 67 
432 915 239 73 66 65 
433 914 238 73 64 64 
433 914 239 71 62 62 
434 913 236 72 64 61 
434 913 237 72 64 63 
435 912 236 72 63 60 
435 912 237 72 64 61 
434 913 238 71 63 62 
434 913 239 70 62 61 
435 912 238 72 65 61 
435 912 239 72 65 62 
432 914 240 73 64 63 
432 915 240 72 64 64 
432 915 241 71 62 61 
433 914 240 72 63 63 
433 914 241 70 62 62 
432 915 242 66 58 58 
432 915 243 62 54 54 
433 914 242 67 58 59 
433 914 243 63 53 55 
433 915 242 66 58 59 
433 915 243 62 53 54 
434 913 240 71 62 63 
434 913 241 70 61 61 
435 912 240 70 61 60 
435 912 241 68 60 58 
435 913 240 76 69 69 
435 913 241 69 60 60 
434 913 242 69 60 61 
435 912 242 68 58 56 
435 912 243 67 59 58 
435 913 242 68 58 58 
435 913 243 68 58 58 
434 914 241 68 59 59 
434 914 242 67 57 58 
434 914 243 65 54 56 
433 915 244 63 53 53 
433 915 245 66 56 56 
433 915 246 69 62 61 
435 913 244 66 56 55 
435 913 245 66 56 54 
434 914 244 63 53 54 
434 914 245 67 57 57 
434 915 244 62 53 53 
434 915 245 68 59 59 
435 914 244 65 54 55 
435 914 245 68 58 57 
434 915 246 71 62 62 
434 915 247 69 61 59 
435 914 246 69 61 59 
435 915 246 70 62 61 
435 915 247 69 60 59 
432 916 241 71 62 60 
432 916 242 66 57 54 
432 916 243 65 56 54 
432 916 244 64 55 54 
432 916 245 67 58 58 
432 917 244 64 55 54 
432 917 245 71 61 59 
433 916 245 67 58 58 
432 916 246 72 63 63 
432 916 247 74 64 64 
432 917 246 72 64 62 
432 917 247 73 63 61 
433 916 246 70 63 62 
433 916 247 73 64 64 
432 918 247 73 61 59 
434 916 247 70 62 61 
436 912 241 69 61 59 
436 912 242 69 60 58 
436 912 243 69 60 58 
436 912 244 67 58 56 
436 913 244 66 57 54 
436 913 245 66 56 54 
437 912 244 69 59 57 
437 912 245 67 57 55 
437 913 245 65 55 53 
437 913 246 67 58 55 
436 914 245 68 58 56 
436 914 246 69 60 58 
436 915 247 68 58 57 
437 914 246 71 62 59 
437 914 247 72 62 60 
437 915 247 68 57 55 
438 912 245 66 58 56 
438 912 246 66 58 55 
438 913 246 70 62 59 
439 912 246 66 58 56 
439 912 247 68 60 57 
439 913 246 69 61 58 
439 913 247 70 62 59 
438 914 247 71 61 59 
438 915 247 65 54 53 
439 914 247 69 59 57 
439 915 247 65 54 52 
432 917 248 71 60 59 
433 916 248 68 59 58 
433 917 248 64 54 53 
433 917 249 62 52 52 
432 918 248 68 58 56 
432 918 249 63 53 51 
432 919 249 63 53 50 
433 918 249 60 50 49 
433 919 249 59 50 48 
432 919 250 63 54 51 
433 919 250 61 54 52 
434 916 248 66 58 57 
434 917 248 61 52 52 
434 917 249 59 51 50 
435 916 248 63 54 55 
435 917 248 61 51 52 
435 917 249 60 51 52 
434 918 249 59 52 51 
434 919 249 60 53 52 
435 918 249 62 54 54 
435 919 249 65 57 57 
434 919 250 65 57 56 
435 919 250 68 60 59 
438 915 248 66 54 53 
439 914 248 68 58 56 
439 915 248 67 56 54 
436 916 248 63 53 54 
436 917 248 63 53 52 
437 916 248 65 54 55 
437 917 248 67 57 55 
436 918 249 68 58 58 
436 919 249 69 60 58 
437 918 248 71 59 57 
437 918 249 70 61 57 
437 919 249 73 63 59 
436 919 250 72 63 59 
437 919 250 75 64 59 
438 916 248 69 57 57 
438 917 248 72 61 59 
439 916 248 71 59 58 
439 916 249 75 63 61 
439 917 248 75 63 61 
439 917 249 76 65 62 
438 918 249 73 62 59 
439 918 249 75 64 61 
438 919 250 76 65 60 
438 919 251 78 67 62 
439 918 250 78 66 62 
439 919 250 78 66 61 
439 919 251 80 67 60 
439 919 252 84 70 63 
432 920 250 64 55 52 
432 920 251 66 57 54 
432 921 251 69 60 57 
433 920 251 65 57 55 
434 920 251 70 61 59 
435 920 251 72 63 60 
432 921 252 71 61 59 
433 921 252 72 63 60 
432 922 252 73 63 59 
432 922 253 75 65 61 
433 922 252 75 65 62 
433 922 253 76 66 63 
432 922 254 79 68 64 
432 923 254 81 69 66 
432 923 255 84 72 69 
433 922 254 81 69 65 
433 923 254 83 70 67 
433 923 255 83 70 67 
434 921 252 75 64 61 
435 920 252 74 63 60 
435 921 252 76 64 61 
435 921 253 81 67 65 
434 922 253 80 67 64 
435 922 253 83 69 65 
434 922 254 80 69 64 
434 922 255 84 72 67 
434 923 255 83 70 66 
435 922 254 84 71 66 
435 922 255 84 71 66 
436 920 251 75 65 60 
437 920 251 77 66 61 
438 920 251 78 67 61 
439 920 251 80 68 61 
436 920 252 78 67 62 
436 921 252 81 68 63 
436 921 253 83 69 65 
437 920 252 80 69 64 
437 921 252 82 70 64 
437 921 253 85 72 67 
437 921 254 86 74 66 
436 922 254 86 72 66 
436 922 255 87 73 67 
437 922 254 86 72 67 
437 922 255 88 74 69 
438 920 252 82 70 63 
438 921 252 82 69 62 
438 921 253 87 74 66 
439 920 252 85 72 66 
439 920 253 89 76 68 
439 921 253 89 76 69 
438 921 254 88 76 67 
438 921 255 89 76 69 
439 920 254 88 75 67 
439 921 254 88 76 67 
439 921 255 89 76 69 
438 922 255 88 74 70 
440 912 247 71 62 58 
440 913 247 72 63 59 
440 912 248 71 62 58 
440 913 248 72 61 58 
441 912 248 73 64 60 
441 913 248 72 62 57 
441 913 249 73 63 57 
440 914 248 69 58 54 
440 915 248 70 60 56 
440 915 249 73 62 58 
441 914 249 74 64 58 
441 915 249 76 65 59 
441 915 250 77 65 58 
442 912 248 74 65 60 
442 912 249 73 63 57 
442 913 249 74 63 57 
443 912 249 74 63 58 
442 913 250 78 68 62 
443 912 250 78 67 61 
443 913 250 81 71 64 
442 914 249 77 66 59 
442 914 250 80 69 63 
442 915 250 83 71 63 
442 915 251 85 73 65 
443 914 250 83 73 67 
443 914 251 84 73 66 
443 915 251 87 73 65 
443 915 252 86 72 67 
440 916 249 75 65 60 
440 917 249 76 65 61 
441 916 249 76 64 59 
440 917 250 78 66 61 
441 916 250 79 68 61 
441 917 250 81 68 63 
441 917 251 86 74 68 
440 918 249 77 65 62 
440 918 250 79 67 61 
440 918 251 81 69 62 
440 919 251 81 68 61 
441 918 250 80 68 62 
441 918 251 84 72 66 
442 916 250 82 70 63 
442 916 251 85 73 66 
442 917 251 88 76 70 
440 919 252 87 74 68 
440 919 253 88 74 69 
441 918 252 89 77 71 
441 919 252 89 76 72 
441 919 253 86 73 68 
441 919 254 87 72 66 
441 919 255 85 70 63 
442 916 252 86 74 68 
442 917 252 86 75 69 
442 917 253 81 69 64 
443 916 252 85 72 67 
443 916 253 82 69 64 
443 917 253 82 70 64 
443 916 254 78 65 60 
443 917 254 79 66 61 
443 917 255 77 65 62 
442 918 252 87 76 70 
442 918 253 83 71 66 
442 918 254 82 68 64 
442 918 255 83 69 63 
442 919 254 84 71 66 
442 919 255 85 71 65 
443 918 255 81 68 63 
444 912 250 79 67 62 
444 913 250 83 71 65 
444 913 251 83 70 64 
445 912 250 79 67 63 
445 913 251 83 69 64 
444 914 251 84 71 66 
446 912 250 79 67 61 
446 912 251 81 69 62 
446 913 251 81 66 61 
447 912 250 81 71 63 
447 912 251 82 70 62 
447 913 251 83 70 64 
444 914 252 86 71 65 
444 915 252 85 70 65 
444 915 253 82 67 63 
445 914 252 85 70 65 
445 915 253 81 66 62 
445 915 254 76 62 59 
446 913 252 83 68 62 
447 913 252 81 67 60 
446 914 252 81 67 62 
446 914 253 76 65 61 
446 915 253 76 65 61 
447 914 252 78 64 58 
447 914 253 72 60 56 
446 915 254 73 62 58 
446 915 255 73 61 58 
447 915 254 72 60 57 
447 915 255 74 62 58 
444 916 253 81 67 63 
444 916 254 77 63 60 
444 916 255 76 62 59 
444 917 255 77 64 60 
445 916 254 76 61 58 
445 916 255 74 60 58 
446 916 255 72 59 57 
440 920 252 88 74 69 
440 920 253 89 74 68 
440 920 254 88 74 67 
440 920 255 89 74 68 
440 921 255 87 75 70 
441 920 254 88 73 68 
441 920 255 88 73 67 
416 928 243 76 66 63 
416 928 244 76 66 64 
416 929 244 76 66 65 
417 928 244 76 66 63 
417 928 245 79 68 65 
417 929 245 79 69 67 
417 929 246 83 72 70 
416 930 245 77 67 65 
417 930 245 81 70 68 
416 930 246 83 72 69 
416 931 246 83 73 70 
416 931 247 89 79 75 
417 930 246 85 72 70 
417 930 247 90 77 73 
418 928 245 79 68 65 
418 928 246 81 71 66 
418 929 246 84 72 71 
418 929 247 86 76 72 
419 928 246 82 73 70 
419 928 247 85 76 72 
418 930 247 89 77 73 
416 931 248 92 80 76 
416 931 249 92 80 76 
417 930 248 90 78 74 
417 931 248 92 78 75 
417 931 249 90 78 74 
417 931 250 88 75 74 
418 929 248 88 77 73 
418 929 249 88 77 72 
419 928 248 87 77 73 
419 928 249 87 76 71 
419 929 248 88 78 73 
419 929 249 86 75 70 
419 929 250 84 72 67 
419 929 251 82 70 67 
418 930 248 90 77 74 
418 930 249 88 75 72 
418 931 249 90 76 74 
419 930 249 85 72 68 
418 930 250 86 73 70 
418 931 250 88 74 73 
418 931 251 85 74 72 
419 930 250 84 71 68 
419 930 251 83 71 69 
419 929 252 82 71 67 
418 931 252 84 74 71 
419 930 252 83 72 70 
419 930 253 87 75 72 
419 931 252 84 74 72 
419 931 253 85 75 73 
419 930 254 85 74 72 
419 931 254 85 75 72 
416 932 248 89 78 76 
416 932 249 90 80 77 
416 932 250 89 80 77 
416 932 251 90 81 78 
416 933 250 89 80 77 
416 933 251 90 81 79 
417 932 250 88 77 74 
417 932 251 88 78 75 
417 932 252 88 78 76 
417 933 252 90 80 78 
418 932 252 88 79 76 
418 932 253 85 76 75 
420 928 248 86 76 71 
420 928 249 84 74 70 
420 928 250 83 71 67 
420 928 251 79 68 65 
420 929 250 83 71 67 
420 929 251 80 69 66 
420 928 252 78 68 67 
420 929 252 82 71 69 
420 929 253 82 72 71 
421 928 252 76 67 66 
421 928 253 79 70 69 
421 929 253 82 72 70 
420 929 254 83 72 70 
421 928 254 80 72 71 
421 928 255 81 73 72 
421 929 254 83 73 71 
421 929 255 81 70 70 
420 930 252 83 73 71 
420 930 253 85 74 71 
420 930 254 84 73 70 
422 928 254 79 72 71 
422 928 255 80 71 70 
448 907 241 57 48 46 
448 907 242 57 50 46 
448 907 243 60 53 49 
449 907 243 61 54 49 
448 907 244 61 52 47 
448 907 245 68 59 55 
449 907 244 59 51 46 
448 908 245 66 55 54 
449 908 244 66 56 54 
449 908 245 65 54 53 
449 909 245 67 55 54 
448 908 246 65 53 52 
448 908 247 67 56 53 
448 909 246 66 55 53 
448 909 247 65 53 49 
449 909 246 67 56 54 
449 909 247 70 59 55 
449 910 247 69 59 54 
450 908 245 65 55 51 
450 909 245 67 58 53 
450 909 246 72 61 56 
451 909 246 75 63 55 
450 910 247 75 65 57 
451 910 247 78 65 57 
452 910 247 81 67 59 
448 909 248 68 57 51 
448 910 248 72 63 57 
448 910 249 76 66 59 
448 911 249 77 67 60 
449 910 248 75 65 59 
449 911 248 77 67 59 
449 911 249 78 67 59 
448 911 250 80 70 62 
449 911 250 81 71 63 
450 910 248 78 67 59 
450 911 248 80 67 58 
450 911 249 82 68 59 
451 911 248 82 69 60 
451 911 249 84 70 61 
450 911 250 84 70 61 
451 911 250 85 71 61 
452 910 248 83 69 60 
452 911 248 84 69 60 
452 911 249 85 70 61 
453 910 249 85 68 60 
453 911 249 85 69 61 
452 911 250 84 68 59 
452 911 251 83 67 57 
453 911 250 84 68 59 
453 911 251 83 67 58 
454 911 251 83 66 58 
453 911 252 82 65 57 
453 911 253 81 65 58 
453 911 254 82 65 57 
454 911 252 81 65 56 
454 911 253 82 66 58 
455 911 253 81 66 57 
454 911 254 83 67 58 
454 911 255 81 64 55 
455 911 254 79 64 55 
455 911 255 79 63 56 
456 910 255 81 64 57 
448 912 250 81 70 62 
448 912 251 83 69 61 
449 912 250 82 71 63 
449 912 251 83 69 61 
450 912 250 84 71 63 
450 912 251 83 70 61 
451 912 251 83 69 59 
448 913 252 81 66 58 
449 913 252 80 65 58 
448 914 252 78 63 56 
448 914 253 75 63 58 
449 914 253 76 64 58 
448 914 254 74 62 58 
448 915 254 76 64 60 
448 915 255 79 65 61 
449 914 254 77 65 61 
449 915 254 77 66 61 
449 915 255 82 69 64 
450 912 252 80 67 57 
450 913 252 79 65 57 
450 913 253 78 65 60 
451 912 252 81 66 57 
451 913 252 80 65 57 
451 913 253 80 66 61 
451 913 254 80 68 61 
451 913 255 81 69 61 
450 914 253 78 66 59 
450 914 254 80 68 62 
450 914 255 82 70 63 
450 915 255 84 71 65 
451 914 254 81 69 62 
451 914 255 82 69 61 
452 912 251 83 67 57 
452 912 252 82 65 56 
452 912 253 80 63 55 
452 913 253 80 64 56 
453 912 252 80 65 57 
453 912 253 81 64 56 
452 912 254 80 63 57 
452 913 254 80 63 58 
452 913 255 81 66 58 
453 912 254 82 64 56 
453 912 255 81 64 56 
423 927 256 75 66 65 
423 927 257 77 68 67 
424 926 256 74 66 66 
424 927 256 74 66 66 
424 927 257 76 68 67 
425 926 256 74 66 65 
425 926 257 76 68 66 
424 927 258 79 69 68 
425 926 258 76 67 64 
425 926 259 81 71 68 
425 927 258 77 67 64 
425 927 259 81 71 67 
426 925 256 75 67 67 
427 925 256 76 67 67 
427 925 257 76 66 65 
426 926 256 76 67 66 
426 926 257 77 68 66 
427 926 257 77 66 64 
426 926 258 78 68 65 
426 926 259 83 72 68 
427 926 258 79 68 65 
427 926 259 83 71 66 
426 926 260 83 72 67 
427 926 260 83 71 65 
428 924 256 79 68 65 
428 925 256 79 69 67 
428 925 257 79 69 65 
429 924 256 81 70 66 
429 925 256 81 70 66 
429 925 257 81 69 65 
428 925 258 79 68 64 
428 925 259 82 71 65 
429 925 258 80 67 62 
429 925 259 83 70 64 
428 926 259 82 71 65 
430 924 256 82 70 67 
430 924 257 81 68 65 
430 925 257 81 68 64 
431 924 256 82 69 66 
431 924 257 82 69 65 
430 925 258 82 68 63 
430 925 259 86 73 67 
431 924 258 82 68 63 
431 925 258 84 69 65 
431 925 259 88 74 69 
429 925 260 83 70 63 
429 925 261 84 70 63 
428 926 260 81 69 62 
428 926 261 82 69 62 
429 926 261 84 71 64 
429 926 262 86 72 66 
430 925 260 85 71 64 
430 925 261 87 73 66 
431 925 260 88 74 68 
431 925 261 89 74 68 
430 925 262 88 73 67 
431 925 262 89 74 68 
431 925 263 90 74 68 
430 926 262 87 72 65 
430 926 263 89 75 68 
431 926 263 91 76 69 
431 926 264 92 77 71 
439 919 267 76 60 47 
439 919 268 79 63 58 
439 919 269 73 60 56 
438 919 270 65 55 47 
439 918 270 65 56 49 
439 918 271 64 54 51 
439 919 270 65 55 50 
439 919 271 64 54 51 
432 923 256 83 71 68 
433 923 256 84 71 67 
433 923 257 85 72 66 
434 923 256 84 72 67 
434 923 257 88 74 68 
435 922 256 87 73 67 
435 923 256 86 73 67 
435 923 257 89 75 69 
434 923 258 90 75 70 
435 923 258 92 78 74 
435 923 259 92 77 72 
435 923 260 93 79 72 
435 923 261 92 78 70 
435 923 262 90 76 71 
435 923 263 88 74 68 
432 924 256 82 70 67 
432 924 257 84 72 67 
433 924 257 85 72 67 
432 924 258 84 71 66 
432 924 259 88 74 69 
432 925 259 89 75 69 
433 924 258 88 74 70 
433 924 259 90 76 72 
434 924 258 91 76 71 
434 924 259 91 77 71 
432 924 260 90 76 69 
432 925 260 90 76 69 
432 925 261 92 77 70 
433 924 260 91 77 70 
433 924 261 91 77 70 
433 925 261 91 77 69 
432 925 262 91 75 69 
432 925 263 91 76 69 
433 924 262 91 77 69 
433 924 263 90 76 70 
433 925 262 90 76 69 
433 925 263 90 76 70 
434 924 260 91 77 71 
434 924 261 92 77 70 
435 924 260 93 78 71 
435 924 261 92 78 70 
434 924 262 91 77 70 
434 924 263 89 75 70 
435 924 262 90 77 71 
435 924 263 89 75 69 
436 922 256 88 75 69 
436 922 257 88 75 69 
436 923 256 88 74 69 
436 923 257 89 75 70 
437 922 256 89 75 70 
437 922 257 90 76 71 
436 923 258 92 77 72 
436 923 259 91 76 70 
437 922 258 92 77 72 
437 922 259 91 75 71 
437 923 259 91 75 69 
439 921 256 89 75 69 
439 921 257 91 76 71 
439 921 258 93 77 70 
439 921 259 92 77 73 
438 922 256 89 75 70 
438 922 257 91 77 71 
439 922 256 90 76 70 
439 922 257 93 77 71 
438 922 258 93 78 73 
438 922 259 92 77 73 
439 922 258 94 78 71 
439 922 259 93 77 72 
436 923 260 93 78 70 
436 923 261 91 75 67 
437 922 260 95 79 71 
437 922 261 93 76 68 
437 923 260 94 78 71 
436 922 262 89 73 67 
436 922 263 87 71 65 
436 923 262 88 74 67 
436 923 263 87 73 68 
437 922 262 91 74 67 
437 922 263 87 70 64 
439 921 260 96 80 74 
439 921 261 94 77 69 
438 921 262 90 73 66 
438 921 263 87 72 64 
439 920 262 85 71 64 
439 920 263 78 66 58 
439 921 262 88 72 66 
439 921 263 81 67 59 
438 922 260 96 80 73 
438 922 261 95 78 69 
439 922 260 95 79 72 
439 922 261 97 79 71 
438 922 262 92 74 65 
438 922 263 87 70 63 
435 923 264 87 73 68 
435 923 265 86 71 67 
435 923 266 88 72 68 
435 923 267 88 73 66 
432 925 264 92 78 71 
432 925 265 89 74 69 
433 925 264 93 78 72 
433 925 265 88 73 68 
433 925 266 89 74 69 
432 926 264 91 76 69 
432 926 265 90 74 68 
433 926 266 90 75 70 
434 924 264 90 76 71 
434 924 265 87 71 65 
434 925 265 85 70 66 
435 924 264 90 74 69 
435 924 265 87 72 67 
434 924 266 88 73 68 
434 925 266 87 72 66 
434 925 267 87 72 65 
435 924 266 88 70 67 
435 924 267 87 71 66 
437 921 265 89 74 65 
437 921 266 84 70 60 
437 921 267 82 69 59 
436 922 264 89 76 71 
436 922 265 87 73 66 
436 923 264 87 74 70 
436 923 265 87 73 68 
437 922 264 87 73 67 
437 922 265 87 72 66 
436 922 266 84 69 61 
436 922 267 87 71 64 
436 923 266 87 70 62 
436 923 267 89 72 64 
437 922 266 86 70 62 
437 922 267 89 72 60 
438 921 264 88 74 65 
438 921 265 85 71 62 
439 920 264 82 69 60 
439 920 265 81 68 61 
438 920 266 82 69 60 
438 920 267 83 69 58 
438 921 266 82 69 60 
438 921 267 81 68 58 
439 920 266 80 68 59 
439 920 267 83 68 56 
437 921 268 82 67 56 
437 921 269 74 59 48 
436 922 268 80 63 61 
436 923 268 83 63 60 
437 922 268 81 65 54 
437 922 269 76 60 47 
438 920 268 86 70 59 
438 920 269 80 63 53 
438 921 268 79 65 55 
439 920 268 79 61 42 
439 920 269 69 59 51 
438 920 270 73 56 55 
441 919 256 85 72 67 
443 917 256 78 66 64 
442 919 256 89 75 69 
442 919 257 91 76 71 
443 918 256 83 71 66 
443 918 257 86 74 68 
443 919 256 88 76 70 
443 919 257 90 75 70 
442 919 258 94 79 74 
442 919 259 92 78 71 
443 918 258 87 73 69 
443 918 259 91 78 71 
443 919 258 88 74 69 
443 919 259 91 77 70 
441 919 261 86 73 67 
440 919 263 85 73 65 
441 919 262 82 70 63 
441 919 263 80 69 60 
442 919 260 91 78 70 
442 919 261 88 75 68 
443 918 260 89 76 69 
443 918 261 87 74 67 
442 918 262 85 75 67 
442 918 263 85 73 64 
442 919 262 86 75 67 
442 919 263 77 66 57 
443 918 262 86 74 66 
443 918 263 84 73 63 
446 915 256 75 62 59 
447 915 256 77 65 60 
444 916 256 75 62 60 
444 917 256 78 65 61 
444 917 257 81 68 64 
445 916 256 76 63 61 
445 916 257 78 65 63 
445 917 257 80 67 65 
444 917 258 85 70 68 
444 917 259 88 74 68 
445 916 258 83 69 67 
445 917 258 84 69 68 
445 917 259 86 73 68 
444 918 257 85 73 68 
444 918 258 87 72 68 
444 918 259 88 75 68 
446 916 256 76 63 60 
446 916 257 78 65 62 
447 916 256 78 65 61 
447 916 257 80 65 62 
446 916 258 82 68 65 
446 916 259 85 70 66 
447 916 258 82 67 61 
447 916 259 81 69 60 
444 917 260 87 73 65 
444 917 261 86 73 69 
445 917 260 87 71 67 
445 917 261 82 68 62 
444 917 262 85 73 65 
444 917 263 86 72 60 
445 917 262 83 70 60 
445 917 263 86 72 60 
444 918 260 89 75 66 
444 918 261 87 73 65 
444 918 262 85 73 66 
444 918 263 84 73 62 
446 916 260 81 68 61 
446 916 261 81 69 61 
447 916 260 77 66 58 
447 916 261 78 68 60 
446 916 262 81 70 62 
446 916 263 82 70 62 
446 917 262 83 70 61 
446 917 263 83 70 60 
447 916 262 80 70 62 
447 916 263 82 69 59 
440 919 264 85 73 64 
440 919 265 82 72 63 
441 919 264 82 69 58 
441 919 265 86 71 57 
440 919 266 85 69 55 
440 919 267 81 65 57 
441 918 267 74 61 57 
441 919 266 83 67 58 
441 919 267 82 65 64 
443 917 266 80 65 53 
443 917 267 83 67 56 
442 918 264 83 71 60 
442 918 265 82 68 58 
442 919 264 77 66 55 
442 919 265 84 68 54 
443 918 264 83 70 59 
443 918 265 80 67 56 
442 918 266 79 66 57 
442 918 267 78 65 55 
443 918 266 81 67 55 
443 918 267 71 59 50 
441 917 271 69 57 58 
440 918 269 74 64 58 
440 919 268 80 65 63 
440 919 269 72 62 55 
441 918 268 76 64 60 
441 918 269 79 67 59 
441 919 268 72 62 55 
440 918 270 73 64 58 
440 918 271 70 60 55 
441 918 270 73 63 55 
441 918 271 67 58 53 
442 917 268 75 63 55 
442 917 269 77 65 55 
443 917 268 81 65 55 
443 917 269 78 65 54 
442 917 270 79 67 61 
442 917 271 70 60 58 
443 916 271 70 61 56 
443 917 270 74 66 61 
443 917 271 70 63 57 
442 918 268 79 66 55 
442 918 269 80 67 60 
442 918 270 83 68 63 
444 917 264 85 71 58 
444 917 265 83 69 54 
445 917 264 85 71 58 
445 917 265 83 69 57 
444 917 266 80 65 52 
444 917 267 81 65 55 
445 917 266 84 67 56 
445 917 267 85 68 57 
446 916 264 83 69 59 
446 916 265 84 68 57 
446 917 264 83 70 58 
446 917 265 84 68 57 
447 916 264 83 68 57 
447 916 265 82 66 58 
446 916 266 83 67 56 
446 916 267 81 66 54 
446 917 266 79 64 51 
447 916 266 83 66 58 
447 916 267 81 65 57 
444 917 268 78 65 53 
444 917 269 77 66 57 
445 916 268 81 67 54 
445 916 269 80 68 56 
445 917 268 84 69 55 
445 917 269 81 68 56 
444 916 270 78 66 57 
444 916 271 71 62 55 
444 917 270 79 67 57 
445 916 270 77 68 61 
445 916 271 80 67 56 
446 916 268 82 68 56 
446 916 269 83 71 59 
447 916 268 80 64 55 
447 916 269 78 63 55 
446 916 270 82 70 58 
446 916 271 81 70 60 
447 916 270 78 65 56 
447 916 271 80 67 58 
440 920 256 90 75 67 
440 921 256 89 75 70 
440 921 257 91 78 73 
441 920 256 90 76 69 
441 920 257 93 79 72 
440 921 258 92 77 71 
440 921 259 96 79 74 
441 920 258 95 79 72 
441 920 259 97 81 74 
442 920 256 89 76 71 
442 920 257 93 77 71 
442 920 258 93 77 72 
442 920 259 95 81 75 
440 920 260 94 79 72 
440 920 261 86 72 66 
440 921 260 97 81 74 
440 921 261 95 79 72 
441 920 260 93 79 71 
441 920 261 91 77 70 
440 920 262 82 69 63 
440 920 263 79 67 59 
441 920 262 72 60 55 
440 920 264 83 70 61 
440 920 265 69 58 49 
440 917 272 76 58 62 
441 917 272 64 54 53 
441 917 273 77 65 58 
440 918 272 67 55 55 
442 916 272 64 55 48 
442 916 273 76 63 53 
442 917 272 64 55 51 
442 917 273 64 55 49 
443 916 272 71 60 52 
443 916 273 70 59 49 
443 916 274 73 61 51 
444 916 272 71 61 52 
444 916 273 76 63 53 
445 916 272 77 65 56 
445 916 273 74 61 50 
444 916 274 74 61 50 
446 916 272 81 68 57 
446 916 273 73 60 49 
447 916 272 79 67 57 
422 928 256 78 69 68 
423 928 257 76 67 66 
454 911 256 78 62 53 
454 911 257 78 61 52 
455 911 256 78 62 54 
455 911 257 78 60 53 
455 911 258 78 61 54 
455 911 259 76 62 52 
456 910 256 80 63 56 
456 910 257 76 60 51 
456 911 256 78 62 55 
456 911 257 77 61 52 
456 911 258 77 60 52 
456 911 259 78 62 53 
457 910 258 79 61 50 
457 910 259 79 62 52 
457 911 258 79 60 51 
457 911 259 79 62 52 
456 911 260 80 63 55 
456 911 261 81 64 56 
457 911 260 79 62 53 
457 911 261 80 65 54 
457 911 262 82 66 55 
458 910 260 81 62 53 
458 911 260 79 61 51 
458 911 261 78 63 50 
459 911 261 79 61 47 
458 911 262 82 65 53 
458 911 263 83 66 53 
459 911 262 81 62 49 
459 911 263 85 66 54 
460 911 263 87 66 54 
460 911 264 86 65 55 
460 911 265 85 63 55 
461 911 265 85 63 54 
448 915 256 79 68 62 
448 915 257 85 73 68 
449 915 256 84 73 67 
449 915 257 81 68 59 
448 915 258 80 68 59 
448 915 259 77 65 57 
449 915 258 74 61 51 
449 915 259 76 63 57 
450 914 256 86 71 62 
450 914 257 87 71 65 
450 915 256 85 72 64 
450 915 257 84 69 62 
451 914 256 85 70 63 
451 914 257 87 72 67 
450 914 258 80 65 60 
450 914 259 82 68 63 
450 915 258 82 66 61 
450 915 259 82 67 63 
451 914 258 86 72 65 
451 914 259 80 68 58 
448 915 260 78 67 60 
448 915 261 78 67 60 
449 915 260 76 63 56 
449 915 261 77 65 56 
448 915 262 80 68 58 
448 915 263 82 68 57 
449 915 262 80 67 57 
449 915 263 82 68 58 
450 914 260 82 69 62 
450 914 261 84 70 64 
450 915 260 81 68 61 
450 915 261 83 70 63 
451 914 260 85 73 63 
451 914 261 82 70 61 
450 914 262 84 69 63 
450 914 263 85 70 63 
450 915 262 82 68 61 
450 915 263 82 68 60 
451 914 262 84 71 63 
451 914 263 83 69 61 
448 916 262 80 69 59 
448 916 263 82 69 57 
452 913 256 84 70 61 
452 913 257 85 71 62 
453 912 256 81 65 57 
453 912 257 79 64 55 
453 913 256 82 68 58 
453 913 257 80 68 58 
452 913 258 82 69 60 
452 913 259 79 67 55 
453 912 258 79 64 53 
453 912 259 76 64 54 
453 913 258 81 68 57 
453 913 259 79 65 54 
452 914 257 86 72 63 
452 914 258 84 71 62 
452 914 259 82 70 59 
454 912 256 79 61 53 
454 912 257 80 62 54 
454 912 258 75 61 52 
454 912 259 78 64 55 
455 912 259 79 62 55 
452 913 260 79 67 55 
452 913 261 80 66 56 
453 913 260 80 67 56 
453 913 261 80 67 58 
452 913 262 81 68 58 
452 913 263 82 69 59 
453 913 262 81 67 58 
453 913 263 83 70 61 
452 914 260 80 67 55 
452 914 261 84 71 60 
452 914 262 81 69 59 
452 914 263 83 69 60 
454 912 260 80 65 56 
454 912 261 79 65 55 
454 913 261 81 65 54 
455 912 260 79 65 56 
455 912 261 80 65 56 
454 912 262 79 64 55 
454 913 262 82 65 55 
454 913 263 85 69 59 
455 912 262 81 65 55 
455 912 263 81 63 53 
455 913 263 84 66 57 
449 915 264 83 68 59 
449 915 265 82 68 59 
449 915 266 83 69 59 
450 915 264 84 70 61 
450 915 265 84 70 59 
