ply
format ascii 1.0
comment Created by CloudCompare v2.10.1 (Zephyrus)
comment Created 1/31/20 11:43 AM
obj_info Generated by CloudCompare!
element vertex 2162
property float x
property float y
property float z
property uchar red
property uchar green
property uchar blue
end_header
474 721 200 88 68 49 
474 721 201 87 65 45 
475 720 201 86 63 44 
474 720 202 86 64 44 
474 721 202 90 67 47 
474 721 203 95 70 49 
475 720 202 91 67 47 
475 720 203 95 72 54 
475 721 203 95 71 52 
474 722 200 88 66 50 
474 722 201 86 65 46 
474 723 200 86 63 47 
474 723 201 87 64 48 
474 722 202 92 67 48 
474 722 203 94 69 51 
474 723 202 92 68 52 
474 723 203 94 69 53 
475 720 204 86 66 49 
475 720 205 78 59 43 
475 721 204 87 65 50 
475 721 205 77 57 43 
475 720 206 74 58 44 
475 720 207 73 56 42 
475 721 206 71 56 42 
475 721 207 73 58 44 
474 722 204 91 68 52 
474 723 204 89 67 52 
474 723 205 82 61 46 
475 722 204 86 65 49 
475 722 205 79 58 43 
475 723 205 80 61 45 
474 723 207 74 58 44 
475 722 206 71 56 41 
475 722 207 72 58 44 
475 723 206 72 56 40 
475 723 207 72 56 42 
472 724 200 85 64 51 
472 725 200 84 62 48 
473 724 200 84 63 49 
473 724 201 85 62 45 
473 725 200 83 62 47 
473 725 201 86 63 47 
473 725 202 88 65 51 
472 726 200 84 62 49 
472 727 200 82 61 47 
473 726 201 87 64 51 
473 727 201 86 65 53 
473 726 202 89 66 52 
473 727 202 89 67 53 
474 724 201 87 65 49 
474 724 202 92 68 55 
474 724 203 93 69 56 
474 725 202 90 66 53 
474 725 203 93 69 56 
474 726 202 90 66 52 
474 726 203 92 68 53 
473 726 207 73 56 45 
473 727 206 73 54 41 
473 727 207 73 55 43 
474 724 204 92 68 54 
474 724 205 81 61 46 
474 725 204 91 67 54 
474 725 205 84 64 51 
475 724 204 89 67 53 
475 724 205 81 61 46 
474 724 206 72 55 41 
474 724 207 71 55 41 
474 725 206 75 57 45 
474 725 207 71 55 42 
475 724 206 71 55 40 
474 726 204 90 66 53 
474 726 205 83 63 49 
474 726 206 72 55 43 
474 726 207 72 55 44 
472 729 199 85 64 52 
472 730 199 85 63 53 
472 731 199 84 63 52 
472 728 200 82 61 48 
472 729 200 84 62 51 
473 728 201 86 65 52 
473 728 202 87 67 51 
473 728 203 86 64 47 
472 730 200 85 62 53 
472 731 200 84 61 51 
473 728 206 73 57 42 
473 728 207 73 56 43 
464 720 212 71 51 41 
464 721 212 67 48 38 
464 721 213 67 46 37 
465 720 212 72 51 42 
465 720 213 71 48 38 
465 721 213 70 49 39 
464 722 212 66 47 37 
464 722 213 65 46 36 
464 723 212 69 52 41 
464 723 213 66 48 38 
465 722 213 69 47 38 
465 723 213 67 49 38 
466 720 213 75 49 40 
466 721 213 72 50 38 
467 720 213 75 50 39 
467 721 213 72 50 36 
466 722 213 67 47 33 
467 722 213 68 48 34 
467 723 213 70 51 36 
466 723 214 67 47 35 
467 722 214 70 49 35 
467 723 214 68 50 34 
464 724 212 63 43 34 
464 724 213 65 46 36 
464 725 213 66 48 36 
465 724 213 66 48 36 
465 725 213 68 51 37 
464 726 213 69 53 39 
464 727 213 71 54 40 
465 726 213 70 53 39 
465 727 213 70 54 39 
466 724 213 67 50 37 
466 725 213 70 53 39 
467 724 213 71 54 40 
467 725 213 73 57 42 
467 724 214 73 57 42 
466 726 213 72 55 41 
466 727 213 72 55 40 
467 726 213 74 57 43 
467 727 213 76 59 46 
466 727 214 72 55 40 
467 726 214 75 58 43 
467 727 214 76 59 45 
471 720 211 75 57 39 
471 721 211 74 55 39 
468 720 213 76 53 39 
468 721 213 74 54 40 
469 720 212 79 60 42 
469 720 213 80 59 43 
469 721 213 78 60 45 
468 722 213 70 52 37 
468 723 213 73 56 41 
469 722 213 77 60 45 
469 723 213 76 60 44 
470 720 212 80 62 45 
470 721 212 78 60 44 
471 720 212 76 57 40 
471 721 212 75 56 39 
470 722 212 74 56 40 
470 722 213 74 56 39 
470 723 212 72 54 36 
470 723 213 72 55 35 
471 722 212 74 56 38 
471 723 212 73 56 39 
468 724 213 75 59 45 
468 725 213 76 60 45 
469 724 213 75 60 45 
469 725 213 75 60 45 
468 726 213 76 59 43 
468 727 213 76 59 44 
469 726 213 73 57 41 
469 727 213 72 56 40 
468 727 214 77 60 45 
470 724 212 72 56 38 
470 724 213 72 56 36 
470 725 212 71 54 36 
470 725 213 72 57 41 
471 724 212 71 54 36 
471 725 212 71 54 35 
470 726 212 72 56 40 
470 726 213 71 55 39 
470 727 213 73 56 41 
471 726 212 72 55 36 
471 727 212 74 57 40 
464 728 213 69 53 39 
464 729 213 69 53 38 
465 728 213 69 52 36 
464 728 214 67 51 36 
464 729 214 68 53 39 
465 728 214 66 51 36 
465 729 214 69 53 39 
464 730 214 68 52 39 
464 731 214 67 52 42 
464 731 215 66 51 40 
465 730 214 71 54 40 
465 731 215 68 51 39 
466 728 214 69 54 40 
466 729 214 73 57 42 
467 728 214 75 57 44 
467 729 214 71 55 42 
466 730 214 73 57 43 
466 730 215 70 54 40 
466 731 215 68 52 40 
467 730 214 72 57 43 
467 731 214 70 56 43 
467 731 215 70 55 43 
464 732 215 64 49 38 
464 733 215 67 51 41 
465 732 215 66 49 38 
465 733 215 68 50 40 
464 734 215 65 50 40 
464 735 215 65 51 39 
465 734 215 68 52 41 
465 735 215 67 52 40 
466 732 215 68 50 38 
466 733 215 72 53 42 
467 732 215 69 53 41 
467 733 214 74 57 45 
467 733 215 72 55 43 
466 734 215 70 54 41 
466 735 214 72 56 42 
466 735 215 71 55 42 
467 734 214 73 58 44 
467 735 214 72 57 42 
471 731 211 75 58 42 
468 728 213 74 57 42 
469 728 213 72 54 39 
469 729 213 70 53 38 
468 728 214 76 59 45 
468 729 214 68 52 39 
469 729 214 66 50 38 
469 730 213 66 51 39 
469 731 213 68 55 42 
468 730 214 69 55 40 
468 731 214 68 53 39 
469 730 214 67 53 40 
469 731 214 67 53 41 
470 728 213 72 56 41 
470 729 213 71 54 39 
471 728 212 76 59 41 
471 728 213 75 58 42 
471 729 212 74 56 38 
471 729 213 74 57 41 
470 730 213 71 56 40 
470 731 213 70 56 42 
471 730 212 74 57 41 
471 730 213 71 56 39 
471 731 212 74 58 42 
471 733 209 75 57 43 
471 732 210 76 58 48 
471 732 211 75 57 45 
471 733 210 76 59 47 
471 733 211 77 61 47 
470 734 211 77 63 48 
470 735 210 75 60 42 
470 735 211 75 59 42 
469 732 213 73 57 46 
469 733 213 75 60 49 
468 732 214 70 53 41 
468 733 214 73 56 44 
469 732 214 70 54 43 
469 733 214 74 57 46 
468 735 213 70 54 40 
469 734 213 72 57 44 
469 735 212 72 56 42 
469 735 213 70 54 39 
468 734 214 74 59 46 
468 735 214 72 56 42 
470 732 213 71 56 43 
470 733 212 77 61 48 
470 733 213 76 60 47 
471 732 212 74 57 43 
471 733 212 77 60 48 
470 734 212 76 61 47 
470 734 213 72 57 43 
470 735 212 75 60 44 
472 720 211 74 56 38 
472 721 211 73 55 37 
473 720 210 73 56 39 
473 720 211 74 57 41 
473 721 210 71 54 36 
473 721 211 72 55 35 
472 722 211 72 55 37 
472 723 211 72 55 37 
473 722 210 73 57 38 
473 722 211 72 55 37 
473 723 210 73 56 36 
473 723 211 72 56 38 
474 720 209 75 58 41 
474 721 209 75 57 39 
475 720 208 73 55 37 
475 720 209 75 57 39 
475 721 208 73 56 40 
475 721 209 74 57 39 
474 720 210 75 58 40 
474 721 210 74 56 37 
474 722 208 72 54 38 
474 722 209 73 56 36 
474 723 208 73 57 41 
474 723 209 74 56 36 
475 722 208 73 57 43 
474 722 210 74 58 39 
473 724 209 75 58 40 
473 725 209 73 56 40 
472 724 211 71 55 37 
472 725 211 73 57 39 
473 724 210 73 57 39 
473 724 211 72 56 39 
473 725 210 73 57 39 
473 726 208 72 56 41 
473 726 209 76 58 43 
473 727 208 74 57 44 
473 727 209 77 59 44 
472 726 211 74 57 38 
472 727 211 77 59 41 
473 726 210 75 58 41 
473 727 210 78 61 43 
474 724 208 72 56 41 
474 724 209 74 56 39 
474 725 208 71 55 41 
474 725 209 73 56 39 
472 726 212 72 55 33 
472 727 212 76 58 39 
473 728 208 74 57 44 
473 728 209 78 60 43 
472 728 211 78 60 43 
472 729 211 77 59 43 
473 728 210 79 61 44 
472 731 209 73 55 42 
472 730 210 75 60 44 
472 730 211 76 59 43 
472 731 210 74 58 44 
472 731 211 75 58 42 
472 728 212 77 59 41 
472 729 212 76 58 41 
448 711 224 72 61 53 
448 711 225 68 57 50 
449 711 224 69 57 50 
449 711 225 64 53 44 
448 711 226 64 53 47 
448 711 227 62 51 44 
449 711 226 61 50 43 
450 711 224 63 52 44 
450 711 225 62 50 42 
451 711 224 59 46 37 
451 711 225 58 46 37 
450 711 226 60 48 40 
452 711 224 52 38 30 
453 711 224 51 37 29 
453 711 225 51 36 28 
454 711 224 54 40 32 
454 711 225 51 35 27 
455 711 224 58 44 37 
448 712 226 61 48 41 
448 712 227 58 44 36 
449 712 226 57 45 35 
449 712 227 56 43 35 
451 712 225 56 43 34 
450 712 226 60 44 38 
450 712 227 57 43 34 
450 713 227 59 42 33 
451 712 226 59 42 34 
451 712 227 59 43 34 
451 713 227 59 42 34 
451 715 227 60 40 33 
448 712 228 57 43 35 
448 713 228 57 43 35 
448 713 229 59 41 34 
449 712 228 56 43 34 
449 713 228 58 41 33 
449 713 229 60 40 33 
448 714 229 59 40 34 
448 715 229 57 39 32 
449 714 228 59 40 32 
449 714 229 59 40 33 
449 715 229 58 40 33 
450 713 228 60 41 33 
451 713 228 59 42 35 
450 714 228 59 41 34 
450 714 229 60 41 35 
450 715 228 59 40 33 
450 715 229 59 42 35 
451 714 228 59 42 35 
451 715 228 60 41 34 
449 718 227 57 40 32 
449 719 227 58 40 31 
451 717 225 59 41 33 
450 717 227 56 39 30 
451 716 226 59 41 33 
451 716 227 59 41 33 
451 717 226 59 42 33 
451 717 227 58 40 32 
451 718 225 60 42 34 
451 719 225 60 43 34 
450 718 227 59 41 33 
450 719 227 61 43 34 
451 718 226 60 43 34 
451 719 226 63 46 37 
448 716 229 55 37 28 
448 717 228 55 37 29 
448 717 229 55 37 29 
449 716 228 55 36 27 
449 716 229 56 38 30 
449 717 228 57 38 30 
448 718 228 59 39 33 
448 719 228 58 40 33 
449 718 228 57 40 33 
449 719 228 59 41 34 
450 716 228 58 39 31 
450 717 228 57 38 30 
452 712 224 55 42 32 
452 712 225 55 39 30 
453 712 225 54 37 31 
452 712 226 58 40 32 
452 712 227 57 41 32 
452 713 227 60 40 33 
453 712 226 57 39 32 
453 712 227 58 40 32 
453 713 227 59 40 31 
453 715 225 59 41 33 
452 714 227 60 41 32 
452 715 227 60 42 34 
453 714 227 61 43 34 
453 715 226 61 43 35 
453 715 227 61 44 35 
454 712 225 55 39 32 
455 712 224 60 44 36 
455 712 225 59 44 36 
455 713 224 63 45 36 
455 713 225 61 43 36 
454 712 226 57 41 34 
454 713 226 57 41 33 
455 713 226 58 43 35 
454 714 225 62 45 39 
454 715 224 61 39 33 
454 715 225 60 42 36 
455 714 224 62 43 33 
455 714 225 62 43 35 
454 714 226 60 42 35 
454 714 227 60 42 32 
454 715 226 60 42 35 
455 714 226 60 43 37 
452 713 228 59 42 34 
452 714 228 60 40 33 
452 715 228 60 41 33 
452 716 224 58 41 33 
452 716 225 59 42 34 
452 717 224 59 41 34 
452 717 225 59 42 34 
453 716 224 60 42 37 
453 716 225 59 42 34 
452 716 226 60 42 35 
452 716 227 59 40 32 
453 716 226 58 41 32 
452 718 224 66 41 36 
452 718 225 59 42 34 
452 719 224 69 43 37 
452 719 225 67 45 38 
456 712 224 62 45 35 
456 713 224 63 45 35 
448 720 227 60 42 35 
448 721 227 64 39 32 
449 720 227 58 41 32 
449 721 226 70 43 37 
449 721 227 60 42 34 
448 722 224 72 38 35 
448 722 225 75 45 41 
448 723 224 75 37 37 
449 722 224 73 41 36 
449 722 225 76 49 45 
448 722 226 76 50 46 
449 722 226 79 54 50 
451 721 224 69 44 35 
451 721 225 70 45 38 
450 720 226 63 45 37 
450 720 227 63 45 36 
450 721 226 71 44 39 
451 720 226 64 47 40 
451 721 226 71 46 41 
450 722 224 73 43 38 
450 722 225 73 46 41 
451 722 224 72 44 36 
448 720 228 56 36 29 
452 720 224 69 45 37 
452 720 225 73 50 41 
452 721 224 69 45 36 
452 721 225 76 54 44 
452 720 226 69 44 37 
452 721 226 78 50 37 
448 735 225 80 62 49 
448 734 226 77 57 48 
448 734 227 71 48 41 
448 735 226 80 62 50 
448 735 227 77 57 50 
449 735 227 77 58 49 
448 733 228 71 47 40 
448 733 229 68 43 38 
448 732 231 62 34 33 
448 733 230 64 38 35 
448 733 231 62 35 33 
449 733 231 66 40 37 
448 734 228 74 50 43 
448 734 229 74 49 42 
448 735 228 73 50 43 
449 734 229 72 48 43 
449 735 228 77 55 45 
449 735 229 76 54 45 
449 734 230 69 43 38 
449 734 231 65 39 34 
450 735 229 75 54 45 
450 734 231 72 47 41 
450 735 230 73 53 43 
450 735 231 75 54 44 
451 735 231 75 54 43 
448 732 232 60 32 29 
448 733 232 62 36 32 
448 733 233 60 40 34 
449 733 232 62 40 34 
448 733 234 61 41 34 
448 734 233 60 41 34 
449 734 232 61 42 34 
449 734 233 61 43 34 
448 734 234 65 46 38 
449 734 234 66 47 38 
449 735 234 68 48 40 
449 735 235 70 54 45 
450 734 232 68 47 38 
450 734 233 64 43 32 
450 735 232 71 47 42 
450 735 233 64 42 33 
451 735 232 73 52 40 
451 735 233 71 50 39 
450 735 234 66 44 37 
450 735 235 67 46 40 
451 735 234 72 51 38 
455 735 237 89 67 50 
459 731 238 97 72 52 
459 731 239 79 60 45 
456 735 235 90 68 47 
457 735 234 103 76 55 
457 735 235 100 74 55 
458 735 233 111 82 59 
459 735 233 126 93 65 
458 734 235 105 77 56 
458 735 234 111 84 60 
458 735 235 106 79 56 
459 734 234 113 84 58 
459 734 235 107 79 55 
459 735 234 118 88 63 
456 735 236 91 68 50 
456 735 237 91 69 51 
457 734 236 97 73 53 
457 734 237 94 70 51 
457 735 236 97 73 53 
457 735 237 95 72 53 
456 735 238 87 65 49 
456 735 239 80 60 45 
457 734 238 95 70 52 
457 734 239 80 59 44 
457 735 238 92 69 51 
457 735 239 78 57 43 
458 733 237 85 63 45 
459 732 237 97 72 51 
459 733 236 96 71 50 
459 733 237 89 65 47 
458 732 239 80 61 45 
458 733 238 86 63 44 
458 733 239 80 59 41 
459 732 238 95 70 49 
459 732 239 78 59 45 
458 734 236 101 75 55 
458 734 237 89 67 48 
459 734 236 103 76 54 
461 731 235 111 84 64 
462 731 235 101 76 56 
463 730 235 86 65 47 
463 731 234 98 71 55 
463 731 235 96 71 53 
460 731 236 105 79 58 
460 731 237 99 74 55 
461 730 237 88 66 49 
461 731 236 100 75 56 
461 731 237 95 72 55 
460 730 238 84 62 47 
460 730 239 80 61 46 
460 731 238 94 70 52 
461 730 238 79 60 45 
461 730 239 80 61 47 
463 729 237 81 63 47 
463 729 238 81 62 47 
462 730 236 91 68 50 
462 730 237 84 64 47 
462 731 236 94 70 52 
463 730 236 85 64 48 
463 730 237 82 63 47 
462 730 238 79 60 45 
462 730 239 82 63 49 
462 731 239 85 68 51 
463 730 238 81 62 47 
463 730 239 82 63 48 
463 731 239 86 68 51 
460 732 235 113 84 60 
460 733 235 107 78 54 
461 732 234 118 88 66 
461 732 235 113 85 63 
461 733 234 116 86 60 
461 733 235 115 85 58 
460 734 233 118 87 57 
460 735 232 122 90 58 
460 735 233 123 91 59 
461 734 233 121 87 62 
461 735 232 132 98 61 
461 735 233 133 99 65 
460 734 234 117 87 60 
461 734 234 126 93 66 
462 733 233 111 82 59 
463 732 233 119 91 66 
463 733 233 102 73 53 
462 732 234 116 86 64 
462 732 235 114 86 66 
462 733 234 116 87 62 
463 732 234 114 85 64 
463 733 234 121 92 67 
462 734 233 120 86 61 
462 735 232 132 97 66 
463 734 232 127 91 66 
463 734 233 121 84 61 
463 735 232 128 93 66 
460 732 236 106 79 57 
460 732 237 102 76 53 
460 733 236 106 78 54 
463 732 239 80 64 48 
463 733 239 74 59 43 
463 734 239 76 60 43 
459 731 240 81 62 45 
459 731 241 81 62 44 
456 735 240 71 55 42 
457 734 240 82 63 46 
457 734 241 70 57 47 
457 735 240 77 59 43 
457 735 241 70 56 45 
458 732 240 81 62 43 
458 732 241 82 63 45 
458 733 240 83 63 45 
458 733 241 73 58 45 
459 732 241 76 59 42 
459 733 241 77 57 40 
458 732 242 76 60 45 
459 732 242 77 59 44 
459 733 242 75 58 41 
458 734 241 72 57 44 
458 735 241 72 55 41 
459 734 241 74 55 41 
459 735 241 72 53 39 
460 730 240 78 60 45 
460 731 240 83 64 46 
460 731 241 75 58 42 
461 730 240 77 60 44 
461 731 240 75 57 42 
461 731 241 73 56 41 
462 731 240 76 60 44 
460 732 241 77 57 39 
460 733 241 77 57 41 
461 732 240 71 51 36 
461 732 241 76 56 40 
461 733 240 73 54 39 
461 733 241 76 57 42 
460 732 242 78 56 38 
460 734 241 77 57 42 
460 735 241 73 55 42 
461 734 240 73 53 41 
461 734 241 74 54 43 
461 735 241 71 53 41 
462 732 240 75 59 42 
462 733 240 70 56 40 
463 733 240 73 59 43 
462 734 240 67 51 35 
462 735 240 67 51 35 
462 735 241 68 52 37 
463 734 240 65 52 35 
463 735 240 66 52 35 
464 729 235 79 60 47 
465 729 234 72 53 39 
465 729 235 73 55 44 
464 731 233 97 72 54 
465 730 233 80 59 44 
465 731 233 87 65 47 
464 730 234 80 59 45 
464 730 235 79 59 44 
464 731 234 91 66 50 
465 730 234 78 57 43 
466 729 234 72 53 41 
466 729 235 73 54 44 
467 729 235 75 55 44 
466 730 233 81 59 44 
466 731 233 74 56 40 
466 730 234 77 57 43 
466 731 234 75 57 40 
467 730 234 76 59 45 
467 730 235 76 59 45 
467 731 234 78 60 43 
467 731 235 75 59 43 
464 729 236 79 61 47 
464 729 237 81 62 47 
465 729 236 78 60 47 
465 729 237 82 63 48 
464 729 238 81 62 47 
465 729 238 84 65 50 
464 730 236 80 62 47 
464 730 238 83 64 49 
464 730 239 83 64 48 
464 731 239 84 67 48 
465 730 238 83 66 48 
465 731 238 84 65 47 
465 731 239 86 68 49 
466 729 236 80 60 47 
466 729 237 83 64 50 
467 729 236 83 63 50 
467 729 237 84 65 49 
466 729 238 83 65 50 
467 730 236 81 63 47 
467 730 237 84 65 50 
467 731 236 73 57 40 
467 731 237 80 62 43 
466 730 238 82 65 47 
466 731 238 83 66 47 
464 732 233 101 75 54 
464 733 232 105 75 54 
464 733 233 95 68 49 
465 732 233 83 61 43 
465 733 233 89 65 46 
464 734 232 117 85 63 
464 735 232 128 92 68 
465 734 232 100 74 54 
465 734 233 88 65 46 
465 735 232 111 83 61 
466 732 233 76 58 39 
466 733 233 76 57 37 
466 732 234 73 56 40 
466 733 234 72 55 36 
467 732 234 74 57 40 
467 732 235 76 60 44 
467 733 234 71 54 36 
467 733 235 75 59 43 
466 734 233 80 59 42 
466 735 232 84 62 43 
466 735 233 79 59 43 
466 734 234 74 55 40 
466 735 234 74 56 42 
466 735 235 76 59 45 
467 734 234 74 56 40 
467 734 235 78 62 47 
467 735 234 72 53 38 
467 735 235 80 64 49 
464 732 239 78 62 45 
464 733 239 73 58 42 
465 732 238 80 63 42 
465 732 239 80 63 44 
465 733 238 78 62 43 
465 733 239 79 61 41 
464 734 239 67 53 38 
464 735 239 72 57 39 
465 734 238 76 60 42 
465 734 239 73 58 41 
465 735 238 75 59 41 
465 735 239 75 59 41 
466 732 237 79 62 43 
466 733 237 76 60 42 
467 732 236 78 61 44 
467 732 237 78 61 41 
467 733 236 80 65 49 
467 733 237 80 65 49 
466 732 238 82 64 45 
466 733 238 78 62 44 
466 734 236 78 64 48 
466 734 237 78 62 43 
466 735 236 79 64 49 
466 735 237 78 63 46 
467 734 236 79 64 50 
466 734 238 75 60 41 
466 735 238 77 61 41 
464 735 240 69 54 38 
454 736 197 91 72 56 
455 736 197 83 61 48 
455 738 197 79 58 44 
455 739 197 90 69 49 
459 738 195 95 70 47 
459 739 195 88 64 39 
456 736 197 85 65 46 
456 737 196 82 61 47 
456 737 197 82 62 46 
457 736 197 85 64 45 
457 737 197 87 66 48 
456 738 197 82 63 48 
456 739 197 90 70 53 
457 738 197 93 75 55 
457 739 197 93 74 54 
458 736 197 91 70 52 
458 737 197 96 76 58 
459 736 197 97 76 57 
459 737 196 104 81 60 
459 737 197 101 79 60 
458 738 197 98 78 57 
458 739 196 94 70 51 
458 739 197 95 74 55 
459 738 196 100 75 54 
459 738 197 103 78 57 
459 739 196 95 71 43 
458 740 195 84 62 42 
458 741 195 79 57 40 
459 740 195 84 60 38 
456 740 196 95 74 55 
456 740 197 93 73 54 
456 741 196 93 72 53 
457 740 196 91 71 50 
457 740 197 94 73 53 
457 741 196 89 68 48 
456 742 196 87 66 47 
458 740 196 88 66 46 
460 737 195 91 68 43 
461 736 195 88 65 44 
461 737 195 85 62 39 
461 738 193 77 56 39 
461 739 193 79 57 44 
460 738 194 82 60 38 
460 738 195 91 67 40 
460 739 194 82 59 40 
461 738 194 78 57 37 
462 737 193 81 61 42 
463 737 193 83 61 45 
462 736 194 83 60 37 
462 736 195 87 63 40 
462 737 194 79 58 37 
463 736 194 82 59 41 
463 736 195 85 64 40 
463 737 194 82 60 42 
462 738 193 81 61 45 
462 739 193 80 60 47 
463 738 193 80 58 43 
463 739 193 80 59 45 
460 736 196 101 80 59 
460 736 197 101 79 57 
460 737 196 99 77 56 
461 736 196 97 75 54 
460 738 196 102 77 46 
461 740 193 77 57 46 
461 741 193 76 56 44 
461 742 193 77 57 46 
460 743 194 76 58 46 
461 742 194 77 59 45 
461 743 194 78 59 46 
461 743 195 80 61 49 
462 740 193 78 58 46 
462 741 193 79 60 45 
463 740 193 79 59 46 
463 741 193 80 60 45 
462 741 194 82 63 49 
463 741 194 82 62 48 
463 741 195 85 64 50 
462 742 193 79 60 46 
462 742 194 79 60 46 
462 742 195 82 62 48 
462 743 195 83 63 50 
463 742 194 82 63 48 
463 742 195 85 65 52 
462 743 196 86 65 53 
463 742 196 88 67 54 
463 743 196 87 65 52 
463 743 197 89 66 53 
458 745 195 78 60 47 
459 744 195 78 61 48 
459 745 195 81 62 50 
458 746 195 79 61 48 
458 747 195 83 64 50 
459 746 195 83 64 51 
458 747 196 87 67 53 
459 746 196 86 66 53 
459 747 196 87 67 54 
458 748 195 86 66 54 
457 750 196 86 67 53 
457 751 196 86 67 55 
458 748 196 88 68 54 
458 749 196 86 67 54 
459 748 196 88 67 55 
459 748 197 87 66 53 
459 749 197 87 67 54 
459 749 198 86 66 52 
458 750 196 87 68 54 
458 750 197 88 68 56 
458 751 197 86 67 55 
459 750 197 87 68 55 
458 750 198 86 67 55 
458 751 198 85 66 54 
458 751 199 81 63 52 
459 750 198 86 66 53 
459 750 199 83 64 52 
460 744 194 79 60 47 
460 744 195 80 62 48 
460 745 195 82 63 50 
461 744 195 82 63 49 
462 744 195 83 63 51 
460 745 196 85 65 53 
461 744 196 84 64 52 
461 745 196 86 66 54 
461 745 197 88 67 53 
460 746 196 86 66 53 
460 747 196 89 68 56 
460 747 197 88 67 55 
461 746 196 87 66 54 
461 746 197 88 68 55 
461 747 197 87 68 54 
461 747 198 87 67 55 
462 744 196 86 65 53 
462 744 197 88 66 53 
462 745 197 89 67 55 
463 744 197 89 66 53 
463 745 197 89 67 54 
462 745 198 89 69 55 
463 744 198 88 66 54 
463 745 198 89 68 54 
462 746 197 89 70 57 
462 746 198 88 69 55 
462 746 199 85 66 51 
462 747 198 86 68 55 
462 747 199 85 66 53 
463 746 198 87 67 52 
463 746 199 84 65 50 
460 748 197 87 66 53 
460 748 198 86 65 53 
460 748 199 83 62 50 
460 749 198 86 66 52 
460 749 199 84 64 51 
461 748 198 85 64 52 
461 748 199 82 62 51 
458 751 200 78 59 49 
459 750 200 80 61 49 
459 751 200 78 59 48 
459 751 201 77 57 48 
462 746 200 84 65 51 
462 747 200 84 65 51 
462 747 201 82 61 50 
463 746 200 85 65 51 
463 746 201 84 64 51 
463 747 200 83 63 50 
463 747 201 83 62 50 
463 746 202 82 61 50 
463 747 202 80 60 48 
463 747 203 73 54 44 
460 749 200 80 61 49 
460 749 201 80 60 48 
461 748 200 82 62 50 
461 748 201 81 59 47 
461 749 200 80 60 48 
461 749 201 80 59 48 
461 749 202 82 61 49 
461 749 203 76 57 44 
460 750 200 81 61 49 
460 750 201 79 58 46 
460 751 201 79 58 46 
460 750 202 82 63 51 
460 751 202 80 61 50 
460 751 203 76 58 46 
461 750 202 81 62 50 
461 750 203 75 57 45 
461 751 203 74 56 44 
462 748 200 82 63 51 
462 748 201 81 60 48 
462 748 202 83 63 51 
462 748 203 76 58 45 
462 749 203 74 57 43 
463 748 203 76 58 44 
461 750 204 71 54 42 
461 751 204 71 54 45 
461 751 205 68 53 45 
462 749 204 70 53 41 
463 748 204 70 52 41 
463 748 205 68 51 43 
463 749 204 67 51 41 
463 749 205 68 51 41 
463 749 206 70 54 44 
462 750 204 68 51 41 
462 750 205 67 52 43 
462 751 205 68 53 43 
463 750 205 67 50 41 
462 751 206 70 54 43 
463 750 206 69 53 42 
463 750 207 74 58 46 
463 751 206 70 54 42 
463 751 207 75 57 46 
449 736 219 68 53 43 
450 736 217 67 52 42 
451 736 216 65 51 42 
451 736 217 66 52 44 
451 737 217 70 55 48 
450 736 218 67 50 42 
450 736 219 67 52 42 
450 737 218 71 53 47 
450 737 219 80 63 51 
451 737 218 70 53 47 
450 738 218 73 57 47 
450 738 219 78 62 48 
450 739 219 81 64 50 
451 738 218 71 57 45 
451 739 218 73 58 46 
451 739 219 74 58 46 
448 736 221 79 63 50 
449 736 220 81 63 50 
449 736 221 80 63 50 
449 737 220 84 67 53 
449 737 221 81 65 51 
448 736 222 82 65 52 
448 736 223 82 65 52 
448 737 222 82 66 53 
448 737 223 83 67 53 
449 736 222 81 64 51 
448 738 221 80 64 50 
448 739 221 83 66 51 
449 738 221 80 65 51 
449 739 221 79 66 50 
448 738 222 81 64 50 
448 739 222 80 65 51 
449 738 222 79 66 52 
449 739 222 80 67 51 
450 737 220 81 65 51 
450 738 220 80 63 49 
450 738 221 80 64 50 
450 739 220 80 64 49 
450 739 221 81 67 51 
451 740 219 76 60 46 
449 740 221 83 69 53 
448 740 222 83 67 52 
448 741 222 84 66 51 
449 740 222 84 69 53 
449 741 222 83 68 53 
448 742 222 82 64 49 
448 743 222 84 66 52 
448 743 223 86 67 52 
449 742 222 80 63 49 
449 742 223 80 62 49 
449 743 222 83 66 52 
449 743 223 82 65 52 
450 740 220 80 63 49 
450 740 221 82 66 51 
450 741 221 81 64 49 
451 740 220 80 63 50 
451 741 220 81 64 51 
451 741 221 81 64 50 
450 741 222 83 67 52 
450 742 221 81 63 50 
451 742 220 80 62 49 
451 742 221 81 63 50 
451 743 220 80 63 49 
451 743 221 81 63 49 
450 742 222 81 65 50 
450 743 222 82 64 50 
450 743 223 82 64 51 
451 743 222 83 65 50 
452 736 216 66 53 44 
452 737 216 67 54 47 
452 737 217 68 54 47 
453 736 216 66 53 46 
453 737 216 67 54 48 
453 737 217 67 53 47 
452 738 217 67 54 47 
453 738 217 65 51 45 
453 739 217 63 50 44 
452 738 218 69 55 45 
452 739 218 68 53 44 
454 736 216 65 53 46 
454 737 216 65 51 45 
455 736 216 64 51 44 
455 737 216 64 50 43 
454 738 217 64 51 46 
454 739 217 65 52 45 
455 738 217 65 50 45 
455 739 217 67 52 44 
452 740 218 69 54 44 
452 740 219 73 58 47 
452 741 219 74 58 47 
453 740 218 64 51 44 
453 741 218 72 57 48 
453 741 219 74 59 50 
452 742 219 71 55 44 
452 743 219 70 55 44 
453 742 219 72 56 46 
453 743 219 70 55 45 
454 740 217 66 52 43 
455 740 217 66 52 43 
454 740 218 66 52 44 
454 741 218 68 54 45 
454 741 219 73 59 50 
455 740 218 67 53 44 
455 741 218 68 54 45 
454 742 218 67 52 43 
454 742 219 71 55 46 
454 743 218 67 52 43 
455 742 218 70 56 47 
455 743 218 66 54 45 
452 742 220 78 61 47 
452 743 220 72 57 45 
448 744 223 87 68 51 
448 745 223 90 70 51 
449 744 223 82 64 49 
449 745 222 90 70 50 
449 745 223 90 70 50 
448 746 223 88 68 49 
448 747 222 88 68 49 
449 746 222 89 68 49 
449 746 223 90 69 50 
449 747 222 88 68 49 
451 744 220 80 62 48 
451 744 221 82 64 49 
451 745 221 82 65 49 
450 744 222 81 64 49 
450 745 222 86 67 50 
451 744 222 84 66 49 
451 745 222 88 69 52 
451 746 221 87 68 50 
451 747 221 92 70 49 
450 746 222 89 69 50 
450 747 222 91 70 50 
451 746 222 90 70 50 
451 747 222 92 70 50 
448 749 221 95 70 49 
449 749 221 96 71 50 
448 748 222 95 70 48 
448 749 222 96 71 49 
449 748 222 96 71 49 
449 749 222 96 71 50 
448 750 221 94 69 49 
448 751 220 93 67 48 
448 751 221 93 68 47 
449 750 221 94 69 49 
449 751 221 93 68 48 
448 750 222 96 72 49 
449 750 222 96 71 49 
450 749 221 97 72 50 
451 748 221 97 72 48 
451 749 221 94 69 48 
450 748 222 97 72 49 
450 749 222 97 72 50 
451 748 222 97 71 48 
451 749 222 97 72 50 
450 750 220 93 68 48 
450 750 221 93 68 48 
450 751 220 92 67 48 
450 751 221 92 68 48 
451 750 220 92 67 48 
451 750 221 93 68 48 
451 751 220 90 66 47 
453 744 219 70 55 45 
453 745 219 71 56 45 
453 746 219 73 55 43 
453 747 219 75 58 45 
454 744 218 67 52 44 
454 744 219 70 55 45 
454 745 218 68 51 42 
454 745 219 69 53 44 
455 744 218 67 51 44 
455 745 218 70 51 42 
454 746 218 70 53 42 
454 746 219 71 54 43 
454 747 218 73 57 44 
455 746 218 71 53 42 
455 747 218 74 57 44 
452 744 220 77 61 48 
452 745 220 74 59 48 
452 745 221 81 64 49 
453 744 220 71 56 45 
453 745 220 72 56 45 
452 746 221 84 66 50 
452 747 220 80 61 45 
452 747 221 87 67 49 
453 746 220 74 58 45 
453 748 219 82 61 44 
453 749 219 84 62 45 
452 750 219 82 62 46 
452 751 219 81 61 46 
453 750 219 81 61 44 
453 751 218 80 61 46 
453 751 219 81 60 45 
454 748 218 78 59 44 
454 749 218 81 62 44 
455 748 218 76 58 44 
455 749 218 83 64 46 
455 750 217 81 62 46 
455 751 217 79 60 44 
454 750 218 81 61 45 
454 751 218 81 61 45 
455 750 218 82 63 46 
455 751 218 80 61 45 
452 748 220 87 66 47 
452 749 220 86 65 48 
453 748 220 88 66 47 
453 749 220 86 64 47 
452 750 220 89 65 46 
456 736 215 65 49 39 
457 736 215 66 51 40 
457 737 215 66 51 41 
458 736 214 69 54 44 
458 736 215 67 53 42 
458 737 215 67 52 42 
459 736 214 68 52 41 
459 736 215 69 53 43 
459 737 215 67 50 39 
459 738 215 65 48 38 
460 736 214 67 49 41 
460 737 215 66 48 37 
461 736 214 65 48 40 
461 737 214 65 46 37 
461 737 215 66 48 38 
460 738 215 66 49 40 
461 738 215 67 50 40 
461 739 215 70 54 43 
462 736 214 64 48 39 
462 736 215 69 54 42 
462 737 214 66 49 39 
462 737 215 66 50 40 
463 736 215 70 56 43 
463 737 215 70 54 43 
462 738 215 71 54 43 
462 739 215 74 57 47 
463 738 215 76 59 48 
463 739 215 76 59 48 
462 740 215 75 57 46 
463 740 215 75 56 45 
456 736 216 63 47 37 
456 737 216 65 48 39 
457 737 216 65 48 39 
456 738 216 64 47 40 
456 738 217 67 48 40 
456 739 217 69 50 41 
457 738 216 66 49 41 
457 738 217 67 48 40 
457 739 217 70 53 44 
458 737 216 64 48 39 
458 738 216 65 48 40 
458 739 216 67 48 41 
458 739 217 68 51 43 
459 738 216 64 46 37 
459 739 216 65 48 41 
456 740 217 71 54 44 
457 740 217 70 53 43 
457 741 217 69 52 43 
456 740 218 69 53 44 
456 741 218 69 55 46 
457 741 218 68 51 42 
457 742 217 68 52 41 
457 743 217 66 49 38 
456 742 218 69 54 45 
456 743 218 69 52 45 
457 742 218 67 51 41 
457 743 218 67 51 39 
458 740 217 67 50 41 
458 741 217 67 50 42 
459 740 216 68 50 43 
459 740 217 67 49 42 
459 741 217 68 49 41 
458 742 217 70 54 43 
459 742 217 74 56 46 
459 743 217 75 58 47 
458 743 218 71 54 41 
459 743 218 78 61 48 
460 738 216 65 47 38 
460 739 216 68 50 42 
461 739 216 71 53 44 
460 740 216 69 50 45 
460 740 217 69 51 45 
460 741 217 72 53 45 
461 740 216 72 54 45 
461 741 216 75 57 47 
461 741 217 75 57 48 
460 742 217 78 60 49 
460 743 217 79 61 49 
461 742 217 79 61 48 
461 743 217 80 62 49 
460 743 218 81 63 51 
461 743 218 81 63 49 
462 740 216 75 58 47 
462 741 216 77 59 49 
462 741 217 76 58 47 
463 740 216 74 55 43 
463 741 216 75 56 44 
463 741 217 75 57 45 
462 742 217 75 58 46 
462 743 217 76 60 47 
463 742 217 75 57 44 
463 743 217 75 57 45 
463 751 208 77 57 46 
456 744 218 69 52 44 
456 745 218 70 51 43 
457 744 218 71 53 44 
457 745 218 72 54 43 
456 746 218 73 54 41 
456 747 218 78 59 45 
457 746 218 76 59 45 
457 747 218 79 61 47 
458 744 218 73 56 44 
458 745 218 78 60 48 
459 744 218 78 61 49 
459 744 219 83 66 54 
459 745 218 82 66 53 
459 745 219 82 66 53 
458 746 218 79 62 47 
458 746 219 77 61 47 
458 747 218 80 62 48 
458 747 219 76 59 45 
459 746 219 78 62 49 
459 747 218 77 60 46 
459 747 219 76 60 46 
459 747 220 76 60 47 
456 748 218 79 61 48 
456 749 218 85 66 50 
457 748 218 78 61 47 
457 749 218 78 60 47 
456 750 217 79 60 44 
456 751 217 78 60 44 
457 750 217 78 60 43 
457 751 217 78 60 44 
456 750 218 86 66 49 
457 750 218 85 65 47 
457 751 218 82 63 46 
458 748 218 74 58 44 
458 748 219 75 58 46 
458 749 218 74 58 45 
459 748 219 75 59 46 
459 749 218 70 52 42 
459 749 219 71 54 42 
458 751 217 77 60 45 
459 751 217 81 63 47 
458 750 218 82 63 46 
458 751 218 82 64 47 
459 750 218 79 61 45 
459 751 218 82 63 47 
460 744 218 83 66 54 
460 745 219 82 65 53 
461 744 218 77 60 47 
461 745 219 79 62 50 
460 746 219 79 62 49 
462 744 217 73 56 44 
463 744 217 72 56 45 
462 744 218 72 54 43 
462 745 218 72 55 44 
462 745 219 72 55 45 
463 744 218 71 55 44 
463 744 219 70 52 41 
463 745 218 71 55 45 
463 745 219 69 52 43 
461 745 220 78 61 49 
460 746 220 80 62 49 
460 747 220 75 59 47 
460 747 221 81 63 51 
461 746 220 79 61 49 
461 746 221 80 62 51 
461 747 221 78 60 49 
461 746 222 82 62 49 
461 747 222 81 61 47 
462 745 220 75 58 47 
462 745 221 79 61 50 
463 745 220 72 54 47 
463 745 221 76 57 48 
462 746 220 79 61 51 
462 746 221 81 61 51 
462 747 221 78 59 47 
463 746 220 73 54 47 
463 746 221 78 58 48 
463 747 221 78 58 46 
462 746 222 83 62 51 
462 747 222 79 59 46 
463 746 222 80 59 49 
463 747 222 77 57 46 
460 749 219 70 53 43 
461 749 219 77 58 44 
460 751 217 83 64 47 
461 751 216 79 60 45 
461 751 217 82 63 47 
460 750 218 79 60 44 
460 750 219 75 57 44 
460 751 218 81 62 46 
461 750 218 83 63 45 
461 750 219 74 56 44 
461 751 218 82 63 46 
462 749 219 72 56 44 
463 749 219 72 55 43 
462 750 217 82 63 45 
462 751 216 79 60 46 
462 751 217 80 61 47 
463 750 217 83 64 46 
463 751 216 84 65 48 
462 750 218 85 64 46 
462 750 219 73 57 45 
463 750 218 83 63 45 
460 748 220 73 57 45 
460 749 220 72 55 44 
461 748 220 71 54 44 
461 749 220 72 54 44 
462 748 220 72 55 45 
462 748 221 75 57 46 
462 749 220 72 55 44 
463 748 220 74 56 45 
463 748 221 80 59 47 
455 753 197 88 69 57 
454 754 197 85 67 55 
454 755 197 85 67 55 
455 754 197 86 68 56 
454 754 198 83 66 54 
454 755 198 83 65 53 
454 755 199 83 65 54 
455 754 198 85 67 54 
455 754 199 84 66 54 
454 755 200 83 65 55 
454 755 201 76 56 48 
455 754 200 82 64 54 
455 754 201 77 57 50 
455 755 200 81 63 54 
455 755 201 76 57 49 
455 755 202 76 56 48 
456 752 196 89 70 57 
456 753 196 89 69 58 
456 753 197 88 69 57 
457 752 196 89 69 57 
457 752 197 88 69 58 
457 753 197 87 67 57 
456 753 198 87 68 56 
456 753 199 87 68 56 
457 752 198 87 68 58 
457 752 199 84 66 58 
457 753 198 86 67 56 
457 753 199 87 68 58 
456 754 199 86 68 57 
458 752 198 85 67 56 
458 752 199 83 65 56 
456 753 200 83 65 56 
457 753 200 80 62 54 
457 753 201 78 59 52 
457 753 202 79 59 54 
456 754 200 80 62 53 
456 754 201 77 58 51 
456 754 202 78 58 50 
456 755 202 77 60 50 
456 755 203 77 60 52 
457 754 202 80 61 54 
457 754 203 78 62 54 
457 755 203 77 60 52 
458 752 200 80 62 52 
458 752 201 80 61 52 
458 753 200 79 62 54 
458 753 201 79 60 53 
459 752 201 79 60 51 
458 753 202 80 60 53 
458 753 203 77 60 52 
459 752 202 80 60 52 
459 752 203 77 59 48 
459 753 203 75 58 48 
458 754 203 76 60 53 
456 755 204 71 57 49 
457 754 204 73 57 49 
457 755 204 71 57 49 
457 755 205 66 53 47 
457 755 206 69 57 48 
458 753 204 73 57 48 
459 753 204 72 56 47 
458 754 204 71 56 50 
458 754 205 68 54 47 
458 755 205 67 54 47 
459 754 204 71 55 47 
459 754 205 69 56 46 
458 755 206 71 58 48 
458 755 207 74 57 48 
459 754 206 72 58 46 
459 755 206 73 58 46 
459 755 207 77 59 48 
460 752 202 80 59 49 
460 752 203 76 59 46 
460 752 204 72 55 45 
460 752 205 70 53 46 
460 753 204 71 55 46 
460 753 205 70 56 45 
461 752 204 70 52 45 
461 752 205 69 54 46 
461 753 205 71 56 45 
461 753 206 73 58 46 
460 754 205 72 58 46 
460 754 206 74 59 45 
460 754 207 77 58 46 
460 755 207 77 58 46 
461 754 206 76 60 46 
461 754 207 77 58 46 
462 752 205 67 52 43 
462 752 206 71 54 44 
462 752 207 76 57 47 
462 753 206 75 57 46 
462 753 207 76 57 46 
463 752 207 77 57 47 
463 753 207 77 55 46 
462 754 207 76 57 45 
448 755 219 87 63 47 
449 754 219 85 63 47 
449 755 219 85 61 46 
450 753 219 85 63 46 
451 752 219 84 63 48 
451 753 219 84 63 46 
450 754 219 84 62 46 
450 755 218 83 61 45 
450 755 219 84 61 45 
451 754 218 82 62 46 
451 754 219 83 62 46 
451 755 218 82 61 44 
448 752 220 91 67 49 
448 753 220 90 67 50 
449 752 220 92 66 48 
449 753 220 89 67 49 
448 754 220 88 66 49 
448 755 220 88 64 47 
449 754 220 87 65 48 
450 752 220 90 66 48 
450 753 220 86 65 48 
451 752 220 85 64 48 
453 753 217 81 60 45 
452 752 218 81 62 46 
452 752 219 81 61 46 
452 753 218 83 63 46 
452 753 219 83 62 44 
453 752 218 81 62 47 
453 753 218 82 62 48 
452 755 217 83 60 45 
453 754 217 81 62 47 
453 755 217 80 59 46 
452 754 218 82 62 46 
452 755 218 82 61 45 
453 754 218 82 63 46 
454 752 217 82 62 48 
454 753 217 81 61 47 
455 752 217 80 60 45 
455 753 217 79 59 45 
454 752 218 81 62 47 
455 752 218 80 60 45 
454 754 217 80 61 48 
454 755 216 79 60 46 
454 755 217 80 61 48 
455 754 216 79 60 48 
455 754 217 79 60 47 
455 755 216 79 61 47 
459 755 208 77 59 46 
460 755 208 76 59 45 
460 755 209 76 60 45 
461 754 208 76 58 47 
461 755 208 77 60 46 
461 755 209 77 60 47 
462 753 208 76 57 46 
463 752 208 77 56 46 
463 752 209 76 57 45 
463 753 208 75 56 45 
463 753 209 76 58 46 
463 753 210 76 60 46 
463 753 211 77 60 47 
462 754 208 77 58 46 
462 754 209 77 60 47 
462 755 208 77 60 44 
462 755 209 77 60 45 
462 754 210 75 59 46 
462 755 210 77 60 48 
462 755 211 78 61 49 
463 752 215 84 66 51 
463 753 215 81 63 48 
462 754 215 76 60 47 
462 755 215 76 60 48 
456 752 217 77 59 44 
456 753 217 78 59 44 
457 752 217 78 60 45 
457 753 217 78 61 47 
456 754 216 78 60 48 
456 754 217 80 60 45 
456 755 216 79 61 48 
457 754 216 77 60 46 
457 755 216 79 62 50 
458 752 217 78 60 46 
458 753 217 78 61 47 
459 752 217 79 62 47 
459 753 216 79 62 48 
459 753 217 80 63 49 
458 754 216 78 61 47 
458 755 216 79 62 49 
459 754 216 79 60 46 
459 755 216 81 62 50 
459 755 223 112 81 53 
460 752 217 81 63 47 
460 753 216 79 61 45 
460 753 217 80 62 46 
461 752 216 79 60 44 
461 753 216 78 60 46 
460 754 216 81 63 49 
460 755 216 81 63 49 
461 754 216 77 61 47 
461 755 216 80 63 50 
462 752 216 79 61 46 
462 753 216 77 60 47 
463 752 216 81 62 48 
462 754 216 77 61 47 
462 755 216 78 61 49 
460 755 223 112 81 54 
461 755 222 119 86 55 
461 755 223 108 78 50 
462 755 223 122 87 57 
464 737 193 82 59 42 
464 736 194 82 58 41 
464 736 195 83 61 42 
464 737 194 82 59 42 
465 736 194 80 58 41 
465 736 195 85 64 47 
465 737 194 80 58 41 
465 737 195 82 61 43 
464 738 193 80 57 41 
464 739 193 81 59 45 
464 738 194 79 57 41 
464 739 194 82 60 46 
465 738 194 81 60 44 
465 738 195 83 63 48 
465 739 194 83 63 49 
465 739 195 84 63 48 
466 737 195 84 63 45 
466 738 195 86 64 47 
466 736 196 87 64 47 
466 737 196 87 65 47 
467 736 196 88 64 44 
467 736 197 88 65 45 
467 737 196 88 65 45 
466 738 196 87 64 46 
466 739 196 87 65 49 
467 738 196 86 64 46 
467 738 197 84 61 43 
467 739 196 88 66 49 
467 739 197 87 65 50 
467 739 198 87 64 51 
464 740 194 83 62 48 
464 740 195 86 64 50 
464 741 194 85 63 49 
464 741 195 87 65 49 
465 740 195 85 64 49 
464 741 196 90 66 52 
465 740 196 89 66 51 
465 741 196 90 67 50 
465 741 197 90 67 51 
464 742 196 89 66 53 
464 742 197 90 67 56 
464 743 197 89 66 54 
465 742 197 90 68 55 
464 742 198 89 66 57 
464 743 198 88 66 56 
464 743 199 88 66 55 
465 742 198 87 64 53 
465 742 199 86 64 52 
465 743 199 88 66 54 
466 740 196 89 67 50 
466 740 197 88 66 51 
466 741 197 91 69 54 
467 740 197 88 65 52 
466 740 198 88 64 52 
466 741 198 87 64 51 
467 740 198 86 63 51 
467 740 199 86 64 51 
467 741 198 86 62 50 
467 741 199 85 63 50 
466 742 198 86 63 51 
466 742 199 85 63 51 
468 736 197 89 65 46 
468 737 197 87 64 45 
468 737 198 85 61 44 
469 736 198 87 64 47 
469 737 198 85 63 47 
469 737 199 88 65 49 
468 738 197 87 63 46 
468 738 198 86 63 47 
468 739 198 86 63 49 
468 739 199 85 62 50 
469 738 198 85 63 49 
469 738 199 84 62 50 
470 736 198 85 64 48 
470 736 199 85 64 48 
468 740 198 84 61 49 
468 740 199 85 63 51 
465 742 200 85 63 50 
465 743 200 85 63 51 
465 743 201 86 64 51 
466 741 200 84 61 49 
467 741 200 85 64 50 
467 741 201 84 64 51 
466 742 200 85 63 51 
466 742 201 85 64 52 
466 743 201 85 65 52 
467 742 200 85 64 51 
467 742 201 84 63 50 
466 743 202 84 64 51 
466 743 203 81 61 49 
467 742 202 83 63 50 
467 742 203 79 59 47 
467 743 202 81 61 48 
467 743 203 79 59 47 
467 743 204 77 57 46 
468 739 200 85 63 49 
468 740 200 85 64 50 
468 740 201 86 65 52 
468 741 200 86 65 51 
468 741 201 85 64 51 
468 741 202 81 62 51 
468 741 203 80 60 49 
464 744 198 88 66 55 
464 744 199 87 66 53 
464 745 198 86 66 54 
464 745 199 86 66 51 
464 744 200 86 65 52 
464 745 200 85 64 50 
464 745 201 85 63 50 
465 744 200 87 65 53 
465 744 201 85 63 50 
464 745 202 80 59 48 
465 744 202 84 63 51 
465 745 202 82 60 48 
465 745 203 77 57 46 
464 746 201 84 63 50 
464 746 202 81 59 49 
464 746 203 76 56 47 
464 747 203 73 55 47 
465 746 203 74 55 45 
466 744 202 84 64 52 
466 744 203 78 59 46 
466 745 203 76 55 44 
465 745 204 72 53 42 
464 747 204 71 52 43 
464 747 205 70 52 44 
465 746 204 72 54 44 
465 746 205 72 53 44 
465 747 204 71 53 44 
465 747 205 70 52 44 
465 747 206 73 56 46 
465 747 207 74 58 47 
466 744 204 75 55 45 
466 745 204 72 53 43 
466 745 205 72 53 42 
466 746 204 72 54 45 
466 746 205 72 53 43 
466 746 206 74 55 45 
466 746 207 75 57 46 
464 748 205 68 51 43 
464 748 206 73 56 46 
464 748 207 75 56 46 
464 749 206 73 56 46 
464 749 207 75 58 46 
465 748 206 75 58 47 
465 748 207 74 57 46 
464 750 207 74 57 44 
464 736 215 69 55 43 
464 737 215 76 60 48 
465 736 215 71 55 43 
465 737 214 76 59 46 
465 737 215 75 58 45 
464 738 215 79 61 48 
464 739 215 77 59 48 
465 738 214 78 61 47 
465 738 215 77 58 46 
465 739 214 77 59 47 
465 739 215 77 60 48 
467 737 213 75 60 44 
466 736 214 73 56 42 
466 736 215 71 56 43 
466 737 214 74 57 43 
467 736 214 72 56 41 
467 737 214 75 59 44 
467 738 213 73 57 42 
467 739 213 71 55 41 
466 738 214 78 61 47 
466 739 214 75 57 45 
466 739 215 78 60 49 
467 738 214 76 59 45 
467 739 214 73 56 41 
464 740 215 77 59 47 
465 740 215 78 60 48 
465 741 215 80 61 50 
467 740 213 70 53 39 
466 740 214 76 57 46 
466 740 215 77 59 48 
466 741 215 79 59 49 
467 740 214 74 56 44 
467 741 214 75 56 45 
467 743 213 72 54 43 
466 742 215 79 60 49 
466 743 215 78 60 49 
467 742 214 75 55 45 
467 742 215 77 56 45 
467 743 214 74 54 44 
467 743 215 77 58 46 
469 737 211 75 59 42 
469 738 210 75 56 42 
469 738 211 73 54 40 
470 736 210 76 59 42 
470 736 211 76 60 43 
468 736 213 71 55 40 
468 737 212 72 55 40 
468 737 213 72 56 41 
469 736 212 73 58 42 
469 736 213 69 54 39 
469 737 212 74 58 42 
468 736 214 73 58 43 
468 738 212 71 54 42 
468 738 213 70 54 39 
468 739 212 69 54 41 
468 739 213 69 52 40 
469 738 212 72 55 42 
470 736 212 77 61 45 
468 741 211 69 55 42 
468 740 212 69 54 41 
468 740 213 70 53 41 
468 741 212 71 56 43 
468 741 213 70 53 43 
464 741 216 78 59 47 
465 741 216 79 61 49 
464 742 216 78 61 48 
464 742 217 77 60 47 
464 743 217 75 59 46 
465 742 216 78 60 48 
465 743 216 77 60 48 
465 743 217 74 58 45 
466 742 216 79 60 50 
466 743 216 78 61 49 
465 747 208 78 62 50 
466 746 208 78 61 49 
466 744 215 77 59 47 
466 745 215 79 60 48 
466 746 215 81 62 49 
464 749 208 77 59 47 
464 749 209 78 58 47 
465 748 208 78 61 49 
465 748 209 79 61 49 
465 748 210 76 58 47 
464 750 208 77 57 46 
464 750 209 80 58 49 
464 751 208 76 55 46 
464 751 209 79 58 49 
464 750 210 74 56 44 
464 751 210 76 57 46 
464 751 211 74 56 43 
464 750 215 87 65 44 
464 751 215 83 63 47 
464 744 217 71 54 42 
465 744 216 77 60 48 
465 744 217 74 57 45 
465 745 217 72 55 43 
464 744 218 71 54 43 
464 745 218 70 54 44 
464 745 219 71 55 44 
465 745 218 73 57 45 
465 745 219 72 56 45 
465 746 217 75 57 45 
464 746 219 72 55 44 
465 746 218 77 60 48 
465 746 219 79 61 49 
465 747 218 79 61 49 
465 747 219 86 66 53 
466 744 216 78 59 49 
466 744 217 78 61 49 
466 745 216 78 58 48 
466 745 217 76 59 47 
466 746 216 79 59 50 
466 746 217 80 63 49 
464 745 220 74 55 48 
464 746 220 82 61 48 
464 746 221 82 60 48 
464 747 220 85 63 49 
464 747 221 88 64 50 
465 746 220 85 65 47 
465 747 220 85 65 50 
465 747 221 89 64 49 
464 747 222 84 62 49 
464 749 217 87 67 48 
465 748 216 85 66 51 
465 748 217 86 65 50 
464 748 219 78 59 46 
464 749 218 87 66 48 
464 749 219 79 59 46 
465 748 218 80 60 48 
465 748 219 82 62 49 
464 750 216 86 65 45 
464 750 217 85 64 47 
464 751 216 85 64 47 
464 748 220 87 65 50 
464 748 221 88 65 49 
448 736 224 80 63 51 
448 736 225 81 64 51 
448 737 224 80 64 51 
449 736 224 79 62 51 
449 736 225 77 60 49 
449 737 224 80 63 51 
449 737 225 78 61 49 
448 736 226 78 60 50 
448 736 227 79 59 50 
449 736 226 79 60 51 
449 736 227 81 63 51 
449 737 226 77 60 48 
448 738 224 80 64 51 
448 739 224 81 66 52 
449 738 224 79 63 51 
449 738 225 78 61 49 
449 739 224 79 63 49 
449 739 225 79 63 49 
450 736 227 78 60 49 
450 737 226 77 60 48 
450 737 227 77 59 48 
451 737 227 79 60 49 
450 738 225 77 60 47 
450 739 225 80 63 49 
450 738 226 77 60 47 
450 739 226 81 63 49 
451 738 226 79 61 48 
451 738 227 81 62 49 
451 739 226 82 65 51 
451 739 227 84 65 50 
449 736 228 81 63 51 
450 736 228 78 58 47 
450 736 229 77 57 46 
451 736 228 86 65 51 
451 736 229 85 65 49 
451 737 228 90 69 53 
451 736 230 77 57 45 
451 736 231 75 54 42 
448 740 224 82 68 53 
448 741 224 83 69 54 
449 740 224 83 68 54 
449 740 225 83 68 54 
449 741 224 83 68 55 
448 742 224 81 65 52 
448 743 224 83 67 53 
449 742 224 81 65 51 
449 743 224 82 66 52 
448 743 226 83 66 52 
449 742 226 81 65 53 
449 743 226 79 63 51 
450 740 225 84 68 54 
450 741 225 84 68 54 
451 740 225 83 68 55 
451 741 225 83 68 54 
451 740 226 84 68 53 
450 742 225 83 66 52 
450 743 225 80 64 50 
451 742 225 83 66 53 
450 742 226 82 66 55 
450 743 226 84 66 52 
451 742 226 85 68 54 
451 743 226 86 68 53 
452 738 227 85 66 51 
452 739 226 82 65 52 
452 739 227 84 66 51 
453 739 227 85 67 53 
452 736 229 88 66 47 
452 737 228 92 71 55 
452 737 229 91 70 53 
453 737 229 91 70 53 
452 736 230 82 61 43 
452 736 231 75 55 42 
452 737 230 89 67 49 
453 736 231 80 59 45 
453 737 230 88 67 49 
453 737 231 82 61 47 
452 738 228 87 68 52 
453 738 228 91 70 53 
453 738 229 92 70 53 
453 739 228 87 67 55 
454 737 230 88 66 48 
454 737 231 86 63 47 
455 737 230 91 68 49 
455 737 231 91 66 49 
454 738 229 91 70 54 
454 739 228 87 66 53 
454 739 229 88 67 54 
455 738 229 88 65 49 
455 739 228 91 70 55 
455 739 229 88 67 54 
454 738 230 90 67 50 
455 738 230 93 68 52 
452 741 225 84 68 55 
452 740 226 86 68 53 
452 741 226 84 67 54 
453 740 226 84 68 53 
453 740 227 84 67 53 
453 741 226 83 66 53 
452 742 226 81 65 54 
452 743 226 84 66 53 
453 742 226 81 65 53 
453 742 227 83 66 53 
453 743 226 83 66 53 
453 743 227 88 69 54 
454 740 227 84 67 53 
454 741 226 83 66 53 
454 741 227 83 66 52 
455 740 227 84 66 52 
455 741 226 82 66 53 
455 741 227 83 66 54 
454 742 227 87 69 54 
454 743 227 93 73 55 
455 742 227 92 73 55 
455 743 227 93 73 55 
454 740 228 91 70 55 
455 740 228 86 66 51 
451 736 232 74 53 42 
450 736 235 69 47 39 
451 736 234 71 50 41 
451 736 235 71 49 38 
450 736 236 66 50 40 
451 736 236 70 50 39 
451 736 237 66 50 40 
451 737 237 66 50 39 
452 736 232 73 53 41 
452 736 233 75 55 44 
453 736 232 80 60 45 
453 736 233 79 59 43 
452 736 234 68 49 38 
452 736 235 75 54 43 
453 736 234 78 58 43 
453 736 235 78 57 43 
454 736 232 83 62 44 
454 736 233 78 58 41 
454 737 232 84 63 45 
455 736 232 94 71 51 
455 736 233 88 66 46 
454 736 234 80 59 44 
454 736 235 81 60 44 
455 736 234 86 65 44 
455 736 235 84 63 45 
452 736 236 70 49 38 
452 736 237 68 52 41 
453 736 236 76 55 42 
453 736 237 76 57 43 
452 737 238 69 53 41 
453 736 238 74 57 45 
453 737 239 74 57 45 
454 736 236 83 62 44 
454 736 237 84 64 45 
455 736 236 87 65 47 
455 736 237 92 70 50 
454 736 238 77 60 45 
454 736 239 70 54 42 
454 737 239 74 58 46 
455 736 238 81 62 46 
455 736 239 79 61 46 
448 744 224 88 69 51 
448 744 226 87 67 52 
448 745 226 88 67 50 
449 744 226 86 67 52 
449 745 226 89 68 50 
449 745 227 91 69 50 
448 746 227 90 69 49 
448 747 227 92 70 50 
449 746 227 92 70 51 
449 747 227 93 72 52 
450 744 226 86 67 52 
450 745 227 93 71 52 
451 744 226 88 69 53 
451 745 226 91 70 51 
451 745 227 93 71 52 
450 746 227 95 73 52 
450 747 227 95 73 52 
451 746 226 95 73 52 
451 746 227 94 72 52 
451 747 227 95 73 52 
448 748 227 93 72 51 
448 749 227 95 73 52 
449 748 227 95 73 52 
449 749 227 96 74 52 
448 750 227 96 74 52 
448 751 227 98 75 52 
449 750 227 98 75 53 
449 751 227 100 75 53 
450 748 227 96 74 52 
450 749 227 97 75 53 
451 748 227 97 75 53 
451 749 227 101 76 53 
450 750 227 100 76 53 
450 751 227 104 77 53 
451 750 227 103 77 54 
451 751 227 106 78 54 
448 749 228 96 74 52 
448 750 228 97 75 52 
448 751 228 98 75 52 
452 744 226 87 68 52 
452 745 226 93 71 52 
453 744 226 87 68 52 
453 744 227 91 71 53 
453 745 226 94 72 53 
452 746 226 96 74 52 
452 746 227 96 74 51 
452 747 226 98 75 52 
452 747 227 96 73 52 
453 746 226 98 75 52 
453 747 226 100 76 52 
454 744 227 92 72 53 
454 745 226 95 74 53 
454 745 227 94 73 53 
455 744 227 95 74 54 
455 745 226 96 75 54 
454 746 226 99 75 53 
454 747 226 103 77 55 
455 746 226 100 76 55 
455 747 226 106 79 58 
452 748 227 100 76 52 
452 749 227 102 77 55 
453 748 226 101 76 53 
453 748 227 104 77 56 
453 749 227 104 78 57 
452 750 227 104 78 56 
452 751 227 112 81 57 
453 750 226 108 80 58 
453 750 227 105 78 57 
453 751 226 115 84 58 
453 751 227 115 84 58 
454 748 226 105 78 57 
454 749 226 106 79 58 
455 748 226 106 79 58 
455 749 226 107 80 58 
454 750 226 111 81 58 
454 751 226 115 84 58 
455 750 226 109 81 58 
455 751 226 111 82 57 
456 737 230 96 71 49 
456 737 231 97 73 51 
457 737 230 106 80 55 
457 737 231 105 80 56 
456 738 229 94 70 54 
456 739 228 91 69 55 
457 738 229 102 78 57 
457 739 228 95 72 54 
457 739 229 101 78 58 
456 738 230 99 73 55 
458 737 230 115 88 61 
458 737 231 106 81 55 
459 737 230 115 87 60 
459 737 231 125 96 68 
458 738 229 111 85 61 
458 739 228 105 81 58 
458 739 229 109 85 62 
459 738 229 115 88 62 
459 739 228 112 86 60 
459 739 229 115 87 61 
459 738 230 115 87 60 
456 740 227 88 68 51 
456 741 227 84 64 48 
457 740 227 92 72 53 
457 741 227 90 69 51 
456 742 227 93 73 55 
456 743 227 95 74 54 
457 743 227 96 74 55 
458 741 227 98 76 53 
459 741 227 107 81 56 
458 743 227 103 80 57 
456 740 228 90 70 54 
457 740 228 95 73 53 
456 742 228 91 72 55 
457 742 228 96 74 53 
458 740 228 105 82 57 
458 741 228 103 80 55 
459 740 228 113 87 60 
459 741 228 108 82 57 
458 742 228 105 79 54 
458 743 228 107 81 57 
459 742 228 112 86 60 
459 743 228 108 83 58 
460 737 230 126 97 71 
460 737 231 130 97 69 
461 737 231 135 100 68 
460 738 229 117 89 61 
460 739 229 116 88 61 
461 738 229 116 89 60 
461 739 229 117 88 60 
460 738 230 120 91 63 
461 738 230 126 96 68 
462 736 231 138 103 62 
462 737 231 137 103 65 
463 736 231 134 98 62 
