ply
format ascii 1.0
comment Created by CloudCompare v2.10.1 (Zephyrus)
comment Created 2/3/20 1:26 PM
obj_info Generated by CloudCompare!
element vertex 2124
property float x
property float y
property float z
property uchar red
property uchar green
property uchar blue
end_header
438 459 117 195 17 37 
439 458 116 198 19 38 
439 459 116 197 19 36 
439 459 117 197 18 36 
436 460 117 192 17 41 
437 460 117 193 17 38 
436 460 118 192 17 40 
436 461 118 194 17 47 
437 460 118 193 17 40 
437 461 118 194 17 43 
436 462 119 195 17 48 
437 462 119 193 17 43 
438 460 117 195 17 35 
439 460 117 195 18 36 
438 460 118 194 18 38 
438 461 118 193 17 38 
438 461 119 192 18 39 
439 460 118 194 18 37 
439 461 118 193 18 35 
439 461 119 192 18 38 
438 462 119 192 17 39 
439 462 119 192 18 41 
432 461 120 184 14 37 
432 462 120 185 14 39 
432 462 121 185 14 41 
432 463 121 187 15 44 
433 462 120 187 15 41 
433 462 121 189 15 44 
433 463 121 189 15 45 
432 463 122 186 14 38 
433 463 122 189 15 43 
434 462 120 191 16 45 
434 463 121 190 15 40 
435 462 120 194 16 48 
435 463 120 193 16 46 
435 463 121 191 16 39 
436 462 120 194 17 47 
436 463 120 191 16 42 
437 462 120 192 17 41 
437 463 120 190 16 39 
438 462 120 190 17 33 
438 463 120 190 17 38 
439 462 120 191 17 35 
439 463 120 192 18 37 
439 463 121 194 18 41 
440 451 112 193 17 44 
441 451 112 194 18 44 
442 451 112 195 19 41 
443 450 112 195 20 37 
443 451 112 195 19 41 
440 452 112 193 17 44 
440 453 112 191 17 38 
440 453 113 192 17 41 
441 452 112 194 18 44 
441 453 112 192 18 40 
441 453 113 192 18 40 
440 454 113 193 17 42 
440 455 113 195 18 42 
441 454 113 194 18 38 
441 455 113 196 19 39 
440 455 114 196 19 42 
441 455 114 198 19 42 
442 452 112 194 19 40 
442 452 113 195 19 35 
442 453 113 193 19 35 
443 452 112 195 20 37 
443 452 113 195 20 35 
443 453 113 195 20 33 
442 454 113 194 19 36 
442 454 114 196 20 38 
442 455 114 198 20 40 
442 455 115 199 20 41 
443 454 114 197 21 40 
443 455 114 198 21 39 
443 455 115 199 21 42 
444 449 112 193 20 40 
445 449 112 193 20 45 
444 450 112 194 19 42 
444 451 112 194 20 43 
444 451 113 195 20 44 
445 450 112 193 20 43 
445 450 113 192 20 45 
445 451 113 194 20 46 
446 448 112 192 20 45 
446 449 112 193 20 44 
447 448 112 191 20 45 
447 449 112 191 20 49 
447 449 113 191 20 46 
446 450 113 193 20 43 
446 451 113 193 20 45 
447 450 113 192 20 43 
446 451 114 192 20 43 
447 450 114 190 20 40 
447 451 114 190 20 41 
444 452 113 195 20 40 
444 453 113 195 20 38 
445 452 113 194 21 45 
444 453 114 197 21 41 
445 452 114 195 21 44 
445 453 114 195 21 45 
444 454 114 196 21 45 
444 454 115 198 21 47 
444 455 115 197 21 46 
445 454 114 197 21 43 
445 454 115 195 21 46 
445 455 115 194 21 46 
446 452 114 193 21 43 
446 452 115 192 21 41 
446 453 114 195 21 44 
446 453 115 193 21 43 
447 452 114 192 20 44 
447 452 115 191 20 42 
447 453 115 191 20 44 
446 454 115 192 21 45 
444 455 116 194 21 44 
445 455 116 192 21 45 
447 453 116 189 20 45 
446 454 116 190 21 43 
446 455 116 190 20 42 
446 455 117 189 20 40 
447 454 116 188 20 42 
447 455 116 189 20 44 
447 455 117 188 20 43 
440 456 114 198 19 43 
440 456 115 200 19 47 
440 457 115 201 20 45 
441 456 114 199 20 42 
441 456 115 201 20 45 
441 457 115 200 20 40 
442 456 114 200 20 39 
442 456 115 199 20 39 
442 457 115 200 20 37 
443 456 115 198 20 36 
440 458 116 199 20 42 
440 459 116 198 21 41 
440 459 117 197 19 41 
441 458 116 199 19 42 
441 459 116 197 20 38 
441 459 117 196 19 40 
442 457 116 198 20 35 
443 456 116 198 21 39 
443 457 116 195 20 37 
442 458 116 197 20 36 
442 458 117 194 20 38 
442 459 117 194 19 40 
443 458 116 195 20 39 
443 458 117 193 20 40 
443 459 117 193 20 45 
442 459 118 193 19 40 
443 459 118 190 20 40 
440 460 117 195 18 39 
441 460 117 196 19 43 
440 460 118 194 18 38 
440 461 118 193 18 39 
440 461 119 192 18 36 
441 460 118 193 19 35 
441 461 119 193 19 38 
440 462 119 193 18 39 
441 462 119 193 18 37 
442 460 118 192 19 36 
442 460 119 192 19 36 
442 461 119 193 19 38 
443 460 119 190 19 36 
443 461 119 191 19 40 
444 456 116 195 21 44 
444 457 116 195 20 40 
444 457 117 193 20 41 
445 456 116 192 20 43 
445 456 117 190 20 38 
445 457 117 191 20 42 
444 458 117 192 20 40 
444 458 118 190 20 38 
444 459 118 189 20 39 
444 459 119 188 20 38 
445 458 118 190 20 39 
445 459 118 188 22 43 
445 459 119 187 20 43 
446 456 117 189 20 39 
446 457 117 189 20 40 
446 456 118 189 20 41 
446 457 118 189 20 39 
447 456 118 189 20 42 
447 457 118 188 20 42 
447 457 119 188 20 42 
446 458 118 188 20 40 
446 458 119 189 20 45 
446 459 119 186 20 47 
447 458 119 188 22 40 
444 460 119 187 19 35 
445 460 119 186 19 39 
440 462 120 195 19 42 
440 463 120 195 19 39 
440 463 121 195 19 42 
441 462 120 195 19 40 
441 463 121 195 19 40 
442 461 120 194 19 41 
443 461 120 192 20 42 
442 462 120 195 19 41 
442 462 121 196 20 43 
442 463 121 196 20 41 
443 462 120 193 20 42 
443 462 121 195 20 42 
443 463 121 196 20 43 
442 463 122 196 20 42 
443 463 122 195 20 42 
446 459 120 186 22 40 
447 458 120 186 22 42 
447 459 120 186 21 40 
447 459 121 184 21 38 
444 460 120 187 19 35 
444 461 120 189 20 40 
445 460 120 186 19 41 
445 461 120 187 19 42 
445 461 121 188 19 44 
444 462 121 192 20 42 
445 462 121 190 20 46 
444 463 122 195 21 41 
445 462 122 191 20 45 
445 463 122 193 21 44 
445 463 123 194 21 48 
446 460 120 186 21 43 
446 460 121 185 21 43 
446 461 121 186 20 47 
447 460 121 184 21 45 
446 461 122 186 22 50 
447 460 122 184 21 46 
447 461 122 185 21 50 
446 462 121 188 20 50 
446 462 122 189 20 49 
446 462 123 190 20 47 
446 463 123 192 20 48 
447 462 122 187 20 47 
447 462 123 189 21 47 
446 463 124 193 21 45 
447 462 124 190 20 46 
447 463 124 192 21 47 
432 464 122 188 15 39 
432 464 123 188 14 38 
432 465 123 189 15 42 
433 464 122 190 15 44 
433 465 122 191 15 48 
433 465 123 190 15 47 
432 466 123 189 15 44 
433 466 123 190 15 45 
434 464 121 190 16 38 
435 464 121 190 16 34 
434 464 122 190 15 39 
434 465 122 190 15 43 
434 465 123 190 15 46 
435 464 122 190 15 37 
435 465 122 189 15 37 
434 466 123 188 15 40 
435 466 122 190 15 39 
435 466 123 187 15 36 
435 467 123 189 16 40 
432 466 124 189 15 42 
432 467 124 189 15 46 
432 467 125 190 15 45 
433 466 124 190 15 46 
433 467 124 189 15 42 
434 466 124 189 15 44 
434 467 124 190 15 40 
435 467 124 189 15 40 
432 468 125 190 15 44 
432 469 125 190 15 44 
433 468 125 190 15 41 
433 469 125 190 15 42 
432 469 126 189 14 42 
433 469 126 190 14 41 
432 470 126 187 14 40 
432 470 127 185 13 39 
432 471 127 183 15 36 
433 470 126 188 14 36 
433 470 127 185 14 36 
433 471 127 185 16 32 
434 468 124 190 15 36 
434 468 125 191 15 36 
434 469 125 190 15 37 
435 468 124 192 16 38 
435 469 125 192 16 38 
434 470 125 191 15 42 
435 470 125 192 16 43 
434 470 126 189 15 35 
434 471 126 187 15 32 
434 471 127 186 15 31 
435 470 126 191 16 42 
435 471 126 191 16 37 
436 464 121 189 16 31 
437 464 121 190 16 34 
437 465 121 191 16 41 
436 465 122 189 16 38 
437 465 122 190 16 40 
436 466 122 191 16 44 
436 466 123 191 16 46 
436 467 123 191 17 43 
437 466 122 192 17 41 
437 466 123 193 17 45 
437 467 123 194 17 46 
438 464 121 193 17 41 
438 465 121 193 17 44 
439 464 121 194 18 44 
438 465 122 193 17 37 
439 465 122 195 18 43 
438 466 122 193 17 34 
438 466 123 194 18 43 
438 467 123 195 18 46 
439 466 122 195 18 37 
439 466 123 194 18 39 
439 467 123 195 19 43 
436 467 124 192 17 44 
437 467 124 194 18 45 
438 467 124 195 18 43 
439 467 124 195 19 42 
436 468 124 193 17 44 
436 469 124 194 18 43 
436 469 125 193 17 41 
437 468 124 194 18 44 
437 469 124 194 18 40 
437 469 125 194 18 36 
436 470 125 194 18 45 
437 470 125 194 18 40 
437 471 125 197 18 46 
436 471 126 195 17 49 
437 471 126 197 18 50 
438 468 124 195 18 40 
438 469 124 195 18 36 
438 469 125 194 19 32 
439 468 124 195 19 38 
439 469 124 195 18 33 
439 469 125 195 19 33 
438 470 125 195 18 35 
439 470 125 196 19 40 
438 471 126 197 19 46 
439 470 126 195 19 41 
439 471 126 197 20 41 
433 472 127 183 15 27 
434 472 127 185 16 29 
435 472 126 191 16 36 
435 472 127 188 16 32 
435 473 127 189 16 37 
436 472 126 194 17 43 
436 472 127 193 17 35 
436 473 127 193 18 39 
437 472 126 197 18 47 
437 472 127 196 19 39 
437 473 127 197 19 38 
438 472 126 197 20 47 
438 472 127 198 21 40 
438 473 127 199 20 40 
439 472 126 197 19 42 
439 472 127 198 23 43 
439 473 127 198 23 50 
440 464 121 195 19 44 
441 464 121 196 19 43 
440 464 122 194 19 46 
440 465 122 195 19 44 
441 464 122 195 19 45 
441 465 122 195 19 46 
441 465 123 196 20 42 
440 466 123 195 19 38 
441 466 123 196 19 42 
442 464 122 196 20 42 
442 465 122 196 20 44 
442 465 123 196 20 42 
443 464 122 196 21 41 
443 464 123 196 21 44 
443 465 123 197 21 45 
442 466 123 198 20 44 
440 467 124 196 19 43 
441 466 124 198 20 44 
441 467 124 197 20 41 
442 466 124 198 21 47 
442 467 124 197 20 43 
442 467 125 195 21 41 
443 466 124 196 20 37 
443 466 125 193 20 29 
443 467 125 194 20 41 
443 467 126 193 21 47 
440 468 124 196 19 38 
440 468 125 196 19 39 
440 469 125 196 20 39 
441 468 125 196 20 46 
441 469 125 196 20 50 
441 469 126 195 20 53 
440 470 125 196 20 42 
440 470 126 195 19 38 
440 471 126 194 19 31 
440 471 127 194 19 31 
441 470 126 194 20 38 
441 470 127 193 19 31 
441 471 127 195 19 34 
442 468 125 195 21 52 
442 468 126 194 21 55 
442 469 126 193 20 50 
442 469 127 189 19 38 
443 468 126 192 20 51 
443 469 127 188 19 43 
442 470 126 190 20 33 
442 470 127 189 19 29 
442 471 127 191 19 41 
443 470 127 186 21 35 
444 464 122 196 21 43 
444 464 123 196 21 42 
444 465 123 195 21 44 
445 464 123 194 21 43 
446 464 123 194 21 45 
444 465 124 195 21 48 
445 465 124 195 21 50 
444 466 124 195 21 42 
444 466 125 192 21 38 
444 467 125 192 20 37 
445 466 124 193 21 49 
445 466 125 192 20 43 
444 467 126 192 20 47 
445 466 126 191 20 44 
445 467 126 191 20 49 
446 464 124 194 21 48 
446 465 124 193 21 48 
446 465 125 193 21 48 
447 464 124 193 21 47 
447 464 125 193 21 47 
447 465 125 192 21 47 
447 465 126 192 21 50 
446 466 125 192 21 48 
446 466 126 192 21 50 
446 467 126 192 20 48 
446 467 127 189 20 47 
447 466 126 192 21 50 
447 466 127 191 21 50 
447 467 127 187 20 51 
444 468 126 191 20 52 
444 468 127 190 20 49 
444 469 127 187 19 43 
445 468 127 188 20 48 
446 468 127 185 19 42 
440 472 127 196 19 46 
440 473 127 194 19 53 
441 472 127 193 18 50 
448 427 100 115 18 37 
449 427 100 117 16 37 
448 428 99 148 21 42 
448 429 98 175 24 48 
449 428 99 146 22 40 
449 429 98 179 23 46 
449 429 99 169 23 45 
448 430 98 202 28 53 
448 431 98 221 28 59 
449 430 98 203 27 52 
449 431 98 221 30 49 
450 428 99 148 23 38 
450 429 98 182 24 46 
450 429 99 174 25 43 
451 429 99 175 25 42 
450 430 98 206 26 45 
450 430 99 200 27 46 
450 431 98 219 28 37 
450 431 99 222 30 40 
451 430 99 206 27 46 
451 431 99 222 30 45 
448 428 100 114 9 28 
449 428 100 130 20 37 
450 428 100 134 22 37 
451 429 100 164 24 38 
452 429 99 181 25 41 
452 430 99 210 28 47 
452 431 99 224 32 53 
453 430 99 215 29 44 
453 431 100 224 33 45 
448 432 98 192 22 32 
448 433 99 174 18 37 
449 432 98 208 25 44 
449 432 99 191 20 33 
449 433 99 186 18 43 
448 434 99 185 18 48 
450 432 99 211 25 42 
450 433 99 191 20 39 
451 432 99 216 27 51 
448 434 100 187 18 33 
448 435 100 196 20 47 
448 435 101 198 21 46 
449 434 100 189 18 43 
449 434 101 189 19 28 
449 435 101 196 21 42 
450 433 100 187 18 43 
451 432 100 210 25 55 
451 433 100 190 20 36 
451 433 101 182 18 34 
450 434 100 192 19 52 
450 434 101 190 18 40 
450 435 101 191 19 42 
451 434 101 187 18 53 
450 435 102 196 21 49 
451 435 102 192 20 52 
451 435 103 196 21 58 
448 436 101 199 22 46 
448 436 102 197 21 43 
448 437 102 196 21 47 
448 437 103 196 21 49 
449 436 102 197 21 40 
449 437 102 194 21 48 
449 437 103 195 21 50 
448 438 103 196 21 41 
450 436 102 196 21 45 
450 436 103 195 21 49 
450 437 103 192 21 44 
451 436 103 193 21 51 
452 432 99 222 30 53 
452 432 100 212 26 58 
452 433 100 193 21 43 
452 433 101 177 19 30 
453 432 100 216 28 58 
453 432 101 206 25 62 
453 433 101 182 22 37 
452 434 101 182 19 51 
452 434 102 184 19 51 
452 435 102 191 20 51 
452 435 103 193 21 53 
453 434 102 177 20 45 
453 435 103 187 21 50 
452 436 103 194 21 55 
448 438 104 194 20 38 
448 439 104 192 20 35 
449 438 104 192 20 43 
449 439 104 191 20 36 
449 439 105 189 20 36 
450 437 104 190 20 45 
451 437 104 189 20 41 
451 437 105 188 21 44 
450 438 104 189 20 42 
450 438 105 189 20 42 
450 439 105 189 20 41 
451 438 105 188 19 44 
450 439 106 187 21 39 
451 438 106 186 21 42 
451 439 106 184 20 39 
451 439 107 183 19 39 
452 436 104 192 21 51 
452 437 104 189 21 46 
452 437 105 188 21 44 
453 436 104 193 21 58 
452 438 105 187 21 47 
452 438 106 185 21 47 
452 439 106 184 21 40 
448 440 105 186 20 44 
448 441 105 187 21 46 
449 440 105 189 20 40 
448 441 106 186 19 49 
449 440 106 189 19 44 
449 441 106 186 19 44 
449 441 107 184 19 41 
448 442 106 185 18 43 
448 442 107 185 20 36 
448 443 107 186 19 35 
449 442 107 184 20 37 
450 440 106 186 20 40 
450 440 107 184 19 43 
450 441 107 184 19 41 
451 440 107 184 20 42 
448 443 108 189 20 44 
449 442 108 184 20 34 
449 443 108 187 19 42 
449 443 109 188 20 48 
450 441 108 183 20 44 
451 440 108 183 21 42 
451 441 108 182 22 40 
450 442 108 183 21 42 
450 442 109 184 19 42 
450 443 109 187 19 44 
451 442 109 184 20 45 
450 443 110 188 19 49 
451 443 110 186 19 47 
448 444 108 191 21 54 
448 444 109 191 20 53 
448 445 109 188 20 42 
449 444 109 190 20 50 
449 445 109 189 20 45 
448 445 110 185 19 39 
449 445 110 186 19 41 
448 446 110 186 19 40 
448 447 111 187 19 45 
449 446 110 184 19 38 
449 446 111 185 19 39 
449 447 111 185 19 40 
450 444 109 189 20 48 
450 444 110 187 20 48 
450 445 110 187 20 43 
450 445 111 185 19 44 
451 444 111 186 19 48 
451 445 111 185 20 47 
450 446 111 185 19 38 
448 447 112 187 20 45 
449 447 112 185 19 42 
450 445 112 185 19 44 
450 446 112 185 19 41 
450 447 112 185 19 42 
450 447 113 186 20 46 
451 446 112 185 20 46 
451 447 113 186 20 47 
448 448 112 189 20 45 
448 448 113 190 20 47 
448 449 113 189 20 43 
449 448 112 188 20 45 
449 448 113 189 20 48 
448 449 114 188 20 41 
449 448 114 189 20 48 
449 449 114 189 20 46 
448 450 114 189 20 39 
448 451 114 189 20 40 
448 451 115 189 20 42 
449 450 114 188 20 42 
449 450 115 189 20 44 
449 451 115 188 20 43 
450 448 113 187 20 46 
450 448 114 187 20 43 
450 449 114 189 20 49 
450 449 115 187 20 46 
450 450 115 188 20 44 
449 451 116 188 20 42 
450 451 116 186 20 44 
448 452 115 189 20 41 
449 452 115 188 20 42 
448 452 116 188 20 40 
448 453 116 189 20 45 
449 452 116 187 20 39 
449 453 116 187 19 44 
449 453 117 186 19 40 
448 454 116 188 20 45 
448 454 117 187 20 45 
448 455 117 187 20 43 
449 454 117 184 20 37 
448 455 118 188 20 46 
449 454 118 179 19 35 
449 455 118 183 19 41 
449 455 119 185 19 53 
450 452 116 186 20 37 
450 452 117 183 20 43 
450 453 117 180 20 32 
450 453 118 172 20 38 
450 454 118 172 18 37 
450 455 119 182 21 50 
448 456 118 189 20 48 
448 456 119 189 20 50 
448 457 119 188 20 48 
449 456 119 186 19 46 
448 457 120 188 20 49 
449 456 120 186 19 37 
449 457 120 187 20 42 
449 457 121 186 20 42 
448 458 120 186 20 44 
448 459 120 185 21 41 
448 459 121 184 21 39 
449 458 121 186 20 41 
449 459 121 185 22 42 
449 458 122 185 20 47 
449 459 122 185 21 41 
450 456 120 187 20 40 
448 460 121 184 21 44 
448 460 122 184 21 45 
448 461 122 184 21 44 
448 461 123 185 22 41 
449 460 123 184 20 42 
449 461 123 185 22 39 
448 462 123 186 20 43 
449 461 124 185 20 45 
448 462 124 189 20 45 
448 463 124 192 21 46 
448 463 125 192 21 46 
449 462 124 189 20 47 
449 462 125 189 20 47 
449 463 125 191 21 48 
448 464 125 192 21 46 
448 464 126 192 21 47 
448 465 126 191 21 47 
449 464 126 192 21 48 
449 465 127 192 21 51 
448 466 126 191 21 48 
448 466 127 190 20 47 
449 466 127 191 21 52 
403 478 128 60 37 30 
403 479 128 54 30 28 
405 477 128 79 20 39 
404 478 128 59 26 24 
404 479 128 75 28 30 
405 478 128 71 19 27 
405 479 128 96 34 37 
406 476 128 91 36 39 
406 477 128 88 35 38 
407 476 128 81 29 30 
407 477 128 92 43 42 
406 478 128 82 25 24 
406 479 128 116 31 37 
407 478 128 96 23 32 
407 479 128 121 32 47 
407 479 129 125 30 53 
411 471 128 159 0 30 
412 471 128 162 0 29 
413 471 128 165 0 33 
414 470 128 173 0 35 
414 471 128 171 0 37 
415 470 128 176 0 40 
415 471 128 174 1 32 
409 473 128 95 26 33 
408 474 128 76 23 27 
408 475 128 70 29 32 
409 474 128 77 30 31 
409 475 128 63 36 32 
410 472 128 143 12 35 
410 473 128 102 11 29 
411 472 128 149 14 41 
411 473 128 107 10 28 
410 474 128 67 30 36 
410 475 128 53 39 34 
411 474 128 69 29 32 
411 475 129 52 39 38 
408 476 128 74 34 30 
408 477 128 84 41 44 
409 476 128 62 39 36 
409 477 128 71 40 45 
409 477 129 68 34 46 
408 478 128 96 21 42 
408 478 129 99 26 44 
408 479 129 116 38 56 
409 478 129 80 25 44 
409 479 129 88 30 40 
410 476 128 52 40 37 
410 476 129 47 40 35 
410 477 128 58 43 43 
410 477 129 52 30 41 
411 476 129 43 37 42 
411 477 129 49 34 39 
411 477 130 57 29 38 
410 478 129 56 31 39 
410 479 129 58 38 36 
411 478 129 44 30 33 
411 478 130 46 39 36 
411 479 130 51 37 40 
412 472 128 158 5 39 
412 473 128 123 9 22 
413 472 128 161 0 32 
413 473 128 144 4 26 
413 473 129 135 9 33 
412 474 128 83 27 24 
412 474 129 80 23 33 
412 475 129 61 26 40 
413 474 129 104 7 34 
413 475 129 86 12 33 
414 472 128 168 0 38 
414 473 128 161 1 32 
414 473 129 151 2 33 
415 472 128 171 1 35 
415 473 128 170 2 35 
415 473 129 167 2 34 
414 474 129 137 0 33 
414 475 129 125 3 32 
415 474 129 161 2 33 
415 475 129 153 5 32 
415 475 130 157 18 34 
412 476 129 55 34 40 
412 477 129 51 36 34 
413 476 129 87 30 40 
412 477 130 55 36 33 
413 476 130 84 46 46 
413 477 130 66 33 34 
412 478 130 47 42 31 
412 479 130 50 35 41 
413 478 130 53 42 28 
413 478 131 60 43 29 
413 479 131 64 34 36 
414 476 130 120 32 50 
414 477 130 82 17 33 
414 477 131 60 27 19 
415 476 130 144 24 46 
415 477 130 97 13 35 
415 477 131 74 19 29 
414 478 131 62 33 21 
414 479 131 87 41 32 
415 478 131 79 22 22 
415 479 131 106 27 28 
399 485 128 73 33 26 
398 487 128 94 31 27 
399 486 128 68 36 24 
399 487 128 89 32 26 
395 490 128 104 20 22 
395 491 128 119 7 33 
392 495 128 159 0 36 
393 494 128 162 0 37 
393 495 128 159 0 29 
394 492 128 131 0 28 
394 493 128 159 0 41 
395 492 128 135 0 30 
395 493 128 158 0 47 
394 494 128 165 3 44 
394 495 128 161 0 29 
395 494 128 165 0 48 
395 494 129 164 0 42 
395 495 128 164 0 38 
395 495 129 161 0 32 
396 489 128 113 18 38 
397 488 128 128 32 37 
397 489 128 124 23 41 
396 490 128 119 28 45 
396 491 128 130 17 36 
396 491 129 148 33 43 
397 490 128 121 23 43 
397 490 129 114 14 36 
397 491 129 131 17 37 
398 488 128 129 35 43 
398 489 128 125 29 49 
398 489 129 114 19 42 
399 488 128 123 42 53 
399 488 129 111 30 44 
399 489 128 121 32 53 
399 489 129 105 28 49 
398 490 129 100 7 31 
398 491 129 120 6 30 
399 490 129 91 18 30 
399 491 129 100 19 21 
399 491 130 127 4 33 
396 492 128 147 8 26 
396 492 129 160 15 40 
396 493 129 166 2 43 
397 492 129 164 15 36 
397 493 129 174 16 30 
397 493 130 173 9 35 
396 494 129 167 0 41 
396 495 129 163 0 40 
396 494 130 166 0 38 
396 495 130 161 0 34 
397 494 130 169 0 38 
397 495 130 162 0 34 
398 492 129 158 17 43 
398 492 130 167 15 40 
398 493 130 171 8 39 
399 492 130 163 14 45 
399 493 130 170 1 38 
398 494 130 168 0 35 
398 495 130 165 0 38 
398 495 131 162 0 35 
399 494 130 167 0 33 
399 494 131 166 0 38 
399 495 131 163 0 36 
386 499 128 165 0 29 
387 498 128 166 0 39 
387 499 128 166 0 34 
385 501 128 164 0 36 
384 502 128 163 0 28 
384 503 128 162 0 20 
385 502 128 163 0 30 
385 503 128 162 0 24 
386 500 128 165 0 31 
386 501 128 164 0 32 
387 500 128 165 0 31 
387 501 128 165 0 30 
386 502 128 164 0 32 
386 503 128 163 0 28 
387 502 128 165 0 33 
387 503 128 164 0 34 
387 503 129 163 0 33 
389 497 128 161 0 31 
388 498 128 165 0 37 
388 499 128 165 0 34 
389 498 128 163 0 34 
389 499 128 164 0 31 
390 497 128 160 0 34 
391 497 128 158 0 33 
390 498 128 161 0 34 
390 499 128 163 0 31 
391 498 128 159 2 34 
391 499 128 162 0 31 
391 499 129 163 0 32 
388 500 128 165 0 34 
388 501 128 166 0 32 
389 500 128 165 0 31 
389 500 129 166 0 29 
389 501 128 166 0 31 
389 501 129 165 0 30 
388 502 128 165 0 32 
388 502 129 165 0 34 
388 503 129 164 0 33 
389 502 129 165 0 31 
389 503 129 165 0 33 
390 500 128 165 0 30 
390 500 129 165 0 31 
390 501 129 166 0 34 
391 500 129 164 0 33 
391 501 129 165 0 34 
390 502 129 165 0 30 
390 503 129 164 0 32 
391 502 129 163 0 32 
390 503 130 164 0 31 
391 502 130 162 0 30 
391 503 130 163 0 30 
384 504 128 163 0 25 
384 505 128 165 0 36 
385 504 128 162 0 26 
385 505 128 163 0 30 
385 505 129 164 0 31 
384 506 128 167 5 42 
384 506 129 167 1 37 
384 507 129 167 0 37 
385 506 129 165 5 35 
385 507 129 167 0 39 
385 507 130 166 0 39 
386 504 128 162 0 29 
386 504 129 163 0 31 
386 505 129 164 0 34 
387 504 129 163 0 30 
387 505 129 164 0 34 
386 506 129 165 1 36 
387 506 129 164 0 35 
386 506 130 164 7 31 
386 507 130 165 2 34 
387 506 130 164 1 34 
387 507 130 164 1 29 
384 508 129 167 0 35 
384 508 130 168 0 38 
384 509 130 166 0 37 
385 508 130 167 0 39 
385 509 130 168 0 42 
385 509 131 168 0 38 
384 510 130 164 0 39 
384 510 131 165 0 38 
384 511 131 163 0 34 
385 510 131 167 0 37 
385 511 131 166 0 34 
386 508 130 166 0 35 
386 509 130 167 0 40 
386 509 131 168 0 38 
387 508 130 165 0 31 
387 508 131 164 0 31 
387 509 131 166 0 35 
386 510 131 168 0 35 
387 510 131 167 0 37 
385 511 132 166 0 32 
386 511 132 166 0 31 
387 510 132 167 0 38 
387 511 132 166 0 36 
388 504 129 164 0 31 
388 505 129 164 0 36 
389 504 129 165 0 36 
388 505 130 164 0 37 
389 504 130 166 0 35 
389 505 130 165 0 36 
388 506 130 163 0 33 
388 507 130 163 0 26 
388 507 131 163 0 26 
389 506 130 164 0 32 
389 506 131 165 0 32 
389 507 131 164 0 29 
390 504 130 165 0 33 
390 505 130 165 0 30 
391 504 130 163 0 32 
391 505 130 164 0 29 
391 505 131 164 0 29 
390 506 130 164 0 29 
390 506 131 165 0 32 
390 507 131 166 0 33 
391 506 131 165 0 33 
391 507 131 166 0 38 
391 507 132 166 0 38 
388 508 131 164 0 26 
388 509 131 165 0 32 
389 508 131 164 0 26 
389 509 131 164 0 25 
390 508 131 166 0 30 
388 509 132 165 0 35 
389 509 132 165 0 32 
388 510 132 166 0 40 
388 511 132 165 0 39 
389 510 132 164 0 39 
389 511 132 164 0 39 
389 511 133 163 0 33 
390 508 132 166 0 33 
390 509 132 167 0 34 
391 508 132 166 0 36 
391 509 132 166 0 35 
391 509 133 166 0 35 
390 510 132 165 0 36 
390 510 133 164 0 36 
390 511 133 163 0 32 
391 510 133 165 0 33 
391 511 133 163 0 29 
392 496 128 159 0 35 
392 497 128 158 0 34 
393 496 128 159 0 29 
393 497 128 159 0 31 
393 497 129 159 0 37 
392 498 128 158 2 34 
392 498 129 158 4 38 
392 499 129 161 0 35 
393 498 129 158 3 39 
393 499 129 159 0 37 
394 496 128 162 0 29 
394 496 129 159 0 28 
394 497 129 161 0 39 
395 496 129 159 0 33 
395 497 129 163 0 40 
395 497 130 163 0 39 
394 498 129 160 1 40 
394 498 130 161 0 38 
394 499 130 161 0 38 
395 498 130 159 0 35 
395 499 130 162 0 35 
392 500 129 161 0 32 
392 501 129 161 0 32 
393 500 129 159 0 31 
392 501 130 159 0 30 
393 500 130 158 0 29 
393 501 130 157 0 28 
392 502 130 160 0 29 
392 503 130 160 0 29 
392 503 131 160 0 31 
393 502 130 158 0 27 
393 502 131 158 0 29 
393 503 131 158 0 32 
394 500 130 161 0 34 
394 501 130 160 0 27 
394 501 131 160 0 29 
395 500 130 159 0 36 
395 500 131 161 0 35 
395 501 131 160 0 31 
394 502 131 160 0 31 
394 503 131 160 0 35 
395 502 131 160 0 36 
395 502 132 158 0 40 
395 503 132 161 0 37 
396 496 129 158 0 36 
396 496 130 158 0 35 
396 497 130 160 0 35 
396 497 131 157 0 29 
397 496 130 161 0 37 
397 496 131 160 0 38 
397 497 131 158 0 35 
396 498 130 160 0 29 
396 498 131 160 0 31 
396 499 131 159 0 28 
397 498 131 161 0 36 
397 499 131 157 0 33 
398 496 131 161 0 37 
398 497 131 160 0 35 
399 496 131 161 0 36 
397 498 132 161 0 37 
397 499 132 158 0 33 
398 497 132 159 0 34 
399 496 132 160 0 33 
399 497 132 160 0 31 
398 498 132 159 0 34 
398 499 132 159 0 35 
399 498 132 158 0 32 
399 498 133 157 0 30 
399 499 132 159 0 33 
399 499 133 156 0 29 
396 500 131 161 0 31 
396 501 131 159 0 28 
396 502 131 161 0 38 
396 500 132 159 0 30 
396 501 132 159 0 31 
397 500 132 157 0 32 
397 501 132 159 0 34 
396 502 132 160 0 36 
396 503 132 160 0 34 
397 502 132 158 0 37 
397 502 133 157 0 36 
397 503 132 159 0 35 
397 503 133 157 0 37 
398 500 132 157 0 31 
398 501 132 157 0 33 
398 501 133 155 0 31 
399 500 133 158 0 30 
399 501 133 158 0 35 
398 502 133 157 0 38 
398 503 133 157 0 36 
399 502 133 157 0 37 
399 503 133 156 0 35 
399 502 134 159 0 36 
399 503 134 157 0 36 
392 504 130 162 0 29 
392 504 131 161 0 30 
392 505 131 162 0 30 
393 504 131 159 0 30 
393 505 131 160 0 32 
392 506 131 163 0 32 
394 504 131 162 0 33 
393 505 132 162 0 34 
392 506 132 164 0 34 
392 507 132 164 0 36 
393 506 132 162 0 35 
393 507 132 163 0 34 
394 504 132 161 0 35 
394 505 132 163 0 34 
395 504 132 161 0 33 
395 505 132 161 0 31 
394 506 132 163 0 32 
394 507 132 165 0 30 
394 507 133 162 0 27 
395 506 132 161 0 30 
395 506 133 159 0 31 
395 507 133 159 0 34 
392 508 132 165 0 35 
392 509 132 166 0 35 
392 509 133 165 0 34 
393 508 132 163 0 33 
393 508 133 162 0 33 
393 509 133 162 0 32 
392 510 133 164 0 32 
392 511 133 163 0 30 
393 510 133 162 0 31 
392 510 134 163 0 31 
392 511 134 162 0 29 
393 510 134 161 0 31 
393 511 134 159 0 31 
394 508 133 164 0 31 
394 509 133 163 0 29 
395 508 133 160 0 36 
395 509 133 160 0 32 
394 509 134 164 0 25 
395 509 134 161 0 29 
394 510 134 161 0 28 
394 511 134 158 0 29 
394 511 135 158 0 28 
395 510 134 159 0 29 
395 511 134 158 0 28 
395 511 135 158 0 26 
396 504 132 160 0 31 
396 504 133 159 0 34 
396 505 132 161 0 33 
396 505 133 158 0 34 
397 504 133 157 0 36 
397 505 133 156 0 34 
396 506 133 156 0 33 
396 507 133 155 0 31 
397 506 133 154 0 32 
397 507 133 153 0 32 
397 507 134 152 0 33 
398 504 133 156 0 34 
398 505 133 155 0 31 
399 504 133 157 0 33 
399 504 134 157 0 33 
399 505 134 156 0 29 
398 506 133 154 0 31 
398 506 134 153 0 31 
398 507 134 153 0 33 
399 506 134 154 0 31 
399 507 134 152 0 32 
396 508 133 155 0 32 
396 508 134 153 0 27 
396 509 134 158 0 28 
397 508 134 153 0 29 
397 509 134 156 0 31 
396 510 134 161 0 28 
396 511 135 157 0 29 
397 510 134 162 0 35 
397 510 135 164 0 38 
397 511 135 158 0 35 
398 508 134 152 0 30 
398 509 134 157 0 32 
399 508 134 153 0 30 
399 508 135 154 0 32 
399 509 134 155 0 32 
399 509 135 158 0 35 
398 510 134 162 0 38 
398 510 135 162 0 37 
398 511 135 161 0 36 
399 510 135 162 0 39 
399 511 135 162 0 38 
401 482 128 52 36 29 
401 483 128 57 39 38 
402 480 128 41 33 45 
402 481 128 42 41 43 
403 480 128 58 35 41 
403 481 128 53 36 35 
402 482 128 41 43 36 
402 483 128 45 38 42 
403 482 128 48 36 36 
403 483 128 47 34 38 
403 483 129 46 31 33 
400 484 128 67 28 31 
400 485 128 60 35 22 
401 484 128 49 37 36 
401 485 128 49 40 28 
400 486 128 55 31 26 
400 487 128 74 31 43 
401 486 128 44 32 38 
401 487 128 49 27 50 
401 487 129 48 22 50 
402 484 128 45 30 44 
402 485 128 42 43 43 
403 484 128 44 34 43 
403 484 129 42 37 40 
403 485 129 42 37 42 
402 486 128 45 37 41 
402 486 129 47 33 42 
402 487 129 51 28 43 
403 486 129 45 34 40 
403 487 129 48 33 39 
403 487 130 46 38 41 
404 480 128 103 36 44 
404 481 128 95 25 34 
404 481 129 101 22 35 
405 480 128 129 39 50 
405 480 129 136 33 44 
405 481 129 124 26 42 
404 482 128 74 20 32 
404 482 129 77 23 36 
404 483 129 54 33 31 
405 482 129 99 32 39 
405 483 129 63 33 29 
406 480 128 142 37 52 
406 480 129 144 34 53 
406 481 129 136 28 44 
407 480 129 134 34 50 
407 481 129 117 25 32 
406 482 129 108 36 42 
406 483 129 72 37 33 
407 482 129 103 15 27 
406 483 130 71 37 25 
407 482 130 92 19 24 
407 483 130 76 35 27 
404 484 129 46 37 38 
404 485 129 45 36 41 
405 484 129 54 36 36 
405 485 129 53 41 40 
405 484 130 64 37 36 
405 485 130 51 39 39 
404 486 129 46 36 39 
404 486 130 45 38 41 
404 487 130 45 38 37 
405 486 130 45 39 41 
405 487 130 38 36 36 
406 484 129 59 40 43 
406 484 130 63 43 39 
406 485 130 57 39 33 
407 484 130 59 37 36 
407 485 130 59 44 46 
407 485 131 58 41 49 
406 486 130 47 37 39 
406 486 131 53 34 46 
406 487 130 37 36 39 
406 487 131 48 27 43 
407 486 131 59 36 53 
407 487 131 61 27 47 
407 487 132 59 30 37 
400 488 128 98 42 51 
400 488 129 92 36 43 
400 489 129 84 30 37 
401 488 129 59 31 37 
401 489 129 62 24 23 
401 489 130 60 29 23 
400 490 129 71 26 26 
400 490 130 69 22 26 
400 491 130 117 21 38 
401 490 130 65 23 27 
401 491 130 114 10 37 
401 491 131 151 10 45 
402 488 129 60 36 44 
403 488 129 56 40 44 
402 489 130 70 35 31 
403 488 130 60 41 35 
403 489 130 78 36 32 
403 489 131 90 36 41 
402 490 130 85 17 32 
402 491 130 100 8 31 
402 491 131 132 4 33 
403 490 130 94 31 41 
403 490 131 111 32 46 
403 491 131 142 12 34 
403 491 132 168 3 47 
400 492 130 167 21 52 
400 492 131 172 13 51 
400 493 131 168 0 36 
401 492 131 170 4 49 
401 493 131 167 0 37 
400 494 131 164 0 35 
400 495 131 162 0 30 
401 494 131 161 0 31 
402 492 131 168 0 43 
402 493 131 166 0 37 
403 492 131 163 0 32 
400 495 132 161 0 31 
401 494 132 162 0 29 
401 495 132 160 0 29 
402 493 132 165 0 34 
403 492 132 171 0 37 
403 493 132 169 0 33 
403 493 133 168 0 34 
402 494 132 164 0 29 
402 495 132 160 0 30 
402 495 133 157 0 28 
403 494 132 165 0 29 
403 494 133 164 0 32 
403 495 133 161 0 30 
404 488 130 53 36 28 
404 488 131 63 38 27 
404 489 131 83 25 35 
405 488 130 44 35 32 
405 488 131 54 34 30 
405 489 131 82 14 33 
404 490 131 127 33 56 
404 491 131 152 25 56 
405 490 131 111 5 41 
406 488 131 62 30 39 
406 489 131 69 19 30 
407 488 131 75 36 42 
404 491 132 166 14 54 
405 490 132 121 2 32 
405 491 132 161 13 49 
405 491 133 173 7 50 
406 488 132 79 26 36 
406 489 132 83 20 29 
407 488 132 85 39 39 
407 489 132 113 27 40 
406 490 132 109 10 21 
406 491 132 145 13 34 
406 491 133 161 3 38 
407 490 132 120 7 22 
407 490 133 134 8 31 
407 491 133 160 0 32 
407 491 134 171 0 45 
404 492 132 172 0 34 
404 492 133 171 0 31 
404 493 133 168 0 31 
405 492 133 172 0 38 
405 493 133 167 0 29 
405 493 134 168 0 29 
404 494 133 166 0 32 
404 495 133 160 0 35 
405 494 133 166 0 31 
404 495 134 163 0 36 
405 494 134 166 0 29 
405 495 134 163 0 37 
406 492 133 174 0 40 
406 493 133 169 0 31 
406 492 134 172 2 39 
406 493 134 169 1 30 
407 492 134 170 0 41 
407 493 134 167 1 31 
406 494 134 166 2 29 
406 495 134 165 1 36 
406 495 135 163 0 38 
407 494 134 164 5 35 
407 494 135 164 6 39 
407 495 134 164 3 40 
407 495 135 164 0 41 
408 480 129 111 27 29 
408 481 129 99 30 22 
409 480 129 82 37 27 
409 481 129 84 34 24 
408 481 130 93 24 21 
409 481 130 87 35 32 
408 482 130 93 28 30 
408 483 130 78 34 36 
409 482 130 89 41 42 
409 483 130 75 40 44 
410 480 129 67 39 31 
410 480 130 75 37 39 
410 481 130 87 38 41 
411 480 130 69 35 42 
411 481 130 74 36 34 
411 481 131 66 33 37 
410 482 130 82 39 42 
410 482 131 67 33 30 
410 483 130 71 34 40 
410 483 131 61 35 40 
411 482 131 62 32 31 
411 483 131 46 36 39 
408 484 130 60 29 35 
408 484 131 55 32 43 
408 485 131 55 39 47 
409 484 131 51 28 39 
409 485 131 50 33 41 
408 486 131 55 34 50 
410 484 131 46 34 44 
411 484 131 41 36 42 
409 485 132 46 33 37 
408 486 132 48 34 44 
408 487 132 49 34 34 
409 486 132 40 32 38 
409 487 132 38 34 29 
410 484 132 44 30 46 
410 485 132 48 30 38 
411 484 132 44 30 43 
411 485 132 44 25 38 
411 485 133 43 33 39 
410 486 132 39 30 30 
410 486 133 47 40 34 
410 487 132 43 38 33 
410 487 133 51 32 29 
411 486 133 48 36 37 
411 487 133 66 33 32 
412 480 130 59 29 46 
412 480 131 58 32 43 
412 481 131 59 34 42 
413 480 131 67 33 44 
413 481 131 63 28 42 
412 482 131 53 38 42 
412 483 131 44 36 40 
413 482 131 58 35 42 
414 480 131 97 36 39 
413 481 132 70 28 37 
412 483 132 38 36 37 
413 482 132 55 36 36 
413 483 132 46 40 33 
414 480 132 119 26 47 
414 481 132 105 13 41 
415 480 132 144 37 51 
415 481 132 150 11 44 
414 482 132 90 18 31 
414 482 133 116 3 29 
414 483 132 61 34 25 
414 483 133 93 18 26 
415 482 133 151 7 39 
415 483 133 152 6 44 
412 484 132 46 33 38 
412 484 133 48 34 34 
412 485 133 50 35 33 
413 484 132 46 45 36 
413 484 133 57 36 29 
413 485 133 72 31 27 
412 486 133 61 26 29 
412 487 133 79 21 23 
413 486 133 87 24 27 
412 487 134 101 19 25 
413 486 134 102 12 29 
413 487 134 112 3 26 
414 484 133 101 18 32 
414 485 133 93 14 34 
415 484 133 148 5 50 
414 484 134 132 15 39 
414 485 134 119 15 29 
415 484 134 156 7 46 
415 485 134 155 8 41 
414 486 134 126 5 31 
414 487 134 141 8 40 
414 487 135 153 12 46 
415 486 134 153 6 42 
415 486 135 159 6 41 
415 487 135 158 7 40 
408 488 132 79 35 29 
408 488 133 111 16 32 
408 489 132 125 30 46 
408 489 133 142 21 44 
409 488 132 61 33 23 
409 488 133 100 22 30 
409 489 133 157 22 52 
408 490 133 159 17 34 
408 491 133 165 0 33 
409 490 133 167 13 45 
408 491 134 170 0 38 
409 490 134 171 5 35 
409 491 134 170 0 32 
410 488 133 116 26 39 
410 489 133 161 18 53 
411 488 133 98 25 31 
410 488 134 156 20 55 
410 489 134 171 13 51 
411 488 134 134 6 38 
411 489 134 173 8 49 
410 490 134 174 2 30 
410 491 134 170 0 32 
410 491 135 166 2 41 
411 490 134 174 3 29 
411 490 135 169 4 21 
411 491 135 163 4 35 
408 492 134 168 0 35 
408 493 134 166 0 30 
408 493 135 166 0 32 
409 492 134 167 0 37 
409 492 135 165 0 41 
409 493 135 164 0 38 
408 494 135 164 2 39 
408 495 135 161 3 40 
409 494 135 160 0 36 
409 495 135 158 3 41 
410 492 135 163 1 45 
410 493 135 161 1 33 
411 492 135 162 4 48 
410 494 135 159 0 28 
412 488 134 135 3 34 
412 489 134 170 9 53 
412 489 135 172 7 37 
413 488 134 147 4 37 
413 488 135 163 9 33 
413 489 135 168 7 30 
412 490 135 167 6 21 
412 491 135 161 5 27 
413 490 135 165 6 25 
414 488 134 151 14 44 
414 488 135 162 11 36 
414 489 135 165 7 28 
415 488 135 163 7 25 
414 490 135 162 6 28 
409 495 136 154 0 38 
410 493 136 158 6 27 
411 492 136 160 4 41 
411 493 136 156 8 27 
410 494 136 156 8 25 
410 495 136 156 4 35 
411 494 136 154 14 24 
411 495 136 156 4 33 
411 495 137 158 4 34 
412 491 136 158 5 37 
413 490 136 161 6 25 
413 491 136 157 6 34 
414 489 136 163 7 32 
415 489 136 163 7 30 
414 490 136 159 7 31 
414 491 136 155 6 37 
414 491 137 154 6 36 
415 490 136 157 8 34 
415 491 136 155 7 37 
415 491 137 155 7 34 
412 492 136 157 5 36 
412 493 136 156 5 27 
413 492 136 155 5 32 
413 493 136 156 6 24 
413 493 137 157 6 20 
412 494 136 157 5 22 
412 494 137 157 5 25 
412 495 137 157 5 32 
413 494 137 157 6 25 
413 495 137 158 6 30 
414 492 136 154 6 35 
414 492 137 155 6 30 
414 493 137 157 6 27 
415 492 137 156 7 30 
415 493 137 159 7 32 
414 494 137 159 7 30 
414 495 137 159 7 40 
415 494 137 160 8 39 
415 495 137 160 8 43 
415 495 138 159 8 42 
400 496 132 159 0 35 
400 497 132 159 0 31 
400 497 133 159 0 34 
401 496 132 159 0 33 
401 496 133 158 0 34 
401 497 133 159 0 34 
400 498 133 158 0 33 
400 499 133 157 0 28 
401 498 133 159 0 32 
400 499 134 158 0 26 
401 498 134 160 0 31 
401 499 134 160 0 27 
402 496 133 158 0 33 
402 497 133 159 0 34 
403 496 133 160 0 36 
403 497 133 159 0 34 
403 496 134 161 0 39 
403 497 134 160 0 38 
402 498 133 160 0 34 
402 498 134 161 0 32 
402 499 134 161 0 30 
403 498 134 161 0 31 
403 498 135 161 0 26 
403 499 134 162 0 27 
403 499 135 163 0 28 
400 500 133 155 0 31 
400 500 134 156 0 29 
400 501 134 157 0 34 
401 500 134 160 0 32 
401 501 134 158 0 35 
400 502 134 159 0 35 
400 503 134 159 0 35 
401 502 134 158 0 37 
401 502 135 158 0 37 
401 503 134 160 0 37 
401 503 135 159 0 38 
402 500 134 161 0 32 
402 500 135 163 0 32 
402 501 135 163 0 35 
403 500 135 162 0 35 
403 501 135 161 0 37 
402 502 135 162 0 38 
402 503 135 159 0 40 
403 502 135 162 0 40 
403 503 135 160 0 40 
404 496 134 162 0 40 
404 497 134 162 0 40 
405 496 134 164 0 42 
405 497 134 161 0 40 
405 497 135 160 0 37 
404 498 134 161 0 36 
404 498 135 162 0 28 
404 499 135 164 0 28 
405 498 135 162 0 31 
405 499 135 163 0 32 
406 496 134 162 0 39 
406 496 135 161 0 33 
406 497 135 161 0 32 
407 496 135 161 0 37 
407 497 135 160 0 33 
406 498 135 162 0 28 
406 499 135 160 0 32 
407 498 135 159 0 31 
407 499 135 158 0 35 
404 500 135 162 0 34 
404 501 135 162 0 36 
405 500 135 162 0 31 
405 501 135 162 0 31 
404 502 135 162 0 39 
404 503 135 161 0 43 
406 500 135 159 0 32 
407 499 136 158 0 34 
405 501 136 161 0 34 
404 502 136 161 0 39 
404 503 136 158 6 42 
405 502 136 159 3 37 
405 503 136 154 11 40 
406 500 136 159 0 32 
406 501 136 158 0 34 
407 500 136 157 0 32 
407 501 136 154 0 34 
406 502 136 155 4 36 
406 503 136 152 4 36 
407 502 136 152 5 35 
407 503 136 148 8 34 
400 504 134 158 0 35 
400 505 134 155 0 34 
401 504 134 159 0 37 
401 504 135 159 0 36 
401 505 135 157 0 35 
400 506 134 154 0 33 
400 506 135 154 0 33 
400 507 134 153 0 28 
400 507 135 152 0 28 
401 506 135 153 0 32 
401 507 135 152 0 29 
402 504 135 157 0 40 
402 505 135 155 0 37 
403 504 135 157 0 38 
403 505 135 153 0 32 
402 506 135 152 0 31 
402 507 135 152 0 27 
403 506 135 150 0 27 
403 507 135 149 0 22 
400 508 135 153 0 28 
400 509 135 158 0 35 
401 508 135 155 0 31 
401 509 135 159 0 38 
400 510 135 162 0 36 
400 511 135 161 0 37 
401 510 135 162 0 36 
402 508 135 156 0 36 
403 505 136 150 0 26 
403 506 136 148 0 25 
403 507 136 151 0 30 
401 509 136 162 0 38 
400 511 136 161 0 35 
401 510 136 163 0 37 
401 511 136 162 0 34 
402 508 136 157 0 38 
402 509 136 161 0 38 
403 508 136 157 0 40 
403 509 136 161 0 38 
402 510 136 164 0 35 
402 511 136 162 0 36 
403 510 136 164 0 34 
403 510 137 166 2 39 
403 511 136 166 0 38 
403 511 137 166 1 37 
404 504 136 154 2 37 
404 505 136 149 0 26 
405 504 136 151 6 34 
405 505 136 147 0 25 
404 506 136 147 0 25 
404 507 136 151 0 34 
405 506 136 146 1 25 
405 507 136 151 2 31 
405 507 137 152 3 29 
406 504 136 148 5 28 
406 505 136 146 2 26 
406 505 137 145 4 26 
407 504 136 145 11 27 
407 504 137 144 9 25 
407 505 137 145 4 25 
406 506 136 146 2 23 
406 506 137 147 3 23 
406 507 137 153 4 35 
407 506 137 148 4 32 
407 507 137 156 5 42 
404 508 136 155 2 39 
404 509 136 160 3 38 
404 509 137 161 3 35 
405 508 137 157 4 38 
405 509 137 161 5 37 
404 510 137 164 4 33 
404 511 137 165 3 29 
405 510 137 164 5 34 
405 511 137 165 5 27 
406 508 137 157 5 37 
406 509 137 162 6 40 
407 508 137 159 5 36 
407 509 137 161 6 34 
407 508 138 160 6 34 
407 509 138 162 7 37 
406 510 137 165 6 38 
406 511 137 165 6 32 
406 510 138 164 6 39 
406 511 138 163 6 34 
407 510 138 162 7 36 
407 511 138 162 7 32 
408 496 135 159 0 37 
408 497 135 158 0 36 
409 496 135 157 0 37 
408 498 135 157 0 33 
409 496 136 156 0 39 
409 497 136 156 1 39 
408 498 136 156 0 35 
408 499 136 157 0 39 
409 498 136 155 1 36 
409 499 136 155 1 41 
410 496 136 154 3 33 
410 497 136 153 3 33 
410 497 137 151 3 31 
411 496 137 156 4 31 
411 497 137 156 4 30 
410 498 136 153 3 35 
410 498 137 151 3 33 
410 499 136 153 3 38 
410 499 137 150 3 36 
411 498 137 155 5 31 
411 499 137 152 4 33 
408 500 136 154 0 35 
408 501 136 151 2 33 
409 500 136 152 3 36 
409 501 136 149 3 31 
408 502 136 149 6 32 
408 503 136 146 3 31 
408 503 137 144 9 30 
409 502 136 146 3 28 
409 502 137 143 7 25 
409 503 137 144 7 30 
410 500 136 151 3 35 
410 500 137 148 4 32 
410 501 136 148 4 31 
410 501 137 146 4 27 
411 500 137 145 4 27 
411 501 137 140 8 24 
410 502 137 142 6 22 
410 503 137 139 13 27 
411 502 137 137 9 24 
411 503 137 137 13 28 
411 502 138 137 14 31 
411 503 138 142 6 33 
412 496 137 157 5 26 
412 497 137 156 6 19 
413 496 137 157 6 23 
413 497 137 156 6 17 
413 497 138 156 6 22 
412 498 137 153 5 23 
412 499 137 151 5 31 
413 498 137 155 6 19 
412 499 138 150 5 34 
413 498 138 154 6 32 
413 499 138 146 5 39 
414 496 137 157 7 32 
414 496 138 158 7 36 
414 497 138 158 7 29 
415 496 138 159 8 33 
415 497 138 159 8 25 
414 498 138 155 7 40 
414 499 138 143 6 42 
415 498 138 154 7 32 
415 499 138 142 7 34 
412 500 137 144 4 28 
412 501 137 137 9 26 
412 500 138 141 5 28 
412 501 138 131 3 23 
413 500 138 133 5 29 
413 501 138 116 2 19 
412 502 138 131 5 31 
412 503 138 130 11 40 
413 502 138 106 7 27 
413 503 138 103 14 35 
414 500 138 122 3 26 
414 501 138 86 6 20 
415 500 138 122 3 24 
415 501 138 86 5 20 
414 502 138 64 23 26 
414 503 138 56 29 29 
414 503 139 45 34 37 
415 502 138 65 24 26 
415 502 139 55 28 29 
415 503 139 42 32 33 
408 504 137 143 11 29 
408 505 137 143 6 27 
409 504 137 141 14 28 
409 505 137 143 6 28 
408 506 137 150 5 35 
408 507 137 156 5 42 
409 506 137 151 6 36 
408 507 138 157 6 41 
409 506 138 154 6 39 
409 507 138 154 8 38 
410 504 137 139 15 27 
410 505 137 145 6 31 
410 504 138 144 6 34 
410 505 138 146 7 37 
411 504 138 141 15 30 
411 505 138 144 19 37 
410 506 138 147 11 37 
410 507 138 153 10 32 
411 506 138 153 11 41 
411 507 138 161 9 39 
408 508 138 159 8 39 
408 509 138 159 10 38 
409 508 138 156 10 41 
409 509 138 159 10 40 
408 510 138 160 8 37 
408 511 138 161 8 33 
409 510 138 161 8 40 
409 511 138 159 9 39 
410 508 138 157 8 28 
410 509 138 159 8 30 
411 508 138 161 9 33 
411 509 138 161 9 29 
411 509 139 156 15 33 
410 510 138 158 9 31 
410 511 138 157 10 36 
410 511 139 157 10 32 
411 510 138 157 12 29 
411 510 139 157 12 34 
411 511 139 158 9 34 
412 504 138 129 17 32 
412 505 138 133 16 30 
413 504 138 103 18 28 
413 505 138 100 23 23 
412 506 138 142 13 40 
412 507 138 145 9 43 
413 506 138 115 24 33 
413 506 139 91 27 30 
413 507 139 103 14 35 
414 504 138 67 27 22 
414 504 139 46 36 33 
414 505 139 51 36 29 
415 504 139 40 37 39 
415 505 139 47 39 43 
414 506 139 49 37 30 
414 507 139 53 30 33 
415 506 139 44 36 37 
415 507 139 38 35 36 
412 508 138 154 8 40 
412 508 139 140 11 46 
412 509 139 148 13 42 
413 508 139 109 12 36 
413 509 139 122 12 45 
412 510 139 152 11 44 
412 511 139 149 11 41 
413 510 139 130 12 53 
413 511 139 124 14 44 
414 508 139 61 27 35 
414 509 139 73 26 36 
415 508 139 42 36 36 
415 509 139 44 34 34 
414 510 139 81 31 39 
414 511 139 75 27 33 
415 510 139 50 33 35 
415 511 139 53 35 39 
415 510 140 47 37 34 
415 511 140 51 37 39 
417 469 128 173 33 60 
416 470 128 177 4 40 
416 471 128 175 3 32 
417 470 128 177 7 47 
417 471 128 174 5 31 
418 469 128 169 11 45 
419 468 128 163 32 57 
419 469 128 171 12 48 
418 470 128 178 7 40 
418 471 128 173 7 28 
419 470 128 175 8 35 
419 471 128 173 8 32 
420 468 128 168 15 44 
420 469 128 174 9 42 
421 468 128 173 10 51 
421 469 128 173 9 37 
420 470 128 172 8 38 
420 471 128 174 9 38 
421 470 128 170 9 30 
421 471 128 174 9 37 
422 469 128 170 10 24 
423 469 128 170 10 20 
422 470 128 169 10 20 
422 471 128 175 10 37 
423 470 128 170 10 20 
423 471 128 175 11 32 
416 472 128 174 4 34 
416 473 128 174 4 37 
416 473 129 172 3 39 
417 472 128 174 5 29 
417 473 128 174 5 36 
417 473 129 173 5 36 
416 474 129 170 4 32 
416 475 129 167 4 22 
417 474 129 171 5 38 
417 475 129 171 5 30 
416 475 130 164 10 27 
417 475 130 169 5 30 
418 472 128 174 7 23 
418 473 129 173 7 23 
419 472 128 175 8 28 
419 472 129 175 9 27 
419 473 129 174 9 22 
418 474 129 173 7 29 
418 475 129 172 7 33 
419 474 129 174 9 28 
419 475 129 174 8 36 
418 475 130 173 8 38 
419 475 130 174 8 40 
416 476 130 157 17 42 
416 477 130 116 6 45 
416 477 131 95 5 38 
417 476 130 167 13 38 
417 477 130 157 6 32 
417 477 131 135 4 30 
416 478 131 97 3 26 
416 479 131 118 8 25 
417 478 131 136 5 21 
417 479 131 131 4 24 
418 476 130 172 8 38 
418 477 130 171 8 26 
418 477 131 163 8 29 
419 476 130 173 8 38 
419 477 130 173 8 32 
419 477 131 175 10 31 
418 478 131 165 8 30 
419 478 131 177 12 32 
416 479 132 135 18 20 
417 479 132 152 8 29 
418 478 132 173 9 34 
418 479 132 173 9 40 
419 478 132 177 11 33 
419 479 132 176 10 33 
419 479 133 175 10 36 
420 472 128 175 9 38 
420 472 129 175 10 32 
420 473 129 175 10 26 
421 472 129 176 10 31 
421 473 129 177 11 29 
420 474 129 176 9 35 
420 475 129 176 9 42 
421 474 129 180 11 43 
421 475 129 178 10 44 
420 475 130 176 9 44 
421 475 130 178 10 42 
422 472 129 177 11 34 
422 473 129 179 11 33 
423 472 129 177 11 33 
423 473 129 179 12 32 
422 474 129 181 11 46 
423 474 129 181 11 44 
422 475 130 179 11 41 
423 474 130 181 12 41 
423 475 130 180 12 38 
420 476 130 174 9 38 
420 477 131 175 11 29 
421 476 130 176 10 38 
421 477 131 176 11 33 
422 476 130 177 12 36 
422 477 131 177 12 34 
423 476 130 179 12 39 
423 476 131 178 12 37 
423 477 131 178 13 35 
421 477 132 177 12 34 
420 478 132 176 12 27 
420 479 132 176 12 35 
420 479 133 176 11 34 
421 478 132 178 12 33 
421 479 133 178 12 39 
422 477 132 177 12 37 
422 478 132 179 12 36 
422 479 132 179 13 31 
422 479 133 179 13 30 
423 478 132 179 13 38 
423 479 132 180 13 36 
423 479 133 180 13 35 
424 470 128 175 11 33 
424 471 128 177 12 38 
425 470 128 178 13 41 
425 471 128 179 13 42 
426 470 128 180 14 43 
426 471 128 180 14 40 
427 470 128 181 14 44 
427 471 128 180 14 41 
428 470 128 182 14 41 
428 471 128 180 14 41 
429 470 128 181 15 38 
429 471 128 181 15 38 
430 471 128 182 15 38 
431 471 128 182 15 38 
424 472 128 178 12 35 
424 472 129 178 12 32 
424 473 129 180 13 36 
425 472 128 180 13 40 
425 472 129 180 13 37 
425 473 129 180 13 35 
424 474 129 181 12 39 
424 474 130 180 13 42 
424 475 130 181 13 41 
425 474 130 180 13 34 
425 475 130 181 13 38 
426 472 129 179 13 35 
426 473 129 179 13 31 
427 472 129 179 14 34 
427 473 129 179 14 29 
427 473 130 180 14 33 
426 474 130 180 13 32 
426 475 130 181 14 37 
427 474 130 180 14 35 
427 475 130 181 14 40 
424 476 130 181 13 43 
424 476 131 180 13 42 
424 477 131 179 13 38 
425 476 130 181 13 43 
425 476 131 181 13 39 
425 477 131 179 13 37 
426 476 131 181 13 35 
426 477 131 179 13 32 
427 476 131 180 14 37 
427 477 131 178 13 34 
424 478 132 180 13 41 
424 479 132 181 14 41 
425 478 132 179 13 42 
425 479 132 180 14 41 
426 478 132 178 13 37 
426 479 132 178 13 38 
427 478 132 177 13 36 
427 479 132 176 13 36 
428 472 128 181 14 38 
428 472 129 180 14 36 
428 473 129 179 14 36 
429 472 128 181 15 40 
429 472 129 181 15 40 
429 473 129 179 14 39 
428 473 130 180 14 37 
428 474 130 180 14 41 
428 475 130 180 14 44 
429 474 130 178 14 40 
429 475 130 178 14 42 
430 472 128 181 15 39 
430 473 129 179 14 36 
431 472 128 181 15 40 
431 473 129 179 15 36 
431 474 129 178 15 32 
430 474 130 177 14 37 
430 475 130 177 14 38 
431 474 130 178 15 34 
431 475 130 178 15 36 
428 476 131 180 14 44 
428 477 131 177 13 42 
429 476 131 177 14 43 
429 477 131 176 14 39 
430 476 130 176 14 34 
430 476 131 176 14 37 
430 477 131 176 14 39 
431 476 130 176 15 34 
431 476 131 176 15 35 
431 477 131 176 15 38 
428 478 132 176 13 39 
428 479 132 175 13 37 
429 478 132 175 14 36 
429 479 132 177 14 38 
430 478 132 176 14 35 
430 479 132 177 14 35 
431 478 132 177 15 35 
431 479 132 178 15 34 
432 471 128 182 15 35 
432 472 128 181 15 34 
432 473 128 179 14 36 
432 473 129 179 14 37 
433 472 128 182 15 31 
433 473 128 182 16 43 
433 473 129 183 16 42 
432 474 129 180 15 31 
433 474 129 183 16 39 
432 474 130 179 15 33 
432 475 130 180 15 36 
433 475 130 183 16 39 
434 473 128 185 15 46 
435 473 128 187 16 41 
434 474 129 186 16 43 
434 475 129 186 16 39 
435 474 128 189 16 37 
435 474 129 188 16 40 
435 475 129 188 15 38 
434 475 130 186 17 36 
435 475 130 187 15 39 
432 476 130 179 15 36 
432 476 131 179 15 37 
432 477 131 179 15 36 
433 476 130 183 16 41 
433 476 131 183 16 41 
433 477 131 183 16 37 
432 478 131 179 15 32 
433 478 131 182 16 31 
434 476 130 185 17 40 
434 477 131 185 16 38 
435 476 130 185 15 40 
435 477 130 186 16 47 
435 477 131 187 17 42 
434 478 131 185 16 36 
435 478 131 185 17 37 
432 478 132 179 15 32 
432 479 132 180 15 34 
433 478 132 182 16 30 
433 479 132 182 16 32 
434 478 132 183 16 33 
434 479 132 183 16 33 
435 479 132 185 17 42 
436 473 128 193 17 42 
437 473 128 195 19 47 
436 474 128 192 18 42 
436 474 129 191 16 39 
436 475 129 187 16 35 
437 474 128 193 19 48 
437 475 129 180 20 40 
438 473 128 198 22 48 
439 473 128 192 24 57 
438 474 128 187 20 58 
438 475 129 157 23 45 
439 474 128 176 27 64 
439 474 129 137 20 47 
439 475 129 103 18 24 
437 476 129 173 16 42 
