ply
format ascii 1.0
comment Created by CloudCompare v2.10.1 (Zephyrus)
comment Created 2/3/20 1:25 PM
obj_info Generated by CloudCompare!
element vertex 2169
property float x
property float y
property float z
property uchar red
property uchar green
property uchar blue
end_header
337 408 170 76 66 55 
337 408 171 75 65 54 
338 408 168 77 66 55 
338 408 169 76 65 55 
339 408 168 75 65 55 
339 408 169 75 64 54 
338 408 170 75 64 54 
338 408 171 73 63 54 
339 408 170 73 63 54 
339 408 171 72 62 53 
336 408 172 74 64 54 
336 408 173 73 63 53 
337 408 172 73 63 54 
337 408 173 72 62 53 
336 408 174 72 63 53 
336 408 175 71 62 53 
337 408 174 71 61 52 
337 408 175 70 61 52 
338 408 172 72 62 53 
338 408 173 71 62 52 
339 408 172 70 61 52 
339 408 173 70 61 52 
338 408 174 70 60 52 
338 408 175 68 60 51 
339 408 174 68 59 51 
339 408 175 67 59 50 
340 408 168 74 64 54 
340 408 169 73 63 53 
341 408 168 73 63 53 
341 408 169 73 63 53 
340 408 170 72 62 53 
340 408 171 71 61 52 
341 408 170 71 62 52 
341 408 171 71 61 52 
342 408 168 73 62 53 
342 408 169 72 62 52 
343 408 168 72 62 52 
343 408 169 71 61 52 
342 408 170 71 61 52 
342 408 171 70 60 51 
343 408 170 70 60 51 
343 408 171 69 60 51 
340 408 172 70 60 52 
340 408 173 69 60 51 
341 408 172 69 60 51 
341 408 173 68 59 51 
340 408 174 68 59 51 
340 408 175 67 58 50 
341 408 174 68 59 50 
341 408 175 66 57 49 
342 408 172 69 59 51 
342 408 173 68 59 50 
343 408 172 68 59 50 
343 408 173 67 58 50 
342 408 174 66 58 50 
342 408 175 65 57 49 
343 408 174 65 57 49 
343 408 175 65 56 49 
344 408 160 87 73 59 
344 408 161 84 71 58 
345 408 160 85 71 58 
345 408 161 83 69 57 
344 408 162 82 69 57 
344 408 163 79 67 55 
345 408 162 80 67 55 
345 408 163 78 66 54 
346 408 160 83 69 56 
346 408 161 82 68 55 
347 408 160 82 68 55 
347 408 161 81 67 55 
346 408 162 80 67 55 
346 408 163 78 65 53 
347 408 162 79 66 54 
347 408 163 78 65 53 
344 408 164 77 65 54 
344 408 165 75 64 53 
345 408 164 76 64 53 
345 408 165 74 63 53 
344 408 166 73 63 53 
344 408 167 72 61 52 
345 408 166 72 62 52 
345 408 167 71 61 51 
346 408 164 76 64 53 
346 408 165 74 63 52 
347 408 164 76 64 52 
347 408 165 74 62 52 
346 408 166 72 61 51 
346 408 167 71 60 51 
347 408 166 72 61 51 
347 408 167 71 60 51 
348 408 160 82 68 55 
348 408 161 80 66 54 
348 409 160 81 67 55 
348 409 161 80 66 54 
349 409 160 80 66 54 
349 409 161 79 65 53 
348 408 162 78 65 53 
348 408 163 77 64 52 
349 409 162 77 64 52 
349 409 163 76 63 51 
350 409 160 79 65 53 
350 409 161 78 64 52 
351 409 160 78 64 52 
351 409 161 77 63 51 
350 409 162 76 63 51 
350 409 163 75 61 50 
351 409 162 75 62 50 
351 409 163 74 61 50 
348 408 164 76 63 52 
348 408 165 75 62 51 
349 409 164 75 62 51 
349 409 165 74 61 51 
348 408 166 72 61 51 
348 408 167 71 60 50 
349 409 166 72 60 50 
349 409 167 71 59 49 
350 409 164 74 61 50 
350 409 165 73 60 50 
351 409 164 73 60 49 
351 409 165 72 60 49 
350 409 166 71 59 49 
350 409 167 70 58 48 
351 409 166 71 59 48 
351 409 167 70 58 48 
344 408 168 71 61 51 
344 408 169 70 60 51 
345 408 168 70 60 51 
345 408 169 69 59 50 
344 408 170 69 59 51 
344 408 171 68 59 50 
345 408 170 68 58 50 
345 408 171 67 58 49 
346 408 168 70 60 50 
346 408 169 68 59 50 
347 408 168 69 59 50 
347 408 169 68 58 49 
346 408 170 68 58 49 
346 408 171 67 57 49 
347 408 170 67 57 49 
347 408 171 66 57 48 
347 409 171 66 56 48 
344 408 172 67 58 50 
344 408 173 66 57 49 
345 408 172 66 57 49 
345 408 173 64 56 48 
344 408 174 64 56 48 
344 408 175 64 55 48 
345 408 174 63 55 47 
345 408 175 63 55 47 
346 408 172 65 56 48 
346 408 173 64 55 47 
346 409 173 63 54 47 
347 408 172 65 56 48 
347 409 172 65 56 48 
347 409 173 64 55 47 
346 408 174 63 54 47 
346 408 175 63 54 47 
346 409 174 63 54 47 
346 409 175 62 54 47 
347 409 174 63 54 47 
347 409 175 63 54 46 
348 408 168 70 59 50 
348 408 169 69 58 49 
348 409 168 70 59 49 
348 409 169 68 58 49 
349 409 168 69 58 49 
349 409 169 68 57 48 
348 409 170 67 57 48 
348 409 171 66 56 48 
349 409 170 67 57 48 
349 409 171 66 56 47 
350 409 168 69 57 48 
350 409 169 68 57 47 
351 409 168 69 57 47 
351 409 169 68 56 47 
350 409 170 67 56 47 
350 409 171 67 56 47 
351 409 170 67 56 47 
351 409 171 67 56 47 
348 409 172 65 56 47 
348 409 173 64 55 47 
349 409 172 66 56 47 
349 409 173 64 55 47 
348 409 174 63 54 46 
348 409 175 63 54 46 
349 409 174 63 54 46 
349 409 175 63 54 46 
350 409 172 66 55 47 
350 409 173 65 54 46 
351 409 172 66 55 46 
351 409 173 66 54 46 
350 409 174 64 54 46 
350 409 175 64 54 46 
351 409 174 65 54 45 
351 409 175 64 53 45 
337 407 176 68 59 51 
336 407 180 63 55 48 
336 407 181 62 55 47 
336 407 182 62 54 47 
336 408 176 69 60 52 
336 408 177 67 58 50 
337 408 176 68 59 51 
337 408 177 66 57 49 
336 408 178 65 57 49 
336 408 179 64 56 48 
337 408 178 64 56 49 
337 408 179 63 55 48 
338 408 176 67 58 50 
338 408 177 65 57 49 
339 408 176 66 57 50 
339 408 177 65 57 49 
338 408 178 64 56 48 
338 408 179 63 55 48 
339 408 178 63 56 48 
339 408 179 63 55 48 
336 408 180 63 55 48 
336 408 181 62 55 47 
337 408 180 62 55 48 
337 408 181 62 54 47 
337 408 182 62 54 47 
338 408 180 62 55 48 
338 408 181 62 54 47 
339 408 180 62 54 47 
339 408 181 61 54 47 
338 408 182 61 54 47 
338 408 183 61 54 47 
339 408 182 61 54 47 
339 408 183 61 54 47 
340 408 176 65 57 49 
340 408 177 64 56 49 
341 408 176 65 57 49 
341 408 177 64 56 48 
340 408 178 63 55 48 
340 408 179 62 55 48 
341 408 178 63 55 48 
341 408 179 62 55 47 
342 408 176 65 57 49 
342 408 177 63 55 48 
343 408 176 64 56 48 
343 408 177 63 55 48 
342 408 178 62 55 48 
342 408 179 62 54 47 
343 408 178 62 54 47 
343 408 179 61 54 47 
340 408 180 62 54 47 
340 408 181 61 54 47 
341 408 180 61 54 47 
341 408 181 61 54 47 
340 408 182 61 54 47 
340 408 183 61 54 47 
341 408 182 61 54 47 
341 408 183 61 54 47 
342 408 180 61 54 47 
342 408 181 61 54 47 
343 408 180 61 54 47 
343 408 181 61 53 47 
343 409 181 61 53 47 
342 408 182 61 54 47 
342 408 183 61 54 47 
343 408 182 61 53 47 
343 408 183 60 53 47 
339 408 184 61 54 47 
340 408 184 61 54 47 
340 408 185 61 54 47 
341 408 184 61 54 47 
341 408 185 61 54 47 
341 408 186 61 54 47 
342 408 184 60 53 47 
342 408 185 60 53 47 
343 408 184 60 53 47 
343 408 185 60 53 47 
343 409 184 60 53 47 
343 409 185 60 53 47 
342 408 186 60 54 47 
342 409 186 60 54 47 
342 409 187 61 54 47 
343 409 186 60 53 47 
343 409 187 61 54 47 
343 409 188 61 54 47 
344 408 176 63 55 47 
344 408 177 62 54 47 
345 408 176 62 54 47 
345 408 177 62 54 47 
344 408 178 62 54 47 
344 408 179 61 54 47 
345 408 178 62 54 47 
345 408 179 61 53 47 
345 409 179 61 54 47 
346 409 176 62 54 47 
346 409 177 62 54 46 
347 409 176 62 54 46 
347 409 177 62 53 46 
346 409 178 61 54 47 
346 409 179 61 53 47 
347 409 178 62 53 46 
347 409 179 61 53 46 
344 408 180 61 54 47 
344 408 181 61 53 47 
344 409 180 61 53 47 
345 408 180 61 53 47 
345 408 181 61 53 47 
345 409 180 61 53 47 
345 409 181 61 53 47 
344 408 182 61 53 47 
344 408 183 60 53 47 
344 409 182 61 53 47 
344 409 183 60 53 47 
345 408 182 61 53 47 
345 409 182 61 53 47 
345 409 183 61 53 47 
346 409 180 61 53 47 
346 409 181 61 53 47 
347 409 180 61 53 46 
347 409 181 61 53 46 
346 409 182 61 53 47 
346 409 183 61 53 47 
347 409 182 61 53 47 
347 409 183 61 53 47 
348 409 176 62 54 46 
348 409 177 62 53 46 
349 409 176 63 53 46 
349 409 177 62 53 46 
348 409 178 62 53 46 
348 409 179 62 53 46 
349 409 178 62 53 46 
349 409 179 62 53 46 
350 409 176 63 53 46 
350 409 177 63 53 45 
351 409 176 64 53 45 
351 409 177 63 53 45 
350 409 178 63 53 45 
350 409 179 63 53 45 
351 409 178 63 53 45 
351 409 179 63 53 45 
348 409 180 61 53 46 
348 409 181 61 53 46 
349 409 180 62 53 46 
349 409 181 61 53 46 
348 409 182 61 53 46 
348 409 183 61 53 46 
349 409 182 61 53 46 
349 409 183 61 53 46 
350 409 180 62 53 46 
350 409 181 62 53 46 
351 409 180 63 53 45 
351 409 181 62 53 45 
350 409 182 62 53 46 
350 409 183 62 53 46 
351 409 182 62 53 45 
351 409 183 62 53 45 
344 409 184 60 53 47 
344 409 185 60 53 47 
345 409 184 60 53 47 
345 409 185 60 53 47 
344 409 186 60 53 47 
344 409 187 61 53 47 
345 409 186 61 53 47 
345 409 187 61 53 47 
346 409 184 61 53 47 
346 409 185 61 53 47 
347 409 184 61 53 47 
347 409 185 61 53 47 
346 409 186 61 53 47 
346 409 187 61 53 47 
347 409 186 61 53 47 
347 409 187 61 53 47 
344 409 188 61 54 47 
344 409 189 61 54 47 
345 409 188 61 53 47 
345 409 189 61 54 47 
346 409 188 61 53 47 
346 409 189 61 53 47 
347 409 188 61 53 47 
347 409 189 61 53 47 
346 409 190 61 54 47 
347 409 190 61 53 47 
347 409 191 61 54 47 
347 410 191 61 53 47 
348 409 184 61 53 47 
348 409 185 61 53 47 
349 409 184 61 53 46 
349 409 185 61 53 46 
348 409 186 61 53 46 
348 409 187 61 53 47 
349 409 186 61 53 46 
349 409 187 61 53 46 
350 409 184 62 53 46 
350 409 185 62 53 46 
351 409 184 62 53 45 
351 409 185 62 53 46 
350 409 186 62 53 46 
350 409 187 62 53 46 
351 409 186 62 53 46 
351 409 187 63 53 46 
348 409 188 61 53 47 
348 409 189 61 53 47 
349 409 188 61 53 46 
349 409 189 61 53 46 
348 409 190 61 53 47 
348 409 191 61 53 47 
349 409 190 61 53 47 
348 410 191 61 53 47 
349 410 190 61 53 46 
349 410 191 61 53 47 
350 409 188 62 53 46 
350 409 189 62 53 46 
351 409 188 62 53 46 
351 409 189 62 53 46 
350 409 190 61 53 46 
351 410 189 62 53 46 
350 410 190 62 53 46 
350 410 191 61 53 46 
351 410 190 62 53 46 
351 410 191 62 53 46 
352 411 128 89 47 46 
352 411 129 87 47 46 
353 411 129 85 48 46 
352 411 130 86 48 47 
352 411 131 87 48 47 
353 411 130 86 48 46 
353 411 131 88 48 46 
354 411 129 86 48 46 
355 411 129 89 46 45 
354 411 130 88 47 45 
354 411 131 90 47 45 
355 411 130 89 46 45 
355 411 131 90 47 44 
352 411 132 89 49 47 
352 411 133 91 49 46 
353 411 132 91 47 45 
353 411 133 91 48 45 
352 410 135 90 50 46 
352 411 134 90 49 46 
352 411 135 90 49 46 
353 410 135 89 49 46 
353 411 134 90 48 45 
353 411 135 89 49 45 
354 411 132 90 47 45 
354 411 133 90 48 45 
355 411 132 89 47 44 
355 411 133 88 48 44 
354 411 134 88 48 44 
354 411 135 86 49 44 
355 411 134 87 48 44 
355 411 135 84 49 44 
352 412 128 90 46 46 
353 412 128 87 46 46 
353 412 129 86 47 46 
354 412 128 86 46 46 
354 412 129 86 47 46 
355 412 128 85 47 45 
355 412 129 88 46 45 
356 411 129 89 46 45 
356 411 130 89 47 44 
356 411 131 89 47 44 
357 411 130 89 47 43 
357 411 131 88 47 43 
358 411 130 88 47 43 
358 411 131 87 48 43 
359 411 130 87 47 43 
359 411 131 83 48 43 
356 411 132 88 48 44 
356 411 133 85 48 43 
357 411 132 86 48 43 
357 411 133 83 49 43 
356 411 134 83 49 43 
356 411 135 81 49 43 
357 411 134 81 49 43 
357 411 135 79 49 43 
358 411 132 83 48 43 
358 411 133 80 49 43 
359 411 132 80 49 43 
359 411 133 78 49 43 
358 411 134 78 49 43 
358 411 135 76 49 43 
359 411 134 75 50 43 
359 411 135 74 50 43 
356 412 128 86 47 45 
356 412 129 88 46 45 
357 412 128 87 46 45 
357 412 129 89 46 44 
358 412 128 88 46 44 
358 412 129 89 47 44 
359 412 128 88 46 44 
359 412 129 88 47 43 
358 412 130 89 47 43 
359 412 130 88 47 43 
352 410 136 89 50 46 
352 410 137 88 52 47 
353 410 136 87 50 45 
353 410 137 84 51 45 
352 410 138 87 53 47 
352 410 139 87 56 48 
353 410 138 82 52 46 
353 410 139 82 54 46 
354 410 136 84 50 45 
354 410 137 81 51 45 
354 411 136 83 49 44 
355 410 137 80 50 44 
355 411 136 82 50 44 
354 410 138 80 52 45 
354 410 139 80 53 45 
355 410 138 79 51 44 
355 410 139 78 53 45 
352 410 140 86 58 48 
352 410 141 87 60 50 
353 410 140 82 55 47 
353 410 141 84 58 48 
352 410 142 88 61 50 
352 410 143 88 61 50 
353 410 142 85 60 49 
353 410 143 86 61 49 
354 410 140 79 54 46 
354 410 141 81 56 47 
355 410 140 78 54 45 
355 410 141 79 55 46 
354 410 142 82 58 48 
354 410 143 82 60 48 
355 410 142 80 58 47 
355 410 143 80 58 47 
356 410 137 78 50 44 
356 411 136 80 49 43 
356 411 137 79 50 43 
357 410 137 74 50 43 
357 411 136 77 49 43 
357 411 137 76 50 43 
356 410 138 76 51 44 
356 410 139 76 52 44 
357 410 138 74 51 43 
357 410 139 74 51 43 
358 410 137 73 50 43 
358 411 136 75 50 43 
358 411 137 74 50 43 
359 410 137 72 50 43 
359 411 136 73 50 43 
359 411 137 73 50 42 
358 410 138 73 50 43 
358 410 139 72 51 43 
359 410 138 72 50 43 
359 410 139 71 50 42 
356 410 140 76 53 44 
356 410 141 76 54 45 
357 410 140 74 52 44 
357 410 141 74 53 44 
356 410 142 76 55 45 
356 410 143 77 57 46 
357 410 142 73 54 44 
357 410 143 75 55 45 
358 410 140 72 51 43 
358 410 141 72 52 43 
359 410 140 71 51 42 
359 410 141 70 51 42 
358 410 142 71 52 43 
358 410 143 72 54 44 
359 410 142 69 52 42 
359 410 143 70 53 43 
360 411 129 87 47 43 
361 411 128 87 46 43 
361 411 129 85 47 42 
360 411 130 83 48 43 
360 411 131 80 49 43 
361 411 130 80 48 42 
361 411 131 77 48 42 
362 411 128 85 46 42 
362 411 129 82 47 42 
363 411 128 83 46 41 
363 411 129 79 47 40 
362 411 130 78 48 42 
362 411 131 76 48 42 
363 411 130 77 47 41 
363 411 131 74 48 41 
360 411 132 78 49 43 
360 411 133 76 49 43 
361 411 132 76 49 42 
361 411 133 73 49 42 
360 411 134 74 50 43 
360 411 135 72 50 43 
361 411 134 72 49 42 
361 411 135 71 50 42 
362 411 132 74 48 42 
362 411 133 72 48 42 
363 411 132 71 48 41 
363 411 133 70 48 41 
362 411 134 70 49 42 
362 411 135 70 49 42 
363 411 134 69 48 41 
363 411 135 68 49 41 
360 412 128 89 46 43 
360 412 129 88 47 43 
361 412 128 88 46 43 
360 412 130 87 47 43 
364 411 128 80 46 40 
364 411 129 77 46 40 
365 411 128 78 46 39 
365 411 129 76 46 39 
364 411 130 74 47 39 
364 411 131 72 47 40 
365 411 130 73 46 39 
365 411 131 71 47 39 
366 410 128 77 45 37 
366 410 129 74 46 37 
366 411 128 76 45 38 
366 411 129 75 46 38 
367 410 128 74 46 37 
367 410 129 72 46 37 
366 410 130 72 46 37 
366 410 131 69 46 38 
366 411 130 72 46 38 
366 411 131 70 47 38 
367 410 130 70 46 37 
367 410 131 68 46 37 
364 411 132 71 48 40 
364 411 133 69 48 40 
365 411 132 69 47 39 
365 411 133 67 47 39 
364 411 134 67 48 40 
364 411 135 66 48 40 
365 410 135 64 47 39 
365 411 134 65 47 39 
365 411 135 65 47 39 
366 410 132 67 46 38 
366 410 133 65 47 38 
366 411 132 68 47 39 
366 411 133 66 47 38 
367 410 132 66 46 38 
367 410 133 64 46 38 
366 410 134 64 47 38 
366 410 135 63 47 38 
366 411 134 64 47 39 
366 411 135 63 47 39 
367 410 134 62 46 38 
367 410 135 61 46 38 
360 410 137 71 50 42 
360 411 136 72 50 43 
360 411 137 71 50 42 
361 410 137 69 50 42 
361 411 136 70 50 42 
361 411 137 69 50 42 
360 410 138 70 50 42 
360 410 139 69 50 42 
361 410 138 68 50 42 
361 410 139 67 51 42 
362 410 137 67 50 42 
362 411 136 69 50 42 
362 411 137 68 50 42 
363 410 136 66 48 40 
363 410 137 66 49 40 
363 411 136 67 49 41 
362 410 138 67 50 41 
362 410 139 66 50 41 
363 410 138 65 49 41 
363 410 139 64 50 41 
360 410 140 69 51 42 
360 410 141 68 51 42 
361 410 140 67 51 41 
361 410 141 66 51 41 
360 410 142 67 51 42 
360 410 143 67 51 42 
361 410 142 66 51 41 
361 410 143 65 51 41 
362 410 140 65 51 41 
362 410 141 65 50 41 
363 410 140 64 50 40 
363 410 141 62 49 40 
362 410 142 64 50 41 
362 410 143 64 50 40 
363 410 142 61 49 40 
363 410 143 61 49 39 
364 410 136 65 48 40 
364 410 137 64 48 39 
365 410 136 64 47 39 
365 410 137 62 47 39 
364 410 138 63 48 39 
364 410 139 62 48 39 
365 410 138 61 47 39 
365 410 139 60 47 38 
366 410 136 62 47 39 
366 410 137 61 47 38 
367 410 136 60 46 38 
367 410 137 59 46 37 
366 410 138 60 46 37 
366 410 139 59 46 37 
367 410 138 58 46 37 
367 410 139 57 45 37 
364 410 140 62 48 39 
364 410 141 61 49 39 
365 410 140 60 47 38 
365 410 141 59 47 38 
364 410 142 59 48 39 
364 410 143 59 48 38 
365 410 142 57 47 38 
365 410 143 57 47 38 
366 410 140 58 46 37 
366 410 141 57 46 37 
367 410 140 56 45 36 
367 410 141 55 44 36 
366 410 142 55 45 37 
366 410 143 55 46 37 
367 410 142 54 44 36 
367 410 143 54 45 37 
352 409 145 89 63 51 
352 409 146 89 64 52 
352 409 147 90 65 52 
353 409 146 88 63 51 
353 409 147 88 63 51 
352 410 144 88 62 51 
352 410 145 88 62 51 
353 410 144 85 61 50 
353 410 145 85 61 50 
353 410 146 86 62 50 
353 410 147 86 62 50 
354 410 144 82 60 49 
354 410 145 82 60 49 
355 410 144 80 59 47 
355 410 145 79 59 47 
354 410 146 82 60 49 
354 410 147 83 61 49 
355 410 146 80 59 47 
355 410 147 80 60 48 
352 409 148 91 65 52 
352 409 149 90 65 52 
353 409 148 88 63 51 
353 409 149 87 62 50 
352 409 150 90 65 52 
352 409 151 90 65 51 
353 409 150 86 62 49 
353 409 151 86 62 49 
354 409 148 84 61 49 
354 409 149 84 61 48 
354 409 150 83 61 48 
354 409 151 83 61 47 
355 409 150 81 60 47 
355 409 151 81 60 46 
354 410 148 83 61 49 
355 410 148 81 61 49 
355 410 149 81 60 48 
355 410 150 80 60 47 
356 410 144 77 57 46 
356 410 145 76 57 46 
357 410 144 75 56 45 
357 410 145 74 57 46 
356 410 146 77 58 47 
356 410 147 77 58 47 
357 410 146 74 57 45 
357 410 147 74 57 46 
358 410 144 73 55 44 
358 410 145 73 56 45 
359 410 144 70 54 43 
359 410 145 71 55 44 
358 410 146 72 56 45 
358 410 147 73 56 45 
359 410 146 71 55 44 
359 410 147 71 56 45 
356 409 151 79 59 46 
356 410 148 78 59 48 
356 410 149 78 60 48 
357 410 148 75 58 46 
357 410 149 76 59 47 
356 410 150 79 60 48 
356 410 151 78 59 47 
357 410 150 77 59 48 
357 410 151 77 59 46 
358 410 148 73 57 45 
358 410 149 74 58 47 
359 410 148 71 56 45 
359 410 149 72 56 45 
358 410 150 74 58 47 
358 410 151 75 59 47 
359 410 150 72 57 45 
359 410 151 73 58 46 
352 409 152 89 66 51 
352 409 153 89 67 52 
353 409 152 86 63 49 
353 409 153 86 64 50 
352 409 154 88 68 53 
352 409 155 87 68 54 
353 409 154 86 65 51 
353 409 155 85 65 51 
354 409 152 82 61 47 
354 409 153 82 61 48 
355 409 152 80 60 46 
355 409 153 80 60 46 
354 409 154 83 62 48 
354 409 155 83 63 49 
355 409 154 81 60 46 
355 409 155 81 61 47 
352 409 156 85 67 53 
352 409 157 84 67 53 
353 409 156 84 65 51 
353 409 157 82 65 51 
352 409 158 81 66 52 
352 409 159 80 64 52 
353 409 158 80 64 50 
353 409 159 79 62 50 
354 409 156 82 63 49 
354 409 157 81 63 49 
355 409 156 81 62 48 
355 409 157 80 61 47 
354 409 158 80 62 49 
354 409 159 78 61 48 
355 409 158 78 60 47 
355 409 159 77 60 47 
356 409 152 78 59 46 
356 409 153 78 59 45 
357 409 152 77 58 45 
357 409 153 76 58 45 
356 409 154 78 59 45 
356 409 155 78 59 45 
357 409 154 76 58 44 
357 409 155 76 58 44 
357 410 152 76 58 46 
358 409 152 75 58 45 
358 409 153 74 57 45 
358 409 154 74 57 44 
358 409 155 74 57 43 
359 409 154 72 56 44 
359 409 155 72 56 43 
358 410 152 74 58 46 
358 410 153 74 57 45 
359 410 152 73 57 45 
359 410 153 73 57 45 
359 410 154 72 57 44 
356 409 156 78 59 46 
356 409 157 78 59 45 
357 409 156 76 57 44 
357 409 157 75 57 44 
356 409 158 77 58 45 
356 409 159 76 58 45 
357 409 158 75 56 43 
357 409 159 75 57 44 
358 409 156 74 56 43 
358 409 157 74 56 42 
359 409 156 73 55 42 
359 409 157 73 55 41 
358 409 158 74 55 42 
358 409 159 74 56 43 
359 409 158 73 55 42 
359 409 159 73 54 41 
360 410 144 67 52 42 
360 410 145 68 53 43 
361 410 144 66 51 41 
361 410 145 66 52 42 
360 410 146 68 53 43 
360 410 147 68 54 43 
361 410 146 65 52 42 
361 410 147 66 52 42 
362 410 144 64 50 40 
362 410 145 64 50 40 
363 410 144 61 49 39 
363 410 145 61 49 39 
362 410 146 64 51 41 
362 410 147 64 51 41 
363 410 146 61 49 39 
363 410 147 61 50 40 
360 410 148 68 54 44 
360 410 149 69 55 44 
361 410 148 66 52 42 
361 410 149 67 54 43 
360 410 150 69 56 45 
360 410 151 70 56 45 
361 410 150 67 54 43 
361 410 151 67 54 44 
362 410 148 64 52 41 
362 410 149 64 52 42 
363 410 148 62 50 41 
363 410 149 62 51 41 
362 410 150 65 53 42 
362 410 151 65 53 43 
363 410 150 63 52 42 
363 410 151 63 52 42 
364 410 144 59 48 38 
364 410 145 59 48 38 
365 410 144 57 47 38 
365 410 145 57 47 38 
364 410 146 59 48 39 
364 410 147 59 48 39 
365 410 146 57 47 38 
365 410 147 57 47 38 
366 410 144 56 46 38 
366 410 145 56 47 38 
367 410 144 55 46 37 
367 410 145 55 46 38 
366 410 146 56 47 38 
366 410 147 56 47 38 
367 410 146 55 46 38 
367 410 147 55 46 38 
364 410 148 60 49 40 
364 410 149 61 50 40 
365 410 148 58 48 39 
365 410 149 59 49 39 
364 410 150 61 51 41 
364 410 151 61 51 41 
365 410 150 60 50 40 
365 410 151 60 50 41 
366 410 148 56 47 38 
366 410 149 58 48 39 
367 410 148 55 47 38 
367 410 149 56 47 38 
366 410 150 58 49 40 
366 410 151 59 50 40 
367 410 150 57 48 39 
367 410 151 57 48 39 
360 409 155 71 54 42 
360 410 152 70 56 45 
360 410 153 70 56 45 
361 410 152 67 55 44 
361 410 153 68 55 44 
360 410 154 70 56 44 
360 410 155 69 55 43 
361 410 154 68 55 44 
361 410 155 67 54 44 
362 410 152 65 54 43 
362 410 153 65 53 43 
363 410 152 63 52 42 
363 410 153 63 52 42 
362 410 154 66 54 43 
362 410 155 66 53 43 
363 410 154 63 52 42 
363 410 155 63 52 42 
360 409 156 71 54 41 
360 409 157 71 54 41 
360 409 158 71 53 40 
360 409 159 71 53 40 
361 409 158 70 52 39 
361 409 159 70 52 39 
360 410 156 69 53 42 
361 410 156 67 53 43 
361 410 157 68 52 40 
361 410 158 69 52 39 
362 410 156 66 53 43 
362 410 157 66 52 41 
363 410 156 64 52 42 
363 410 157 64 52 42 
362 410 158 68 52 39 
362 410 159 69 51 39 
363 410 158 65 51 40 
363 410 159 67 51 39 
364 410 152 62 51 42 
364 410 153 62 52 42 
365 410 152 60 51 41 
365 410 153 61 51 42 
364 410 154 62 52 42 
364 410 155 62 51 42 
365 410 154 61 51 41 
365 410 155 61 51 41 
366 410 152 59 50 41 
366 410 153 59 50 41 
367 410 152 58 49 40 
367 410 153 58 49 40 
366 410 154 59 50 41 
366 410 155 59 50 41 
367 410 154 58 49 40 
367 410 155 58 49 40 
364 410 156 62 51 42 
364 410 157 63 51 42 
365 410 156 61 51 41 
365 410 157 62 51 42 
364 410 158 64 51 41 
364 410 159 65 51 40 
365 410 158 63 51 41 
365 410 159 64 51 41 
366 410 156 60 50 41 
366 410 157 61 50 41 
367 410 156 59 49 40 
367 410 157 60 50 41 
366 410 158 62 51 41 
366 410 159 63 51 41 
367 410 158 61 50 41 
367 410 159 62 51 41 
368 410 128 72 46 37 
368 410 129 70 46 37 
369 410 128 71 46 38 
369 410 129 69 46 37 
368 410 130 68 46 36 
368 410 131 66 45 36 
369 410 130 67 46 36 
369 410 131 65 45 35 
370 410 128 70 47 39 
370 410 129 68 46 38 
371 410 128 68 47 40 
371 410 129 67 47 39 
370 410 130 66 46 37 
370 410 131 64 45 35 
371 410 130 65 46 38 
371 410 131 62 45 36 
368 410 132 64 46 37 
368 410 133 62 46 37 
369 410 132 63 45 36 
369 410 133 61 45 36 
368 410 134 61 46 37 
368 410 135 60 46 37 
369 410 134 60 45 36 
369 410 135 59 45 36 
370 410 132 62 44 35 
370 410 133 60 44 35 
371 410 132 61 44 35 
371 410 133 58 43 34 
370 410 134 58 44 34 
370 410 135 58 44 34 
371 410 134 57 43 33 
371 410 135 56 43 33 
372 410 128 67 47 41 
372 410 129 65 47 40 
373 410 128 65 47 42 
373 410 129 64 47 41 
372 410 130 63 46 38 
372 410 131 61 45 37 
373 410 130 62 46 39 
373 410 131 60 44 37 
374 410 128 64 46 42 
374 410 129 63 46 41 
375 410 128 63 45 42 
375 410 129 62 45 41 
374 410 130 61 45 39 
374 410 131 59 44 37 
375 410 130 60 44 39 
375 410 131 58 43 37 
372 410 132 60 44 35 
372 410 133 57 43 33 
373 410 132 59 43 35 
373 410 133 57 42 33 
372 410 134 56 42 32 
372 410 135 55 42 32 
373 410 134 55 42 32 
373 410 135 54 41 32 
374 410 132 58 43 35 
374 410 133 56 41 33 
375 410 132 57 42 35 
375 410 133 55 40 33 
374 410 134 54 41 32 
374 410 135 53 41 31 
375 410 134 53 39 31 
375 410 135 52 39 30 
368 410 136 59 46 36 
368 410 137 58 45 36 
369 410 136 58 45 35 
369 410 137 57 45 35 
368 410 138 57 45 36 
368 410 139 56 45 36 
369 410 138 56 45 35 
369 410 139 55 44 35 
370 410 136 57 44 34 
370 410 137 56 44 34 
371 410 136 56 43 33 
371 410 137 55 43 33 
370 410 138 55 44 34 
370 410 139 54 43 34 
371 410 138 53 42 33 
371 410 139 53 42 33 
368 410 140 54 44 36 
368 410 141 54 44 35 
369 410 140 54 44 35 
369 410 141 53 43 35 
368 410 142 53 44 36 
368 410 143 54 45 36 
369 410 142 53 43 35 
369 410 143 53 44 36 
370 410 140 53 43 34 
370 410 141 52 43 34 
371 410 140 52 42 33 
371 410 141 51 42 33 
370 410 142 52 43 35 
370 410 143 52 43 35 
371 410 142 51 42 34 
371 410 143 52 43 34 
372 410 136 55 42 32 
372 410 137 54 42 32 
373 410 136 54 42 32 
373 410 137 53 41 31 
372 410 138 52 41 32 
372 410 139 51 41 32 
373 410 138 51 40 31 
373 410 139 51 40 31 
374 410 136 53 41 31 
374 410 137 52 40 31 
375 410 136 52 40 31 
375 410 137 51 39 30 
374 410 138 51 40 31 
374 410 139 50 39 31 
375 410 138 50 38 30 
375 410 139 49 38 30 
372 410 140 51 41 32 
372 410 141 50 41 32 
373 410 140 50 40 31 
373 410 141 50 40 31 
372 410 142 50 41 32 
372 410 143 51 42 33 
373 410 142 50 40 32 
373 410 143 50 41 33 
374 410 140 50 39 31 
374 410 141 49 39 31 
375 410 140 49 38 30 
375 410 141 49 38 30 
374 410 142 49 39 31 
374 410 143 50 40 32 
375 410 142 49 39 31 
375 410 143 50 39 31 
376 410 128 62 44 41 
376 410 129 61 44 40 
377 410 128 62 43 41 
377 410 129 60 42 39 
376 410 130 59 43 38 
376 410 131 58 42 37 
377 410 130 58 41 38 
377 410 131 57 41 36 
378 410 128 61 42 39 
378 410 129 60 41 38 
379 410 128 61 40 38 
379 410 129 59 40 37 
378 410 130 58 40 37 
378 410 131 56 39 35 
379 410 130 57 39 35 
379 410 131 56 37 34 
376 410 132 56 41 35 
376 410 133 54 39 32 
377 410 132 55 40 34 
377 410 133 53 38 32 
376 410 134 52 38 31 
376 410 135 51 38 30 
377 410 134 52 37 30 
377 410 135 51 37 30 
378 410 132 54 37 33 
378 410 133 52 36 30 
379 410 132 54 36 31 
379 410 133 52 35 29 
378 410 134 51 36 30 
378 410 135 51 36 29 
379 410 134 51 35 29 
379 410 135 51 35 29 
380 410 128 61 39 37 
380 410 129 59 38 36 
381 410 128 60 37 35 
381 410 129 59 36 34 
380 410 130 57 37 34 
380 410 131 55 36 32 
381 410 130 56 34 31 
381 410 131 55 33 30 
382 409 130 56 31 29 
382 410 128 60 35 33 
382 410 129 59 33 32 
383 410 128 60 33 31 
383 410 129 59 32 30 
382 410 130 57 32 30 
382 410 131 55 32 29 
383 410 130 57 31 29 
383 410 131 56 31 28 
380 410 132 54 34 30 
380 410 133 52 34 29 
381 410 132 54 33 29 
381 410 133 52 33 28 
380 410 134 51 34 28 
380 410 135 50 34 28 
381 410 134 51 33 27 
381 410 135 51 33 27 
382 410 132 54 32 28 
382 410 133 53 32 27 
383 410 132 55 30 27 
383 410 133 53 30 26 
382 410 134 52 32 27 
382 410 135 51 32 27 
383 410 134 52 31 26 
383 410 135 52 31 26 
376 410 136 51 38 30 
376 410 137 50 38 30 
377 410 136 51 37 30 
377 410 137 50 37 29 
376 410 138 50 38 29 
376 410 139 49 38 29 
377 410 138 49 37 29 
377 410 139 49 37 29 
378 410 136 50 36 29 
378 410 137 50 36 29 
379 410 136 50 35 28 
379 410 137 49 36 28 
378 410 138 49 37 29 
378 410 139 49 37 29 
379 410 138 49 36 28 
379 410 139 49 36 29 
376 410 140 49 38 30 
376 410 141 49 38 30 
377 410 140 49 38 30 
377 410 141 49 38 30 
376 410 142 49 38 31 
376 410 143 50 39 31 
377 410 142 49 38 30 
377 410 143 49 39 31 
378 410 140 49 37 29 
378 410 141 49 37 30 
379 410 140 49 37 29 
379 410 141 49 37 29 
378 410 142 49 38 30 
378 410 143 49 38 31 
379 410 142 49 37 30 
379 410 143 49 38 30 
380 410 136 50 35 28 
380 410 137 49 35 28 
381 410 136 50 33 27 
381 410 137 50 34 27 
380 410 138 49 35 28 
380 410 139 50 36 29 
381 410 138 49 35 28 
381 410 139 50 35 28 
382 410 136 51 32 26 
382 410 137 50 33 27 
383 410 136 51 32 26 
383 410 137 50 32 26 
382 410 138 50 33 27 
382 410 139 50 34 27 
383 410 138 50 33 26 
383 410 139 50 33 27 
380 410 140 50 36 29 
380 410 141 49 36 29 
381 410 140 50 35 28 
381 410 141 50 36 29 
380 410 142 49 37 29 
380 410 143 49 37 30 
381 410 142 50 36 29 
381 410 143 50 37 29 
382 410 140 50 35 28 
382 410 141 50 35 28 
383 410 140 50 34 27 
383 410 141 50 34 28 
383 411 141 49 34 27 
382 410 142 50 35 28 
382 410 143 50 36 28 
382 411 143 49 35 28 
383 410 142 50 35 28 
383 411 142 49 34 27 
383 411 143 49 35 27 
368 410 144 54 45 37 
368 410 145 54 45 37 
369 410 144 53 44 36 
369 410 145 53 45 37 
368 410 146 54 46 37 
368 410 147 54 46 37 
369 410 146 53 45 37 
369 410 147 53 45 37 
370 410 144 52 44 36 
370 410 145 52 44 36 
371 410 144 52 43 35 
371 410 145 52 44 35 
370 410 146 53 44 36 
370 410 147 53 45 36 
371 410 146 52 44 36 
371 410 147 52 44 36 
368 410 148 54 46 37 
368 410 149 55 46 38 
369 410 148 54 45 37 
369 410 149 54 46 37 
368 410 150 55 46 38 
368 410 151 55 47 38 
369 410 150 54 46 38 
369 410 151 55 46 38 
370 410 148 53 45 37 
370 410 149 54 45 37 
371 410 148 52 44 36 
371 410 149 53 45 37 
370 410 150 54 46 38 
370 410 151 55 46 38 
371 410 150 54 45 37 
371 410 151 55 46 38 
372 410 144 51 42 34 
372 410 145 51 43 35 
373 410 144 51 41 33 
373 410 145 51 42 34 
372 410 146 52 43 35 
372 410 147 52 44 35 
373 410 146 51 43 35 
373 410 147 52 43 35 
374 410 144 50 41 33 
374 410 145 50 41 33 
375 410 144 50 40 32 
375 410 145 50 40 33 
374 410 146 51 42 34 
374 410 147 51 42 34 
375 410 146 50 41 33 
375 410 147 51 41 33 
372 410 148 52 44 36 
372 410 149 53 44 37 
373 410 148 52 43 35 
373 410 149 53 43 36 
372 410 150 54 45 37 
372 410 151 55 45 38 
373 410 150 54 44 37 
373 410 151 55 45 37 
374 410 148 52 42 35 
374 410 149 53 43 36 
375 410 148 51 41 34 
375 410 149 52 42 35 
374 410 150 53 43 36 
374 410 151 54 44 37 
375 410 150 53 42 35 
375 410 151 54 44 37 
368 410 152 56 47 39 
368 410 153 56 47 39 
369 410 152 56 47 38 
369 410 153 56 47 39 
368 410 154 57 48 39 
368 410 155 58 48 39 
369 410 154 57 47 39 
369 410 155 57 48 39 
370 410 152 56 46 38 
370 410 153 56 47 39 
371 410 152 56 46 38 
371 410 153 56 46 39 
370 410 154 56 47 39 
370 410 155 57 47 39 
371 410 154 56 47 39 
371 410 155 57 47 39 
368 410 156 58 48 39 
368 410 157 59 49 41 
369 410 156 58 48 40 
369 410 157 59 49 40 
368 410 158 61 51 41 
368 410 159 62 51 42 
369 410 158 61 50 41 
369 410 159 62 51 42 
370 410 156 58 48 40 
370 410 157 59 49 41 
371 410 156 58 48 40 
371 410 157 59 49 41 
370 410 158 61 50 42 
370 410 159 62 51 42 
371 410 158 61 50 42 
371 410 159 62 50 42 
372 410 152 55 46 38 
372 410 153 56 46 39 
373 410 152 55 45 38 
373 410 153 56 46 38 
372 410 154 56 46 39 
372 410 155 57 47 39 
373 410 154 56 46 39 
373 410 155 57 47 39 
374 410 152 55 45 38 
374 410 153 56 45 38 
375 410 152 55 44 38 
375 410 153 56 45 38 
374 410 154 56 46 39 
374 410 155 57 46 39 
375 410 154 56 45 38 
375 410 155 58 46 39 
372 410 156 58 47 40 
372 410 157 60 48 41 
373 410 156 59 47 40 
373 410 157 60 48 41 
372 410 158 61 49 42 
372 410 159 63 50 42 
373 410 158 61 49 42 
373 410 159 63 50 42 
374 410 156 59 47 40 
374 410 157 60 49 41 
375 410 156 59 48 41 
375 410 157 60 49 42 
374 410 158 61 49 42 
374 410 159 63 50 43 
375 410 158 61 50 42 
375 410 159 63 51 43 
376 410 144 50 39 32 
376 410 145 50 40 32 
377 410 144 50 39 31 
377 410 145 50 39 32 
376 410 146 50 40 33 
376 410 147 51 41 33 
377 410 146 50 40 32 
377 410 147 50 40 33 
377 411 147 51 40 33 
378 410 144 50 39 31 
378 410 145 50 39 32 
378 411 144 50 39 31 
378 411 145 50 39 32 
379 410 144 49 38 30 
379 411 144 50 38 31 
379 411 145 50 39 31 
378 411 146 50 39 32 
378 411 147 51 40 32 
379 411 146 50 39 32 
379 411 147 50 39 32 
376 410 148 51 41 34 
376 410 149 52 42 34 
377 410 148 51 41 34 
377 411 148 51 41 34 
377 411 149 52 41 34 
376 410 150 52 42 35 
376 410 151 54 43 37 
377 410 151 53 43 36 
377 411 150 52 42 35 
377 411 151 53 42 35 
378 411 148 51 40 33 
378 411 149 51 41 34 
379 411 148 51 40 33 
379 411 149 51 40 33 
378 411 150 52 42 35 
378 411 151 53 43 36 
379 411 150 52 41 34 
379 411 151 53 43 36 
380 410 144 49 38 30 
380 411 144 50 38 31 
380 411 145 50 39 31 
381 411 144 50 37 30 
381 411 145 50 38 31 
380 411 146 50 39 32 
380 411 147 50 39 32 
381 411 146 50 38 31 
381 411 147 50 39 32 
382 411 144 49 36 29 
382 411 145 50 37 29 
383 411 144 49 35 27 
383 411 145 48 35 27 
382 411 146 50 38 30 
382 411 147 50 38 31 
383 411 146 48 35 27 
383 411 147 49 35 27 
380 411 148 51 40 32 
380 411 149 51 40 33 
381 411 148 50 39 32 
381 411 149 51 40 32 
380 411 150 52 41 34 
380 411 151 53 43 35 
381 411 150 51 41 33 
381 411 151 52 43 35 
382 411 148 50 39 31 
382 411 149 51 40 32 
383 411 148 49 37 28 
383 411 149 51 39 30 
382 411 150 52 41 33 
382 411 151 53 43 35 
383 411 150 52 41 33 
383 411 151 54 43 36 
383 412 150 53 41 34 
383 412 151 54 43 36 
376 410 152 55 44 37 
376 410 153 56 45 38 
377 410 152 55 45 38 
377 410 153 55 45 38 
376 410 154 56 46 39 
376 410 155 57 47 40 
377 410 154 56 46 39 
377 410 155 57 47 40 
378 410 152 55 45 38 
378 410 153 55 45 38 
378 411 152 54 45 38 
378 411 153 55 45 38 
379 411 152 54 45 38 
379 411 153 55 46 39 
378 410 154 56 47 39 
378 410 155 57 47 40 
378 411 154 56 46 39 
379 410 155 57 47 40 
379 411 154 56 47 40 
379 411 155 57 47 40 
376 410 156 59 48 41 
376 410 157 60 49 42 
377 410 156 59 48 41 
377 410 157 60 49 42 
376 410 158 62 50 43 
376 410 159 63 51 43 
377 410 158 62 50 43 
377 410 159 63 51 43 
378 410 156 59 48 41 
378 410 157 60 49 43 
379 410 156 59 48 41 
379 410 157 61 49 42 
378 410 158 62 50 43 
378 410 159 64 50 44 
379 410 158 63 50 43 
379 410 159 64 50 44 
380 411 152 54 45 38 
380 411 153 55 46 39 
381 411 152 54 45 38 
381 411 153 56 46 39 
380 410 155 58 47 41 
380 411 154 56 47 40 
380 411 155 57 47 40 
381 410 155 58 47 41 
381 411 154 57 46 40 
381 411 155 58 47 41 
382 411 152 55 44 37 
382 411 153 56 45 39 
383 411 152 55 43 37 
383 411 153 56 44 38 
382 411 154 57 46 40 
382 411 155 58 47 41 
383 411 154 57 45 39 
383 411 155 57 47 41 
380 410 156 59 48 41 
380 410 157 60 48 42 
381 410 156 59 48 42 
381 410 157 60 48 42 
381 411 156 59 47 42 
380 410 158 63 50 43 
380 410 159 64 50 44 
381 410 158 62 49 43 
381 410 159 63 49 44 
382 410 156 59 47 42 
382 410 157 59 48 42 
382 411 156 59 47 42 
383 410 157 60 48 43 
383 411 156 58 47 42 
382 410 158 61 49 43 
382 410 159 63 49 44 
383 410 158 62 49 43 
383 410 159 64 49 44 
352 409 160 78 63 51 
352 409 161 77 62 50 
353 409 160 77 62 49 
353 409 161 76 61 49 
352 409 162 75 61 50 
352 409 163 74 60 49 
353 409 162 74 60 48 
353 409 163 73 59 48 
354 409 160 77 61 48 
354 409 161 76 60 48 
355 409 160 76 59 47 
355 409 161 75 59 46 
354 409 162 74 58 47 
354 409 163 73 58 46 
355 409 162 73 57 46 
355 409 163 73 57 45 
352 409 164 73 59 48 
352 409 165 72 59 48 
353 409 164 72 58 47 
353 409 165 72 58 47 
352 409 166 71 58 48 
352 409 167 70 57 47 
353 409 166 70 57 46 
353 409 167 70 56 46 
354 409 164 72 57 46 
354 409 165 71 56 45 
355 409 164 71 56 45 
355 409 165 71 55 44 
354 409 166 70 55 45 
354 409 167 69 55 45 
355 409 166 70 54 44 
355 409 167 69 54 44 
356 409 160 75 58 45 
356 409 161 74 57 45 
357 409 160 74 56 43 
357 409 161 74 56 43 
356 409 162 73 56 44 
356 409 163 72 56 44 
357 409 162 73 55 43 
357 409 163 72 54 42 
358 409 160 74 55 42 
358 409 161 73 55 42 
359 409 160 73 54 41 
359 409 161 73 54 41 
358 409 162 73 54 42 
358 409 163 72 54 42 
359 409 162 72 54 41 
359 409 163 72 53 41 
356 409 164 71 55 43 
356 409 165 71 54 43 
357 409 164 71 54 42 
357 409 165 71 53 42 
356 409 166 70 54 43 
356 409 167 70 54 43 
357 409 166 70 53 42 
357 409 167 70 53 42 
358 409 164 72 53 41 
358 409 165 71 53 41 
359 409 164 71 53 40 
359 409 165 71 52 40 
358 409 166 71 53 41 
358 409 167 70 53 41 
359 409 166 71 52 40 
359 409 167 71 52 40 
352 409 168 69 57 47 
352 409 169 68 56 46 
353 409 168 69 56 46 
353 409 169 68 55 46 
352 409 170 67 55 46 
352 409 171 67 55 46 
353 409 170 68 55 46 
353 409 171 67 55 45 
354 409 168 69 55 45 
354 409 169 69 55 45 
355 409 168 69 54 44 
355 409 169 69 54 44 
354 409 170 68 55 45 
354 409 171 68 54 45 
355 409 170 68 54 44 
355 409 171 68 54 44 
352 409 172 66 55 46 
352 409 173 66 54 45 
353 409 172 67 54 45 
353 409 173 66 54 45 
352 409 174 65 54 45 
352 409 175 65 53 45 
353 409 174 66 53 44 
353 409 175 66 53 44 
354 409 172 67 54 44 
354 409 173 67 53 44 
355 409 172 68 53 44 
355 409 173 68 53 43 
354 409 174 67 53 44 
354 409 175 67 53 44 
355 409 174 68 53 43 
355 409 175 68 53 43 
356 409 168 69 53 42 
356 409 169 69 53 43 
357 409 168 70 53 42 
357 409 169 70 53 42 
356 409 170 69 53 43 
356 409 171 69 53 43 
357 409 170 69 53 42 
357 409 171 69 53 42 
358 409 168 70 53 41 
358 409 169 70 52 41 
359 409 168 70 52 40 
359 409 169 71 52 40 
358 409 170 70 52 41 
358 409 171 70 52 41 
359 409 170 71 52 40 
359 409 171 71 52 40 
356 409 172 68 53 43 
356 409 173 68 53 43 
357 409 172 69 52 42 
357 409 173 69 52 42 
356 409 174 68 52 42 
356 409 175 69 52 42 
357 409 174 70 52 41 
357 409 175 70 51 41 
358 409 172 70 52 41 
358 409 173 71 51 40 
359 409 172 71 51 40 
359 409 173 72 51 39 
358 409 174 71 51 40 
358 409 175 71 51 40 
359 409 174 72 51 40 
359 409 175 72 51 39 
360 409 160 71 53 40 
360 409 161 72 53 40 
361 409 160 70 52 39 
361 409 161 71 52 39 
360 409 162 72 52 39 
360 409 163 71 52 39 
361 409 162 71 51 38 
361 409 163 71 51 38 
362 409 160 70 51 38 
362 409 161 70 51 38 
362 409 162 70 51 38 
362 409 163 71 51 37 
363 409 162 70 50 37 
363 409 163 70 50 37 
362 410 160 69 51 38 
362 410 161 69 51 38 
363 410 160 68 51 38 
363 410 161 69 50 37 
363 410 162 70 50 37 
363 410 163 70 50 37 
360 409 164 71 52 39 
360 409 165 71 52 39 
361 409 164 71 51 38 
361 409 165 71 51 38 
360 409 166 71 52 39 
360 409 167 71 52 39 
361 409 166 71 51 38 
361 409 167 71 51 38 
362 409 164 71 51 37 
362 409 165 71 51 37 
363 409 164 70 50 36 
363 409 165 71 50 37 
362 409 166 71 50 37 
362 409 167 71 51 37 
363 409 166 71 50 36 
363 409 167 71 50 36 
363 410 164 70 50 36 
363 410 165 70 50 36 
363 410 166 71 50 36 
364 410 160 66 50 39 
364 410 161 68 50 37 
365 410 160 65 51 40 
365 410 161 67 50 38 
364 410 162 69 50 36 
364 410 163 69 50 36 
365 410 162 69 50 36 
365 410 163 69 49 36 
366 410 160 64 51 41 
366 410 161 66 51 39 
367 410 160 63 51 41 
367 410 161 65 50 40 
366 410 162 68 50 37 
366 410 163 69 49 36 
367 410 162 67 49 37 
367 410 163 68 49 36 
364 410 164 70 50 36 
364 410 165 70 49 36 
365 410 164 69 49 36 
365 410 165 70 49 35 
364 410 166 71 49 36 
364 410 167 71 49 35 
365 410 166 70 49 35 
365 410 167 71 49 35 
366 410 164 69 49 36 
366 410 165 69 49 35 
367 410 164 69 49 35 
367 410 165 69 49 35 
366 410 166 70 49 35 
366 410 167 71 48 34 
367 410 166 69 48 34 
367 410 167 70 48 34 
360 409 168 71 52 39 
360 409 169 71 51 39 
361 409 168 71 51 38 
361 409 169 72 51 38 
360 409 170 71 51 39 
360 409 171 71 51 39 
361 409 170 72 50 38 
361 409 171 72 50 38 
362 409 168 72 51 37 
362 409 169 72 50 37 
363 409 168 72 49 36 
363 409 169 72 49 36 
362 409 170 72 50 37 
362 409 171 72 50 37 
363 409 170 72 49 36 
363 409 171 73 49 36 
360 409 172 72 51 39 
360 409 173 72 51 39 
361 409 172 72 50 38 
361 409 173 73 50 38 
360 409 174 73 50 39 
360 409 175 73 50 38 
361 409 174 74 50 38 
361 409 175 74 49 38 
362 409 172 73 50 37 
362 409 173 73 49 37 
363 409 172 73 49 36 
363 409 173 74 49 36 
362 409 174 74 49 37 
362 409 175 75 48 37 
363 409 174 75 48 36 
363 409 175 75 48 36 
363 410 174 75 48 35 
363 410 175 76 47 35 
364 410 168 72 49 35 
364 410 169 72 49 35 
365 410 168 72 48 34 
365 410 169 72 48 34 
364 410 170 73 49 35 
364 410 171 73 49 35 
365 410 170 73 48 34 
365 410 171 73 48 35 
366 410 168 72 48 34 
366 410 169 72 48 34 
367 410 168 71 47 34 
367 410 169 72 47 33 
366 410 170 73 47 34 
366 410 171 73 47 34 
367 410 170 73 46 33 
367 410 171 73 46 33 
364 410 172 73 48 35 
364 410 173 75 48 35 
365 410 172 74 48 35 
365 410 173 75 47 34 
364 410 174 76 47 35 
364 410 175 76 47 35 
365 410 174 76 46 34 
365 410 175 77 46 34 
366 410 172 74 46 33 
366 410 173 75 46 33 
367 410 172 74 45 32 
367 410 173 75 44 32 
366 410 174 76 45 33 
366 410 175 77 45 33 
367 410 174 76 44 32 
367 410 175 76 43 31 
352 409 176 64 53 45 
352 409 177 64 53 45 
353 409 176 65 53 44 
353 409 177 65 53 44 
352 409 178 64 53 45 
352 409 179 64 53 45 
353 409 178 65 53 44 
353 409 179 65 52 44 
354 409 176 66 53 44 
354 409 177 66 53 44 
355 409 176 67 52 43 
355 409 177 67 52 43 
354 409 178 66 52 44 
354 409 179 66 52 43 
355 409 178 67 52 43 
355 409 179 67 52 43 
352 409 180 63 53 45 
352 409 181 63 52 45 
353 409 180 65 52 44 
353 409 181 64 52 44 
352 409 182 63 52 45 
352 409 183 63 52 45 
353 409 182 64 52 44 
353 409 183 64 52 44 
354 409 180 66 52 43 
354 409 181 66 51 43 
355 409 180 67 51 43 
355 409 181 67 51 43 
354 409 182 65 51 43 
354 409 183 65 51 43 
355 409 182 66 51 43 
355 409 183 66 51 43 
356 409 176 68 52 42 
356 409 177 68 52 42 
357 409 176 70 51 41 
357 409 177 70 52 42 
356 409 178 68 52 42 
356 409 179 68 51 42 
357 409 178 69 51 42 
357 409 179 69 51 41 
358 409 176 71 51 40 
358 409 177 70 51 41 
359 409 176 72 50 40 
359 409 177 72 50 40 
358 409 178 70 51 41 
358 409 179 71 50 40 
359 409 178 71 50 40 
359 409 179 72 50 40 
356 409 180 68 51 42 
356 409 181 68 51 42 
357 409 180 69 50 41 
357 409 181 69 50 41 
356 409 182 68 50 42 
356 409 183 67 50 42 
357 409 182 69 50 41 
357 409 183 69 50 41 
358 409 180 71 50 40 
358 409 181 71 49 40 
359 409 180 72 49 39 
359 409 181 72 49 40 
358 409 182 71 49 40 
358 409 183 70 49 40 
359 409 182 71 49 40 
358 410 183 71 49 40 
359 410 182 72 49 39 
359 410 183 72 49 39 
352 409 184 63 52 45 
352 409 185 63 52 45 
353 409 184 64 52 44 
353 409 185 64 52 44 
352 409 186 63 52 45 
352 409 187 63 52 45 
353 409 186 64 52 45 
353 409 187 63 52 45 
353 410 187 64 52 45 
354 409 184 65 51 44 
354 409 185 64 52 44 
355 409 184 65 51 43 
355 409 185 65 51 43 
354 409 186 64 52 44 
354 409 187 64 52 44 
355 409 186 65 51 43 
354 410 187 64 51 44 
355 410 186 65 51 43 
355 410 187 65 51 43 
352 409 188 63 53 45 
352 410 188 63 52 45 
352 410 189 63 53 45 
353 410 188 63 52 45 
353 410 189 63 52 45 
352 410 190 62 53 46 
352 410 191 62 53 46 
353 410 190 63 52 45 
353 410 191 63 52 45 
354 410 188 64 52 44 
354 410 189 64 52 44 
355 410 188 65 51 43 
355 410 189 65 51 43 
354 410 190 64 52 44 
354 410 191 64 51 44 
355 410 190 65 51 43 
355 410 191 65 51 43 
356 409 184 67 50 42 
356 409 185 66 50 42 
357 409 184 68 50 41 
356 410 185 67 50 42 
357 410 184 69 50 41 
357 410 185 69 50 41 
356 410 186 66 50 42 
356 410 187 66 50 42 
357 410 186 68 49 41 
357 410 187 68 49 41 
358 410 184 70 49 40 
358 410 185 70 49 40 
359 410 184 71 49 39 
359 410 185 71 48 39 
358 410 186 69 48 40 
358 410 187 69 48 40 
359 410 186 70 48 39 
359 410 187 70 47 39 
356 410 188 66 50 42 
356 410 189 66 50 42 
357 410 188 68 49 41 
357 410 189 67 49 41 
356 410 190 66 50 42 
356 410 191 65 49 42 
357 410 190 67 49 41 
357 410 191 66 49 41 
358 410 188 68 48 40 
358 410 189 68 48 40 
359 410 188 69 47 39 
359 410 189 69 47 39 
358 410 190 67 48 40 
358 410 191 67 48 40 
359 410 190 68 47 39 
359 410 191 67 47 39 
360 409 176 73 50 38 
360 409 177 73 49 39 
361 409 176 74 49 38 
361 409 177 74 49 38 
360 409 178 73 49 39 
360 409 179 73 49 39 
361 409 178 74 49 38 
361 409 179 74 48 38 
361 410 179 74 48 38 
362 409 176 75 48 37 
362 409 177 75 48 37 
363 409 176 75 48 36 
362 409 178 75 48 37 
363 410 176 76 47 35 
363 410 177 76 46 35 
362 410 178 75 47 36 
362 410 179 75 48 37 
363 410 178 76 46 35 
363 410 179 76 46 35 
360 409 180 73 49 38 
360 409 181 73 48 39 
361 409 180 74 48 38 
360 410 180 74 48 38 
360 410 181 73 48 38 
361 410 180 74 48 37 
361 410 181 75 47 37 
360 410 182 73 48 38 
360 410 183 73 48 38 
361 410 182 75 47 37 
361 410 183 74 47 37 
362 410 180 76 47 37 
362 410 181 75 47 37 
363 410 180 77 46 36 
363 410 181 76 46 36 
362 410 182 75 46 36 
362 410 183 75 46 36 
363 410 182 76 45 35 
363 410 183 75 45 35 
364 410 176 77 46 34 
364 410 177 77 45 34 
365 410 176 77 45 33 
365 410 177 77 45 33 
364 410 178 77 45 34 
364 410 179 77 45 34 
365 410 178 77 44 33 
365 410 179 77 44 33 
366 410 176 77 44 33 
366 410 177 77 44 32 
367 410 176 77 43 32 
367 410 177 77 43 32 
366 410 178 77 43 32 
366 410 179 77 43 32 
367 410 178 77 43 32 
367 410 179 76 43 32 
364 410 180 77 45 34 
364 410 181 77 45 35 
365 410 180 77 44 33 
365 410 181 76 44 34 
364 410 182 76 44 34 
364 410 183 75 44 34 
365 410 182 76 44 34 
365 410 183 75 43 33 
366 410 180 76 43 33 
366 410 181 76 43 33 
367 410 180 76 42 32 
367 410 181 76 42 32 
366 410 182 76 43 33 
366 410 183 75 42 32 
367 410 182 75 42 32 
367 410 183 75 42 31 
360 410 184 73 47 38 
360 410 185 72 47 38 
361 410 184 74 46 37 
361 410 185 73 46 37 
360 410 186 72 47 38 
360 410 187 71 46 37 
361 410 186 72 46 37 
361 410 187 71 45 36 
362 410 184 74 45 36 
362 410 185 73 45 36 
363 410 184 74 44 35 
363 410 185 74 44 35 
362 410 186 73 45 36 
362 410 187 72 45 36 
363 410 186 73 44 34 
363 410 187 72 44 34 
360 410 188 70 46 37 
360 410 189 69 46 37 
361 410 188 70 45 36 
361 410 189 70 45 36 
360 410 190 68 46 37 
360 410 191 67 46 37 
361 410 190 69 45 36 
361 410 191 68 44 36 
362 410 188 71 45 36 
362 410 189 70 44 35 
363 410 188 71 44 34 
363 410 189 71 44 34 
362 410 190 69 44 35 
362 410 191 69 44 35 
363 410 190 69 43 34 
363 410 191 68 42 34 
364 410 184 75 43 34 
364 410 185 73 43 33 
365 410 184 74 43 33 
365 410 185 73 42 33 
364 410 186 73 43 34 
364 410 187 72 43 33 
365 410 186 73 42 33 
365 410 187 72 42 32 
366 410 184 74 42 32 
366 410 185 73 41 32 
367 410 184 74 41 31 
367 410 185 73 41 31 
366 410 186 72 41 32 
366 410 187 71 41 32 
367 410 186 72 41 31 
367 410 187 70 40 31 
364 410 188 71 43 33 
364 410 189 70 42 33 
365 410 188 71 42 32 
365 410 189 70 42 32 
364 410 190 69 42 33 
364 410 191 69 41 32 
365 410 190 69 41 32 
365 410 191 69 41 32 
366 410 188 70 41 32 
366 410 189 69 41 31 
367 410 188 69 40 31 
367 410 189 68 40 30 
366 410 190 68 40 31 
366 410 191 68 40 31 
367 410 190 68 40 30 
367 410 191 67 39 30 
368 410 160 63 51 41 
368 410 161 65 50 40 
369 410 160 63 50 41 
369 410 161 64 50 40 
368 410 162 66 49 38 
368 410 163 68 49 36 
369 410 162 65 49 39 
369 410 163 67 49 37 
370 410 160 64 50 41 
370 410 161 64 50 40 
371 410 160 64 50 42 
371 410 161 65 50 41 
370 410 162 65 49 39 
370 410 163 67 49 38 
371 410 162 65 49 40 
371 410 163 66 49 38 
368 410 164 68 48 35 
368 410 165 69 48 35 
369 410 164 68 48 36 
369 410 165 68 48 35 
368 410 166 69 48 34 
368 410 167 70 47 34 
369 410 166 68 48 35 
369 410 167 69 47 34 
370 410 164 67 48 36 
370 410 165 68 48 36 
371 410 164 67 48 37 
371 410 165 67 48 36 
370 410 166 68 47 35 
370 410 167 69 46 34 
371 410 166 68 47 35 
371 410 167 69 46 34 
372 410 160 64 50 42 
372 410 161 65 50 42 
373 410 160 64 50 42 
373 410 161 65 50 42 
372 410 162 65 49 40 
372 410 163 66 49 39 
373 410 162 66 49 41 
373 410 163 67 49 40 
374 410 160 64 50 43 
374 410 161 64 50 42 
375 410 160 63 50 43 
375 410 161 64 50 43 
374 410 162 65 50 42 
374 410 163 67 49 40 
375 410 162 66 50 42 
375 410 163 67 49 41 
372 410 164 67 48 38 
372 410 165 67 47 37 
373 410 164 67 48 38 
373 410 165 67 47 37 
372 410 166 68 46 36 
372 410 167 68 46 35 
373 410 166 67 46 36 
373 410 167 68 45 35 
374 410 164 67 48 39 
374 410 165 67 47 38 
375 410 164 67 48 39 
375 410 165 67 47 39 
374 410 166 67 46 36 
374 410 167 67 45 36 
375 410 166 67 46 37 
375 410 167 67 45 36 
368 410 168 71 47 33 
368 410 169 72 46 33 
369 410 168 70 46 33 
369 410 169 71 46 32 
368 410 170 73 46 32 
368 410 171 73 45 32 
369 410 170 72 45 32 
369 410 171 73 44 32 
370 410 168 70 46 33 
370 410 169 71 45 32 
371 410 168 69 45 33 
371 410 169 70 45 32 
370 410 170 72 45 32 
370 410 171 73 44 31 
371 410 170 71 44 31 
371 410 171 72 43 31 
368 410 172 74 44 32 
368 410 173 75 43 31 
369 410 172 73 44 31 
369 410 173 74 43 31 
368 410 174 76 43 31 
368 410 175 76 43 31 
369 410 174 75 42 30 
369 410 175 76 42 30 
370 410 172 73 43 31 
370 410 173 74 42 30 
371 410 172 73 42 30 
371 410 173 74 42 30 
370 410 174 75 42 30 
370 410 175 75 41 30 
371 410 174 74 41 29 
371 410 175 74 41 29 
372 410 168 69 45 34 
372 410 169 69 44 32 
373 410 168 68 45 34 
373 410 169 69 44 32 
372 410 170 70 43 31 
372 410 171 71 42 30 
373 410 170 70 43 31 
373 410 171 71 42 31 
374 410 168 68 44 34 
374 410 169 68 43 33 
375 410 168 67 44 35 
375 410 169 68 43 34 
374 410 170 69 42 32 
374 410 171 70 42 31 
375 410 170 69 42 32 
375 410 171 70 42 31 
372 410 172 72 42 30 
372 410 173 73 41 29 
373 410 172 71 41 30 
373 410 173 73 41 29 
372 410 174 73 40 29 
372 410 175 73 40 29 
373 410 174 73 40 29 
373 410 175 73 40 29 
374 410 172 71 41 30 
374 410 173 72 40 29 
375 410 172 71 41 31 
375 410 173 72 40 29 
374 410 174 73 40 29 
374 410 175 73 39 29 
375 410 174 73 40 29 
375 410 175 73 39 29 
376 410 160 64 51 43 
376 410 161 65 50 43 
377 410 160 64 50 43 
377 410 161 65 50 43 
