ply
format ascii 1.0
comment Created by CloudCompare v2.10.1 (Zephyrus)
comment Created 1/30/20 11:43 AM
obj_info Generated by CloudCompare!
element vertex 2045
property float x
property float y
property float z
property uchar red
property uchar green
property uchar blue
end_header
255 691 228 179 131 106 
252 692 228 179 131 108 
252 693 228 180 132 108 
253 692 228 180 132 108 
253 693 228 180 131 107 
253 693 229 180 131 106 
252 694 229 180 131 107 
252 695 228 181 131 108 
252 695 229 181 132 108 
253 694 229 180 131 107 
253 695 228 180 131 107 
253 695 229 181 131 107 
254 692 228 180 132 107 
254 693 228 180 130 106 
254 693 229 180 131 106 
255 692 228 180 131 106 
255 693 228 179 130 105 
254 694 228 180 131 106 
254 694 229 180 131 107 
254 695 228 181 131 107 
255 694 228 180 131 106 
255 695 228 181 132 107 
248 698 227 182 131 107 
248 699 227 183 132 108 
248 696 228 180 129 107 
248 697 228 182 130 107 
249 696 228 181 131 108 
249 697 228 181 131 108 
248 698 228 182 131 108 
248 699 228 183 133 109 
249 698 228 181 131 108 
249 699 228 183 132 108 
250 696 228 181 131 108 
250 697 228 181 131 108 
251 696 228 180 130 107 
251 697 228 181 131 108 
250 698 228 181 131 107 
250 699 228 182 131 108 
251 698 228 182 131 108 
251 699 228 182 131 107 
248 700 227 184 132 109 
248 701 227 184 131 109 
249 701 227 184 132 108 
248 702 227 184 131 108 
248 703 227 184 131 108 
249 702 227 184 131 108 
249 703 227 184 132 108 
250 703 227 183 131 107 
248 700 228 184 132 109 
249 700 228 183 131 108 
249 701 228 183 131 108 
249 702 228 183 131 108 
250 700 228 182 131 108 
250 701 228 183 131 108 
251 700 228 182 131 107 
251 701 228 184 132 108 
250 702 228 184 132 108 
250 703 228 183 131 107 
251 702 228 184 132 109 
251 703 228 184 132 108 
252 696 228 181 131 108 
252 697 228 182 131 109 
253 696 228 182 133 109 
253 697 228 182 132 108 
252 698 228 182 131 108 
252 699 228 182 131 107 
253 698 228 182 132 108 
253 699 228 182 132 107 
254 696 228 182 133 109 
254 696 229 182 133 109 
254 697 228 182 132 108 
254 697 229 182 133 109 
255 696 228 182 133 108 
255 696 229 182 133 109 
255 697 229 182 133 108 
254 698 228 182 132 108 
254 699 228 182 132 108 
255 698 228 182 132 108 
255 698 229 182 132 108 
255 699 228 182 133 109 
252 700 228 183 131 108 
252 701 228 183 132 108 
253 700 228 182 132 107 
253 701 228 183 132 108 
252 702 228 183 132 108 
252 703 228 183 132 108 
253 702 228 183 132 108 
253 703 228 182 131 108 
254 700 228 183 133 108 
254 701 228 182 132 108 
255 700 228 182 132 109 
255 701 228 182 131 108 
254 702 228 182 131 108 
254 703 228 181 130 108 
255 702 228 181 130 108 
255 703 228 180 129 107 
239 706 191 139 100 68 
239 707 191 140 100 69 
239 708 191 141 100 71 
239 709 191 140 99 69 
239 710 190 140 100 70 
239 710 191 142 100 72 
239 711 190 141 100 72 
239 711 191 143 101 73 
239 712 190 142 101 72 
239 712 191 143 101 71 
239 713 190 142 101 71 
239 713 191 143 101 71 
239 714 190 143 101 70 
239 714 191 144 102 71 
239 715 190 143 101 71 
239 715 191 144 102 71 
239 719 187 140 100 69 
239 717 189 143 101 70 
238 717 191 143 101 68 
239 716 190 144 101 70 
239 716 191 144 102 70 
239 717 190 144 101 70 
239 717 191 144 101 68 
239 718 188 142 101 70 
239 718 189 143 102 71 
239 719 188 142 102 71 
239 719 189 143 102 71 
238 718 190 142 100 69 
238 718 191 141 100 68 
238 719 190 140 99 67 
238 719 191 139 98 66 
239 718 190 143 102 70 
239 719 190 142 101 69 
239 720 187 140 101 69 
239 721 186 138 100 68 
239 721 187 139 100 69 
239 722 185 138 100 69 
239 723 185 137 99 68 
238 722 187 138 100 69 
238 723 187 137 99 67 
239 722 186 137 99 67 
239 722 187 138 99 68 
239 723 186 137 99 67 
239 723 187 137 99 68 
237 720 191 136 96 65 
237 721 190 135 95 64 
237 721 191 133 94 64 
237 722 190 133 94 66 
237 722 191 132 94 64 
237 723 190 132 94 65 
237 723 191 131 93 63 
238 720 189 140 99 68 
238 721 188 139 98 66 
238 721 189 139 98 67 
239 720 188 141 100 69 
239 720 189 141 100 68 
239 721 188 140 99 68 
238 720 190 139 97 66 
238 720 191 137 97 65 
238 721 190 136 95 65 
238 722 188 137 98 65 
238 722 189 136 96 66 
238 723 188 137 98 65 
238 723 189 134 95 64 
238 722 190 135 95 67 
238 723 190 134 95 65 
239 724 184 136 98 68 
239 724 185 137 99 68 
239 725 184 136 99 68 
239 725 185 136 98 67 
238 724 187 136 98 65 
238 725 186 137 99 67 
238 725 187 135 98 65 
239 724 186 137 99 67 
239 725 186 136 98 67 
239 726 184 135 98 67 
239 726 185 136 98 67 
239 727 184 134 98 65 
239 727 185 136 98 67 
238 726 186 136 98 68 
238 726 187 135 97 64 
238 727 186 136 97 66 
238 727 187 134 97 64 
239 726 186 137 98 68 
237 724 190 131 93 62 
237 724 191 130 92 61 
237 725 191 130 93 60 
237 726 191 131 93 61 
237 727 191 132 93 61 
238 724 188 135 97 63 
238 724 189 134 95 63 
238 725 188 134 95 63 
238 725 189 132 93 62 
238 724 190 132 93 63 
238 725 190 131 93 62 
238 725 191 131 93 60 
238 726 188 133 95 63 
238 726 189 132 94 63 
238 727 188 132 94 62 
238 727 189 132 92 63 
238 726 190 132 94 63 
238 726 191 132 93 62 
238 727 190 132 93 62 
238 727 191 132 92 62 
239 728 183 134 97 66 
239 729 183 134 97 67 
239 730 183 134 96 68 
239 731 182 133 96 67 
239 731 183 134 96 67 
239 733 181 132 96 67 
238 733 183 133 97 65 
239 732 182 133 96 67 
239 732 183 133 97 67 
239 733 182 133 97 67 
239 733 183 133 96 65 
239 734 181 132 97 67 
239 735 181 132 97 67 
238 734 183 134 99 66 
238 735 182 134 99 68 
238 735 183 135 99 67 
239 734 182 133 98 68 
239 735 182 133 98 67 
237 730 187 132 93 62 
237 731 187 133 95 64 
238 728 185 136 97 69 
238 729 185 136 97 68 
239 728 184 135 98 66 
239 728 185 136 98 69 
239 729 184 135 96 67 
239 729 185 136 97 68 
238 728 186 136 97 67 
238 728 187 134 96 64 
238 729 186 135 97 67 
238 729 187 133 94 63 
238 730 184 135 97 69 
238 730 185 135 97 69 
238 731 184 135 97 68 
238 731 185 135 97 68 
239 730 184 135 97 68 
239 731 184 134 97 68 
238 730 186 134 96 67 
238 730 187 133 94 63 
238 731 186 134 96 66 
238 731 187 133 95 65 
237 728 189 133 94 63 
237 729 188 133 94 62 
237 729 189 134 95 64 
237 728 190 133 93 62 
237 728 191 132 93 61 
237 729 190 134 95 63 
237 729 191 134 95 63 
236 731 189 133 94 63 
237 730 188 133 94 62 
237 730 189 134 95 64 
237 731 188 134 94 63 
237 731 189 133 94 64 
236 730 190 133 95 64 
236 730 191 134 95 64 
236 731 190 134 95 64 
236 731 191 135 95 65 
237 730 190 133 95 64 
237 730 191 133 94 62 
238 728 188 132 94 62 
238 728 189 133 93 62 
238 729 188 132 93 61 
238 728 190 132 92 62 
237 733 185 134 98 65 
237 732 186 134 97 65 
237 732 187 133 95 64 
237 733 186 134 97 65 
237 733 187 134 97 65 
237 734 185 134 98 65 
237 735 184 136 100 67 
237 735 185 136 100 69 
236 735 187 137 99 67 
237 734 186 135 97 65 
237 734 187 135 97 64 
237 735 186 137 99 68 
237 735 187 136 98 67 
238 732 184 134 98 67 
238 732 185 134 98 67 
238 733 184 134 98 65 
238 733 185 134 98 65 
239 732 184 134 97 67 
238 732 186 134 97 66 
238 734 184 135 99 66 
238 734 185 134 98 64 
238 735 184 135 100 68 
236 732 189 135 96 65 
236 733 188 135 97 66 
236 733 189 135 97 65 
237 732 188 134 95 64 
237 732 189 135 96 65 
237 733 188 135 97 66 
236 732 190 135 96 64 
236 732 191 136 96 66 
236 733 190 136 97 65 
236 733 191 138 97 67 
236 734 188 136 98 65 
236 734 189 136 98 66 
236 735 188 137 99 66 
236 735 189 138 99 67 
237 734 188 136 98 66 
236 734 190 137 98 66 
236 734 191 138 98 68 
236 735 190 138 99 67 
236 735 191 139 98 68 
247 707 183 114 89 57 
245 711 183 118 92 60 
247 708 183 116 90 59 
247 709 183 117 91 60 
246 710 183 118 91 60 
246 711 183 119 91 59 
247 710 183 117 91 60 
247 711 182 118 91 59 
247 711 183 118 91 60 
243 706 187 117 89 55 
243 707 187 118 90 56 
240 704 191 136 97 65 
240 705 191 136 97 66 
241 704 190 129 95 62 
241 704 191 134 96 65 
241 705 190 130 94 63 
241 705 191 134 96 65 
241 706 189 125 91 62 
241 707 189 125 92 63 
240 706 190 132 95 65 
240 706 191 136 98 66 
240 707 190 133 96 66 
240 707 191 136 98 68 
241 706 190 129 93 63 
241 707 190 129 93 64 
242 704 189 124 93 60 
242 705 188 121 90 55 
242 705 189 123 91 58 
243 704 188 120 91 57 
243 705 188 118 90 54 
242 704 190 126 94 61 
242 706 188 121 91 58 
242 706 189 123 91 60 
242 707 188 122 91 60 
242 707 189 124 91 62 
243 706 188 119 90 54 
242 709 187 124 94 61 
243 708 187 119 91 56 
243 709 187 120 92 58 
242 710 187 126 94 61 
242 711 187 127 95 62 
243 710 186 121 92 59 
243 710 187 123 93 61 
243 711 186 123 93 61 
243 711 187 125 94 62 
241 708 189 127 93 65 
241 709 188 127 95 65 
241 709 189 130 95 67 
240 708 190 134 97 67 
240 708 191 139 99 69 
240 709 190 134 97 66 
241 708 190 130 94 65 
240 710 189 131 95 64 
240 711 189 135 97 68 
241 710 188 128 95 64 
241 710 189 130 95 65 
241 711 188 131 96 65 
241 711 189 132 96 65 
240 710 190 135 97 67 
240 711 190 138 100 70 
242 708 188 124 93 62 
242 709 188 125 94 64 
242 710 188 127 95 63 
245 704 185 117 91 59 
245 705 185 117 90 58 
244 704 187 117 90 57 
244 705 186 115 89 56 
244 705 187 116 89 55 
245 704 186 117 91 59 
245 705 186 115 89 57 
245 706 185 116 89 56 
245 707 185 115 89 57 
244 706 186 114 88 55 
244 706 187 115 88 54 
244 707 186 115 89 56 
244 707 187 117 89 56 
245 706 186 114 88 55 
245 707 186 115 89 57 
246 704 185 118 91 60 
246 705 184 117 91 59 
246 705 185 118 91 59 
247 704 184 116 90 59 
247 705 184 115 90 58 
246 706 184 116 90 57 
246 706 185 116 89 57 
246 707 184 116 90 58 
246 707 185 116 89 57 
247 706 184 114 89 57 
247 707 184 115 89 57 
244 709 185 116 90 57 
245 708 184 116 90 58 
245 708 185 116 90 57 
245 709 184 117 91 59 
245 709 185 116 90 59 
244 708 186 116 89 56 
244 709 186 117 90 56 
244 710 185 118 91 58 
244 711 184 119 92 59 
244 711 185 120 92 59 
245 710 184 117 91 59 
245 710 185 118 91 59 
245 711 184 118 92 59 
244 710 186 119 91 58 
246 708 184 117 90 59 
246 709 184 118 91 60 
247 708 184 117 91 59 
246 710 184 118 91 60 
243 716 183 125 95 62 
243 717 183 125 95 63 
242 718 183 128 96 63 
242 719 183 129 96 63 
243 718 182 126 96 63 
243 718 183 127 96 64 
243 719 182 126 96 63 
243 719 183 127 96 63 
245 712 183 118 91 57 
245 713 182 119 92 59 
245 713 183 119 92 58 
245 715 181 119 92 59 
244 714 183 122 94 60 
244 715 183 123 94 61 
245 714 182 119 92 59 
245 714 183 121 93 59 
245 715 182 120 93 59 
247 713 181 119 92 60 
246 712 182 119 91 59 
246 712 183 119 91 58 
246 713 182 119 92 59 
247 712 182 119 91 59 
247 713 182 120 92 60 
246 714 181 120 93 60 
246 715 181 120 93 60 
247 714 181 120 92 60 
247 715 180 120 92 58 
247 715 181 121 93 60 
246 714 182 120 93 60 
247 717 179 119 92 59 
246 719 179 121 94 61 
247 718 179 120 92 60 
247 719 179 119 92 58 
245 716 181 120 93 59 
245 717 181 120 93 61 
244 716 182 122 93 60 
244 716 183 124 94 61 
244 717 182 123 94 61 
245 716 182 121 93 59 
245 717 182 121 94 61 
244 719 181 123 95 62 
245 718 180 120 93 60 
245 718 181 121 94 61 
245 719 180 121 94 62 
245 719 181 122 95 62 
244 718 182 124 95 63 
244 719 182 125 96 63 
246 716 180 120 92 59 
246 716 181 120 93 60 
246 717 180 120 93 60 
247 716 180 119 92 58 
247 717 180 120 92 59 
246 718 180 121 94 61 
246 719 180 121 94 62 
241 712 187 131 97 65 
241 713 186 131 96 64 
241 713 187 133 97 65 
240 714 187 138 100 69 
240 715 187 138 100 69 
241 714 186 132 97 65 
241 714 187 135 99 67 
241 715 186 134 99 67 
241 715 187 136 99 68 
243 712 185 123 93 60 
243 713 184 124 95 62 
243 713 185 125 95 62 
242 712 186 127 95 64 
242 712 187 129 96 64 
242 713 186 128 96 64 
243 712 186 125 95 62 
242 714 185 128 96 62 
242 715 184 129 97 63 
242 715 185 130 97 63 
243 714 184 126 96 61 
243 714 185 127 96 62 
243 715 184 127 96 62 
242 714 186 130 96 65 
240 712 189 138 99 70 
240 713 188 137 100 69 
240 713 189 140 100 71 
241 712 188 133 97 66 
241 713 188 136 99 67 
240 712 190 141 101 73 
240 713 190 142 101 71 
240 714 188 139 100 69 
240 714 189 141 100 70 
240 715 188 141 101 70 
240 715 189 143 102 71 
240 714 190 142 100 69 
241 716 185 132 98 66 
241 717 185 133 98 67 
240 716 186 137 100 70 
240 716 187 139 102 73 
240 717 186 137 100 70 
240 717 187 139 101 72 
241 716 186 135 99 68 
241 717 186 135 99 69 
240 719 185 136 99 67 
241 718 184 132 97 65 
241 718 185 135 99 67 
241 719 184 133 98 66 
241 719 185 135 99 67 
240 718 186 137 100 69 
240 718 187 139 101 69 
240 719 186 138 100 67 
240 719 187 140 101 68 
241 718 186 136 100 69 
242 716 184 129 96 62 
242 716 185 131 97 65 
242 717 184 129 96 63 
243 716 184 126 95 61 
243 717 184 127 96 62 
242 718 184 130 96 64 
242 719 184 130 96 63 
240 716 188 141 101 70 
240 716 189 142 101 70 
240 717 188 141 101 70 
240 717 189 143 102 71 
240 716 190 143 101 69 
240 718 188 141 101 70 
244 712 184 121 93 59 
244 712 185 121 92 58 
244 713 184 122 94 59 
245 712 184 119 91 58 
244 714 184 123 95 61 
248 704 183 111 86 56 
248 705 183 112 87 57 
249 704 183 110 85 55 
249 705 183 110 86 56 
248 706 183 112 87 57 
248 707 183 113 88 57 
249 706 183 111 87 57 
249 707 183 111 87 58 
250 704 183 109 84 54 
250 705 183 109 85 55 
251 704 183 107 84 54 
251 705 183 107 83 54 
250 706 183 110 86 57 
250 707 183 110 86 56 
251 706 183 108 85 56 
251 707 183 109 85 57 
248 708 183 114 89 59 
248 709 183 115 90 59 
249 708 183 112 88 59 
249 709 182 112 88 57 
249 709 183 113 88 58 
248 710 182 115 89 58 
248 710 183 116 90 59 
248 711 182 116 90 57 
248 711 183 117 90 59 
249 710 182 114 88 57 
249 711 182 115 89 57 
250 708 183 111 87 57 
250 709 182 111 87 56 
250 709 183 112 87 56 
251 708 182 109 86 56 
251 708 183 110 86 57 
251 709 182 110 86 56 
250 711 181 113 87 56 
251 711 181 111 86 57 
250 710 182 112 87 56 
250 711 182 113 87 56 
251 710 182 111 87 57 
251 711 182 111 87 56 
252 704 183 106 83 55 
252 705 183 107 83 55 
253 704 183 107 84 55 
253 705 183 106 83 55 
252 706 183 107 84 56 
252 707 183 108 85 57 
253 706 183 106 83 56 
253 707 182 107 84 56 
253 707 183 107 84 56 
254 704 183 106 83 54 
254 705 183 106 83 54 
255 704 182 105 82 54 
255 704 183 105 82 54 
255 705 182 105 82 54 
255 705 183 105 82 54 
254 706 182 106 83 56 
254 706 183 106 83 55 
254 707 182 107 84 57 
255 706 182 106 83 55 
255 707 182 106 84 57 
253 709 181 108 85 57 
252 708 182 108 85 57 
252 709 182 108 85 57 
253 708 182 107 85 57 
253 709 182 108 85 57 
252 710 181 110 86 58 
252 711 181 110 86 57 
253 710 181 108 85 57 
253 711 180 109 85 56 
253 711 181 110 86 57 
252 710 182 109 86 58 
254 709 181 108 85 57 
255 708 181 107 84 57 
255 709 181 107 84 56 
254 708 182 108 85 58 
254 709 182 108 85 57 
255 708 182 107 84 57 
254 710 181 108 85 57 
254 711 180 109 85 57 
255 710 180 108 84 55 
255 710 181 107 84 56 
255 711 180 109 85 56 
248 704 184 113 88 57 
248 705 184 113 88 57 
249 715 179 116 90 57 
250 715 179 115 90 58 
251 715 179 114 89 58 
248 712 181 117 90 57 
248 713 181 118 91 58 
249 712 181 115 89 57 
249 713 181 116 89 57 
248 712 182 117 90 57 
248 714 180 118 91 59 
248 714 181 120 92 60 
248 715 180 119 92 58 
249 714 180 117 90 58 
249 715 180 117 90 58 
250 712 181 114 88 56 
250 713 180 114 89 57 
250 713 181 114 89 56 
251 712 181 112 88 57 
251 713 180 112 88 58 
251 713 181 113 88 57 
250 714 180 115 89 58 
250 715 180 115 90 58 
251 714 180 113 88 58 
248 716 179 117 90 57 
248 717 179 117 91 58 
249 716 178 116 89 56 
249 716 179 117 90 56 
249 717 178 117 90 57 
249 717 179 118 90 58 
248 718 179 118 91 60 
248 719 178 115 87 54 
248 719 179 117 89 56 
249 718 178 116 90 59 
249 719 178 114 87 54 
250 716 178 115 89 56 
250 716 179 116 90 57 
250 717 178 115 89 56 
251 716 178 114 88 56 
251 716 179 115 89 58 
251 717 178 114 88 56 
250 718 177 114 89 58 
250 719 177 114 87 55 
251 718 177 114 89 57 
251 719 177 113 88 56 
250 718 178 115 89 57 
248 716 180 118 91 57 
252 714 179 112 87 57 
252 715 179 112 87 57 
253 714 179 111 86 56 
253 715 179 111 86 55 
254 713 179 110 86 56 
255 713 179 110 85 56 
254 714 179 110 85 55 
254 715 179 110 85 55 
255 714 179 110 85 55 
255 715 178 108 84 53 
255 715 179 109 85 54 
252 712 180 111 87 57 
252 712 181 111 86 57 
252 713 180 111 87 57 
253 712 180 110 86 56 
253 713 180 111 87 56 
252 714 180 112 87 56 
253 714 180 111 87 56 
254 712 180 110 85 57 
254 713 180 110 86 56 
255 712 180 109 85 56 
252 716 178 112 87 57 
252 716 179 113 88 57 
252 717 178 113 88 56 
253 716 178 111 87 57 
253 716 179 111 86 56 
253 717 178 111 86 57 
252 718 177 112 87 57 
252 719 177 112 86 55 
253 718 177 111 86 57 
253 719 177 111 86 56 
255 717 177 110 86 57 
254 716 178 110 85 55 
254 716 179 110 85 54 
254 717 178 110 85 56 
255 716 178 109 85 54 
255 716 179 109 84 54 
255 717 178 109 85 56 
254 718 177 110 86 56 
254 719 177 110 85 56 
255 718 177 110 86 57 
255 719 177 110 85 56 
245 734 175 125 96 60 
245 735 175 125 96 61 
246 733 175 125 95 60 
247 732 175 124 95 60 
247 733 175 124 95 60 
246 734 175 125 96 61 
246 735 174 124 95 60 
246 735 175 126 96 62 
247 734 174 123 95 61 
247 734 175 124 95 61 
247 735 174 123 94 60 
250 727 175 118 91 59 
251 727 175 117 90 58 
252 726 175 116 90 58 
252 727 175 117 90 58 
253 726 175 116 90 58 
253 727 175 116 90 58 
254 725 175 115 89 57 
255 725 175 114 88 57 
254 726 175 115 90 58 
254 727 174 115 89 57 
254 727 175 116 90 57 
255 726 175 114 89 57 
255 727 174 114 89 58 
255 727 175 114 89 58 
249 729 175 120 92 59 
248 731 175 122 94 61 
249 730 175 120 92 59 
249 731 175 121 93 61 
250 728 175 119 91 57 
250 729 175 118 91 57 
251 728 175 118 90 57 
251 729 175 118 90 57 
250 730 175 119 91 59 
250 731 174 118 91 59 
250 731 175 119 92 60 
251 730 174 117 90 58 
251 730 175 118 91 58 
251 731 174 117 90 58 
248 732 175 122 94 60 
248 733 175 122 93 60 
249 732 175 120 92 61 
249 733 174 119 91 60 
249 733 175 120 92 59 
248 735 173 121 92 59 
249 735 173 120 91 60 
248 734 174 122 94 61 
248 735 174 121 93 60 
249 734 174 119 91 60 
249 735 174 120 92 60 
251 733 173 115 89 58 
250 732 174 118 90 59 
250 732 175 119 92 60 
250 733 174 117 90 59 
251 732 174 116 90 58 
251 733 174 116 89 58 
250 735 173 118 90 59 
251 734 173 116 89 58 
251 735 173 117 90 58 
250 734 174 118 90 60 
251 734 174 117 89 58 
252 728 175 117 90 57 
252 729 174 117 91 58 
252 729 175 117 90 57 
253 728 174 116 90 57 
253 728 175 117 90 58 
253 729 174 116 90 58 
253 731 173 115 89 58 
252 730 174 117 91 58 
252 731 174 116 90 58 
253 730 174 116 89 58 
253 731 174 115 89 58 
254 728 174 115 89 58 
254 728 175 116 90 57 
254 729 174 116 90 57 
255 728 174 114 89 57 
255 729 174 115 89 57 
254 731 173 115 89 58 
255 730 173 114 88 57 
255 731 173 114 88 57 
254 730 174 115 89 58 
254 731 174 115 89 58 
255 730 174 114 89 57 
252 732 173 116 90 59 
252 733 173 116 89 58 
253 732 173 116 90 59 
253 733 173 116 90 59 
252 732 174 116 90 58 
252 734 173 116 89 58 
252 735 173 117 90 58 
253 734 173 116 89 58 
253 735 172 117 90 59 
253 735 173 117 90 59 
254 732 173 115 89 58 
254 733 173 115 90 58 
255 732 173 115 89 58 
255 733 172 115 90 59 
255 733 173 115 89 58 
254 734 172 116 90 59 
254 734 173 116 90 59 
254 735 172 117 91 60 
255 734 172 116 90 59 
255 735 172 116 90 59 
241 722 183 132 98 66 
241 723 183 131 96 65 
243 721 181 126 95 62 
242 720 183 129 96 63 
242 721 182 128 95 62 
242 721 183 131 97 66 
243 720 182 127 96 63 
243 721 182 127 95 63 
243 722 181 125 94 61 
243 723 181 127 96 64 
242 722 182 128 95 63 
242 722 183 130 96 65 
242 723 182 129 95 63 
242 723 183 130 96 64 
243 722 182 128 95 63 
243 723 182 127 95 63 
240 724 183 134 98 67 
240 725 183 135 99 67 
241 724 182 131 96 65 
241 724 183 133 97 66 
241 725 182 131 96 64 
241 725 183 133 98 67 
241 727 181 131 97 64 
240 726 183 134 98 66 
240 727 182 133 97 66 
240 727 183 134 97 66 
241 726 182 131 96 65 
241 726 183 133 97 66 
241 727 182 133 96 64 
242 724 181 128 94 63 
242 725 181 129 95 63 
243 724 181 127 96 65 
243 725 180 127 96 63 
243 725 181 127 95 63 
242 724 182 129 95 64 
242 725 182 129 94 63 
242 726 181 128 95 62 
242 727 180 128 96 62 
242 727 181 128 96 61 
243 726 180 126 95 62 
243 727 180 126 96 62 
245 723 179 122 94 62 
246 720 179 121 93 61 
246 721 179 121 93 60 
247 720 179 120 91 57 
247 721 179 121 92 59 
246 722 179 121 94 61 
246 723 179 122 94 61 
247 722 179 121 93 60 
247 723 179 122 93 59 
244 720 181 124 96 62 
244 721 181 124 95 61 
245 720 180 120 93 60 
245 720 181 122 95 61 
245 721 180 121 94 60 
244 722 180 123 95 60 
244 722 181 124 94 61 
244 723 180 124 96 62 
244 723 181 125 96 63 
245 722 180 121 94 61 
245 723 180 122 94 61 
246 720 180 120 93 61 
244 725 179 123 94 60 
245 724 179 121 93 60 
245 725 179 122 94 60 
244 726 179 124 94 59 
244 727 178 123 94 59 
244 727 179 123 94 58 
245 726 178 122 94 60 
245 726 179 122 94 60 
245 727 178 123 94 59 
246 724 179 122 93 59 
246 725 178 122 93 59 
246 725 179 122 93 59 
247 724 178 121 92 58 
247 724 179 122 93 59 
247 725 178 121 92 58 
246 727 177 123 94 59 
247 726 177 121 92 59 
247 727 177 122 93 59 
246 726 178 123 93 59 
246 727 178 124 94 59 
247 726 178 121 92 58 
244 724 180 125 95 62 
244 725 180 125 95 62 
245 724 180 121 93 59 
244 726 180 124 94 60 
240 720 185 137 100 68 
240 721 184 137 99 69 
240 721 185 137 99 69 
241 720 184 134 98 67 
241 721 184 134 98 67 
240 720 186 139 101 69 
240 720 187 139 101 69 
240 721 186 138 100 69 
240 722 184 136 99 69 
240 722 185 138 100 71 
240 723 184 135 98 67 
241 722 184 134 97 67 
241 723 184 133 97 66 
242 720 184 131 97 65 
240 724 184 135 98 66 
240 725 184 135 98 67 
240 726 184 135 99 67 
240 727 184 134 97 66 
242 729 179 127 96 62 
243 728 179 126 97 61 
243 729 178 125 96 61 
243 729 179 126 96 61 
242 730 179 127 97 63 
242 731 179 127 96 62 
243 730 178 125 96 62 
243 730 179 126 96 62 
243 731 178 125 96 61 
241 728 181 131 97 63 
241 729 181 131 97 64 
240 728 182 133 97 66 
240 728 183 134 97 67 
240 729 182 134 97 67 
240 729 183 134 97 67 
241 728 182 132 97 64 
240 730 181 133 97 67 
240 731 181 132 96 67 
241 730 180 130 97 64 
241 730 181 132 97 66 
241 731 180 131 97 65 
241 731 181 132 97 66 
240 730 182 133 97 67 
240 731 182 133 97 68 
242 728 180 129 97 63 
242 728 181 130 97 62 
242 729 180 128 97 63 
243 728 180 127 97 64 
242 730 180 129 97 63 
242 731 180 129 97 63 
241 733 179 128 96 63 
241 734 179 127 95 62 
241 735 179 127 94 63 
243 732 177 125 96 63 
243 733 177 124 95 63 
242 732 178 126 97 63 
242 732 179 128 98 64 
242 733 178 127 96 64 
242 733 179 127 97 64 
243 732 178 125 96 63 
243 733 178 125 96 63 
243 734 177 124 94 61 
243 735 177 124 94 61 
242 734 178 126 96 64 
242 734 179 127 96 64 
242 735 178 126 95 63 
240 732 181 132 95 66 
240 733 180 131 95 65 
240 733 181 132 96 67 
241 732 180 130 97 65 
241 732 181 131 97 67 
241 733 180 129 96 64 
240 734 180 130 96 65 
240 734 181 132 96 66 
240 735 180 130 95 65 
240 735 181 132 96 66 
241 734 180 129 96 64 
241 735 180 129 95 64 
244 729 177 122 94 60 
245 728 177 122 93 59 
245 729 177 122 94 60 
244 728 178 123 94 59 
244 728 179 124 94 59 
244 729 178 124 95 60 
245 728 178 122 94 60 
244 730 177 122 94 59 
244 731 177 122 94 59 
245 730 177 122 93 60 
245 731 176 123 93 59 
245 731 177 123 94 60 
244 730 178 124 95 61 
244 731 178 123 94 60 
246 728 177 123 93 58 
246 729 176 121 92 56 
246 729 177 123 93 58 
247 728 176 121 92 57 
247 728 177 122 93 58 
247 729 176 121 92 57 
246 730 176 123 94 59 
246 730 177 123 93 58 
246 731 176 124 94 59 
247 730 176 123 93 59 
247 731 176 123 94 60 
244 732 176 123 94 60 
244 732 177 124 95 62 
244 733 176 124 95 61 
244 733 177 124 96 63 
245 732 176 124 94 60 
245 733 176 124 95 60 
244 734 176 124 95 60 
244 734 177 123 95 61 
244 735 176 124 95 60 
245 734 176 125 95 60 
246 732 176 124 94 60 
246 733 176 125 95 60 
247 732 176 124 95 61 
248 720 178 115 88 53 
248 720 179 117 89 53 
248 721 178 118 91 58 
248 721 179 120 91 56 
249 720 178 114 87 53 
249 721 178 116 90 59 
248 722 178 120 92 60 
248 722 179 121 93 60 
248 723 178 119 92 59 
248 723 179 121 93 61 
249 722 178 117 91 60 
249 723 178 117 90 58 
250 720 177 113 87 55 
250 721 177 114 88 57 
251 720 177 113 87 56 
251 721 177 114 88 57 
250 720 178 113 86 54 
250 721 178 115 88 58 
251 722 177 114 88 56 
251 723 177 115 89 56 
250 722 178 116 89 58 
250 723 178 116 89 58 
251 722 178 115 89 57 
251 723 178 115 89 57 
248 725 177 119 91 57 
249 725 177 118 90 58 
248 724 178 120 91 58 
248 725 178 120 91 57 
249 724 178 118 90 58 
249 725 178 118 90 57 
248 726 177 120 91 58 
248 727 176 120 91 58 
248 727 177 121 92 59 
249 726 176 118 90 59 
249 726 177 119 91 58 
249 727 176 119 91 58 
250 724 177 116 89 56 
250 725 177 116 89 57 
251 724 177 115 89 55 
251 725 176 116 89 56 
251 725 177 116 89 55 
250 724 178 116 89 57 
250 726 176 117 90 58 
250 726 177 117 90 59 
250 727 176 118 90 58 
251 726 176 117 90 58 
252 720 177 112 86 55 
252 721 177 113 88 58 
253 720 177 111 86 56 
253 721 177 112 87 57 
252 722 177 114 88 57 
252 723 177 115 89 57 
253 722 177 113 88 57 
253 723 177 115 90 58 
254 720 177 111 86 56 
254 721 177 112 87 56 
255 720 177 110 86 56 
255 721 177 111 86 55 
254 722 177 113 88 57 
254 723 176 115 90 59 
254 723 177 114 89 58 
255 722 177 112 87 57 
255 723 176 114 88 57 
255 723 177 114 88 58 
252 724 177 115 89 56 
252 725 176 115 89 56 
252 725 177 115 89 56 
253 724 176 115 89 56 
253 724 177 115 88 56 
253 725 176 115 89 57 
252 726 176 116 89 57 
253 726 176 116 90 57 
254 724 176 115 89 57 
254 725 176 114 88 56 
255 724 176 114 88 56 
255 725 176 114 88 57 
248 728 176 120 91 58 
248 729 176 121 92 59 
249 728 176 120 91 57 
249 729 176 120 91 58 
248 730 176 122 93 60 
248 731 176 122 94 60 
237 737 183 137 100 70 
237 738 183 137 100 69 
237 739 182 137 99 69 
237 739 183 138 100 69 
239 736 181 133 98 67 
239 737 180 131 97 68 
239 737 181 134 99 69 
238 736 182 134 100 69 
238 736 183 136 100 69 
238 737 182 134 100 68 
238 737 183 136 100 69 
239 736 182 134 99 68 
238 738 181 134 99 68 
238 739 181 134 98 67 
239 738 180 131 97 66 
239 738 181 133 98 68 
239 739 180 131 97 65 
239 739 181 133 98 67 
238 738 182 135 100 69 
238 738 183 136 100 69 
238 739 182 136 100 69 
239 740 179 130 95 64 
239 741 179 131 95 65 
239 742 179 133 96 67 
239 743 178 133 97 65 
239 743 179 135 97 67 
237 740 182 139 100 70 
237 740 183 139 100 69 
237 741 182 139 100 71 
237 741 183 139 99 69 
237 742 181 139 100 71 
237 743 181 139 100 71 
236 743 183 141 98 72 
237 742 182 139 99 70 
237 742 183 139 98 69 
237 743 182 141 99 72 
237 743 183 141 98 70 
238 740 180 133 97 66 
238 740 181 135 99 68 
238 741 180 134 97 68 
238 741 181 137 99 70 
239 740 180 132 96 64 
239 741 180 132 96 66 
238 740 182 137 99 69 
238 742 180 135 98 69 
238 742 181 138 100 70 
238 743 180 137 98 69 
239 742 180 134 97 68 
235 737 188 140 100 68 
235 737 189 141 100 68 
235 737 190 141 99 67 
235 737 191 142 99 69 
235 738 188 141 100 68 
235 738 189 142 99 69 
235 739 188 143 100 69 
235 739 189 143 100 69 
235 738 190 142 99 68 
235 738 191 144 99 68 
235 739 190 144 100 68 
235 739 191 145 101 70 
235 743 187 147 102 72 
235 740 188 144 100 70 
235 740 189 145 101 70 
235 741 188 145 101 71 
235 741 189 146 101 71 
235 740 190 146 102 70 
235 740 191 147 102 71 
235 741 190 147 102 71 
235 741 191 148 102 71 
235 742 188 146 102 72 
235 742 189 147 102 71 
235 743 188 147 102 71 
235 743 189 148 102 71 
235 742 190 148 102 72 
235 742 191 150 103 74 
235 743 190 150 103 73 
235 743 191 152 104 75 
236 737 185 139 101 68 
237 736 184 137 100 68 
237 736 185 138 100 68 
237 737 184 138 101 68 
237 737 185 138 101 67 
236 736 186 138 101 68 
236 736 187 138 100 67 
236 737 186 139 101 68 
236 737 187 140 101 68 
237 736 186 137 100 68 
236 738 185 139 102 69 
236 739 184 139 100 68 
236 739 185 140 101 68 
237 738 184 138 101 68 
237 739 184 139 101 69 
236 738 186 140 101 68 
236 738 187 140 100 68 
236 739 186 141 100 68 
236 739 187 141 100 69 
238 736 184 135 100 68 
236 736 188 139 99 66 
236 736 189 140 99 67 
236 737 188 140 100 67 
236 736 190 139 99 67 
236 736 191 140 98 68 
236 738 188 140 100 68 
236 739 188 141 100 69 
236 740 184 140 100 69 
236 740 185 141 100 69 
236 741 184 140 99 68 
236 741 185 142 100 69 
237 740 184 139 100 69 
237 741 184 139 98 67 
236 740 186 142 100 69 
236 740 187 142 100 69 
236 741 186 142 100 69 
236 741 187 143 99 69 
236 742 184 141 100 70 
236 742 185 143 100 70 
236 743 184 142 100 71 
236 743 185 143 100 70 
236 742 186 143 99 69 
236 742 187 144 100 70 
236 743 186 144 100 70 
236 743 187 145 101 71 
236 740 188 143 100 69 
238 744 179 137 99 69 
238 745 179 139 101 69 
239 744 178 135 99 67 
239 744 179 136 98 68 
239 745 178 136 100 67 
239 745 179 138 101 68 
239 746 177 136 99 69 
239 747 177 137 98 68 
238 746 179 140 101 70 
238 747 178 140 100 72 
238 747 179 141 100 72 
239 746 178 137 100 69 
239 747 178 139 100 70 
237 744 181 141 101 72 
237 745 181 142 101 71 
236 744 183 143 100 73 
236 745 182 144 101 73 
236 745 183 145 102 73 
237 744 182 143 100 73 
237 745 182 144 101 73 
237 746 180 143 101 72 
237 746 181 144 101 73 
237 747 180 144 101 73 
237 747 181 146 101 73 
236 746 182 146 101 73 
236 746 183 147 103 72 
236 747 182 147 102 73 
236 747 183 149 103 73 
237 746 182 144 101 73 
238 744 180 139 100 71 
238 744 181 140 101 72 
238 745 180 141 102 71 
238 746 180 142 101 71 
237 749 179 146 102 75 
237 750 179 149 103 75 
237 751 179 150 104 75 
239 748 177 139 100 70 
239 749 177 140 100 70 
238 748 178 142 101 73 
238 748 179 143 101 73 
238 749 178 143 101 72 
238 749 179 145 101 74 
239 748 178 141 101 72 
238 751 177 145 103 72 
239 750 177 142 101 70 
239 751 176 141 101 71 
239 751 177 143 102 72 
238 750 178 145 102 73 
238 750 179 147 102 75 
238 751 178 147 103 75 
238 751 179 149 104 75 
236 748 181 148 101 74 
236 749 181 150 103 76 
237 748 180 146 102 75 
237 748 181 147 102 75 
237 749 180 147 103 75 
237 749 181 149 102 76 
236 748 182 149 103 74 
236 748 183 150 103 73 
236 749 182 151 103 75 
236 749 183 152 103 75 
236 750 181 151 104 75 
236 751 181 152 105 76 
237 750 180 149 103 75 
237 750 181 150 103 76 
237 751 180 150 104 75 
236 750 182 151 103 74 
236 750 183 153 104 76 
236 751 182 154 106 76 
236 751 183 154 106 77 
235 744 187 148 102 74 
235 745 186 148 102 74 
235 745 187 149 102 74 
235 747 185 151 104 75 
235 746 186 149 103 74 
235 746 187 150 102 74 
235 747 186 151 104 75 
235 747 187 153 104 75 
235 744 188 149 102 73 
235 744 189 150 103 72 
235 745 188 150 102 74 
235 745 189 151 104 72 
235 744 190 152 105 74 
235 744 191 154 105 75 
235 745 190 153 105 74 
235 745 191 155 106 75 
235 746 188 153 103 74 
235 746 189 154 105 74 
235 747 188 155 105 75 
235 747 189 156 106 74 
235 746 190 156 107 75 
235 746 191 157 108 76 
235 747 190 157 107 75 
235 747 191 159 109 77 
235 748 185 153 104 76 
235 749 185 153 103 75 
235 748 186 153 104 76 
235 748 187 155 106 76 
235 749 186 154 104 75 
235 749 187 157 107 76 
235 750 184 155 104 77 
235 750 185 155 104 77 
235 751 184 156 105 78 
235 751 185 156 104 78 
235 750 186 156 105 76 
235 750 187 158 108 76 
235 751 186 157 106 77 
235 751 187 160 108 78 
235 748 188 156 107 76 
235 748 189 158 107 75 
235 749 188 158 107 75 
235 749 189 158 106 75 
235 748 190 158 108 75 
235 748 191 160 109 77 
235 749 190 160 107 75 
235 749 191 161 109 78 
235 750 188 159 108 75 
235 750 189 159 106 75 
235 751 188 160 108 76 
235 751 189 160 107 75 
235 750 190 160 106 75 
235 750 191 162 108 78 
235 751 190 161 107 76 
235 751 191 163 109 79 
236 744 184 144 101 72 
236 744 185 145 102 72 
236 745 184 146 103 72 
236 745 185 147 102 73 
236 744 186 146 102 73 
236 745 186 148 102 74 
236 746 184 147 103 72 
236 746 185 149 103 73 
236 747 184 149 103 73 
236 747 185 151 104 74 
236 748 184 151 103 74 
236 748 185 152 104 75 
236 749 184 152 103 75 
236 749 185 153 103 75 
236 750 184 153 104 76 
236 751 184 155 105 77 
237 752 179 151 104 75 
237 753 179 152 106 75 
237 754 179 154 106 76 
237 755 178 154 106 78 
237 755 179 155 106 78 
238 752 177 148 104 74 
238 753 177 149 104 75 
239 752 176 143 101 72 
239 752 177 145 103 73 
239 753 176 144 102 73 
239 753 177 147 103 75 
238 752 178 149 104 75 
238 753 178 151 105 76 
238 754 177 150 104 75 
238 755 177 150 104 74 
239 754 176 146 103 74 
239 754 177 149 104 76 
239 755 176 148 103 73 
239 755 177 149 104 73 
238 754 178 153 106 77 
238 755 178 153 106 77 
236 752 181 153 105 76 
236 753 181 155 107 78 
237 752 180 152 105 76 
237 752 181 153 105 77 
237 753 180 153 106 75 
237 753 181 153 106 77 
236 752 182 155 107 77 
236 752 183 156 107 77 
236 753 182 157 108 79 
236 753 183 157 108 79 
236 754 180 156 107 77 
236 754 181 157 108 78 
236 755 180 157 106 78 
236 755 181 158 108 78 
237 754 180 155 107 78 
237 755 180 157 107 79 
236 754 182 158 109 78 
236 754 183 159 109 80 
236 755 182 159 109 78 
236 755 183 160 110 80 
235 752 184 157 106 79 
235 752 185 157 105 78 
235 753 185 158 106 79 
235 752 186 158 106 79 
235 752 187 161 108 79 
235 753 186 159 108 80 
235 753 187 161 110 80 
235 754 185 160 108 80 
235 755 184 160 109 80 
235 755 185 161 109 81 
235 754 186 161 109 81 
235 754 187 162 110 80 
235 755 186 162 110 82 
235 755 187 162 110 81 
235 752 188 161 109 78 
235 752 189 162 109 78 
235 753 188 162 109 79 
235 753 189 163 109 79 
235 752 190 163 109 78 
235 752 191 164 111 80 
235 753 190 164 111 81 
235 753 191 164 112 82 
235 754 188 163 110 80 
235 754 189 164 111 81 
235 755 188 163 111 81 
235 755 189 164 111 82 
235 754 190 164 111 82 
235 754 191 165 112 83 
235 755 190 164 111 83 
235 755 191 165 111 84 
236 752 184 157 107 79 
236 753 184 158 107 80 
236 754 184 159 108 80 
236 755 184 160 109 81 
243 739 175 123 94 62 
243 740 175 123 93 61 
243 741 175 123 93 61 
242 742 175 124 91 61 
242 743 175 125 92 62 
243 742 174 124 94 60 
243 742 175 123 92 61 
243 743 174 125 94 60 
243 743 175 125 93 62 
244 736 175 124 95 60 
244 737 175 123 94 60 
245 736 174 125 95 60 
245 736 175 125 95 60 
245 737 174 125 95 60 
245 737 175 124 94 60 
245 739 173 124 94 58 
244 738 175 123 94 60 
244 739 175 123 94 60 
245 738 174 124 94 59 
245 738 175 124 95 60 
245 739 174 124 94 59 
246 737 173 124 94 60 
247 736 173 123 94 59 
247 737 173 123 93 59 
246 736 174 124 95 60 
246 737 174 124 95 60 
247 736 174 123 94 59 
246 738 173 123 94 59 
246 739 173 123 93 58 
247 738 173 123 93 59 
247 739 173 123 93 58 
246 738 174 124 94 60 
247 743 171 124 95 60 
245 740 173 125 95 59 
245 741 173 125 95 60 
244 740 174 124 95 60 
244 740 175 124 94 61 
244 741 174 125 95 60 
245 740 174 125 95 59 
245 741 174 125 95 60 
244 742 173 125 96 60 
244 743 173 125 95 60 
245 742 172 127 97 63 
245 742 173 126 97 62 
245 743 172 126 97 62 
245 743 173 126 96 61 
244 742 174 125 95 60 
244 743 174 125 95 61 
246 740 173 125 95 61 
246 741 172 125 95 61 
246 741 173 125 95 61 
247 740 172 124 94 60 
247 740 173 124 94 60 
247 741 172 124 95 60 
246 742 172 126 96 62 
246 743 172 126 96 61 
247 742 172 125 95 60 
241 746 175 129 93 64 
241 747 175 131 94 66 
243 744 173 125 95 61 
243 745 173 126 96 62 
242 744 175 126 94 63 
242 745 174 127 94 63 
242 745 175 128 94 64 
243 744 174 126 94 62 
243 745 174 126 95 62 
243 746 173 127 95 62 
243 747 173 128 95 62 
242 746 174 128 94 62 
242 746 175 129 94 63 
242 747 174 129 94 62 
243 746 174 128 95 63 
240 749 175 136 99 69 
241 748 174 131 95 65 
241 748 175 133 96 67 
241 749 174 133 97 67 
241 749 175 134 98 68 
240 750 175 138 100 70 
240 751 175 138 100 69 
241 750 174 135 99 67 
241 750 175 137 100 69 
241 751 174 137 100 68 
242 748 173 131 95 63 
242 749 173 132 96 65 
243 748 173 130 95 63 
243 749 172 131 96 63 
243 749 173 131 95 64 
242 748 174 131 95 63 
242 749 174 132 96 64 
242 750 173 134 98 66 
242 751 173 134 98 66 
243 750 172 132 97 65 
243 750 173 133 98 67 
243 751 172 133 97 65 
243 751 173 134 97 66 
242 750 174 135 99 67 
242 751 174 136 99 67 
245 746 171 127 97 60 
245 747 171 129 98 62 
246 744 171 126 96 61 
246 745 171 126 96 59 
247 744 171 125 95 60 
247 745 171 126 96 60 
246 746 171 128 96 60 
246 747 171 129 97 61 
247 746 170 128 97 61 
247 746 171 127 96 61 
247 747 170 129 98 61 
244 744 172 126 96 61 
244 744 173 125 95 60 
244 745 172 126 96 61 
244 745 173 126 96 62 
245 744 172 126 96 61 
245 745 172 127 96 60 
244 746 172 127 97 63 
244 746 173 127 96 62 
244 747 172 128 96 61 
244 747 173 126 95 60 
245 746 172 128 97 61 
245 747 172 128 97 62 
246 744 172 126 96 61 
245 748 171 129 97 62 
245 749 171 130 98 64 
244 750 171 130 97 63 
244 751 171 131 97 63 
245 750 170 129 96 62 
245 750 171 130 96 62 
245 751 170 130 97 63 
245 751 171 130 97 62 
246 748 170 130 98 61 
246 748 171 130 98 61 
246 749 170 130 98 62 
246 749 171 130 98 63 
247 748 170 130 98 61 
247 749 170 130 98 61 
247 751 169 130 97 61 
246 750 170 129 96 61 
246 751 170 130 97 63 
247 750 170 129 97 60 
247 751 170 130 97 61 
244 748 172 129 96 62 
244 749 172 130 97 63 
245 748 172 129 97 62 
244 750 172 131 96 62 
244 751 172 131 97 62 
248 736 173 121 92 59 
248 737 173 121 93 59 
249 736 173 120 91 60 
249 737 173 120 92 60 
248 738 172 121 92 59 
248 738 173 122 92 59 
248 739 172 122 92 58 
248 739 173 122 92 58 
249 738 172 121 92 59 
249 738 173 121 92 59 
249 739 172 121 92 58 
250 736 173 119 91 59 
250 737 172 120 92 59 
250 737 173 119 92 60 
251 736 173 118 91 59 
251 737 172 119 92 60 
250 738 172 120 92 59 
250 739 172 120 92 58 
251 738 172 119 92 59 
251 739 172 120 92 59 
248 742 171 122 92 56 
248 743 171 124 93 58 
249 742 171 122 92 54 
249 743 171 123 93 57 
251 741 171 122 92 58 
250 742 171 122 92 55 
250 743 171 123 93 57 
251 742 171 122 92 58 
251 743 171 122 93 58 
248 740 172 123 93 58 
248 741 172 122 92 57 
249 740 172 122 92 57 
249 741 172 122 92 56 
248 742 172 123 93 56 
249 742 172 122 92 54 
250 740 172 122 92 58 
250 741 172 122 92 57 
251 740 172 121 92 59 
251 741 172 121 92 59 
255 739 171 120 92 59 
252 736 172 118 91 60 
252 736 173 118 91 59 
252 737 172 119 92 60 
253 736 172 118 91 61 
253 737 172 119 91 60 
252 738 172 119 92 60 
252 739 172 119 91 59 
253 738 172 119 91 59 
253 739 172 120 92 59 
254 736 172 118 91 60 
254 737 172 118 90 59 
255 736 172 117 90 59 
255 737 172 117 90 58 
254 738 172 119 91 58 
254 739 172 120 92 59 
255 738 172 118 91 59 
255 739 172 119 92 59 
252 741 171 121 92 59 
253 740 171 121 93 59 
253 741 171 121 93 60 
252 742 171 122 93 59 
252 743 170 123 93 59 
252 743 171 122 93 59 
253 742 171 122 94 60 
253 743 170 122 93 59 
253 743 171 122 93 60 
254 740 171 121 92 59 
254 741 171 122 93 60 
255 740 171 120 92 59 
255 741 171 122 93 61 
254 742 171 122 94 60 
254 743 170 123 94 60 
255 742 170 122 94 61 
255 742 171 122 94 61 
255 743 170 123 94 60 
252 740 172 120 92 59 
252 741 172 121 92 59 
253 740 172 120 92 59 
254 740 172 120 92 59 
248 744 171 125 94 59 
248 745 170 126 96 60 
248 745 171 125 95 60 
249 744 171 125 95 59 
249 745 170 124 95 60 
249 745 171 125 95 59 
248 746 170 127 97 61 
248 746 171 126 95 59 
248 747 170 128 97 61 
249 746 170 125 96 62 
249 747 170 127 97 61 
250 744 170 123 94 58 
250 744 171 124 95 59 
250 745 170 124 94 58 
251 744 170 123 94 59 
251 744 171 123 94 59 
251 745 170 123 94 59 
251 747 169 124 95 61 
250 746 170 124 95 60 
250 747 170 125 96 60 
251 746 170 123 94 60 
251 747 170 124 95 61 
249 749 169 128 97 61 
248 748 170 129 98 61 
248 749 170 129 98 60 
249 748 170 127 97 60 
249 749 170 128 97 61 
248 750 169 129 97 59 
248 751 169 129 97 60 
249 750 169 128 97 60 
249 751 169 129 97 61 
248 750 170 129 97 60 
249 750 170 128 97 61 
250 748 169 126 96 60 
250 749 169 127 96 61 
251 748 169 125 96 60 
251 749 169 126 96 60 
250 748 170 126 96 60 
250 750 169 127 96 60 
250 751 169 127 96 60 
251 750 169 126 96 59 
251 751 169 127 96 59 
252 744 170 123 94 59 
252 745 170 123 94 60 
253 744 170 123 94 61 
253 745 170 124 95 61 
252 747 169 124 95 61 
253 746 169 124 96 63 
253 747 169 124 95 63 
252 746 170 123 95 61 
253 746 170 124 95 63 
255 745 169 124 95 61 
254 744 170 124 95 61 
254 745 170 124 95 62 
255 744 170 123 95 61 
255 745 170 123 95 61 
254 746 169 124 95 62 
254 747 169 124 95 63 
255 746 169 124 95 62 
255 747 169 124 96 63 
252 748 169 124 95 61 
252 749 169 125 96 62 
253 748 169 125 95 63 
253 749 169 124 95 62 
252 750 169 125 95 60 
252 751 168 125 95 60 
252 751 169 126 95 59 
253 750 168 125 95 60 
253 750 169 124 95 60 
253 751 168 125 95 60 
254 748 169 124 96 63 
254 749 168 125 96 63 
254 749 169 124 95 62 
255 748 169 124 96 64 
255 749 168 125 97 64 
254 750 168 125 96 61 
254 751 168 125 96 61 
255 750 168 125 96 63 
255 751 168 125 96 63 
240 737 179 128 96 65 
241 736 178 125 94 63 
241 736 179 126 94 63 
241 737 178 125 94 63 
241 737 179 126 95 64 
241 739 177 125 94 62 
240 738 179 128 96 65 
240 739 178 127 95 63 
240 739 179 128 95 64 
241 738 178 126 95 63 
241 738 179 127 96 65 
241 739 178 126 95 62 
242 736 177 124 93 61 
242 737 177 124 94 62 
243 736 176 122 93 59 
243 736 177 123 93 59 
243 737 176 122 93 60 
243 737 177 123 93 60 
242 736 178 124 93 62 
242 737 178 124 94 63 
242 738 177 123 93 63 
242 739 176 124 94 65 
242 739 177 124 94 64 
243 738 176 123 93 61 
243 738 177 123 93 62 
243 739 176 123 94 63 
240 736 180 130 96 66 
240 737 180 130 97 67 
240 738 180 129 96 66 
240 739 180 130 97 66 
241 740 177 125 94 62 
241 741 177 126 93 64 
240 740 178 128 95 63 
240 740 179 129 95 63 
240 741 178 129 95 64 
240 741 179 130 95 64 
241 740 178 127 95 63 
240 742 177 129 94 65 
240 743 177 130 95 64 
241 742 176 126 91 63 
241 742 177 126 93 64 
241 743 176 127 92 64 
241 743 177 128 94 64 
240 742 178 130 94 64 
240 743 178 132 96 65 
242 740 176 124 93 64 
242 740 177 124 93 64 
242 741 176 123 91 62 
242 741 177 124 92 62 
243 740 176 124 93 64 
242 742 176 124 91 62 
242 743 176 125 91 63 
244 736 176 123 94 59 
244 737 176 123 93 60 
240 744 177 131 96 64 
240 745 177 132 98 65 
241 744 176 128 93 65 
241 745 176 128 94 63 
240 744 178 134 99 65 
240 746 176 131 96 64 
240 746 177 133 97 67 
240 747 176 133 98 68 
240 747 177 135 98 68 
241 746 176 129 94 63 
241 747 176 132 96 67 
242 744 176 127 93 63 
240 748 176 134 98 67 
240 748 177 136 99 69 
240 749 176 137 99 69 
240 750 176 139 100 70 
240 751 176 140 100 70 
243 753 171 135 98 66 
243 754 171 136 99 66 
243 755 171 137 100 68 
241 753 173 137 99 67 
240 752 175 141 101 71 
240 753 175 142 101 71 
241 752 174 139 100 69 
241 753 174 139 99 68 
241 754 173 138 99 66 
241 755 173 140 100 70 
240 754 175 142 100 70 
240 755 175 144 101 70 
241 754 174 140 99 68 
241 755 174 142 100 70 
242 752 173 136 99 67 
242 753 172 137 100 67 
242 753 173 137 99 67 
243 752 172 134 98 65 
243 753 172 135 99 66 
242 754 172 138 100 67 
242 754 173 137 99 67 
242 755 172 139 101 68 
242 755 173 139 101 68 
243 754 172 137 100 67 
243 755 172 139 101 68 
244 752 171 132 97 62 
244 753 171 134 98 65 
245 752 170 131 97 64 
245 752 171 131 97 64 
245 753 170 132 98 65 
245 754 169 133 99 63 
245 755 169 135 100 65 
244 754 170 134 97 64 
244 754 171 134 97 64 
244 755 170 136 99 67 
244 755 171 137 99 67 
245 754 170 134 98 64 
245 755 170 136 99 66 
246 752 169 131 97 63 
246 753 169 131 98 64 
247 752 169 130 97 61 
247 753 169 130 98 63 
246 752 170 130 97 63 
246 753 170 131 98 64 
246 754 169 132 99 63 
246 755 169 134 100 65 
247 754 168 131 99 63 
247 754 169 131 99 63 
247 755 168 132 99 63 
251 755 167 129 96 61 
252 754 167 126 95 59 
252 755 167 127 94 59 
253 754 167 126 95 58 
253 755 167 126 94 59 
254 753 167 126 96 60 
255 753 167 126 96 61 
254 754 167 125 95 59 
254 755 167 125 94 59 
255 754 167 125 95 61 
255 755 167 125 95 60 
248 752 169 129 97 61 
248 753 169 129 97 61 
249 752 169 129 97 60 
249 753 168 129 97 59 
249 753 169 129 97 59 
248 754 168 130 98 62 
248 754 169 130 97 62 
248 755 168 131 99 63 
249 754 168 130 98 61 
249 755 168 131 98 62 
250 752 169 128 97 60 
250 753 168 128 97 59 
250 753 169 129 97 59 
251 752 168 126 95 58 
251 752 169 127 96 59 
251 753 168 128 97 60 
250 754 168 129 97 60 
250 755 168 129 97 60 
251 754 168 129 97 60 
251 755 168 128 96 60 
252 752 168 126 95 59 
252 753 168 126 95 59 
253 752 168 126 95 60 
253 753 168 126 95 59 
252 754 168 127 95 60 
254 752 168 125 96 61 
254 753 168 126 96 60 
255 752 168 125 96 62 
255 753 168 125 96 62 
240 752 176 142 101 70 
240 753 176 143 101 72 
240 754 176 144 101 72 
240 755 176 146 102 72 
237 707 195 146 102 71 
239 704 193 142 101 69 
239 705 192 142 101 70 
239 705 193 143 101 70 
238 704 195 145 102 70 
238 705 194 145 102 70 
238 705 195 145 102 70 
239 704 194 144 102 70 
239 704 195 144 102 70 
239 705 194 144 101 69 
239 706 192 142 101 69 
239 706 193 144 101 70 
239 707 192 143 101 71 
239 707 193 145 103 72 
238 706 194 146 102 71 
238 706 195 146 103 71 
238 707 194 147 103 73 
238 707 195 147 104 72 
239 706 194 145 102 70 
237 704 196 143 100 67 
237 704 197 143 100 67 
237 705 196 144 100 68 
237 705 197 143 100 68 
236 704 199 141 99 65 
236 705 198 140 98 64 
236 705 199 141 99 65 
237 704 198 142 99 66 
237 705 198 141 98 64 
237 706 196 145 101 70 
237 706 197 144 101 69 
237 707 196 145 101 70 
237 707 197 143 100 68 
236 706 198 141 99 66 
236 706 199 140 99 66 
236 707 198 141 98 65 
236 707 199 139 97 65 
237 706 198 142 99 66 
237 707 198 142 99 67 
238 704 196 145 102 70 
238 705 196 144 100 68 
237 708 195 146 102 71 
237 709 195 145 100 69 
237 710 194 147 102 72 
237 710 195 145 101 71 
237 711 194 146 101 72 
237 711 195 144 100 70 
238 708 193 146 102 72 
238 709 193 146 101 71 
239 708 192 144 102 72 
239 708 193 145 102 72 
239 709 192 144 101 72 
238 708 194 147 102 71 
238 708 195 147 103 71 
238 709 194 147 101 71 
238 709 195 146 101 70 
238 710 192 146 102 74 
238 710 193 146 102 73 
238 711 193 147 102 73 
239 710 192 144 101 73 
239 711 192 145 101 73 
238 710 194 147 101 71 
238 711 194 147 101 72 
236 709 197 141 98 65 
237 708 196 145 101 69 
237 708 197 142 99 68 
237 709 196 144 100 68 
237 709 197 142 99 66 
236 708 198 141 98 67 
236 708 199 140 97 66 
236 709 198 141 98 66 
236 709 199 139 97 66 
236 710 197 140 98 65 
236 711 197 139 97 66 
237 710 196 143 99 68 
237 710 197 141 98 66 
237 711 196 141 98 67 
236 710 198 139 97 65 
236 710 199 138 96 66 
236 711 198 137 96 64 
236 711 199 138 96 66 
235 704 205 150 103 73 
235 705 205 151 103 74 
235 704 206 152 104 75 
235 704 207 155 105 75 
235 705 206 152 103 74 
235 705 207 155 105 75 
235 706 205 150 103 74 
235 707 205 150 102 74 
235 706 206 153 104 75 
235 706 207 155 106 76 
235 707 206 153 103 75 
235 707 207 156 105 77 
235 709 203 145 99 70 
235 710 203 147 100 73 
235 711 203 147 100 72 
235 708 204 147 99 71 
235 708 205 150 101 74 
235 709 204 147 99 70 
235 709 205 150 101 73 
235 708 206 154 103 76 
235 708 207 156 105 78 
235 709 206 154 103 76 
235 709 207 157 106 78 
235 710 204 148 101 73 
235 710 205 152 102 74 
235 711 204 150 103 75 
235 711 205 154 104 76 
235 710 206 155 104 77 
235 710 207 158 107 79 
235 711 206 157 106 78 
235 711 207 159 107 80 
236 704 200 140 99 64 
236 704 201 140 97 65 
236 705 200 140 99 66 
236 705 201 140 98 65 
236 704 202 142 98 67 
236 704 203 144 101 69 
236 705 202 142 99 67 
236 705 203 144 100 69 
236 706 200 140 99 66 
236 706 201 140 99 66 
236 707 200 139 98 66 
236 707 201 141 100 67 
236 706 202 143 99 68 
236 706 203 145 101 70 
236 707 202 143 101 68 
236 707 203 146 102 71 
236 704 204 146 101 69 
236 704 205 149 102 71 
236 705 204 146 102 70 
236 705 205 149 102 72 
236 706 204 147 102 72 
236 706 205 150 102 73 
236 707 204 147 102 72 
236 707 205 149 102 73 
236 708 200 139 97 66 
236 708 201 141 99 67 
236 709 200 139 96 65 
236 709 201 142 99 68 
236 708 202 144 101 69 
236 708 203 145 101 70 
236 709 202 143 100 70 
236 709 203 145 99 69 
236 710 200 139 96 66 
236 710 201 141 98 69 
236 711 200 140 97 68 
236 711 201 141 98 70 
236 710 202 145 100 72 
236 710 203 146 100 72 
