ply
format ascii 1.0
comment Created by CloudCompare v2.10.1 (Zephyrus)
comment Created 2/3/20 1:25 PM
obj_info Generated by CloudCompare!
element vertex 2122
property float x
property float y
property float z
property uchar red
property uchar green
property uchar blue
end_header
451 469 143 88 27 44 
451 470 140 41 36 29 
451 470 141 45 33 26 
451 471 140 35 31 37 
451 471 141 33 30 34 
451 470 142 54 31 32 
451 470 143 69 34 37 
451 471 142 35 29 33 
451 471 143 41 28 33 
452 464 136 168 17 48 
452 464 137 165 19 45 
452 465 136 168 19 45 
452 465 137 165 18 41 
452 464 138 159 25 47 
452 464 139 152 29 54 
452 465 138 162 18 43 
452 465 139 158 18 48 
452 466 136 155 18 49 
452 466 137 138 15 38 
452 466 138 133 15 34 
452 466 139 131 18 36 
452 467 139 84 18 33 
452 464 140 134 16 46 
452 464 141 108 19 34 
452 465 140 151 17 50 
452 465 141 140 19 52 
452 464 142 84 22 26 
452 464 143 80 17 28 
452 465 142 134 17 51 
452 465 143 133 15 50 
452 466 140 134 14 40 
452 466 141 138 15 40 
452 467 140 93 19 33 
452 467 141 101 18 33 
452 466 142 145 18 41 
452 466 143 148 19 47 
452 467 142 120 16 28 
452 467 143 133 18 35 
452 468 142 99 18 36 
452 468 143 114 16 39 
452 469 143 107 27 45 
448 472 133 37 33 45 
448 473 134 40 40 41 
449 472 134 40 30 39 
449 472 135 42 31 37 
449 473 134 42 37 42 
449 473 135 41 36 39 
448 474 135 38 36 42 
448 475 135 29 35 44 
449 474 135 43 33 40 
449 472 136 40 35 38 
449 473 136 40 34 36 
449 473 137 39 31 35 
448 475 136 30 30 42 
449 474 136 41 31 39 
449 474 137 36 32 34 
449 475 136 33 34 41 
449 475 137 37 31 31 
449 475 138 61 17 26 
450 472 136 38 37 37 
450 472 137 37 34 39 
450 473 136 40 37 37 
450 473 137 37 35 35 
450 472 138 36 32 40 
450 472 139 38 29 37 
450 473 138 33 37 39 
450 473 139 38 37 37 
450 474 137 34 34 41 
450 474 138 36 32 31 
450 474 139 52 23 29 
450 475 138 66 29 26 
450 475 139 95 36 34 
450 472 140 34 35 40 
450 473 140 40 31 34 
450 473 141 60 24 30 
451 472 140 32 33 39 
451 472 141 33 35 39 
451 473 141 40 41 43 
450 473 142 97 33 40 
450 473 143 114 46 55 
451 472 142 37 29 34 
451 472 143 47 26 34 
451 473 142 68 38 39 
451 473 143 82 35 39 
450 474 140 84 25 35 
450 474 141 117 38 55 
450 475 140 123 44 46 
450 475 141 135 34 54 
450 474 142 127 40 62 
450 474 143 118 39 54 
450 475 142 121 30 49 
450 475 143 99 29 36 
448 476 136 38 32 41 
448 476 137 48 30 28 
448 477 137 90 35 38 
449 476 137 59 30 33 
449 477 137 95 35 43 
448 477 138 139 16 41 
449 476 138 110 27 49 
449 476 139 137 38 61 
449 477 138 139 35 59 
449 477 139 153 25 51 
448 478 137 125 31 44 
448 478 138 144 27 45 
448 478 139 154 37 54 
448 479 138 143 38 56 
448 479 139 144 35 51 
449 478 139 155 31 53 
450 476 139 138 50 64 
449 476 140 148 26 52 
449 477 140 149 16 39 
449 477 141 133 20 37 
449 477 142 110 24 44 
448 479 140 130 28 45 
449 478 140 150 25 42 
449 478 141 132 39 53 
449 479 140 137 39 56 
449 479 141 96 21 38 
449 478 142 106 31 51 
449 478 143 86 29 39 
449 479 142 84 25 41 
449 479 143 87 31 45 
450 476 140 141 32 46 
450 476 141 131 23 36 
450 477 141 125 21 32 
450 476 142 103 21 31 
450 476 143 76 30 29 
450 477 142 103 23 37 
450 477 143 87 39 38 
449 464 147 131 24 44 
449 465 147 125 23 32 
451 464 145 124 29 52 
451 465 145 141 15 44 
450 464 146 131 18 43 
450 464 147 132 21 43 
450 465 146 137 18 41 
450 465 147 134 22 33 
451 464 146 130 23 50 
451 465 146 140 15 44 
451 466 145 144 16 45 
451 467 145 144 17 38 
450 466 147 137 18 39 
451 466 146 142 17 42 
451 466 147 140 17 44 
451 467 146 143 18 35 
451 467 147 142 16 43 
448 464 148 117 23 42 
448 465 148 108 19 34 
448 465 149 97 21 30 
449 464 148 128 28 44 
449 465 148 122 23 30 
448 466 149 99 37 41 
448 467 149 88 34 35 
449 466 148 121 30 38 
449 466 149 115 35 47 
449 467 148 118 36 46 
449 467 149 102 34 39 
448 467 150 68 30 25 
450 466 148 131 22 39 
450 467 148 128 30 47 
451 468 145 145 16 37 
451 468 146 144 16 38 
451 468 147 141 18 44 
451 469 146 140 21 52 
451 469 147 132 21 48 
451 470 144 83 31 34 
451 470 145 103 34 44 
451 471 144 44 28 28 
451 471 145 49 30 25 
451 470 146 104 22 40 
451 470 147 95 21 36 
451 471 146 47 29 28 
451 471 147 44 27 25 
449 468 149 81 25 22 
449 469 149 70 20 23 
448 468 150 48 28 23 
448 469 150 46 25 24 
448 469 151 54 26 29 
449 468 150 57 26 20 
449 469 150 55 20 23 
448 470 151 68 30 39 
448 471 151 67 24 29 
449 470 150 56 24 33 
449 470 151 67 35 44 
449 471 150 63 27 33 
449 471 151 71 29 37 
450 468 148 120 27 41 
450 468 149 88 19 22 
450 469 148 99 13 32 
450 469 149 75 17 23 
451 469 148 122 28 45 
450 470 148 71 18 30 
450 470 149 54 23 26 
450 471 148 36 29 25 
450 471 149 43 28 28 
451 470 148 80 24 31 
451 471 148 39 26 23 
450 470 150 50 21 25 
450 471 150 56 28 31 
452 464 144 104 26 38 
452 465 144 138 19 46 
452 466 144 148 16 50 
452 466 145 145 16 45 
452 467 144 143 16 41 
452 467 145 145 16 41 
452 468 144 139 19 43 
452 468 145 145 19 42 
452 469 144 132 31 51 
452 469 145 143 28 55 
452 469 146 143 17 47 
452 470 144 116 34 46 
452 470 145 130 35 52 
448 470 152 70 29 34 
448 471 152 65 28 27 
450 473 144 107 49 58 
451 472 144 57 29 40 
451 472 145 53 34 35 
451 473 144 90 38 49 
451 473 145 70 33 39 
451 472 146 43 32 32 
451 472 147 38 31 32 
451 473 146 56 29 34 
451 473 147 64 28 33 
450 474 144 88 32 44 
450 474 145 60 27 37 
450 475 144 65 23 26 
450 475 145 53 30 37 
450 474 146 51 33 35 
450 475 146 53 35 42 
451 474 146 55 34 32 
451 474 147 68 35 34 
451 475 147 62 29 35 
449 472 151 72 26 25 
449 473 151 83 31 35 
449 474 151 86 27 35 
449 475 151 79 22 27 
450 472 148 58 30 35 
450 472 149 68 30 35 
450 473 148 90 28 46 
450 473 149 101 29 51 
451 472 148 42 30 30 
451 473 148 74 35 38 
450 472 150 77 36 35 
450 473 150 98 29 41 
450 473 151 96 32 41 
450 474 148 100 27 43 
450 474 149 111 27 48 
450 475 148 93 29 40 
450 475 149 107 30 41 
451 474 148 84 40 41 
451 475 148 73 29 35 
450 474 150 111 32 46 
450 474 151 99 28 40 
450 475 150 101 21 27 
450 475 151 89 27 29 
449 478 144 86 32 43 
449 479 144 106 38 53 
449 479 145 109 39 49 
450 476 144 63 31 26 
450 476 145 57 36 35 
450 477 144 72 34 31 
450 477 145 67 39 36 
450 476 146 51 36 37 
450 476 147 56 29 35 
450 477 146 54 31 33 
450 477 147 55 25 35 
451 476 147 62 26 38 
450 478 144 85 33 42 
450 478 145 82 31 43 
450 479 145 96 37 47 
450 478 146 69 26 36 
450 478 147 64 29 36 
450 479 146 75 32 26 
450 479 147 67 37 26 
449 476 151 81 31 32 
449 477 151 94 24 46 
449 478 151 87 23 44 
449 479 150 108 33 40 
449 479 151 79 31 35 
450 476 148 80 18 39 
450 476 149 102 22 38 
450 477 148 76 21 39 
450 477 149 102 25 42 
451 476 148 68 25 40 
450 476 150 102 24 29 
450 476 151 89 30 31 
450 477 150 108 25 47 
450 477 151 96 27 41 
450 478 148 85 27 34 
450 478 149 104 24 35 
450 479 148 101 34 39 
450 479 149 117 31 43 
450 478 150 107 24 42 
450 478 151 94 23 41 
450 479 150 109 33 42 
448 472 152 63 34 30 
448 473 152 70 34 38 
448 473 153 56 22 32 
449 473 152 76 32 38 
448 474 153 52 21 24 
448 475 153 58 32 25 
449 474 152 70 23 27 
449 475 152 70 24 25 
449 475 153 60 24 22 
448 475 154 53 37 29 
449 476 152 80 29 30 
449 476 153 74 28 30 
449 477 152 97 32 50 
449 477 153 90 36 48 
448 476 154 66 34 32 
448 476 155 63 36 35 
448 477 154 71 33 36 
448 477 155 53 29 28 
449 477 154 77 33 41 
449 478 152 81 31 43 
449 478 153 75 33 42 
449 479 152 52 29 26 
449 479 153 46 26 25 
448 478 154 53 27 32 
448 478 155 39 29 29 
448 479 154 35 26 30 
448 479 155 24 29 34 
449 478 154 64 26 35 
449 479 154 42 26 28 
448 480 139 106 31 38 
448 480 140 77 23 33 
448 480 141 62 26 34 
448 481 140 47 36 26 
448 481 141 76 25 28 
449 480 141 65 31 40 
448 480 142 90 16 30 
448 481 142 125 31 50 
448 481 143 146 35 55 
449 480 142 83 30 37 
449 480 143 125 37 53 
449 481 143 149 30 52 
448 482 141 112 38 43 
448 482 142 141 42 55 
448 482 143 146 36 52 
448 483 142 137 33 48 
448 483 143 132 30 46 
448 484 143 107 14 43 
448 481 144 153 36 53 
449 480 144 137 33 51 
449 480 145 122 22 51 
449 481 144 150 36 56 
449 481 145 122 21 54 
449 480 146 79 27 30 
449 480 147 82 26 30 
449 481 146 82 25 32 
449 481 147 88 20 32 
448 482 144 135 19 45 
448 482 145 110 15 45 
448 483 144 112 25 42 
448 483 145 94 26 40 
449 482 144 133 24 55 
449 482 145 110 24 50 
448 483 146 102 26 35 
448 483 147 139 27 47 
449 482 146 87 22 35 
449 482 147 101 11 27 
449 483 147 128 18 37 
450 480 147 74 36 24 
449 480 148 117 20 44 
449 480 149 119 28 46 
449 481 148 121 19 44 
449 481 149 115 18 45 
449 480 150 100 32 41 
449 480 151 64 31 33 
449 481 150 84 22 32 
449 481 151 51 24 26 
448 483 148 140 37 55 
448 483 149 115 32 48 
449 482 148 129 28 46 
449 482 149 115 31 47 
449 483 148 139 29 49 
449 483 149 118 37 51 
448 483 150 95 33 38 
448 483 151 82 39 38 
449 482 150 89 31 33 
449 482 151 67 33 34 
449 483 150 99 35 39 
450 480 148 109 25 38 
448 484 144 85 24 47 
448 484 145 94 18 35 
448 485 144 84 16 34 
448 485 145 115 20 36 
448 484 146 131 31 48 
448 484 147 151 24 48 
448 485 146 157 22 53 
448 485 147 163 19 41 
448 486 147 170 19 48 
448 484 148 141 26 42 
448 484 149 113 25 36 
448 485 148 141 21 33 
448 485 149 110 31 40 
448 484 150 93 29 36 
448 484 151 84 37 37 
448 485 150 88 40 43 
448 485 151 75 38 38 
448 486 148 139 26 34 
448 486 149 105 28 35 
448 487 149 107 21 34 
448 486 150 79 31 37 
448 486 151 62 33 36 
448 487 150 73 30 31 
448 487 151 53 32 33 
449 480 152 43 29 29 
449 480 153 40 29 29 
449 481 152 46 26 32 
449 481 153 42 34 33 
448 480 154 37 27 34 
448 480 155 34 30 35 
448 481 154 49 28 36 
448 481 155 55 23 26 
449 480 154 38 29 33 
449 481 154 42 32 36 
448 482 152 63 34 44 
448 482 153 51 34 40 
448 483 152 75 40 49 
448 483 153 57 24 37 
449 482 152 61 32 42 
449 482 153 47 34 35 
448 482 154 57 29 36 
448 482 155 88 29 39 
448 483 154 68 24 33 
448 483 155 110 25 46 
448 480 156 47 28 29 
448 481 156 66 23 26 
448 482 156 113 40 52 
448 483 156 136 34 60 
448 484 152 71 30 42 
448 484 153 66 19 36 
448 485 152 59 23 33 
448 485 153 66 22 32 
448 484 154 82 26 35 
448 484 155 127 21 46 
448 485 154 91 29 37 
448 485 155 139 21 43 
448 486 152 45 27 29 
448 486 153 62 31 30 
448 487 152 40 35 30 
448 487 153 61 35 29 
448 486 154 94 27 34 
448 486 155 143 21 42 
448 487 154 97 34 36 
448 487 155 142 26 44 
448 484 156 150 20 50 
448 485 156 156 19 42 
448 486 156 156 18 41 
448 488 150 69 34 35 
448 488 151 49 32 33 
448 488 152 50 35 32 
448 488 153 72 39 38 
448 488 154 92 31 35 
448 488 155 127 27 39 
422 444 256 37 31 34 
422 445 256 32 31 34 
423 445 256 31 28 32 
423 445 257 31 28 34 
423 446 256 40 28 32 
423 446 257 39 27 31 
424 446 256 50 30 32 
424 446 257 50 28 31 
424 447 256 67 28 35 
424 447 257 73 32 38 
424 446 258 52 26 31 
424 447 258 75 25 32 
424 448 256 92 32 44 
424 448 257 99 48 54 
425 448 256 106 32 46 
425 448 257 106 36 49 
425 449 256 104 36 39 
425 449 257 99 29 38 
425 448 258 99 35 40 
425 448 259 95 32 37 
425 449 258 96 32 39 
425 449 259 97 33 37 
425 450 256 86 39 30 
426 449 258 92 30 39 
426 449 259 88 25 33 
426 450 256 75 36 27 
426 450 257 78 27 30 
426 451 256 54 32 28 
426 451 257 46 27 30 
426 450 258 72 26 35 
426 450 259 67 19 31 
426 451 258 40 27 34 
426 451 259 34 28 36 
426 449 260 85 23 30 
426 450 260 65 18 28 
426 451 260 35 25 36 
427 451 260 21 30 38 
426 452 256 31 29 35 
426 452 257 27 33 36 
426 453 256 42 27 28 
426 453 257 37 28 27 
427 453 257 40 29 28 
426 452 258 21 36 39 
426 452 259 20 36 43 
427 452 258 20 35 36 
427 452 259 18 35 42 
427 453 258 34 30 33 
427 453 259 30 32 38 
426 454 256 62 28 30 
426 455 256 83 28 35 
427 454 256 56 28 30 
427 454 257 48 25 25 
427 455 256 88 28 36 
427 455 257 70 26 30 
427 454 258 39 22 26 
427 454 259 34 27 31 
427 455 258 56 28 29 
427 455 259 42 28 32 
427 452 260 21 35 42 
427 453 260 31 34 37 
427 454 260 33 33 36 
428 454 259 31 31 31 
428 455 259 41 30 29 
428 453 261 33 33 29 
428 454 260 34 35 35 
428 454 261 36 35 34 
428 455 260 35 33 29 
428 455 261 39 32 33 
429 455 262 51 34 39 
427 456 256 114 33 40 
427 456 257 94 29 30 
427 457 256 129 27 40 
427 457 257 114 28 39 
427 456 258 75 32 29 
427 458 256 139 20 43 
427 458 257 131 17 41 
427 459 256 144 15 43 
427 459 257 144 16 45 
427 459 258 146 17 44 
427 460 256 144 16 45 
427 460 257 147 16 46 
427 461 256 144 18 43 
427 461 257 144 18 42 
427 460 258 146 15 41 
427 460 259 146 16 40 
427 461 258 145 17 41 
427 461 259 145 17 41 
426 462 256 144 16 43 
427 462 256 144 16 43 
427 462 257 144 17 41 
427 463 256 145 16 44 
427 463 257 146 16 45 
427 462 258 145 16 41 
427 462 259 146 15 41 
427 463 258 146 15 43 
428 456 258 78 29 31 
428 456 259 62 32 31 
428 457 258 102 31 40 
428 457 259 83 23 30 
428 458 258 124 19 37 
428 458 259 115 20 34 
428 459 258 142 18 44 
428 459 259 142 21 44 
428 456 260 45 27 26 
428 456 261 43 24 30 
428 457 260 69 18 25 
429 456 261 47 23 29 
429 457 260 62 21 25 
429 457 261 62 20 29 
429 456 262 56 32 34 
429 457 262 63 19 25 
428 458 260 109 22 36 
428 459 260 143 23 45 
429 458 260 104 27 37 
429 458 261 101 24 36 
429 459 260 135 34 51 
429 459 261 142 22 45 
429 458 262 100 21 38 
429 459 262 141 21 48 
430 459 263 143 24 51 
428 460 259 146 16 40 
428 461 259 146 17 41 
428 462 259 147 16 42 
428 463 259 148 15 43 
428 460 260 148 15 40 
428 460 261 149 15 37 
428 461 260 148 16 40 
428 461 261 148 17 37 
429 460 261 150 15 38 
429 461 261 149 16 38 
429 460 262 150 15 35 
429 461 262 149 16 40 
428 462 260 148 18 44 
428 462 261 148 18 45 
428 463 260 149 15 43 
428 463 261 150 15 42 
429 462 261 148 18 44 
429 463 261 149 16 39 
429 462 262 149 17 46 
429 463 262 149 18 38 
430 460 263 152 18 47 
430 461 263 151 17 45 
430 462 263 151 15 47 
430 463 263 152 17 46 
427 464 256 145 16 41 
427 464 257 147 15 44 
427 465 256 145 17 43 
427 464 258 147 15 43 
428 465 256 147 16 44 
428 465 257 147 15 43 
428 464 258 147 14 43 
428 464 259 149 15 44 
428 465 258 148 14 42 
428 465 259 149 16 43 
428 466 256 146 15 43 
428 466 257 148 15 42 
428 467 256 149 14 46 
428 467 257 150 13 47 
428 466 258 149 14 43 
428 466 259 150 15 44 
428 467 258 151 14 46 
429 466 259 151 15 43 
429 467 258 151 14 45 
429 467 259 152 14 44 
428 464 260 150 15 42 
428 465 260 151 16 42 
429 464 261 150 15 43 
429 465 260 151 15 45 
429 465 261 152 15 47 
429 464 262 151 15 44 
429 465 262 152 15 47 
429 466 260 151 15 44 
429 466 261 152 15 46 
429 467 260 153 15 43 
429 467 261 153 15 45 
429 466 262 153 16 48 
429 467 262 154 16 46 
430 464 263 151 16 44 
430 465 263 153 15 48 
430 466 263 153 15 43 
430 467 263 155 16 45 
428 468 256 151 14 48 
428 468 257 151 13 47 
428 469 256 151 12 45 
429 468 257 151 13 46 
429 469 256 151 12 43 
429 469 257 152 13 45 
429 468 258 152 14 46 
429 468 259 153 14 45 
429 469 258 153 13 48 
429 469 259 154 14 47 
428 470 256 151 12 42 
429 470 256 152 12 43 
429 470 257 153 13 45 
429 471 256 153 12 42 
429 471 257 154 13 45 
429 470 258 154 13 47 
429 470 259 155 14 47 
429 471 258 156 13 48 
429 471 259 157 14 49 
429 468 260 154 15 44 
429 468 261 155 16 47 
429 469 260 155 15 45 
429 469 261 156 15 46 
429 468 262 156 16 46 
429 470 260 156 14 47 
429 470 261 156 15 47 
429 471 260 157 14 47 
430 469 261 157 15 46 
430 468 262 155 16 47 
430 468 263 155 16 45 
430 469 262 157 16 47 
430 469 263 156 16 47 
430 470 260 157 14 48 
430 470 261 157 14 46 
430 471 260 158 14 47 
430 471 261 157 14 46 
430 470 262 157 15 46 
430 470 263 155 14 46 
430 471 262 157 14 45 
430 471 263 155 14 44 
431 469 264 153 15 46 
431 470 264 154 14 47 
431 471 264 155 14 43 
429 472 256 154 13 44 
429 472 257 156 13 47 
429 473 256 156 13 45 
429 473 257 158 13 48 
429 472 258 157 14 50 
429 472 259 159 14 50 
429 473 258 160 14 48 
429 473 259 160 15 47 
429 474 256 157 14 47 
429 474 257 159 14 48 
429 475 256 159 15 47 
429 475 257 161 14 49 
429 474 258 161 14 48 
429 474 259 162 14 49 
429 475 258 162 14 49 
429 475 259 162 13 49 
429 474 260 162 13 49 
429 475 260 162 12 50 
430 472 260 160 14 49 
430 472 261 159 14 48 
430 473 260 161 14 48 
430 473 261 160 13 47 
430 472 262 158 13 46 
430 472 263 156 13 46 
430 473 262 159 12 46 
430 473 263 157 13 46 
430 474 260 162 13 49 
430 474 261 161 12 48 
430 475 261 161 11 48 
430 474 262 160 12 47 
430 474 263 158 12 48 
430 475 262 161 11 48 
430 475 263 159 12 49 
429 476 256 160 15 49 
429 476 257 162 13 50 
429 477 256 162 12 50 
429 477 257 163 11 50 
429 476 258 163 12 52 
429 476 259 163 11 52 
429 477 258 164 11 50 
429 477 259 164 10 51 
429 478 256 163 11 47 
429 478 257 165 10 48 
429 479 256 165 11 50 
429 479 257 166 10 48 
429 478 258 166 10 48 
429 478 259 166 10 52 
429 479 258 167 10 49 
429 479 259 167 11 51 
430 476 256 159 15 49 
430 477 256 161 14 50 
429 476 260 163 11 52 
429 476 261 162 11 50 
429 477 260 163 10 51 
429 477 261 163 10 51 
429 478 260 166 12 52 
429 478 261 166 13 50 
429 479 260 167 12 51 
429 479 261 166 13 49 
430 476 261 162 10 49 
430 477 261 163 11 50 
430 476 262 161 11 47 
430 476 263 159 12 48 
430 477 262 162 11 48 
430 477 263 160 11 49 
430 478 261 165 12 52 
430 479 261 165 11 52 
430 478 262 163 11 50 
430 478 263 162 11 50 
430 479 262 164 10 53 
430 479 263 162 10 52 
431 472 264 155 14 42 
429 480 256 166 11 50 
429 480 257 167 10 50 
429 481 256 168 12 53 
429 481 257 169 10 53 
429 480 258 168 10 51 
429 480 259 168 10 53 
429 481 258 169 9 53 
429 481 259 168 8 53 
429 482 256 169 12 52 
429 482 257 170 11 52 
429 483 256 170 12 51 
429 483 257 170 10 51 
429 482 258 170 9 53 
429 482 259 169 7 54 
429 483 258 170 9 52 
429 483 259 169 7 53 
429 480 260 167 9 53 
429 480 261 166 8 54 
429 481 260 167 7 54 
429 481 261 166 7 54 
429 482 260 167 7 53 
429 482 261 166 7 54 
429 483 260 168 6 54 
429 483 261 166 6 55 
429 483 262 165 7 54 
430 480 261 166 9 52 
430 481 261 166 7 54 
430 480 262 165 10 52 
430 480 263 163 10 52 
430 481 262 165 8 53 
430 481 263 162 9 51 
430 482 261 166 7 55 
430 482 262 165 7 55 
430 482 263 163 8 53 
430 483 262 164 8 52 
430 483 263 163 8 51 
429 484 256 171 12 53 
429 484 257 172 10 53 
429 485 256 173 12 53 
429 485 257 173 10 53 
429 484 258 171 8 51 
429 484 259 169 7 52 
429 485 258 172 9 51 
429 485 259 170 7 52 
429 486 256 173 13 52 
429 486 257 174 11 52 
429 487 256 174 15 53 
429 487 257 174 12 54 
429 486 258 173 10 53 
429 486 259 170 7 52 
429 487 258 174 11 53 
429 487 259 171 8 53 
429 484 260 168 6 54 
429 484 261 167 6 58 
429 485 260 168 6 54 
429 485 261 166 5 57 
429 484 262 165 8 54 
429 485 262 164 8 51 
429 486 260 167 6 52 
429 486 261 165 5 56 
429 487 260 167 6 51 
429 487 261 165 5 56 
429 486 262 164 5 52 
429 487 262 164 5 52 
430 484 263 164 9 49 
428 488 256 173 15 58 
428 488 257 175 14 57 
428 489 256 168 17 56 
428 489 257 174 14 53 
429 488 256 174 17 58 
429 488 257 175 13 58 
428 488 258 173 11 54 
428 488 259 170 9 52 
428 489 258 173 12 52 
428 489 259 169 9 51 
429 488 258 174 11 55 
429 488 259 171 9 53 
428 490 256 164 15 50 
428 490 257 173 15 50 
428 491 256 166 18 47 
428 491 257 174 17 53 
428 490 258 172 12 50 
428 490 259 169 9 51 
428 491 258 172 12 51 
428 491 259 170 9 52 
428 488 260 167 7 51 
428 488 261 165 5 54 
428 489 260 167 7 50 
428 489 261 166 6 52 
429 488 260 167 7 52 
429 488 261 165 5 56 
429 488 262 164 4 53 
428 490 260 167 7 53 
428 490 261 166 6 55 
428 491 260 168 8 54 
428 491 261 166 5 53 
428 492 256 172 17 54 
428 492 257 175 14 56 
428 493 256 176 15 56 
428 493 257 175 13 56 
428 492 258 173 12 54 
428 492 259 170 9 53 
428 493 258 174 11 54 
428 493 259 170 8 54 
428 494 256 177 14 57 
428 494 257 177 12 56 
428 495 256 178 12 55 
428 495 257 177 10 54 
429 495 256 178 13 55 
428 494 258 174 10 54 
428 494 259 171 7 53 
428 495 258 176 9 54 
428 495 259 172 7 51 
428 492 260 168 6 53 
428 492 261 166 4 49 
428 493 260 169 5 54 
428 493 261 168 3 51 
428 494 260 170 5 53 
428 494 261 168 4 49 
428 495 260 169 5 50 
428 495 261 169 4 49 
427 502 257 181 15 53 
427 503 256 180 15 53 
427 503 257 181 15 54 
427 502 258 180 13 53 
427 502 259 177 11 54 
427 503 258 181 14 54 
427 503 259 178 12 53 
427 502 260 175 10 54 
427 503 260 177 10 54 
428 496 256 178 11 53 
428 496 257 178 10 54 
428 497 256 178 11 53 
428 497 257 178 10 54 
429 496 256 178 12 51 
429 497 256 177 13 50 
428 496 258 177 9 52 
428 496 259 172 7 50 
428 497 258 177 9 54 
428 497 259 173 6 53 
428 498 256 178 11 55 
428 498 257 178 10 57 
428 499 256 178 11 56 
428 499 257 177 10 54 
428 498 258 177 8 57 
428 498 259 174 6 56 
428 499 258 176 8 56 
428 499 259 174 7 58 
428 496 260 169 6 48 
428 496 261 169 4 49 
428 497 260 171 5 52 
428 497 261 170 5 49 
428 498 260 171 6 54 
428 498 261 170 5 50 
428 499 260 173 6 57 
428 499 261 172 6 55 
428 500 256 179 12 56 
428 500 257 178 11 55 
428 501 256 180 13 56 
428 501 257 179 12 55 
428 500 258 176 10 54 
428 500 259 175 8 55 
428 501 258 177 11 54 
428 501 259 175 9 53 
428 502 256 180 14 55 
428 502 257 180 13 54 
428 502 258 179 12 55 
428 502 259 177 10 55 
428 500 260 173 7 55 
428 500 261 173 7 56 
428 501 260 174 8 54 
428 501 261 175 8 55 
427 504 256 181 15 54 
427 504 257 181 14 55 
427 505 256 181 15 55 
427 505 257 181 13 55 
426 505 259 180 10 56 
427 504 258 181 13 55 
427 504 259 180 12 54 
427 505 258 181 12 57 
427 505 259 180 12 56 
426 506 256 181 13 55 
426 506 257 181 11 56 
426 507 256 180 12 55 
426 507 257 180 9 57 
427 506 256 181 14 56 
427 506 257 181 13 56 
427 507 256 180 14 54 
426 506 258 181 10 57 
426 506 259 180 9 55 
426 507 258 181 8 57 
426 507 259 181 7 56 
427 506 258 181 12 56 
426 505 260 179 10 55 
427 504 260 178 11 54 
427 505 260 179 11 53 
426 506 260 179 9 55 
426 507 260 181 7 55 
425 509 256 179 10 56 
425 509 257 180 9 58 
425 508 259 181 7 54 
425 509 258 182 7 58 
425 509 259 182 7 58 
425 510 256 178 11 56 
425 510 257 180 9 58 
425 511 256 178 10 56 
425 511 257 179 9 58 
425 510 258 181 7 59 
425 510 259 183 6 58 
425 511 258 181 8 57 
425 511 259 183 6 58 
426 508 256 180 12 57 
426 508 257 181 9 56 
426 509 256 179 11 58 
426 509 257 181 9 57 
426 508 258 182 7 58 
426 508 259 181 7 56 
426 509 258 182 7 57 
429 512 191 41 28 29 
429 513 191 37 33 28 
431 512 188 125 32 50 
431 512 189 104 36 47 
431 513 189 100 26 32 
430 512 190 69 29 32 
430 512 191 47 23 24 
430 513 190 58 24 23 
430 513 191 40 29 27 
431 513 190 71 23 25 
431 514 189 90 20 27 
430 514 191 33 26 32 
430 515 191 27 31 34 
431 514 190 63 16 26 
431 514 191 41 22 29 
431 515 190 65 23 32 
431 515 191 39 23 29 
430 516 191 56 25 30 
430 517 191 108 19 46 
431 516 190 75 20 28 
431 516 191 59 21 30 
431 517 190 110 14 41 
431 517 191 122 18 50 
431 518 191 144 17 47 
431 519 191 144 15 45 
431 520 191 144 14 41 
431 521 191 146 13 36 
431 522 191 146 14 40 
431 538 191 36 30 35 
431 539 191 41 31 34 
439 515 169 176 18 50 
439 515 170 174 18 49 
439 515 171 171 18 49 
439 512 175 159 15 47 
439 513 174 165 16 50 
439 513 175 161 15 46 
439 514 172 171 18 45 
439 514 173 168 17 51 
439 515 172 170 18 50 
439 515 173 168 17 49 
439 514 174 166 17 52 
439 514 175 164 17 49 
439 515 174 167 17 51 
439 515 175 167 18 52 
438 517 171 59 22 31 
439 516 170 141 17 42 
439 516 171 143 19 45 
439 517 171 78 23 31 
438 517 172 63 26 31 
438 517 173 81 26 32 
439 516 172 144 18 45 
439 516 173 150 19 46 
439 517 172 95 23 29 
439 517 173 105 21 32 
438 517 174 103 14 33 
438 517 175 125 10 33 
439 516 174 155 16 49 
439 516 175 158 16 51 
439 517 174 123 19 36 
439 517 175 134 16 39 
438 518 172 47 26 32 
438 518 173 68 28 34 
438 519 173 74 37 43 
438 518 174 94 19 35 
438 518 175 117 18 37 
438 519 174 108 38 51 
438 519 175 133 47 61 
437 520 174 65 28 26 
437 520 175 90 34 35 
437 521 175 63 29 34 
438 520 174 91 44 40 
438 520 175 121 49 50 
440 512 167 178 18 42 
440 513 167 179 19 47 
441 512 166 180 18 48 
440 512 168 175 18 49 
440 512 169 170 17 45 
440 513 168 176 18 52 
440 513 169 173 18 49 
440 512 170 167 17 42 
440 512 171 166 17 42 
440 513 170 171 18 47 
440 513 171 170 17 47 
440 514 168 178 18 47 
440 514 169 175 18 49 
440 514 170 173 18 46 
440 514 171 172 18 43 
440 512 172 165 17 44 
440 512 173 163 15 41 
440 513 172 169 17 48 
440 513 173 167 17 49 
440 512 174 161 15 46 
440 513 174 163 16 48 
440 514 172 170 18 45 
440 514 173 169 18 50 
435 512 183 145 16 43 
435 513 183 147 16 44 
437 512 179 150 15 43 
438 512 177 154 15 50 
439 512 176 156 15 48 
439 512 177 154 15 49 
439 513 176 159 15 44 
439 513 177 158 16 44 
438 512 178 153 15 47 
438 512 179 152 15 46 
438 513 178 155 16 45 
438 513 179 155 16 47 
439 513 178 157 16 43 
439 514 176 163 16 45 
439 514 177 161 16 41 
439 515 176 165 19 48 
439 515 177 163 17 44 
438 514 178 158 17 46 
438 514 179 158 17 45 
438 515 178 162 18 45 
438 515 179 162 17 43 
439 514 178 160 17 43 
439 515 178 162 17 43 
436 512 181 147 14 38 
436 513 181 147 16 41 
437 512 180 150 15 46 
437 512 181 149 14 40 
437 513 180 153 17 49 
437 513 181 151 16 47 
436 512 182 145 16 38 
436 513 182 148 15 43 
436 513 183 148 15 41 
437 514 180 156 18 49 
437 514 181 153 18 51 
437 515 180 158 18 48 
437 515 181 151 19 52 
436 514 182 149 16 53 
436 514 183 145 15 47 
436 515 182 146 18 54 
436 515 183 135 14 45 
437 514 182 152 17 53 
437 515 182 143 18 53 
438 513 180 153 17 49 
438 514 180 154 17 43 
438 515 180 158 18 42 
437 519 179 160 21 51 
438 516 176 154 19 48 
438 516 177 156 17 46 
438 517 176 135 13 36 
438 517 177 141 14 39 
439 516 176 160 19 51 
439 516 177 162 18 46 
438 516 178 158 20 48 
438 516 179 156 19 48 
438 517 178 135 14 35 
438 517 179 128 14 32 
438 518 176 136 26 39 
438 518 177 143 28 40 
438 519 176 149 31 57 
438 519 177 157 24 53 
438 518 178 135 17 37 
438 518 179 131 12 42 
438 519 178 158 20 47 
438 519 179 154 21 52 
437 516 181 142 20 45 
437 517 180 114 13 24 
437 517 181 112 9 25 
436 516 183 113 11 30 
436 517 183 125 14 42 
437 516 182 124 18 40 
437 517 182 115 14 32 
437 518 180 134 18 44 
437 518 181 139 23 46 
437 519 180 160 20 48 
437 519 181 161 20 46 
436 518 183 150 16 46 
436 519 183 158 17 37 
437 518 182 147 20 49 
437 519 182 160 17 41 
438 516 180 150 22 50 
438 517 180 120 14 29 
438 518 180 124 12 34 
432 512 187 135 25 49 
432 513 187 141 22 44 
433 512 186 140 20 45 
433 512 187 137 27 49 
433 513 186 145 16 44 
433 513 187 141 21 43 
433 514 187 142 20 43 
433 515 187 142 20 47 
434 512 184 143 17 49 
434 512 185 141 16 46 
434 513 184 145 17 46 
434 513 185 145 16 43 
435 512 184 144 17 49 
435 513 184 146 17 46 
434 513 186 143 17 41 
434 514 185 144 15 45 
434 515 185 141 15 43 
435 514 184 143 15 43 
435 514 185 143 15 47 
435 515 184 135 13 38 
435 515 185 141 14 44 
434 514 186 141 19 43 
434 515 186 144 15 44 
434 515 187 143 19 44 
432 512 188 129 33 53 
432 513 188 126 21 39 
432 513 189 107 20 32 
432 514 188 128 20 41 
432 514 189 104 23 35 
432 515 188 123 19 43 
432 515 189 102 27 38 
433 515 188 131 24 47 
433 516 187 142 16 45 
433 517 187 143 14 38 
433 518 187 144 14 41 
433 519 187 147 15 47 
434 516 185 141 15 43 
435 516 184 127 11 38 
435 516 185 142 14 46 
435 517 184 142 14 50 
435 517 185 149 15 45 
434 516 186 145 15 47 
434 516 187 146 15 48 
434 517 186 148 15 45 
434 517 187 148 14 44 
435 518 184 154 17 41 
435 518 185 151 17 45 
435 519 184 154 17 43 
435 519 185 151 16 44 
434 518 186 150 15 43 
434 518 187 148 15 42 
434 519 186 151 15 42 
434 519 187 147 14 44 
435 519 186 151 16 43 
432 516 188 124 23 46 
432 516 189 106 15 34 
432 517 189 127 12 43 
433 516 188 130 15 41 
433 517 188 137 12 38 
432 516 190 86 18 28 
432 517 190 124 17 47 
432 518 189 142 15 45 
432 519 189 144 14 40 
433 518 188 144 14 43 
433 518 189 145 15 47 
433 519 188 146 14 47 
433 519 189 145 14 46 
432 518 190 143 17 46 
432 519 190 145 14 42 
436 515 184 133 13 37 
436 516 184 116 8 31 
436 517 184 141 17 52 
436 518 184 153 16 40 
436 519 184 155 15 36 
435 525 182 65 24 34 
435 525 183 72 21 30 
435 526 180 32 25 26 
435 526 181 28 32 31 
435 527 180 27 33 34 
435 527 181 32 26 32 
435 526 182 25 30 35 
435 526 183 26 27 31 
435 527 182 34 24 34 
435 527 183 36 24 29 
437 520 176 116 22 43 
437 520 177 140 22 52 
437 521 176 84 28 35 
437 521 177 113 27 41 
437 520 178 154 22 48 
437 520 179 160 20 41 
437 521 178 136 19 41 
437 521 179 156 17 42 
436 523 177 172 33 65 
437 522 176 80 17 26 
437 522 177 119 11 34 
437 523 176 124 18 40 
437 523 177 154 25 57 
436 523 178 174 19 60 
436 523 179 173 18 54 
437 522 178 146 14 48 
437 522 179 163 17 54 
437 523 178 167 19 65 
438 520 176 140 23 51 
438 520 177 150 24 56 
437 520 180 161 19 42 
437 520 181 161 18 47 
437 521 180 163 19 47 
437 521 181 164 18 52 
436 520 182 159 16 46 
436 520 183 156 17 46 
436 521 182 163 17 50 
436 521 183 160 17 51 
437 520 182 161 16 47 
436 522 180 165 17 44 
436 522 181 164 17 45 
436 523 180 168 18 40 
436 523 181 166 18 39 
437 522 180 166 18 50 
437 522 181 165 17 49 
436 522 182 163 17 43 
436 522 183 160 18 43 
436 523 182 165 19 42 
436 523 183 163 18 42 
436 524 178 172 19 46 
436 524 179 168 21 47 
436 525 178 145 27 53 
436 525 179 124 15 44 
436 526 179 78 16 33 
436 524 180 160 20 45 
436 524 181 154 18 46 
436 525 180 104 12 33 
436 525 181 93 17 31 
436 524 182 153 21 52 
436 524 183 153 19 52 
436 525 182 107 18 41 
436 525 183 116 13 41 
436 526 180 61 19 26 
435 520 184 152 16 45 
435 520 185 153 15 44 
435 521 184 154 17 48 
435 521 185 154 17 46 
434 520 186 151 15 46 
434 520 187 150 15 46 
434 521 187 150 15 48 
435 520 186 152 15 46 
435 521 186 153 16 49 
435 522 185 156 17 44 
435 523 184 159 18 48 
435 523 185 157 19 49 
434 522 187 150 14 42 
434 523 187 151 17 41 
435 522 186 155 17 46 
435 522 187 151 16 42 
435 523 186 155 20 49 
435 523 187 153 19 44 
432 520 189 145 14 44 
433 520 188 148 14 44 
433 520 189 146 15 44 
433 521 188 150 15 39 
433 521 189 148 15 42 
432 520 190 145 14 45 
432 521 190 148 14 42 
432 521 191 147 14 35 
433 522 188 150 16 39 
433 522 189 148 14 42 
433 523 189 147 13 43 
432 522 190 147 14 43 
432 522 191 146 14 40 
432 523 190 147 13 45 
432 523 191 146 13 43 
433 523 190 147 13 46 
434 520 188 150 14 47 
434 521 188 150 15 45 
434 522 188 149 15 43 
434 523 188 150 15 39 
434 523 189 148 14 38 
435 524 184 137 16 48 
435 524 185 137 15 48 
435 525 184 72 21 24 
435 525 185 75 14 25 
434 524 187 142 15 36 
434 525 187 127 15 38 
435 524 186 137 17 43 
435 524 187 135 17 37 
435 525 186 105 15 33 
435 525 187 120 15 37 
435 526 184 34 27 26 
435 526 185 66 19 30 
435 527 184 70 20 31 
435 527 185 111 22 46 
434 526 187 144 26 49 
434 527 187 157 27 48 
435 526 186 111 15 42 
435 526 187 135 20 46 
435 527 186 139 23 51 
435 527 187 153 29 51 
433 524 189 147 14 43 
433 525 189 150 15 44 
432 524 190 148 13 47 
432 524 191 146 12 48 
432 525 191 147 13 44 
433 524 190 148 13 45 
433 525 190 147 14 43 
433 526 189 152 16 43 
433 527 189 156 16 44 
432 526 191 149 13 45 
432 527 191 151 14 46 
433 526 190 150 14 45 
433 527 190 154 15 47 
434 524 188 145 15 39 
434 524 189 147 14 43 
434 525 188 143 16 45 
434 525 189 151 15 42 
434 526 188 154 23 49 
434 526 189 154 16 42 
434 527 188 161 17 46 
434 527 189 157 17 48 
436 520 184 156 16 48 
436 521 184 158 16 52 
436 522 184 159 17 44 
436 523 184 161 17 43 
436 524 184 158 18 54 
435 528 181 91 24 38 
434 529 182 162 31 52 
435 528 182 99 25 36 
435 528 183 113 28 43 
435 529 182 158 34 53 
435 529 183 169 25 52 
434 530 183 175 22 38 
435 530 183 175 21 43 
435 528 184 139 26 49 
435 528 185 157 26 52 
435 529 184 171 19 47 
435 529 185 167 18 45 
434 528 186 165 17 44 
434 528 187 164 17 47 
434 529 186 165 17 41 
434 529 187 166 17 45 
435 528 186 160 20 50 
435 529 186 166 17 41 
434 530 185 167 18 49 
434 531 184 156 16 45 
434 531 185 155 16 48 
435 530 184 172 18 45 
435 530 185 168 18 49 
434 530 186 166 17 45 
434 530 187 165 17 45 
434 531 186 154 15 46 
434 531 187 157 17 46 
433 528 189 160 16 46 
433 529 189 162 16 49 
432 528 191 155 15 46 
433 528 190 157 15 44 
433 528 191 156 15 46 
433 529 190 158 16 46 
433 529 191 158 16 45 
433 530 189 162 17 47 
433 531 188 161 17 45 
433 531 189 163 19 51 
433 530 190 161 16 49 
433 530 191 160 16 47 
433 531 190 163 18 50 
433 531 191 163 17 48 
434 528 188 162 17 52 
434 528 189 159 17 49 
434 529 188 163 17 48 
434 530 188 163 17 45 
434 531 188 162 17 42 
433 532 187 138 20 42 
433 533 186 97 27 40 
433 533 187 124 29 48 
432 534 187 77 27 44 
433 534 187 90 23 41 
434 532 185 104 20 36 
434 533 185 79 32 40 
434 532 186 118 19 35 
434 532 187 131 20 34 
433 532 188 155 23 50 
433 532 189 161 25 52 
433 533 188 139 24 45 
433 533 189 146 24 44 
432 532 191 163 21 50 
432 533 190 146 29 49 
432 533 191 151 18 45 
433 532 190 163 20 49 
433 532 191 164 18 47 
433 533 190 156 28 50 
432 534 188 86 22 38 
432 534 189 112 24 36 
432 535 188 50 26 30 
432 535 189 62 25 33 
433 534 188 116 21 36 
432 534 190 112 21 38 
432 534 191 118 18 38 
432 535 190 68 25 35 
432 535 191 70 30 37 
432 536 189 38 28 32 
432 537 189 34 31 29 
432 536 190 35 26 34 
432 536 191 35 27 34 
432 537 190 31 30 30 
432 537 191 30 30 31 
432 538 190 33 28 33 
432 538 191 32 28 33 
404 512 207 129 10 37 
405 512 206 128 8 41 
405 512 207 129 9 39 
405 513 206 127 7 40 
405 513 207 128 8 40 
405 514 207 128 7 40 
406 512 205 128 7 40 
406 513 205 127 7 38 
407 512 204 128 6 42 
407 512 205 128 6 40 
407 513 205 127 6 38 
406 513 206 127 7 39 
406 513 207 128 7 40 
407 514 205 128 6 40 
406 514 206 127 7 38 
406 514 207 128 7 40 
406 515 207 127 7 38 
407 514 206 127 6 38 
407 515 206 127 6 39 
406 516 207 126 6 36 
407 516 206 127 7 39 
407 516 207 127 8 38 
407 517 207 128 9 39 
407 518 207 130 10 40 
410 512 203 128 5 39 
411 512 203 128 7 38 
411 513 203 128 5 41 
408 512 204 128 6 44 
408 513 204 128 5 41 
408 513 205 128 6 41 
409 512 204 128 5 41 
409 513 204 128 5 41 
408 514 204 128 5 42 
408 514 205 128 5 41 
408 515 205 127 5 40 
409 514 204 129 5 43 
409 514 205 129 5 42 
409 515 205 128 5 41 
408 515 206 127 6 39 
410 512 204 128 5 40 
410 513 204 128 5 42 
411 513 204 128 5 42 
410 514 204 129 5 44 
410 515 204 129 5 43 
410 515 205 128 6 42 
411 514 204 129 5 45 
411 515 204 128 5 44 
408 516 205 127 6 39 
409 516 205 127 6 39 
409 517 205 127 7 38 
408 516 206 127 6 38 
408 517 206 127 6 39 
408 517 207 128 9 38 
409 517 206 127 8 38 
408 518 207 129 10 40 
408 519 207 129 12 41 
409 518 206 128 8 38 
409 518 207 128 9 40 
409 519 207 128 9 40 
410 516 205 128 6 40 
410 517 205 127 8 38 
411 516 204 128 6 42 
411 516 205 128 8 41 
411 517 205 127 12 41 
410 518 205 126 8 38 
411 518 205 127 9 41 
410 518 206 127 9 39 
410 519 207 128 10 40 
411 518 206 127 9 39 
411 519 206 127 9 41 
411 519 207 128 9 42 
412 512 202 129 7 40 
412 512 203 128 7 38 
412 513 203 128 5 40 
413 512 202 127 6 38 
413 513 202 127 5 43 
413 513 203 127 5 42 
412 514 203 128 6 42 
413 514 203 128 6 44 
413 515 203 128 6 44 
414 512 201 126 6 36 
415 512 201 126 7 37 
415 513 201 127 6 34 
414 512 202 127 7 37 
414 513 202 127 5 43 
415 513 202 127 5 39 
414 514 202 128 5 48 
414 514 203 127 5 48 
414 515 203 128 6 45 
415 514 202 128 5 48 
415 514 203 128 5 50 
415 515 203 128 6 45 
412 514 204 128 6 44 
412 515 204 128 5 44 
413 515 204 128 6 43 
414 515 204 127 9 42 
412 516 204 127 6 40 
412 517 204 127 7 37 
412 517 205 127 9 40 
413 516 204 127 7 41 
413 517 204 127 7 40 
413 517 205 127 8 39 
412 518 205 128 10 43 
412 519 205 127 11 41 
413 518 205 127 10 43 
413 519 205 127 11 40 
412 519 206 127 10 38 
413 519 206 127 15 37 
414 516 204 128 7 41 
414 517 204 128 8 42 
415 516 204 128 7 38 
415 517 204 127 8 36 
414 518 205 127 9 42 
414 519 205 126 12 38 
415 518 204 128 9 39 
415 518 205 128 9 40 
415 519 205 125 15 37 
414 519 206 126 13 36 
409 520 207 127 10 38 
409 521 207 123 18 36 
410 520 207 128 10 41 
410 521 207 123 19 42 
411 520 206 128 10 40 
411 520 207 128 12 40 
411 521 207 124 18 43 
410 522 207 117 25 45 
411 522 207 107 23 45 
412 520 206 127 10 38 
412 520 207 127 12 44 
412 521 207 117 19 46 
413 520 206 124 14 39 
413 521 206 111 21 42 
413 521 207 108 19 44 
412 522 207 95 19 39 
412 523 207 70 20 32 
413 522 207 80 15 33 
413 523 207 55 25 31 
415 520 205 120 23 38 
414 520 206 123 17 40 
414 521 206 102 16 37 
414 521 207 93 21 41 
415 520 206 118 17 38 
415 521 206 96 16 36 
414 522 207 67 21 32 
414 523 207 43 23 29 
415 522 206 61 21 29 
415 523 206 30 26 31 
415 523 207 37 24 31 
413 524 207 42 29 32 
414 524 207 32 28 28 
414 525 207 33 26 27 
415 524 207 29 27 31 
415 525 207 33 26 28 
402 512 209 110 20 36 
403 512 208 125 13 41 
403 512 209 111 16 34 
403 513 208 125 15 41 
403 513 209 110 15 34 
402 512 210 97 18 32 
402 512 211 91 19 32 
402 513 210 89 29 38 
402 513 211 86 24 38 
403 512 210 97 20 29 
403 513 210 89 19 30 
403 514 209 106 12 29 
403 515 209 112 8 34 
402 514 211 84 23 38 
402 515 211 86 16 32 
403 514 210 88 9 29 
403 515 210 104 9 38 
403 515 211 92 14 35 
402 512 212 83 22 35 
402 512 213 69 26 34 
402 513 212 84 31 41 
402 513 213 71 30 34 
402 512 214 57 24 29 
402 512 215 39 28 31 
402 513 214 57 29 28 
402 513 215 38 26 28 
403 513 215 38 24 29 
402 514 212 77 27 36 
402 514 213 63 20 29 
402 515 212 74 20 28 
402 515 213 61 17 28 
402 514 214 54 19 28 
402 514 215 47 21 29 
402 515 214 60 18 29 
402 515 215 59 22 31 
403 514 215 46 24 31 
403 515 215 57 23 32 
403 516 210 124 16 44 
403 516 211 116 16 41 
403 517 210 131 11 38 
403 517 211 131 15 41 
403 518 211 133 17 43 
403 519 211 128 18 45 
402 516 212 82 15 27 
402 516 213 69 13 26 
403 516 212 106 20 40 
403 516 213 90 30 42 
403 517 212 121 23 46 
403 517 213 103 32 48 
402 516 214 65 21 29 
402 516 215 62 22 34 
403 516 214 75 31 36 
403 516 215 66 26 35 
403 517 214 87 36 44 
403 517 215 72 34 43 
403 518 212 126 28 51 
403 518 213 106 36 51 
403 519 212 118 16 44 
403 519 213 100 29 43 
403 518 214 82 30 40 
403 518 215 61 25 31 
403 519 214 69 23 29 
403 519 215 45 24 26 
404 512 208 131 12 38 
404 513 208 128 9 39 
404 513 209 117 15 36 
404 514 208 126 8 42 
404 514 209 120 7 36 
404 515 208 126 8 42 
404 515 209 122 9 39 
405 514 208 129 8 41 
405 515 208 127 8 39 
404 516 209 128 12 43 
404 517 209 132 10 39 
405 516 208 128 9 38 
405 516 209 130 11 43 
405 517 209 131 11 40 
404 516 210 130 22 43 
404 517 210 131 12 38 
405 518 209 132 10 37 
405 519 209 128 13 41 
404 518 210 133 11 39 
404 519 210 126 15 41 
404 519 211 118 18 47 
405 519 210 121 13 41 
406 516 208 128 8 36 
406 517 208 129 8 38 
407 517 208 129 9 39 
406 518 208 132 11 40 
406 518 209 132 12 40 
406 519 209 126 15 41 
407 518 208 131 11 40 
407 519 208 130 14 41 
407 519 209 125 13 40 
404 519 212 106 22 46 
404 519 213 96 22 39 
403 512 216 28 28 31 
403 512 217 28 27 30 
403 513 216 29 25 28 
403 513 217 30 25 29 
403 514 216 40 26 28 
403 514 217 37 25 27 
403 515 216 53 26 30 
403 515 217 45 23 26 
403 516 216 64 23 33 
403 516 217 61 16 28 
403 517 216 65 27 37 
403 517 217 68 30 39 
403 518 216 52 24 28 
403 518 217 59 29 35 
403 519 216 36 25 24 
403 519 217 47 31 32 
403 518 218 62 30 38 
403 519 218 47 27 29 
404 512 218 28 28 30 
404 512 219 27 27 29 
404 513 218 29 27 31 
404 513 219 31 27 30 
404 515 217 46 21 24 
404 514 218 34 26 28 
404 514 219 41 28 29 
404 515 218 39 22 24 
404 515 219 46 27 29 
405 515 219 51 34 34 
405 512 220 30 26 29 
405 512 221 39 29 31 
405 513 220 34 26 28 
405 513 221 35 24 26 
405 512 222 47 36 38 
405 513 222 37 27 26 
405 513 223 39 28 23 
405 514 220 42 31 30 
405 514 221 43 26 30 
405 515 220 55 37 40 
405 515 221 57 28 36 
405 514 222 46 25 28 
405 514 223 47 24 24 
405 515 222 59 25 34 
405 515 223 63 23 32 
406 512 222 48 39 41 
406 512 223 36 29 29 
406 513 223 35 29 24 
407 512 223 42 28 30 
406 514 223 46 27 24 
406 515 223 63 23 32 
404 516 217 59 18 28 
404 517 217 68 26 37 
404 516 218 56 20 28 
404 516 219 52 21 30 
404 517 218 66 29 37 
404 517 219 58 22 33 
405 516 219 54 28 34 
404 518 218 59 29 36 
404 518 219 58 23 31 
404 519 219 52 17 24 
405 516 220 57 25 35 
405 516 221 64 21 33 
405 517 220 57 17 24 
405 517 221 68 22 26 
405 516 222 72 25 35 
405 516 223 80 22 39 
405 517 222 74 23 26 
405 517 223 79 17 30 
404 518 220 64 16 25 
404 519 220 68 27 34 
405 518 220 63 15 21 
405 518 221 76 28 31 
405 519 220 73 30 35 
405 519 221 78 32 34 
405 518 222 79 33 33 
405 519 222 80 41 43 
406 516 223 84 22 38 
406 517 223 81 21 34 
406 518 222 76 28 31 
406 518 223 73 22 30 
406 519 222 70 27 32 
406 519 223 61 15 25 
407 519 223 61 6 25 
403 520 214 46 22 25 
403 520 215 29 26 27 
403 521 214 29 26 30 
403 521 215 28 27 32 
403 522 215 30 27 33 
405 520 209 102 13 34 
404 520 210 91 20 30 
404 520 211 80 22 30 
404 521 211 40 29 25 
405 520 210 75 21 25 
405 521 210 37 27 25 
405 521 211 32 28 27 
405 522 210 26 25 30 
405 522 211 26 25 34 
405 523 210 34 25 30 
405 523 211 28 26 30 
406 520 209 95 18 25 
406 521 209 63 16 26 
407 520 208 118 16 42 
407 520 209 110 16 35 
407 521 208 103 18 43 
407 521 209 87 19 39 
406 522 209 58 18 31 
406 523 209 76 21 38 
407 522 208 105 25 46 
407 522 209 90 23 42 
407 523 208 109 24 38 
407 523 209 102 22 40 
406 523 210 63 20 32 
404 520 212 79 23 31 
404 520 213 69 22 29 
404 521 212 36 26 26 
404 521 213 35 26 29 
404 521 214 30 26 29 
404 522 212 30 28 34 
404 522 213 30 28 33 
404 523 213 34 29 31 
405 522 212 30 25 36 
405 523 212 34 28 34 
405 523 213 36 29 32 
404 522 214 29 28 33 
404 522 215 32 28 32 
404 523 214 34 27 28 
404 523 215 38 29 27 
405 524 211 35 25 24 
405 525 211 47 27 26 
406 524 209 90 29 39 
407 524 209 106 29 36 
407 525 209 107 34 46 
406 524 210 76 25 35 
406 525 210 93 30 41 
406 525 211 65 24 28 
407 525 210 105 31 46 
406 526 211 80 26 34 
406 527 211 91 32 45 
407 526 210 103 36 46 
407 526 211 100 42 47 
407 527 210 98 34 37 
407 527 211 95 34 40 
404 524 213 39 28 30 
405 524 212 32 26 27 
405 524 213 35 28 29 
405 525 212 40 29 28 
405 525 213 38 27 31 
404 524 214 40 28 26 
404 524 215 41 28 25 
404 525 214 42 27 29 
404 525 215 43 28 29 
405 525 214 41 26 32 
405 526 212 43 27 29 
405 526 213 39 27 32 
405 527 213 39 24 30 
404 526 215 41 28 32 
405 526 214 40 26 33 
405 526 215 40 27 33 
405 527 214 41 25 31 
405 527 215 37 26 31 
406 526 212 54 21 29 
406 527 212 62 22 37 
406 527 213 40 21 28 
407 527 212 90 33 45 
403 520 216 28 28 29 
403 520 217 32 26 27 
403 521 216 27 29 32 
403 521 217 29 27 31 
403 520 218 34 25 25 
403 521 218 29 26 29 
403 522 216 30 29 33 
403 522 217 31 27 33 
404 520 219 49 25 29 
404 521 218 30 25 28 
404 521 219 46 27 32 
404 522 216 33 28 32 
404 522 217 32 27 32 
404 523 216 36 27 28 
404 523 217 35 28 31 
404 522 218 29 26 30 
404 522 219 37 28 33 
404 523 218 31 27 29 
404 523 219 29 28 31 
404 520 220 69 33 41 
404 521 220 62 36 43 
405 520 220 76 38 46 
405 520 221 75 34 41 
405 521 220 66 36 43 
405 521 221 57 21 32 
405 520 222 65 27 34 
405 521 222 48 16 26 
404 522 220 42 26 32 
404 523 220 29 25 31 
405 522 220 45 24 30 
405 522 221 39 20 25 
405 523 220 28 26 29 
405 523 221 30 27 28 
405 522 222 37 22 28 
405 523 222 31 26 28 
406 520 222 55 22 29 
406 520 223 47 16 27 
406 521 222 38 19 29 
406 521 223 31 22 31 
407 520 223 51 13 24 
406 522 222 33 24 30 
406 522 223 22 26 33 
406 523 222 31 29 31 
406 523 223 26 30 34 
404 524 216 40 28 27 
404 524 217 37 29 30 
404 525 216 43 30 31 
404 525 217 38 30 31 
404 524 218 34 30 29 
404 524 219 25 27 32 
404 525 218 35 31 33 
404 525 219 32 27 30 
405 524 218 33 30 31 
405 524 219 29 28 31 
405 525 218 34 30 32 
405 525 219 31 26 29 
404 526 216 39 28 31 
404 526 217 35 29 32 
405 526 216 38 27 33 
405 527 216 35 27 30 
405 527 217 33 28 31 
404 526 218 34 30 33 
405 526 219 33 26 31 
405 527 218 31 29 31 
405 527 219 32 26 30 
406 527 219 30 27 29 
405 524 220 26 28 32 
405 524 221 28 29 30 
405 525 220 30 28 30 
405 525 221 29 29 31 
405 526 220 31 28 30 
405 527 220 33 26 31 
406 525 221 29 29 30 
406 524 222 29 29 29 
406 524 223 29 29 31 
406 525 222 30 27 30 
406 525 223 31 26 31 
406 526 220 31 29 31 
406 526 221 29 28 29 
406 527 220 31 28 31 
406 527 221 30 29 32 
406 526 222 29 27 30 
406 526 223 27 28 33 
406 527 222 29 27 31 
406 527 223 27 27 32 
408 519 208 130 12 41 
408 520 208 125 14 41 
408 521 208 115 15 39 
409 520 208 123 10 28 
409 521 208 124 21 36 
408 522 208 115 18 43 
408 523 208 113 19 40 
409 522 208 117 23 40 
409 523 208 114 24 46 
410 522 208 115 24 43 
410 523 208 99 23 40 
411 522 208 102 23 41 
411 523 208 82 23 36 
408 524 208 107 24 37 
408 524 209 103 27 33 
408 525 209 92 27 37 
409 524 208 97 20 37 
409 525 209 84 23 36 
408 526 209 88 22 39 
409 526 209 79 24 39 
408 526 210 90 17 38 
408 527 210 88 26 41 
408 527 211 87 30 36 
409 526 210 82 16 36 
409 527 210 75 22 38 
410 524 208 82 18 35 
410 525 208 71 22 36 
410 525 209 68 21 34 
411 524 208 64 25 35 
411 525 209 52 22 30 
410 526 209 65 24 37 
410 527 209 59 23 37 
411 526 209 49 25 30 
411 527 209 47 25 28 
410 527 210 61 22 34 
411 527 210 49 25 30 
412 523 208 68 24 31 
412 524 208 54 25 33 
412 525 208 45 23 33 
412 525 209 39 24 30 
413 524 208 42 27 29 
413 525 208 37 23 31 
412 526 209 37 26 30 
412 527 209 36 27 28 
413 526 208 30 27 32 
413 526 209 33 27 31 
413 527 209 31 29 30 
414 525 208 35 26 28 
414 526 208 29 29 33 
414 527 208 29 29 32 
414 527 209 31 27 30 
415 526 208 31 27 31 
415 527 208 30 28 33 
407 528 211 89 39 46 
405 528 214 59 31 40 
405 528 215 48 32 36 
406 528 212 61 18 34 
406 528 213 54 21 29 
407 528 212 77 26 40 
407 528 213 67 16 32 
407 529 213 69 18 31 
406 528 214 66 33 42 
406 528 215 64 39 46 
406 529 214 75 34 44 
406 529 215 58 33 39 
407 529 214 77 33 40 
407 530 213 73 32 38 
406 530 215 57 31 36 
406 531 215 38 24 25 
407 530 214 71 38 42 
407 531 214 54 28 30 
407 531 215 43 26 26 
407 532 215 35 27 27 
405 528 216 37 29 29 
405 528 217 32 30 29 
405 529 216 38 29 28 
405 529 217 31 28 27 
405 528 218 31 29 29 
406 529 216 37 28 26 
406 529 217 30 28 26 
406 528 219 30 27 29 
406 529 218 30 28 29 
406 529 219 29 28 29 
406 530 216 35 27 27 
406 530 217 30 28 28 
406 531 216 31 27 27 
406 531 217 28 30 30 
407 531 216 32 26 26 
406 530 218 29 28 28 
406 530 219 29 28 29 
406 531 218 28 29 29 
406 531 219 29 28 29 
406 528 220 31 29 30 
406 528 221 31 31 32 
406 529 220 30 29 29 
406 529 221 30 28 29 
406 528 222 30 29 32 
406 528 223 28 27 31 
406 529 222 30 28 30 
406 529 223 28 28 31 
406 530 220 30 29 30 
406 530 221 30 29 30 
406 531 220 29 28 28 
406 531 221 30 28 28 
406 530 222 31 29 29 
406 530 223 28 28 31 
406 531 222 31 29 30 
406 531 223 28 29 31 
406 532 217 29 29 30 
407 532 216 29 27 28 
407 532 217 28 28 28 
407 533 216 31 27 32 
407 533 217 31 27 28 
406 532 218 30 29 29 
406 532 219 32 28 27 
406 533 219 31 27 27 
407 533 218 30 28 28 
407 533 219 31 27 27 
407 534 217 33 27 28 
407 534 218 32 27 29 
407 534 219 33 28 30 
407 535 218 33 27 31 
407 535 219 33 26 32 
406 532 220 32 29 29 
406 532 221 32 30 29 
406 533 220 31 28 29 
406 533 221 31 29 30 
406 532 222 32 30 30 
406 532 223 29 30 32 
406 533 222 33 30 31 
406 533 223 30 30 32 
406 534 220 33 28 31 
406 534 221 32 27 32 
406 535 220 34 28 32 
406 535 221 35 28 33 
407 534 220 34 28 31 
407 535 220 34 27 33 
406 534 222 32 28 31 
406 534 223 30 27 31 
406 535 222 33 27 32 
406 535 223 32 27 31 
407 536 219 32 27 32 
407 537 219 36 30 31 
405 537 223 67 31 34 
405 538 223 80 23 36 
406 536 221 34 28 33 
406 537 221 37 31 34 
407 536 220 35 28 35 
407 536 221 36 30 34 
407 537 220 35 30 28 
407 537 221 36 31 30 
406 536 222 35 27 34 
406 536 223 38 25 31 
406 537 222 38 29 30 
406 537 223 54 30 30 
406 538 221 45 29 29 
407 538 220 51 23 25 
407 538 221 57 31 32 
407 539 220 86 34 48 
407 539 221 79 35 43 
406 538 222 50 28 26 
406 538 223 65 24 27 
406 539 222 67 20 27 
406 539 223 84 24 36 
407 540 220 95 39 51 
407 540 221 83 27 39 
407 541 221 74 22 27 
406 540 222 79 26 40 
406 540 223 95 29 47 
406 541 222 76 34 45 
406 541 223 78 31 42 
407 540 222 74 21 30 
407 541 222 64 26 29 
407 542 221 76 32 34 
