ply
format ascii 1.0
comment Created by CloudCompare v2.10.1 (Zephyrus)
comment Created 1/31/20 6:24 PM
obj_info Generated by CloudCompare!
element vertex 1854
property float x
property float y
property float z
property uchar red
property uchar green
property uchar blue
end_header
459 893 249 37 35 36 
458 895 249 32 31 30 
459 894 249 37 35 35 
458 895 250 33 31 31 
458 895 251 35 34 34 
459 894 250 37 35 35 
459 895 250 33 32 31 
459 895 251 34 32 32 
458 895 252 36 35 35 
458 895 253 37 35 34 
459 895 252 36 34 33 
459 895 253 40 37 35 
458 895 254 39 36 35 
459 895 254 41 37 35 
460 892 249 36 34 34 
460 893 249 36 34 35 
461 892 249 37 35 36 
461 893 249 39 38 38 
460 893 250 37 36 36 
461 893 250 39 38 38 
460 894 250 37 36 36 
460 894 251 38 35 34 
461 894 250 39 37 36 
461 894 251 41 37 35 
462 893 249 40 38 37 
462 893 250 38 36 35 
463 894 248 41 39 40 
463 894 249 37 34 36 
462 894 250 40 36 34 
462 894 251 42 37 33 
463 894 250 38 33 32 
463 894 251 39 33 31 
460 894 252 41 38 36 
460 895 252 39 36 34 
460 895 253 40 36 34 
461 894 252 42 38 35 
461 895 252 42 38 34 
461 895 253 41 37 34 
460 895 254 40 36 33 
462 894 252 41 35 31 
462 895 252 40 35 31 
462 895 253 41 36 33 
463 895 252 41 35 32 
463 895 253 43 39 36 
464 894 248 34 32 36 
464 894 249 31 28 32 
465 894 248 38 33 31 
465 894 249 35 31 29 
465 895 249 39 33 27 
464 894 250 36 30 28 
464 894 251 37 31 29 
464 895 250 38 32 28 
464 895 251 39 33 29 
465 895 250 41 35 28 
465 895 251 45 39 32 
467 893 248 44 36 28 
466 894 248 39 33 27 
466 894 249 43 34 26 
466 895 249 44 36 27 
467 894 248 45 37 28 
467 894 249 49 40 30 
466 895 250 47 39 31 
466 895 251 55 48 40 
467 895 250 55 47 38 
467 895 251 61 52 43 
464 895 252 43 37 33 
464 895 253 46 41 38 
465 895 252 52 45 38 
465 895 253 53 46 38 
466 895 252 59 51 42 
466 895 253 62 52 44 
467 895 252 63 53 44 
467 895 253 67 57 48 
466 895 254 65 56 48 
466 895 255 68 59 51 
467 895 254 71 61 53 
467 895 255 73 63 55 
468 893 248 49 41 34 
469 893 248 56 47 37 
468 894 248 51 41 32 
468 894 249 55 45 34 
469 894 248 57 48 37 
469 894 249 63 52 41 
468 894 250 60 49 38 
468 895 250 61 50 39 
468 895 251 63 52 41 
469 894 250 67 57 45 
469 894 251 72 62 52 
469 895 251 69 59 49 
470 893 248 61 51 42 
471 892 248 70 61 53 
471 893 248 73 63 53 
470 894 248 68 57 46 
470 894 249 72 61 50 
471 894 248 75 64 53 
471 894 249 78 68 57 
470 894 250 74 64 53 
470 894 251 76 66 56 
471 894 250 80 70 59 
471 894 251 81 71 61 
468 895 252 67 57 46 
468 895 253 71 61 51 
469 895 252 73 63 53 
469 895 253 75 65 56 
468 895 254 73 63 54 
468 895 255 74 64 55 
469 895 254 77 67 58 
469 895 255 80 70 61 
470 894 252 78 68 58 
470 895 252 78 68 58 
470 895 253 80 69 60 
471 894 252 81 70 60 
471 894 253 83 72 62 
470 895 254 83 73 63 
470 895 255 83 73 63 
471 894 254 84 73 63 
471 894 255 83 72 61 
475 891 247 94 87 81 
473 892 247 83 74 65 
476 891 247 96 89 84 
477 890 247 98 91 85 
477 891 247 97 90 85 
478 890 247 98 91 86 
478 891 247 98 91 85 
477 892 247 97 89 83 
478 892 247 98 90 83 
478 893 247 95 86 78 
479 892 246 97 90 85 
479 893 246 94 86 78 
479 893 247 93 84 75 
479 894 246 82 73 67 
479 894 247 86 78 72 
472 892 248 76 67 58 
472 893 248 82 72 63 
472 893 249 86 75 66 
473 892 248 86 77 69 
473 893 248 90 81 72 
473 893 249 91 82 73 
472 894 249 86 77 67 
473 894 249 90 81 73 
472 894 250 88 78 69 
472 894 251 87 77 68 
473 894 250 92 83 74 
473 894 251 92 82 74 
474 892 248 93 84 77 
474 893 248 95 86 79 
474 893 249 94 85 77 
475 892 248 94 86 80 
475 893 248 96 88 82 
475 893 249 95 87 80 
475 894 249 94 86 79 
474 894 250 94 85 78 
474 894 251 92 83 75 
475 894 250 95 86 78 
475 894 251 92 83 76 
472 894 252 87 77 68 
472 894 253 89 78 69 
473 894 252 91 81 72 
473 894 253 92 82 73 
472 894 254 88 77 68 
472 894 255 84 73 63 
473 894 254 85 75 67 
473 894 255 80 70 61 
475 893 255 76 64 55 
474 894 252 92 83 75 
474 894 253 90 80 72 
475 894 252 89 80 72 
475 894 253 77 67 58 
474 894 254 79 70 63 
474 894 255 76 66 59 
475 894 254 84 72 63 
475 894 255 80 69 60 
476 892 248 96 89 83 
476 893 248 98 90 84 
476 893 249 96 88 81 
477 892 248 97 89 83 
477 893 248 99 90 82 
476 894 249 94 86 78 
477 894 249 88 78 70 
476 894 250 90 81 72 
476 894 251 78 68 59 
477 894 250 75 64 55 
477 894 251 85 74 66 
478 893 248 96 86 77 
478 894 248 87 78 70 
478 894 249 85 75 68 
478 894 250 90 79 72 
478 894 251 93 79 70 
478 895 251 94 79 70 
476 893 255 77 64 54 
477 893 254 79 66 56 
477 893 255 77 63 53 
476 894 252 86 74 63 
476 894 253 86 73 63 
477 894 252 82 70 61 
477 894 253 89 77 66 
476 894 254 86 74 64 
476 894 255 77 65 56 
477 894 254 87 74 63 
478 893 254 77 64 54 
478 893 255 77 64 54 
479 893 254 75 62 53 
479 893 255 76 62 53 
478 894 252 96 82 71 
478 894 253 76 64 54 
479 894 252 67 57 47 
479 894 253 71 59 50 
478 894 254 77 63 53 
489 879 249 87 81 76 
489 879 250 86 80 74 
490 879 249 87 81 75 
487 881 251 82 76 71 
486 883 251 79 71 64 
487 882 250 82 75 69 
487 882 251 82 75 69 
487 883 251 79 69 63 
485 883 252 80 74 69 
480 892 246 95 89 83 
480 893 246 91 83 76 
480 893 253 71 57 48 
481 893 253 60 50 40 
480 892 255 69 57 47 
480 893 254 76 62 53 
480 893 255 76 62 51 
481 893 254 69 57 46 
480 894 252 61 51 41 
480 894 253 61 51 41 
481 894 253 59 48 37 
482 893 254 60 50 40 
489 885 247 64 54 47 
490 885 247 56 49 43 
491 885 247 54 47 42 
491 886 247 53 47 42 
492 886 247 55 47 44 
493 886 246 63 46 40 
493 886 247 65 48 41 
488 881 249 83 78 74 
489 880 249 86 80 76 
488 881 250 81 75 71 
489 880 250 86 80 74 
488 882 248 83 77 72 
488 882 249 81 76 72 
488 883 248 81 74 69 
488 883 249 79 74 70 
489 883 249 81 75 70 
488 882 250 79 74 70 
488 883 250 80 65 58 
489 883 250 79 65 58 
488 884 248 78 64 55 
489 884 248 71 61 53 
489 884 249 74 63 57 
489 885 248 59 51 45 
490 884 249 78 62 56 
490 885 248 56 49 43 
490 885 249 55 48 42 
491 885 248 54 47 42 
491 885 249 53 47 42 
491 886 248 52 46 41 
491 886 249 54 46 42 
492 886 248 61 47 46 
493 886 248 67 52 44 
450 898 249 37 35 35 
450 899 248 36 34 33 
450 899 249 33 32 32 
451 898 249 34 34 34 
451 898 250 37 36 36 
451 898 251 34 33 33 
451 898 252 35 34 34 
452 897 249 34 34 36 
453 897 249 34 33 34 
452 897 250 31 31 32 
453 897 250 32 30 32 
453 897 251 32 31 33 
452 898 249 31 31 32 
452 898 250 33 32 33 
452 898 251 33 33 34 
454 896 249 35 34 34 
454 897 249 35 34 35 
455 896 249 33 32 33 
455 897 249 34 33 34 
454 897 250 33 32 33 
454 897 251 31 30 31 
455 897 250 33 32 33 
455 897 251 29 29 30 
452 897 253 30 31 32 
453 897 252 33 33 34 
453 897 253 32 31 34 
452 897 254 31 30 34 
453 897 254 33 30 35 
453 897 255 34 29 36 
452 898 252 33 33 34 
452 898 253 31 31 32 
452 898 254 30 30 31 
454 897 252 34 33 34 
454 897 253 34 33 34 
455 896 253 33 33 33 
455 897 252 32 31 32 
455 897 253 31 31 31 
454 897 254 36 33 36 
454 897 255 33 31 35 
455 896 254 35 33 35 
455 896 255 35 34 36 
455 897 254 35 33 35 
455 897 255 35 34 36 
456 896 249 32 31 32 
457 896 248 34 32 32 
457 896 249 31 30 30 
456 896 250 31 31 31 
456 896 251 30 30 30 
456 897 250 32 31 32 
456 897 251 30 29 30 
457 896 250 31 30 29 
457 896 251 30 29 29 
458 896 248 32 30 30 
458 896 249 34 32 32 
458 896 250 33 31 31 
458 896 251 32 31 30 
456 896 252 34 33 34 
456 896 253 33 32 33 
456 897 252 30 30 30 
457 896 252 32 31 31 
457 896 253 34 33 34 
456 896 254 35 33 35 
456 896 255 36 35 36 
456 897 255 37 36 36 
457 896 254 37 36 36 
457 896 255 38 36 36 
458 896 252 34 33 33 
458 896 253 36 34 34 
458 896 254 39 36 35 
458 896 255 39 36 35 
458 897 255 41 37 36 
459 896 254 40 36 34 
459 896 255 40 36 33 
459 897 255 43 39 36 
460 896 254 41 36 33 
460 896 255 41 37 34 
460 897 255 42 38 34 
461 896 254 40 35 32 
461 897 255 44 39 35 
461 898 255 46 40 36 
462 896 254 41 37 33 
462 897 255 47 41 36 
463 896 254 46 41 37 
463 897 255 49 43 38 
462 898 255 47 39 33 
464 896 253 47 41 36 
464 896 254 49 42 37 
464 896 255 53 45 40 
464 897 255 51 44 39 
465 896 254 57 49 41 
465 896 255 61 52 44 
466 896 254 63 54 46 
466 896 255 67 58 49 
467 895 256 71 61 51 
467 895 257 74 63 53 
467 895 258 76 64 53 
467 895 259 78 66 53 
467 895 260 81 68 56 
467 895 261 81 68 56 
467 895 262 78 65 53 
468 895 256 77 66 57 
468 895 257 79 68 57 
469 895 256 83 72 62 
469 895 257 81 68 57 
468 895 258 80 68 56 
468 895 259 80 67 55 
469 894 259 78 65 52 
469 895 258 80 67 55 
469 895 259 79 66 53 
470 894 256 81 69 58 
470 894 257 80 67 55 
470 895 256 83 71 60 
470 895 257 80 67 55 
471 894 256 80 68 58 
471 894 257 78 66 54 
470 894 258 78 66 54 
470 894 259 76 63 50 
471 894 258 75 62 49 
471 894 259 76 63 50 
468 895 260 80 67 55 
468 895 261 80 67 55 
469 894 260 77 64 51 
469 895 260 79 66 53 
470 894 260 75 62 49 
472 893 259 81 70 59 
473 893 258 81 69 58 
472 894 256 78 67 57 
472 894 257 74 62 49 
473 894 256 75 64 55 
473 894 257 76 66 58 
472 894 258 75 65 55 
472 894 259 79 67 56 
473 894 258 78 67 57 
474 893 256 74 65 57 
474 893 257 76 66 59 
475 893 256 77 67 60 
475 893 257 78 68 59 
474 893 258 79 68 59 
474 894 256 74 65 57 
475 894 256 75 65 57 
476 893 256 76 64 54 
476 893 257 78 67 59 
477 893 256 78 65 57 
478 892 256 77 66 58 
478 893 256 77 64 56 
453 897 256 35 32 34 
453 898 256 36 33 32 
454 897 256 34 34 34 
454 897 257 36 34 35 
455 897 256 35 34 36 
455 897 257 37 34 36 
454 898 257 37 34 34 
454 899 257 36 33 32 
455 898 257 37 34 35 
455 899 257 37 33 32 
455 900 258 38 33 31 
455 901 258 41 36 33 
456 897 256 37 35 36 
456 897 257 37 33 36 
457 897 256 40 37 37 
456 898 257 37 33 33 
456 899 257 38 33 32 
457 898 256 39 36 35 
457 898 257 39 34 33 
457 899 257 40 35 33 
458 897 256 41 38 35 
459 897 256 42 38 35 
458 898 256 42 38 35 
458 899 256 38 34 29 
458 899 257 39 34 30 
459 898 256 42 37 33 
459 899 256 43 37 32 
456 900 257 40 35 32 
457 900 257 43 37 33 
457 901 257 47 41 36 
456 900 258 41 36 32 
456 901 258 43 37 32 
457 901 258 46 40 35 
456 902 259 45 39 34 
457 902 259 48 41 35 
458 900 257 46 40 35 
458 901 257 47 41 36 
459 900 257 48 41 36 
458 901 258 50 43 37 
459 901 258 51 43 37 
459 901 259 53 46 39 
458 902 259 49 42 35 
459 902 259 51 44 36 
457 902 260 48 42 35 
457 902 261 45 39 33 
458 901 263 38 35 34 
459 901 262 45 40 37 
459 901 263 40 36 34 
458 902 260 47 40 33 
458 902 261 45 38 31 
459 902 260 48 40 32 
459 902 261 47 41 35 
458 902 262 43 38 34 
458 902 263 41 37 35 
459 902 262 45 40 36 
460 898 256 43 38 33 
460 899 256 46 39 34 
461 898 256 46 40 34 
461 899 256 47 40 35 
463 897 256 51 42 33 
463 897 257 55 45 35 
462 898 256 50 42 33 
462 899 256 50 41 36 
462 899 257 52 43 37 
463 898 256 52 43 33 
463 898 257 56 46 36 
463 899 257 54 46 39 
462 899 258 55 46 37 
462 899 259 54 44 34 
463 898 258 58 47 36 
463 898 259 61 49 38 
463 899 258 57 48 39 
463 899 259 59 49 38 
462 899 260 57 48 38 
462 899 261 56 46 36 
463 898 260 63 52 42 
463 898 261 64 52 41 
463 899 260 61 52 42 
463 899 261 62 51 40 
462 899 262 58 45 33 
462 899 263 59 45 36 
463 898 262 64 51 39 
463 898 263 66 54 44 
460 900 256 49 42 36 
460 900 257 49 42 36 
461 900 257 52 45 39 
460 901 258 51 43 36 
460 901 259 50 42 35 
461 900 258 54 46 40 
461 900 259 52 43 35 
461 901 258 52 43 38 
461 901 259 49 40 31 
462 900 257 53 45 38 
462 900 258 53 44 36 
462 900 259 54 44 35 
460 901 260 46 39 31 
460 901 261 45 38 32 
461 900 260 51 43 35 
461 900 261 55 47 40 
461 901 260 50 42 34 
461 901 261 51 43 36 
460 900 263 46 39 34 
460 901 262 43 37 32 
460 901 263 43 38 34 
461 900 262 52 44 37 
461 900 263 50 39 33 
462 900 260 54 45 36 
462 900 261 53 43 34 
462 900 262 53 43 34 
458 901 264 36 34 34 
459 901 264 38 34 34 
459 901 265 37 34 33 
459 900 266 35 33 32 
459 901 266 36 34 33 
461 899 264 49 38 31 
461 899 265 46 36 30 
462 899 264 54 43 33 
463 898 264 62 52 41 
460 900 264 46 39 35 
460 900 265 43 37 35 
460 901 264 42 37 35 
461 900 264 49 39 33 
461 900 265 47 39 34 
464 896 256 58 49 41 
464 896 257 60 50 40 
464 897 256 54 45 36 
464 897 257 58 48 37 
465 896 256 63 54 46 
465 896 257 64 53 42 
464 897 258 61 50 38 
464 897 259 65 52 42 
465 896 258 65 53 40 
465 896 259 70 57 45 
466 896 256 68 58 49 
466 896 257 67 56 45 
466 896 258 70 58 46 
466 896 259 75 62 49 
464 897 260 70 55 45 
464 897 261 72 57 43 
465 896 260 76 63 50 
465 896 261 79 66 52 
464 897 262 72 57 41 
464 897 263 73 60 45 
465 896 262 79 65 52 
465 896 263 75 61 47 
465 897 263 75 61 46 
464 898 263 67 55 45 
466 896 260 80 67 54 
466 896 261 82 69 56 
466 896 262 79 66 53 
467 896 262 77 64 51 
490 877 250 87 81 76 
490 877 251 87 81 76 
490 878 250 88 82 77 
490 878 251 87 81 76 
490 879 250 87 80 75 
490 879 251 85 79 75 
489 879 254 83 75 66 
489 879 255 79 70 61 
491 877 252 89 81 75 
491 877 253 86 78 70 
490 878 252 88 81 75 
490 879 252 85 78 72 
490 879 253 85 77 70 
491 878 252 87 79 73 
491 878 253 85 76 69 
491 879 253 83 74 67 
490 878 255 70 60 51 
490 879 254 81 73 64 
490 879 255 76 66 56 
491 878 254 79 69 60 
491 878 255 67 57 47 
491 879 254 79 70 62 
485 881 255 79 73 68 
484 883 253 81 75 68 
485 882 253 82 75 69 
485 883 253 81 74 68 
484 882 255 80 73 67 
484 883 254 82 75 68 
484 883 255 80 72 65 
485 882 254 82 75 68 
485 882 255 79 72 66 
486 881 252 86 79 73 
486 881 253 86 79 73 
487 880 253 79 73 69 
487 881 252 87 81 75 
487 881 253 87 80 74 
486 881 254 82 76 70 
486 881 255 80 74 69 
487 880 254 81 75 70 
487 880 255 81 74 68 
487 881 254 88 81 74 
486 882 252 80 74 68 
486 882 253 80 74 68 
486 883 252 79 71 65 
487 882 252 79 73 68 
487 883 252 78 69 63 
487 883 253 78 68 61 
485 884 253 79 71 64 
484 884 254 79 70 63 
484 884 255 76 67 60 
484 885 255 75 67 60 
485 884 254 79 70 63 
485 885 254 79 70 63 
485 885 255 76 67 60 
485 886 255 75 66 59 
486 884 252 78 69 62 
486 884 253 78 68 61 
487 884 253 77 68 61 
486 885 254 77 67 59 
486 885 255 79 67 60 
487 884 254 77 67 59 
487 885 254 76 65 58 
487 885 255 78 66 59 
486 886 255 78 67 59 
487 886 255 79 67 59 
481 892 255 61 51 41 
481 893 255 62 52 42 
482 892 255 62 52 41 
483 892 255 60 49 39 
483 893 254 62 52 42 
483 893 255 66 55 45 
484 892 255 61 50 39 
484 893 255 69 54 40 
488 881 251 88 81 76 
489 880 251 86 80 75 
488 883 251 77 65 58 
489 883 251 79 64 58 
490 880 251 86 80 75 
490 883 250 79 64 58 
490 883 251 77 62 55 
491 883 250 76 60 54 
491 883 251 74 59 51 
488 880 252 88 82 76 
488 880 253 85 79 73 
488 881 252 90 83 78 
489 880 252 87 80 74 
489 880 253 84 77 70 
488 880 254 84 76 69 
488 880 255 80 72 65 
489 880 254 85 77 70 
489 880 255 85 76 68 
488 883 252 75 67 60 
488 883 253 75 67 61 
489 882 252 75 64 58 
489 883 252 75 66 61 
489 883 253 58 51 45 
488 883 254 57 51 46 
489 883 254 56 50 45 
490 880 252 85 79 74 
490 882 252 75 61 54 
490 883 252 76 62 55 
490 883 253 57 50 44 
491 883 252 74 59 51 
491 883 253 71 59 51 
490 883 254 56 49 43 
491 883 254 54 47 42 
490 884 250 78 63 56 
491 884 250 77 61 55 
491 885 250 57 49 44 
491 885 251 79 62 55 
491 886 250 57 47 44 
491 886 251 63 48 45 
491 887 250 63 47 44 
491 887 251 67 48 43 
488 884 254 70 62 56 
488 885 255 75 64 57 
489 884 254 64 57 51 
489 885 255 78 67 59 
490 884 254 55 48 42 
490 885 255 73 60 50 
491 884 254 58 50 44 
491 885 254 65 53 46 
491 886 252 73 55 50 
491 887 252 69 50 44 
491 887 253 85 64 56 
490 886 255 88 70 59 
492 883 251 74 59 50 
492 884 251 75 59 52 
492 885 251 79 62 56 
492 886 249 63 49 47 
492 887 249 67 51 47 
492 887 250 69 47 45 
491 888 252 79 56 48 
491 888 253 85 63 54 
491 889 252 81 59 48 
491 889 253 81 60 47 
463 895 276 38 36 36 
463 895 277 36 34 34 
463 895 278 36 34 35 
467 895 263 72 58 48 
469 894 261 75 62 50 
469 895 261 77 64 52 
468 895 262 76 63 52 
468 895 263 72 58 49 
469 894 262 74 61 50 
469 894 263 75 61 48 
469 895 262 74 61 50 
469 895 263 75 61 50 
471 893 262 81 69 57 
471 893 263 79 66 54 
470 894 261 74 61 48 
471 894 260 77 64 52 
471 894 261 76 63 50 
470 894 262 76 62 50 
470 894 263 78 64 51 
471 894 262 77 64 50 
471 894 263 78 65 52 
467 895 267 51 41 31 
467 895 268 48 42 35 
467 895 269 42 37 33 
466 895 270 38 34 34 
466 895 271 34 31 33 
467 895 270 38 34 35 
467 895 271 36 30 36 
468 895 264 71 58 47 
468 895 265 67 55 42 
469 894 264 74 61 48 
469 894 265 68 55 43 
469 895 264 74 61 48 
469 895 265 67 55 42 
468 895 266 59 48 36 
468 895 267 52 44 35 
469 894 266 59 48 38 
469 894 267 53 44 36 
469 895 266 61 49 38 
471 893 264 75 62 50 
471 893 265 72 59 48 
471 893 266 63 51 40 
471 893 267 56 45 34 
470 894 264 76 63 51 
470 894 265 71 59 48 
471 894 264 75 62 50 
471 894 265 72 59 47 
470 894 266 61 50 40 
470 894 267 56 47 38 
471 894 266 66 54 43 
469 893 271 33 31 29 
468 894 268 47 41 36 
468 894 269 45 40 37 
468 895 268 51 44 39 
468 895 269 47 42 40 
469 894 268 50 42 36 
469 894 269 47 41 37 
468 894 270 38 32 35 
468 894 271 35 29 36 
468 895 270 39 34 35 
468 895 271 36 27 35 
469 894 270 39 36 36 
469 894 271 35 32 32 
470 893 268 54 46 37 
470 893 269 42 39 37 
471 892 269 41 37 34 
471 893 268 49 43 39 
471 893 269 41 38 36 
470 893 270 35 33 32 
470 893 271 33 31 29 
471 892 270 38 35 32 
471 892 271 37 35 33 
471 893 270 36 33 31 
471 893 271 35 33 31 
470 894 268 52 44 37 
470 894 269 45 40 36 
479 887 270 37 34 33 
479 887 271 37 35 34 
475 891 263 79 67 57 
473 893 259 79 68 59 
474 893 259 79 69 60 
475 892 259 77 68 60 
475 893 258 78 67 58 
475 893 259 77 67 59 
472 893 260 81 70 59 
472 893 261 80 68 57 
473 893 260 80 69 58 
473 893 261 78 66 55 
472 893 262 80 68 56 
472 893 263 79 66 54 
473 892 263 80 68 57 
473 893 262 76 64 51 
473 893 263 78 65 53 
472 894 260 80 68 57 
474 892 261 76 66 56 
474 893 260 79 68 58 
474 893 261 77 65 55 
475 892 260 77 67 58 
475 892 261 77 66 56 
475 893 260 77 67 59 
474 892 262 78 65 54 
474 892 263 81 70 59 
474 893 262 75 64 54 
475 892 262 80 68 57 
475 892 263 82 70 61 
479 891 257 78 66 58 
478 891 258 79 67 59 
478 891 259 77 68 60 
479 890 259 75 66 59 
479 891 258 79 68 59 
479 891 259 75 67 59 
476 891 261 79 66 56 
477 891 260 77 66 56 
477 891 261 77 66 57 
476 891 262 79 68 58 
476 891 263 77 65 54 
477 890 263 62 52 43 
477 891 262 74 63 53 
477 891 263 70 59 49 
479 889 262 61 52 43 
479 889 263 54 46 39 
478 890 260 74 62 49 
478 890 261 71 58 47 
478 891 260 77 67 59 
478 891 261 75 63 53 
479 890 260 73 64 57 
479 890 261 66 56 46 
478 890 262 68 56 46 
478 890 263 60 51 43 
478 891 262 74 61 49 
479 890 262 64 55 46 
477 892 257 75 64 56 
477 893 257 76 64 56 
476 892 258 78 68 60 
476 892 259 77 67 59 
476 893 258 78 68 60 
477 892 258 76 65 58 
477 892 259 78 69 61 
478 892 257 77 66 58 
479 892 256 77 64 55 
479 892 257 78 66 58 
478 892 258 78 67 60 
478 892 259 77 68 60 
476 892 260 78 67 57 
476 892 261 78 67 58 
477 892 260 79 69 61 
476 892 262 75 65 55 
475 891 264 70 59 49 
475 891 265 59 51 43 
474 891 266 53 46 39 
474 891 267 47 40 34 
475 890 267 43 36 31 
475 891 266 52 44 37 
475 891 267 45 39 32 
473 891 269 42 37 33 
472 891 271 35 33 33 
473 891 270 36 33 32 
473 891 271 33 32 32 
475 889 271 35 35 36 
474 891 268 44 38 33 
474 891 269 39 35 31 
475 890 268 38 34 30 
475 890 269 36 33 31 
475 891 268 42 36 31 
475 891 269 38 34 30 
474 890 270 35 34 34 
474 890 271 35 34 36 
474 891 270 35 32 31 
474 891 271 33 32 33 
475 890 270 35 34 35 
475 890 271 35 35 37 
472 893 264 79 66 55 
472 893 265 75 63 53 
473 892 264 79 68 58 
473 892 265 72 60 49 
473 893 264 79 67 57 
472 892 266 61 50 38 
472 892 267 50 44 39 
472 893 266 64 53 40 
472 893 267 54 43 32 
473 892 266 59 49 39 
473 892 267 50 44 40 
474 892 264 78 66 56 
474 892 265 68 56 43 
475 892 264 77 65 54 
475 892 265 69 57 46 
474 892 266 57 48 41 
474 892 267 50 43 38 
472 892 268 45 40 37 
472 892 269 41 37 34 
473 892 268 45 40 35 
473 892 269 43 38 34 
472 892 270 39 36 34 
472 892 271 36 34 33 
473 892 270 40 36 33 
477 889 267 36 32 31 
476 890 265 54 45 37 
476 891 264 63 54 45 
476 891 265 57 48 40 
477 890 264 56 47 38 
477 890 265 51 42 34 
477 891 264 59 50 42 
476 890 266 48 40 33 
476 890 267 40 35 29 
476 891 266 53 44 37 
477 890 266 44 37 30 
477 890 267 37 32 29 
478 889 264 48 41 34 
478 889 265 42 34 31 
479 889 264 41 33 29 
479 889 265 37 31 31 
478 889 266 37 33 32 
478 889 267 34 32 33 
479 888 266 34 33 33 
479 888 267 37 36 37 
479 889 266 35 33 33 
478 890 264 53 45 37 
478 890 265 47 39 32 
478 890 266 42 35 31 
476 889 269 32 31 34 
477 889 268 34 31 33 
477 889 269 33 31 35 
476 889 270 33 32 35 
476 889 271 35 35 35 
477 888 271 36 35 36 
477 889 270 35 34 36 
477 889 271 36 35 36 
476 890 268 35 31 29 
476 890 269 33 31 32 
476 890 270 32 32 34 
478 888 268 37 36 36 
478 888 269 36 34 32 
478 889 268 33 33 34 
478 889 269 35 33 36 
479 888 268 38 36 36 
479 888 269 36 34 32 
478 888 270 35 33 32 
478 888 271 36 34 33 
478 889 270 35 34 34 
479 888 270 36 33 32 
465 895 272 34 31 30 
465 895 273 35 29 33 
464 895 274 39 34 37 
464 895 275 39 35 36 
465 895 274 37 32 35 
465 895 275 36 33 35 
466 895 272 34 27 32 
466 895 273 35 27 34 
467 894 273 37 30 35 
467 895 272 35 24 35 
467 895 273 37 28 36 
466 894 275 34 32 33 
466 895 274 37 32 35 
466 895 275 35 31 34 
467 894 274 36 33 32 
467 894 275 36 32 30 
467 895 274 38 33 36 
464 895 276 37 35 35 
464 895 277 36 34 34 
465 894 277 36 34 35 
465 895 276 35 33 34 
465 895 277 36 34 34 
464 894 278 35 35 36 
464 894 279 35 34 35 
464 895 278 36 34 35 
464 895 279 36 35 35 
465 894 278 36 35 35 
465 894 279 35 34 35 
467 893 278 35 33 33 
467 893 279 33 34 36 
466 894 276 35 33 34 
466 894 277 35 34 35 
467 894 276 37 33 30 
467 894 277 36 33 31 
466 894 278 32 32 34 
466 894 279 30 33 38 
467 894 278 32 33 35 
471 891 275 37 35 35 
471 891 276 36 35 35 
471 891 277 36 34 33 
471 891 278 36 34 33 
471 891 279 36 34 33 
469 893 272 35 33 31 
469 893 273 37 35 33 
468 893 274 36 33 29 
468 893 275 36 32 29 
469 893 274 39 35 33 
469 893 275 38 35 31 
468 894 272 35 30 33 
468 894 273 35 31 31 
469 894 272 34 32 31 
469 894 273 35 33 31 
468 894 274 35 32 30 
468 894 275 36 31 28 
470 893 272 36 34 32 
470 893 273 39 36 35 
471 892 272 36 34 33 
471 892 273 36 35 34 
471 893 272 36 34 33 
470 892 274 40 37 36 
470 892 275 38 36 35 
470 893 274 40 37 35 
470 893 275 40 37 34 
471 892 274 38 37 36 
471 892 275 36 34 34 
468 893 276 36 32 27 
468 893 277 37 34 32 
469 892 277 36 34 34 
469 893 276 37 33 31 
469 893 277 37 35 35 
468 893 278 37 34 34 
468 893 279 35 33 33 
469 892 278 37 35 34 
469 892 279 37 35 34 
469 893 278 37 35 35 
468 894 276 37 33 28 
468 894 277 38 33 28 
470 892 276 32 31 31 
470 892 277 33 31 31 
471 892 276 35 33 33 
471 892 277 35 33 33 
470 892 278 35 33 32 
470 892 279 36 34 33 
471 892 278 36 33 33 
471 892 279 36 34 33 
465 893 281 38 35 35 
465 893 282 41 37 34 
465 893 283 45 39 35 
464 894 280 36 34 34 
465 894 280 30 33 36 
465 894 281 37 35 35 
466 893 280 34 35 37 
466 893 281 39 36 33 
467 893 280 36 35 35 
467 893 281 39 35 33 
466 893 282 43 38 32 
466 893 283 45 39 34 
467 892 282 42 37 33 
467 892 283 42 37 35 
467 893 282 43 38 32 
467 893 283 44 39 35 
466 894 280 30 33 36 
466 892 284 43 39 36 
466 892 285 44 39 35 
466 893 284 44 39 36 
467 892 284 44 39 36 
467 892 285 46 40 34 
466 892 286 46 40 34 
467 892 286 48 41 35 
467 892 287 57 50 46 
470 891 281 36 30 31 
471 891 280 36 33 32 
471 891 281 36 33 33 
470 891 282 38 36 37 
470 891 283 39 37 38 
471 891 282 39 37 37 
471 891 283 41 38 36 
469 891 284 39 37 36 
469 891 285 47 42 39 
468 891 286 60 54 51 
468 891 287 68 62 58 
469 891 286 59 52 48 
469 891 287 65 58 53 
470 891 284 39 35 32 
470 891 285 50 43 38 
471 890 284 48 42 37 
471 890 285 55 49 44 
471 891 284 42 37 32 
471 891 285 54 47 42 
470 891 286 59 53 48 
470 891 287 62 55 50 
471 890 286 61 54 49 
471 890 287 62 55 50 
471 891 287 64 57 52 
468 892 280 36 34 33 
468 892 281 37 34 33 
468 893 280 34 32 32 
468 893 281 36 34 33 
469 892 280 37 34 34 
469 892 281 36 33 32 
468 892 282 38 34 34 
468 892 283 39 35 35 
469 892 282 37 32 33 
469 892 283 39 38 39 
470 892 280 36 33 32 
470 892 281 36 32 31 
470 892 282 37 34 35 
468 892 284 42 39 38 
468 892 285 46 41 36 
469 892 284 40 38 38 
468 892 286 56 50 45 
468 892 287 65 59 55 
478 887 273 37 34 33 
479 887 272 37 35 34 
479 887 273 37 34 33 
478 887 274 36 33 32 
478 887 275 37 34 32 
479 887 274 40 37 36 
479 887 275 44 40 36 
479 887 276 41 37 35 
479 887 277 37 36 35 
472 891 272 34 34 34 
472 891 273 36 35 35 
473 890 273 34 33 33 
473 891 272 32 32 33 
473 891 273 32 32 32 
472 891 274 36 35 35 
472 891 275 35 33 33 
473 890 274 34 33 33 
473 890 275 35 33 33 
473 891 274 35 34 35 
473 891 275 35 33 34 
475 889 272 34 33 34 
475 889 273 33 32 33 
475 889 274 31 30 30 
475 889 275 32 30 30 
474 890 272 32 33 34 
474 890 273 33 32 33 
475 890 272 34 34 35 
475 890 273 33 32 33 
474 890 274 33 31 32 
474 890 275 34 32 32 
472 891 276 35 33 33 
472 891 277 35 33 32 
473 890 276 37 35 35 
473 890 277 36 33 33 
473 891 276 35 33 33 
473 891 277 34 31 31 
472 891 278 36 33 32 
472 891 279 36 33 32 
473 890 278 34 32 31 
473 890 279 36 33 32 
473 891 278 35 32 31 
473 891 279 35 33 32 
475 889 276 36 33 32 
475 889 277 38 35 34 
475 889 278 41 37 33 
474 890 276 38 36 35 
474 890 277 38 36 35 
475 890 277 39 36 36 
474 890 278 35 33 32 
474 890 279 38 35 34 
475 890 278 39 35 33 
475 890 279 40 36 34 
472 892 272 35 34 34 
472 892 273 36 35 35 
476 888 273 34 33 33 
476 889 272 35 34 34 
476 889 273 34 33 34 
477 888 272 34 34 34 
477 888 273 33 32 32 
476 888 274 34 32 32 
476 888 275 35 33 32 
476 889 274 32 31 31 
476 889 275 33 31 30 
477 888 274 34 33 32 
477 888 275 37 35 35 
478 888 272 35 33 33 
478 888 273 31 30 29 
478 888 274 32 30 30 
478 888 275 39 36 34 
476 889 276 35 33 32 
476 889 277 39 36 33 
477 888 276 38 35 34 
477 888 277 41 37 33 
477 889 277 42 38 34 
476 889 278 41 37 34 
476 889 279 39 36 34 
477 889 278 40 38 36 
477 889 279 40 37 36 
478 888 276 42 38 34 
478 888 277 39 36 34 
479 888 277 38 37 37 
478 888 278 39 37 37 
478 888 279 42 39 36 
478 889 278 40 38 36 
478 889 279 42 39 38 
479 888 278 41 38 37 
479 888 279 44 39 35 
472 891 280 35 33 32 
472 891 281 36 34 33 
473 890 280 37 35 34 
473 890 281 37 34 33 
473 891 280 36 34 33 
473 891 281 37 34 33 
472 890 282 41 37 35 
472 890 283 42 37 32 
472 891 282 41 38 37 
472 891 283 42 38 34 
473 890 282 38 34 31 
473 890 283 42 36 31 
474 890 280 38 35 34 
474 890 281 36 34 32 
475 890 280 38 35 33 
475 890 281 40 36 33 
474 890 282 40 34 30 
474 890 283 44 38 34 
475 890 282 45 39 34 
475 890 283 49 42 35 
472 890 284 48 42 36 
472 890 285 56 50 45 
473 890 284 48 42 37 
473 890 285 57 50 46 
472 890 286 59 53 48 
472 890 287 58 52 48 
473 890 286 59 53 49 
473 890 287 57 52 48 
475 889 284 57 50 44 
474 890 284 52 45 40 
474 890 285 58 52 47 
475 890 284 56 48 42 
475 890 285 56 50 44 
474 890 286 59 53 49 
474 890 287 59 53 48 
475 890 286 60 52 47 
475 890 287 63 55 49 
476 889 280 39 36 33 
477 889 280 42 38 35 
477 889 281 47 40 35 
477 889 282 55 46 38 
476 890 280 39 35 33 
476 890 281 43 38 33 
476 890 282 49 41 33 
476 890 283 54 46 39 
477 890 282 52 44 37 
477 890 283 57 49 40 
478 889 280 46 40 35 
478 889 281 53 45 37 
479 888 280 51 43 36 
479 888 281 58 49 40 
479 889 280 52 44 36 
479 889 281 59 50 41 
478 889 282 57 48 39 
478 889 283 60 50 40 
479 889 282 61 51 41 
479 889 283 63 52 40 
478 890 283 60 50 40 
476 890 284 56 49 42 
476 890 285 57 49 41 
477 890 284 58 49 41 
477 890 285 63 53 45 
476 890 286 65 56 49 
476 890 287 68 59 52 
476 891 287 68 57 51 
477 890 286 68 59 50 
477 891 287 68 58 50 
479 889 284 66 54 42 
478 890 284 63 52 42 
478 890 285 70 59 49 
479 890 284 70 58 46 
479 890 285 72 61 49 
478 890 286 71 61 52 
478 890 287 70 61 52 
478 891 287 68 59 50 
479 890 286 73 62 52 
479 890 287 74 64 54 
467 892 288 60 54 49 
468 891 288 60 53 48 
469 891 288 59 52 47 
469 891 289 53 46 41 
469 891 290 44 41 40 
470 891 288 57 50 44 
470 891 289 51 45 40 
471 890 288 58 51 46 
471 891 288 57 50 45 
471 891 289 55 48 42 
470 891 290 47 43 40 
470 891 291 44 40 38 
471 891 290 50 44 39 
471 891 291 45 40 36 
468 892 288 61 55 51 
468 892 289 51 43 38 
468 892 290 46 40 35 
469 892 290 46 40 38 
469 892 291 43 39 36 
470 892 291 44 39 36 
471 892 291 45 39 35 
469 892 292 43 38 33 
470 892 292 44 38 33 
470 892 293 46 40 34 
471 892 292 44 37 31 
471 892 293 46 39 32 
470 892 294 47 40 34 
471 892 294 48 40 32 
471 892 295 48 39 31 
471 893 295 49 41 34 
472 890 288 58 51 46 
472 891 288 57 50 44 
472 891 289 55 47 40 
473 890 288 59 52 46 
473 891 288 57 49 43 
473 891 289 56 47 41 
472 891 290 51 44 37 
472 891 291 48 41 35 
473 891 290 52 44 38 
473 891 291 49 42 36 
474 890 288 59 52 47 
474 891 288 58 50 44 
474 891 289 56 48 42 
475 890 288 61 53 47 
475 891 288 60 51 45 
475 891 289 55 45 40 
474 891 290 50 41 36 
474 891 291 47 39 34 
475 891 290 46 37 33 
475 891 291 45 37 33 
472 892 291 46 39 33 
473 892 291 46 39 32 
474 892 291 45 38 33 
475 892 291 45 37 32 
472 892 292 46 38 30 
472 892 293 47 39 30 
473 892 292 46 38 29 
473 892 293 49 39 30 
472 892 294 50 40 31 
472 892 295 49 40 31 
472 893 295 51 43 36 
473 892 294 51 41 32 
473 892 295 53 43 34 
473 893 295 54 45 37 
474 892 292 48 39 33 
474 892 293 49 40 34 
475 892 292 47 39 32 
475 892 293 49 41 33 
474 892 294 51 44 37 
474 893 295 54 47 39 
475 892 294 53 45 37 
475 893 295 57 48 38 
476 891 288 63 52 46 
476 891 289 55 45 39 
477 891 288 63 53 45 
477 891 289 55 45 37 
476 891 290 46 39 34 
477 891 290 47 38 30 
477 891 291 47 38 30 
478 891 288 63 54 45 
478 891 289 56 46 35 
479 890 288 71 60 50 
478 891 290 51 42 33 
476 892 291 47 39 32 
477 892 291 48 39 31 
476 892 292 48 39 31 
476 892 293 50 41 31 
477 892 292 48 39 30 
477 892 293 53 42 32 
476 892 294 55 45 35 
476 893 295 59 48 37 
476 894 295 61 49 37 
472 894 296 51 42 34 
472 895 296 58 48 36 
473 894 296 55 45 36 
473 895 296 61 50 39 
473 895 297 67 55 44 
474 894 296 58 48 37 
474 895 296 64 52 39 
474 895 297 71 58 46 
475 894 296 61 50 38 
475 895 296 67 54 41 
475 895 297 72 59 46 
487 879 258 54 44 34 
487 879 259 48 39 30 
487 879 260 44 37 30 
487 879 261 41 35 29 
487 879 262 40 36 34 
487 879 263 41 37 34 
489 877 259 46 37 32 
488 879 256 71 61 52 
488 879 257 62 52 41 
489 878 257 53 43 33 
489 879 256 69 59 49 
489 879 257 57 47 35 
488 878 259 48 39 30 
488 879 258 55 45 34 
488 879 259 48 39 29 
489 878 258 52 43 34 
489 878 259 48 38 31 
489 879 258 50 40 29 
490 877 257 41 33 24 
491 877 256 49 42 34 
490 877 258 45 37 29 
490 877 259 46 40 36 
490 878 256 55 44 31 
490 878 257 48 40 30 
490 879 256 68 58 48 
491 878 256 59 49 38 
490 878 258 53 44 35 
489 877 260 44 39 36 
489 877 261 44 39 36 
488 878 260 46 37 31 
488 878 261 44 39 36 
488 879 260 45 36 28 
488 879 261 44 38 34 
489 878 260 46 39 35 
489 878 261 43 38 35 
488 878 262 43 38 35 
488 879 262 42 38 35 
488 879 263 42 38 36 
489 878 262 44 39 36 
488 879 264 42 38 35 
483 887 257 67 59 53 
482 887 259 58 49 41 
483 887 258 68 60 54 
483 887 259 54 46 38 
482 887 260 50 43 36 
482 887 261 42 36 30 
483 886 261 38 30 30 
483 887 260 44 38 31 
483 887 261 38 33 28 
482 887 262 38 32 28 
482 887 263 37 33 33 
483 886 262 37 32 33 
483 886 263 36 33 34 
483 887 262 37 30 29 
483 887 263 36 33 34 
485 881 256 77 71 65 
485 881 257 70 62 55 
485 881 258 62 54 47 
485 881 259 48 41 35 
484 882 256 76 69 63 
484 883 256 77 70 63 
484 883 257 70 63 58 
485 882 256 75 68 62 
485 882 257 70 62 55 
485 883 257 68 60 53 
484 883 258 61 54 48 
484 883 259 54 47 41 
485 882 258 61 54 45 
485 882 259 49 41 34 
485 883 258 61 54 47 
485 883 259 48 42 36 
486 880 256 77 69 62 
486 880 257 69 61 53 
486 881 256 76 69 63 
486 881 257 70 62 54 
487 880 256 78 70 63 
487 880 257 68 59 51 
486 880 258 60 51 42 
486 880 259 44 35 28 
486 881 258 58 50 41 
486 881 259 47 40 33 
487 880 258 56 48 39 
487 880 259 45 37 28 
485 881 260 40 33 31 
485 881 261 36 29 29 
485 882 260 42 34 32 
485 882 261 38 31 31 
485 883 260 41 35 34 
485 883 261 39 32 33 
485 882 262 37 34 33 
485 882 263 39 35 33 
485 883 262 38 32 33 
485 883 263 38 34 31 
486 880 260 40 33 28 
486 880 261 39 34 29 
486 881 260 41 35 32 
486 881 261 37 32 30 
487 880 260 40 33 27 
487 880 261 37 30 24 
486 880 262 39 35 32 
486 880 263 40 36 33 
486 881 262 39 36 33 
486 881 263 41 37 34 
487 880 262 38 34 31 
487 880 263 40 35 33 
486 882 263 40 36 33 
484 884 256 76 68 62 
484 884 257 70 63 58 
484 885 256 74 67 60 
484 885 257 69 62 57 
484 884 258 59 52 46 
484 884 259 48 42 35 
484 885 258 59 51 44 
484 885 259 49 41 34 
484 886 256 73 65 58 
484 886 257 68 60 53 
484 887 256 70 62 55 
484 887 257 71 63 56 
485 887 256 75 64 56 
484 886 258 58 49 41 
484 886 259 49 41 33 
486 886 256 79 66 58 
486 887 256 88 71 62 
486 887 257 98 74 62 
487 886 256 86 70 60 
487 887 256 108 79 62 
487 887 257 80 66 56 
487 887 258 55 45 35 
484 884 260 42 35 32 
484 884 261 40 32 32 
484 885 260 41 34 29 
484 885 261 38 31 31 
485 884 261 40 32 33 
484 884 262 36 30 31 
484 884 263 34 31 29 
484 885 262 37 31 32 
484 885 263 35 33 33 
485 884 262 35 29 31 
485 884 263 34 31 30 
484 886 260 41 34 27 
484 886 261 38 31 29 
484 886 262 38 32 33 
484 886 263 37 35 34 
481 887 265 34 33 33 
480 887 267 37 35 34 
481 887 266 34 33 33 
481 887 267 37 34 32 
483 885 266 36 33 31 
483 885 267 37 34 32 
482 886 265 35 33 32 
482 887 264 36 34 34 
482 887 265 35 34 34 
483 886 264 36 34 34 
483 886 265 37 34 33 
483 887 264 36 34 34 
482 886 266 36 33 31 
482 886 267 38 34 33 
482 887 266 35 33 32 
482 887 267 36 33 31 
483 886 266 37 34 32 
483 886 267 38 35 33 
480 887 268 37 34 33 
480 887 269 35 32 31 
481 886 269 34 31 28 
481 887 268 35 32 30 
481 887 269 34 31 30 
480 887 270 36 33 32 
480 887 271 37 35 34 
481 886 270 35 32 30 
481 886 271 37 34 32 
481 887 270 35 33 31 
482 885 269 35 32 30 
483 884 268 35 31 29 
483 884 269 34 31 30 
483 885 268 36 33 32 
483 885 269 35 32 30 
482 885 270 37 34 32 
482 885 271 37 34 32 
483 884 270 37 34 32 
483 884 271 39 37 36 
483 885 270 38 35 33 
483 885 271 38 35 33 
482 886 268 36 32 31 
482 886 269 35 32 30 
482 886 270 36 32 30 
482 886 271 37 33 31 
485 882 264 36 32 29 
485 883 264 37 32 29 
485 883 265 36 31 28 
484 883 267 37 34 33 
485 883 266 37 33 30 
485 883 267 37 33 31 
486 881 264 38 34 32 
486 881 265 37 33 31 
487 880 264 39 35 32 
487 880 265 39 35 32 
487 881 265 38 35 32 
486 881 266 38 34 32 
486 881 267 41 37 34 
487 880 266 39 35 33 
487 881 266 39 36 34 
487 881 267 40 36 34 
486 882 264 36 32 29 
486 882 265 36 31 29 
486 882 266 39 34 32 
486 882 267 41 37 34 
484 883 268 38 35 35 
484 883 269 40 37 37 
485 883 268 38 35 33 
485 883 269 41 38 36 
485 883 270 42 39 38 
485 883 271 37 35 33 
486 882 268 42 38 36 
486 882 269 42 37 35 
484 884 264 36 33 31 
484 884 265 35 32 30 
484 885 264 33 31 29 
484 885 265 32 29 27 
485 884 264 39 35 32 
484 884 266 33 31 29 
484 884 267 34 31 30 
484 885 266 30 27 25 
484 884 268 35 32 30 
484 884 269 36 33 32 
484 884 270 39 37 36 
484 884 271 38 36 36 
480 889 259 71 62 56 
481 889 258 74 65 58 
481 889 259 69 61 55 
480 890 257 76 64 55 
480 891 256 76 65 57 
480 891 257 76 66 57 
481 890 257 66 55 46 
481 891 256 60 50 40 
481 891 257 59 49 38 
480 890 258 78 67 58 
480 890 259 72 64 57 
480 891 258 76 65 56 
481 890 258 74 63 55 
482 888 257 40 35 31 
482 889 257 61 51 42 
483 888 256 69 58 49 
483 888 257 72 62 53 
483 889 256 60 51 43 
483 889 257 63 54 46 
482 888 258 66 59 52 
482 888 259 61 54 48 
482 889 258 70 62 57 
482 889 259 67 60 53 
482 890 256 60 50 41 
482 890 257 69 57 49 
482 891 256 60 50 40 
483 890 256 59 50 40 
483 891 256 57 46 35 
480 889 260 69 59 53 
480 889 261 63 54 45 
481 888 260 60 51 43 
481 888 261 56 49 41 
481 889 260 66 58 52 
481 889 261 59 50 43 
480 888 263 39 31 27 
480 889 262 57 49 41 
480 889 263 46 39 32 
481 888 262 50 42 36 
481 888 263 39 31 29 
480 890 260 72 63 56 
482 888 260 52 44 38 
482 888 261 49 42 36 
482 888 262 43 37 31 
482 888 263 39 32 31 
480 892 256 70 59 48 
481 892 256 61 51 41 
484 888 256 60 51 43 
484 889 256 59 50 42 
484 889 257 58 48 39 
485 888 256 60 51 42 
485 888 257 58 48 38 
485 889 257 58 48 38 
485 889 258 61 48 37 
484 890 256 58 48 37 
484 890 257 57 47 36 
484 891 256 56 44 30 
485 890 257 60 46 34 
485 891 257 63 47 34 
485 890 258 60 46 35 
486 888 257 60 49 39 
486 888 258 56 44 33 
486 889 258 59 46 35 
486 889 259 61 47 37 
487 888 258 55 45 34 
487 888 259 56 44 33 
487 889 259 59 44 35 
486 891 257 67 51 40 
486 890 258 60 45 34 
486 890 259 70 52 42 
486 891 258 64 48 38 
487 890 259 67 49 39 
487 891 258 88 67 56 
487 891 259 65 48 37 
484 892 256 60 48 35 
485 892 256 64 50 37 
485 892 257 77 59 46 
486 892 257 72 54 44 
487 892 257 69 52 42 
487 892 258 67 50 40 
480 888 264 35 27 28 
480 888 265 33 30 30 
480 889 264 37 29 26 
481 888 264 35 31 31 
481 888 265 33 31 31 
480 888 266 34 33 33 
480 888 267 37 36 36 
481 888 266 32 32 32 
480 888 268 38 35 34 
488 880 256 76 68 61 
488 886 256 75 64 56 
488 886 257 78 65 56 
488 887 257 82 67 57 
489 886 256 84 69 58 
489 886 257 85 69 57 
489 887 257 80 63 51 
488 887 258 68 54 45 
489 887 258 79 61 51 
490 886 256 73 57 45 
490 887 256 69 53 41 
488 888 259 60 45 37 
488 889 259 63 44 37 
489 888 258 66 51 42 
489 888 259 62 46 39 
489 891 256 82 63 47 
489 891 257 81 62 48 
488 890 259 66 48 38 
488 891 258 76 57 49 
488 891 259 70 52 43 
489 890 258 85 66 55 
489 891 258 80 61 51 
488 890 260 67 49 41 
480 887 272 37 35 34 
480 887 273 38 35 34 
481 886 272 37 34 32 
481 886 273 37 34 32 
480 887 274 40 36 34 
480 887 275 41 38 36 
481 886 274 39 35 33 
481 886 275 41 38 38 
482 885 272 36 33 30 
482 885 273 36 33 31 
483 884 272 38 36 35 
483 884 273 36 34 33 
483 885 272 37 34 33 
483 885 273 36 34 32 
482 885 274 37 34 33 
482 885 275 42 38 37 
483 885 274 41 36 36 
483 885 275 44 37 35 
482 886 272 35 32 30 
482 886 273 37 34 32 
482 886 274 38 35 33 
482 886 275 41 37 37 
480 887 276 35 33 33 
480 887 277 38 36 36 
481 886 276 40 37 37 
481 887 276 38 36 36 
481 887 277 41 37 34 
480 887 278 44 39 35 
481 887 278 49 42 35 
481 887 279 59 50 42 
483 885 276 46 38 32 
482 886 276 42 37 36 
482 886 277 45 37 30 
482 887 277 46 38 30 
483 886 276 45 37 30 
483 886 277 54 45 37 
482 886 278 60 50 41 
482 887 278 57 47 38 
482 887 279 63 53 43 
485 883 272 35 32 30 
484 884 272 35 34 34 
484 884 273 37 34 33 
485 884 272 35 32 31 
484 884 274 41 36 35 
484 885 274 42 35 35 
481 887 280 66 56 47 
482 887 280 65 55 44 
480 888 278 43 39 36 
480 888 279 52 44 37 
481 888 279 60 51 43 
480 888 280 58 50 42 
480 888 281 61 51 41 
480 889 281 61 50 39 
481 888 280 65 55 46 
481 888 281 66 55 44 
480 889 282 65 53 41 
480 889 283 70 57 45 
481 888 282 72 59 46 
481 889 282 71 58 45 
480 889 284 71 57 43 
480 890 284 70 58 44 
480 890 285 73 61 49 
459 900 267 34 33 33 
460 899 266 40 36 33 
460 899 267 38 35 33 
461 899 266 42 35 30 
461 899 267 40 35 30 
462 899 265 50 40 30 
463 898 265 55 44 32 
462 898 266 48 39 30 
462 898 267 46 38 30 
462 899 266 46 37 28 
462 899 267 44 37 30 
463 898 266 50 40 28 
463 898 267 49 40 30 
460 899 268 38 35 34 
460 899 269 37 35 35 
461 898 269 40 35 31 
461 899 268 40 36 33 
461 899 269 40 36 34 
460 898 270 42 36 32 
461 898 270 40 34 29 
461 898 271 38 35 34 
463 897 269 42 35 32 
462 897 270 38 35 33 
462 897 271 35 34 35 
463 897 270 38 34 33 
463 897 271 34 34 35 
462 898 268 42 35 29 
462 898 269 41 33 28 
463 898 268 45 36 30 
463 898 269 42 34 30 
462 898 270 40 34 30 
462 898 271 38 35 34 
460 900 266 39 35 33 
460 900 267 36 33 32 
460 900 268 36 34 34 
461 897 272 36 35 37 
461 898 272 37 36 37 
462 897 272 37 36 36 
462 897 273 38 37 37 
463 896 273 38 36 35 
463 897 272 36 35 36 
463 897 273 37 36 36 
462 896 274 43 39 37 
462 896 275 41 38 37 
462 897 274 41 39 38 
463 896 274 40 37 35 
463 896 275 39 37 36 
463 896 276 38 36 35 
463 896 277 38 36 36 
466 896 263 74 61 48 
467 896 263 73 59 48 
464 897 264 70 58 47 
464 897 265 64 53 43 
465 896 264 72 58 46 
465 897 264 72 58 45 
465 897 265 65 51 42 
464 897 266 56 45 32 
464 897 267 50 42 34 
465 896 267 50 41 33 
465 897 266 56 44 34 
465 897 267 49 42 39 
464 898 264 65 54 43 
464 898 265 58 47 34 
464 898 266 53 42 28 
466 896 264 72 57 50 
466 896 265 66 50 44 
467 896 264 72 57 51 
467 896 265 66 54 43 
466 896 266 56 44 29 
466 896 267 53 42 28 
467 896 266 58 46 32 
467 896 267 55 45 35 
464 897 268 45 38 35 
464 897 269 40 35 34 
465 896 268 43 38 35 
465 896 269 37 36 37 
465 897 268 42 37 37 
464 896 270 35 35 37 
464 896 271 34 33 35 
464 897 270 35 34 35 
464 897 271 39 36 36 
465 896 270 35 35 37 
465 896 271 32 32 33 
466 896 268 48 39 30 
466 896 269 43 37 33 
467 896 268 48 41 33 
466 896 270 38 35 34 
466 896 271 33 31 32 
464 896 272 35 33 33 
464 896 273 39 35 33 
465 896 272 33 31 30 
465 896 273 35 32 31 
464 896 274 40 36 35 
464 896 275 39 36 38 
473 896 297 75 63 51 
473 897 297 83 69 57 
474 896 297 76 63 51 
474 897 297 82 69 58 
475 896 297 77 64 51 
475 897 297 82 69 56 
474 897 298 85 71 59 
475 897 298 85 71 58 
474 898 298 86 72 58 
