ply
format ascii 1.0
comment Created by CloudCompare v2.10.1 (Zephyrus)
comment Created 1/31/20 11:43 AM
obj_info Generated by CloudCompare!
element vertex 2157
property float x
property float y
property float z
property uchar red
property uchar green
property uchar blue
end_header
336 799 157 61 49 43 
337 799 156 59 47 42 
345 784 144 55 44 42 
345 784 145 55 44 42 
345 785 145 57 47 44 
344 784 147 55 44 42 
344 785 147 56 46 42 
345 784 146 55 44 40 
345 785 146 57 46 43 
345 785 147 56 47 43 
345 786 145 57 47 44 
345 787 145 57 47 44 
344 786 147 55 46 42 
344 787 147 55 45 42 
345 786 146 56 46 43 
345 786 147 56 47 44 
345 787 146 57 47 43 
346 784 144 55 44 42 
346 785 144 55 45 41 
346 785 145 57 47 44 
346 786 144 55 45 41 
346 786 145 57 46 43 
346 787 144 57 46 42 
346 787 145 57 47 43 
344 784 148 57 46 45 
344 784 149 58 47 44 
344 785 148 55 45 42 
344 785 149 56 46 42 
344 786 148 54 45 41 
344 787 148 55 45 41 
345 788 144 58 47 43 
345 788 145 58 46 44 
345 789 144 58 45 41 
345 789 145 57 46 43 
344 788 147 57 45 41 
344 789 146 57 46 41 
344 789 147 57 46 41 
345 788 146 58 47 44 
345 789 146 58 46 42 
344 791 145 57 44 41 
345 790 144 57 45 40 
345 790 145 57 45 41 
345 791 144 57 45 39 
345 791 145 57 45 40 
344 790 146 57 44 40 
344 790 147 57 46 41 
344 791 146 56 44 40 
344 791 147 55 45 40 
345 790 146 57 44 41 
346 788 144 59 47 43 
346 789 144 59 46 41 
346 790 144 57 44 39 
344 788 148 56 46 41 
344 792 145 55 44 40 
344 793 145 57 46 41 
345 792 144 56 44 39 
345 792 145 56 44 40 
345 793 144 57 46 39 
345 793 145 57 46 40 
344 792 146 56 46 41 
344 792 147 55 45 40 
344 793 146 57 46 41 
344 794 145 59 47 42 
344 795 145 58 46 41 
345 794 144 58 47 39 
345 794 145 58 47 40 
345 795 144 60 47 40 
345 795 145 60 48 41 
344 794 146 58 47 42 
344 795 146 57 45 41 
344 796 145 59 48 43 
344 797 145 58 47 43 
345 796 144 60 48 41 
345 796 145 59 48 43 
345 797 144 59 47 41 
345 797 145 58 48 42 
344 796 146 58 47 44 
344 797 146 58 48 43 
345 798 144 60 49 43 
345 798 145 59 48 42 
345 799 145 61 50 43 
344 798 146 59 48 44 
344 798 147 60 49 45 
344 799 146 59 48 43 
344 799 147 60 50 46 
345 798 146 58 48 43 
345 799 146 59 48 41 
320 800 156 85 66 55 
320 801 156 85 66 56 
321 800 156 84 65 55 
321 801 156 84 65 54 
320 802 156 85 66 56 
320 803 157 85 65 55 
321 802 156 85 65 55 
321 803 157 84 65 54 
322 800 156 83 64 54 
322 801 156 84 64 54 
323 800 156 82 63 54 
323 801 156 82 63 54 
323 801 157 81 62 54 
322 802 156 83 64 54 
322 802 157 84 64 54 
322 803 157 83 64 53 
323 802 157 82 63 53 
323 803 157 82 63 53 
323 803 158 82 63 54 
320 804 157 85 65 55 
320 805 157 85 66 55 
321 804 157 85 65 55 
320 805 158 85 65 55 
321 804 158 85 65 55 
321 805 158 84 65 54 
320 806 158 85 65 56 
320 807 158 84 65 56 
321 806 158 84 65 55 
321 807 158 83 65 54 
322 804 158 84 65 54 
322 805 158 83 65 54 
323 804 158 82 64 54 
323 805 158 82 64 54 
323 805 159 82 63 54 
322 806 158 83 65 54 
322 806 159 83 65 54 
322 807 159 83 65 55 
323 806 159 82 64 54 
323 807 159 82 64 54 
324 800 156 82 63 54 
324 800 157 82 63 54 
324 801 157 82 63 54 
325 800 157 80 62 53 
325 801 157 80 62 52 
324 802 157 81 62 53 
324 803 157 82 63 53 
325 802 157 80 62 52 
325 803 157 80 62 52 
324 803 158 82 64 54 
325 803 158 80 62 52 
326 800 157 78 61 52 
326 801 157 78 61 51 
326 801 158 77 60 50 
327 800 158 77 60 51 
327 801 158 76 59 50 
326 802 157 79 61 51 
326 802 158 78 61 51 
326 803 158 79 61 51 
327 802 158 76 60 51 
327 803 158 76 60 51 
327 803 159 76 60 50 
324 804 158 81 62 53 
324 805 158 80 62 52 
324 805 159 80 61 52 
325 804 158 80 62 52 
325 804 159 80 62 52 
325 805 159 80 62 52 
324 806 159 81 63 53 
325 806 159 81 62 53 
326 804 158 79 61 52 
326 804 159 79 61 52 
326 805 159 79 61 52 
327 804 159 76 60 51 
327 805 159 77 60 50 
320 808 158 84 64 55 
320 809 158 84 64 54 
321 808 158 83 64 54 
321 808 159 84 65 54 
321 809 158 84 65 54 
321 809 159 84 65 54 
320 810 159 84 65 54 
320 811 159 86 66 56 
321 810 159 84 65 54 
321 811 159 85 65 55 
322 808 159 84 65 55 
322 809 159 84 65 55 
323 808 159 83 64 54 
323 809 159 83 64 54 
322 810 159 84 65 55 
322 811 159 84 64 55 
323 810 159 83 64 55 
320 812 159 86 66 56 
328 800 158 75 59 51 
328 801 158 75 59 50 
329 800 158 73 57 50 
329 800 159 72 56 50 
329 801 159 73 57 51 
328 802 158 74 58 50 
328 802 159 74 58 50 
328 803 159 74 58 50 
329 802 159 72 57 50 
329 803 159 72 57 50 
330 800 159 70 55 49 
330 801 159 71 56 50 
331 800 158 68 53 47 
331 800 159 69 54 49 
331 801 159 68 54 48 
330 802 159 71 56 50 
330 803 159 70 56 50 
331 802 159 68 54 50 
331 803 159 69 55 49 
328 804 159 75 59 51 
329 804 159 73 57 50 
330 804 159 70 56 49 
331 804 159 68 54 48 
332 800 158 67 54 47 
332 800 159 67 54 47 
332 801 159 67 53 48 
333 800 158 65 52 47 
333 800 159 64 51 46 
333 801 159 65 52 47 
332 802 159 66 54 48 
332 803 159 66 53 48 
333 802 159 65 52 48 
333 803 159 65 52 47 
335 800 157 63 50 45 
334 800 158 63 51 46 
334 801 158 63 51 46 
334 801 159 64 51 46 
335 800 158 63 51 45 
335 801 158 63 50 45 
335 801 159 63 50 46 
334 802 159 64 51 47 
334 803 159 64 51 46 
335 802 159 64 50 46 
335 803 159 63 50 45 
332 804 159 66 53 47 
332 805 159 66 53 47 
333 804 159 65 52 46 
333 805 159 65 52 46 
332 806 159 65 52 47 
333 806 159 65 52 47 
334 804 159 64 51 46 
334 805 159 65 51 46 
335 804 159 63 50 44 
335 805 159 64 50 45 
334 806 159 64 51 46 
335 806 159 63 50 46 
335 807 159 63 50 45 
335 808 159 63 50 46 
343 800 147 56 48 45 
341 800 149 58 48 47 
340 800 151 53 45 43 
341 800 150 55 46 44 
341 800 151 54 46 44 
341 801 151 55 47 45 
342 800 148 56 47 45 
342 800 149 56 47 45 
342 801 149 55 47 46 
343 800 148 55 47 45 
343 800 149 56 48 45 
343 801 148 56 48 45 
343 801 149 54 46 44 
342 800 150 54 46 44 
342 801 150 54 46 43 
342 801 151 54 45 43 
343 801 150 54 45 43 
343 802 149 51 43 41 
342 802 151 54 46 42 
343 802 150 52 44 40 
343 802 151 53 45 41 
343 803 150 52 43 40 
343 803 151 54 45 42 
337 800 155 59 47 42 
338 800 153 58 48 44 
339 800 152 54 46 43 
339 800 153 57 47 44 
338 800 154 58 48 44 
338 800 155 60 48 43 
338 801 155 59 48 43 
339 800 154 57 47 44 
339 801 154 56 46 44 
339 801 155 56 46 44 
336 800 157 61 48 43 
336 801 157 61 48 43 
337 800 156 59 47 42 
337 800 157 59 47 43 
337 801 157 59 47 42 
336 800 158 62 49 43 
336 801 158 62 49 43 
337 801 158 60 48 43 
336 802 158 62 49 44 
336 802 159 63 50 44 
336 803 159 62 49 44 
337 802 158 60 48 43 
337 803 158 61 48 42 
338 800 156 60 47 43 
338 801 156 59 48 43 
338 801 157 59 48 43 
339 801 156 57 47 44 
338 802 157 59 48 44 
339 802 156 57 47 44 
339 802 157 57 47 44 
339 803 157 58 48 45 
338 802 158 59 48 43 
338 803 158 60 49 44 
339 803 158 58 48 44 
336 804 159 62 49 44 
336 805 159 63 50 45 
337 804 158 61 49 44 
337 804 159 61 49 43 
337 805 158 60 48 43 
337 805 159 61 48 44 
336 806 159 62 50 44 
336 807 159 62 49 44 
337 806 158 60 48 43 
337 806 159 60 48 43 
337 807 159 60 48 42 
338 804 158 60 48 44 
338 805 158 60 47 43 
339 804 158 58 47 43 
339 805 158 59 47 44 
338 806 158 60 48 44 
338 807 158 61 49 45 
338 807 159 60 48 43 
339 806 158 60 48 45 
339 807 158 61 48 44 
340 800 152 51 44 42 
340 801 152 52 44 42 
340 801 153 55 47 44 
341 801 152 55 46 44 
341 801 153 55 47 44 
340 801 154 55 46 44 
340 801 155 56 47 45 
341 801 154 54 46 44 
341 802 152 53 45 42 
341 802 153 55 47 45 
340 802 155 55 44 43 
341 802 154 55 46 44 
341 802 155 57 46 45 
341 803 154 56 46 45 
341 803 155 56 46 45 
342 801 152 58 49 46 
342 802 152 56 47 43 
342 802 153 55 47 43 
342 803 152 57 48 43 
342 803 153 56 48 43 
343 803 152 55 47 43 
342 802 154 56 47 44 
342 803 154 56 47 44 
342 803 155 57 48 46 
340 802 156 57 46 44 
340 803 157 57 47 44 
341 803 156 58 47 45 
342 804 153 55 47 43 
343 804 152 57 48 45 
343 804 153 58 49 45 
343 805 153 57 48 45 
342 804 154 56 47 43 
342 804 155 56 46 44 
342 805 154 57 48 45 
342 805 155 56 47 44 
343 804 154 56 47 43 
343 805 154 58 48 46 
343 806 153 56 47 45 
343 807 153 54 45 44 
342 806 155 58 48 45 
343 806 154 59 49 47 
343 806 155 56 46 44 
343 807 154 56 47 46 
343 807 155 59 48 47 
340 804 157 56 46 43 
340 805 157 57 46 43 
341 804 156 58 47 45 
341 804 157 58 47 45 
341 805 156 56 46 44 
341 805 157 58 47 45 
340 804 158 57 46 43 
340 805 158 57 47 44 
341 806 156 59 49 46 
341 806 157 59 48 46 
341 807 157 59 49 47 
340 806 158 58 47 44 
340 807 158 58 46 43 
341 807 158 59 48 46 
342 804 156 57 47 45 
342 805 156 57 47 44 
342 806 156 59 48 46 
342 807 156 59 49 46 
336 808 159 62 49 44 
336 809 159 61 49 45 
337 808 159 61 49 44 
337 809 159 61 49 44 
337 810 159 61 49 43 
338 808 159 60 48 43 
338 809 159 62 49 45 
339 808 158 59 47 44 
339 808 159 60 48 45 
339 809 159 60 48 46 
338 810 159 61 48 44 
338 811 159 61 49 46 
339 810 159 59 48 45 
339 811 159 60 49 46 
339 812 159 62 50 47 
343 808 155 59 49 47 
343 809 155 60 49 47 
343 810 155 59 49 47 
341 808 157 58 49 48 
340 808 158 59 47 46 
340 808 159 59 48 46 
340 809 158 59 48 46 
340 809 159 59 49 47 
341 808 158 59 48 47 
341 809 158 60 49 47 
340 810 158 59 48 46 
340 810 159 59 48 45 
340 811 159 60 48 46 
341 810 158 60 49 46 
341 811 158 60 50 47 
341 811 159 60 50 47 
342 808 156 58 48 45 
342 808 157 58 48 45 
342 809 157 59 49 45 
343 808 156 60 49 46 
343 809 156 59 49 46 
343 809 157 60 50 47 
342 808 158 59 49 46 
342 809 158 59 50 47 
342 810 157 59 49 45 
342 811 157 60 50 46 
343 810 156 59 51 47 
343 810 157 61 52 49 
343 811 156 58 49 46 
343 811 157 60 50 46 
342 810 158 59 49 45 
342 811 158 60 50 47 
340 812 159 61 50 47 
340 813 159 61 51 47 
341 812 159 60 50 47 
341 813 159 60 51 48 
341 814 159 60 50 47 
341 815 159 61 51 47 
343 812 157 59 50 46 
342 812 158 60 51 47 
342 813 158 61 51 48 
342 814 158 60 51 49 
342 814 159 61 51 48 
342 815 158 59 51 48 
342 815 159 61 52 49 
344 800 147 57 48 44 
344 800 148 56 48 44 
344 801 148 56 47 44 
344 801 149 54 46 43 
344 802 148 55 46 42 
344 802 149 55 46 42 
344 803 149 56 46 41 
344 803 150 52 44 40 
344 804 150 55 45 42 
344 804 151 53 45 41 
344 805 151 56 46 43 
344 804 152 56 48 44 
344 805 152 56 47 45 
344 806 152 57 46 45 
344 806 153 55 45 44 
342 816 159 60 50 48 
342 817 159 58 50 48 
323 807 160 81 63 53 
324 806 160 81 62 54 
324 807 160 81 63 53 
325 806 160 80 62 52 
325 807 160 80 62 52 
326 805 160 78 61 52 
327 805 160 76 59 50 
326 806 160 78 61 52 
326 807 160 78 60 52 
327 806 160 77 60 51 
327 807 160 76 59 51 
323 808 160 82 63 53 
323 809 160 81 63 53 
322 811 160 84 64 55 
323 810 160 83 64 54 
323 811 160 83 64 54 
320 812 160 86 66 56 
320 813 160 86 65 55 
321 812 160 85 66 56 
321 813 160 85 65 55 
320 814 160 86 66 56 
320 814 161 87 67 57 
320 815 161 86 66 56 
321 814 160 85 65 54 
321 814 161 85 65 55 
321 815 161 85 65 55 
322 812 160 85 64 55 
322 813 160 84 64 54 
323 812 160 83 64 54 
323 813 160 82 62 52 
322 814 160 84 64 53 
322 814 161 85 65 54 
322 815 161 84 64 54 
323 814 161 82 63 52 
323 815 161 83 63 53 
322 815 162 83 63 52 
323 815 162 83 63 53 
324 808 160 80 63 53 
324 809 160 81 63 52 
325 808 160 80 62 52 
325 809 160 80 62 52 
325 809 161 80 62 52 
324 810 160 80 63 52 
324 811 160 81 63 53 
324 811 161 80 63 53 
325 810 161 80 62 52 
325 811 161 79 61 52 
326 808 160 78 60 52 
326 808 161 79 61 53 
326 809 161 78 60 52 
327 808 160 77 59 51 
327 808 161 76 58 51 
327 809 161 76 58 51 
326 810 161 78 60 52 
326 811 161 77 60 52 
327 810 161 76 58 51 
327 811 161 75 58 51 
324 812 160 81 63 53 
324 812 161 80 62 52 
324 813 160 81 61 50 
324 813 161 80 61 50 
325 812 161 79 60 51 
325 813 161 78 60 50 
324 814 161 81 62 51 
325 814 161 80 61 51 
324 815 162 81 61 50 
325 814 162 79 61 50 
325 815 162 79 60 50 
325 815 163 80 61 51 
326 812 161 77 59 50 
326 813 161 76 58 49 
327 812 161 75 58 50 
326 813 162 75 57 49 
327 812 162 72 56 49 
327 813 162 74 57 49 
326 814 162 77 60 51 
326 815 163 78 59 50 
327 814 162 75 58 51 
327 814 163 75 58 51 
327 815 163 75 58 51 
327 815 164 74 57 51 
328 804 160 74 58 51 
328 805 160 74 59 50 
329 804 160 73 57 50 
329 805 160 72 57 50 
328 806 160 74 58 51 
328 807 160 75 59 51 
328 807 161 73 58 50 
329 806 160 73 57 50 
329 806 161 72 57 50 
329 807 161 72 57 51 
330 804 160 70 56 48 
330 805 160 71 57 49 
331 805 160 69 55 48 
330 806 160 70 55 48 
330 807 161 70 55 49 
331 806 160 68 54 48 
331 807 160 68 54 48 
331 807 161 69 54 49 
332 805 160 67 54 47 
332 806 160 66 52 47 
332 807 160 67 53 49 
333 806 160 65 52 48 
333 807 160 65 52 48 
334 807 160 64 51 46 
328 808 161 73 57 50 
328 809 161 74 58 50 
329 808 161 72 57 50 
329 809 161 71 56 50 
328 810 161 73 56 50 
328 811 161 73 57 51 
329 810 161 71 54 48 
328 811 162 72 57 50 
329 810 162 71 55 48 
329 811 162 72 56 49 
330 808 161 70 55 49 
330 809 161 69 54 48 
331 808 160 68 54 48 
331 808 161 68 54 48 
331 809 161 67 53 47 
330 810 162 70 54 47 
330 811 162 71 54 48 
331 810 162 68 53 48 
331 811 162 68 53 48 
328 812 161 73 57 51 
328 812 162 72 56 50 
328 813 162 71 56 49 
329 812 162 71 56 49 
329 813 162 70 55 48 
329 813 163 70 54 48 
328 814 162 72 57 51 
328 814 163 72 56 50 
328 815 163 74 57 51 
329 814 163 71 55 49 
330 812 162 70 54 48 
330 813 163 69 53 48 
331 812 162 69 53 48 
331 812 163 68 53 48 
331 813 163 68 53 47 
330 814 163 69 54 49 
331 814 163 68 54 48 
328 815 164 74 57 51 
329 815 164 72 55 50 
330 814 164 70 54 49 
330 815 164 71 55 49 
331 814 164 68 54 48 
331 815 164 70 56 49 
331 815 165 70 56 48 
332 808 160 66 53 48 
332 808 161 66 52 48 
332 809 161 66 53 48 
333 808 160 65 52 48 
333 809 161 65 53 48 
332 810 162 66 53 48 
332 811 162 65 52 48 
332 811 163 65 51 48 
333 810 162 64 51 46 
333 811 163 65 51 47 
334 808 160 64 52 47 
334 809 160 64 52 46 
334 809 161 63 51 46 
335 808 160 63 50 46 
335 809 160 63 50 46 
335 809 161 62 49 44 
334 810 161 64 51 46 
335 810 161 62 51 45 
334 810 162 63 51 45 
334 811 163 63 51 46 
335 810 162 61 50 44 
335 811 162 62 51 45 
335 811 163 63 51 46 
332 812 163 66 52 48 
332 813 163 66 53 48 
333 812 163 65 52 47 
334 812 163 64 51 46 
335 812 163 64 51 46 
332 813 164 66 52 48 
333 813 164 66 52 48 
332 814 164 67 53 48 
332 815 165 68 54 47 
333 814 164 67 52 48 
333 814 165 67 52 47 
333 815 165 67 53 47 
334 812 164 65 52 47 
334 813 164 66 52 47 
335 812 164 64 51 45 
335 813 164 65 52 46 
334 814 164 66 52 47 
334 814 165 66 52 47 
334 815 165 66 52 45 
335 814 164 66 52 47 
335 814 165 65 52 46 
335 815 165 65 52 46 
334 815 166 66 52 46 
335 815 166 66 52 46 
320 816 162 86 65 56 
320 817 162 86 65 56 
320 817 163 86 66 56 
321 816 162 85 65 55 
321 817 162 85 65 54 
321 817 163 85 65 54 
320 818 163 85 66 56 
320 819 163 85 66 55 
321 818 163 85 65 54 
321 819 163 85 65 55 
322 816 162 83 64 53 
322 817 162 84 64 52 
322 817 163 84 65 53 
323 816 162 82 62 52 
323 816 163 81 62 51 
323 817 162 82 63 51 
323 817 163 82 63 52 
322 818 163 84 64 53 
322 819 163 84 65 55 
323 818 163 82 63 52 
323 819 163 82 62 52 
320 819 164 85 66 56 
321 819 164 86 65 56 
322 819 164 85 64 55 
323 819 164 82 62 52 
320 820 164 85 66 56 
320 820 165 85 66 56 
320 821 165 86 66 56 
321 820 164 85 65 55 
321 821 165 85 65 56 
320 821 166 85 66 57 
321 821 166 85 65 57 
320 822 166 85 65 56 
320 822 167 85 64 56 
321 822 166 84 63 55 
321 822 167 83 63 55 
322 820 164 84 64 55 
322 820 165 83 63 53 
322 821 165 84 64 54 
323 820 164 83 63 53 
323 820 165 82 63 52 
323 821 165 82 62 51 
323 821 166 82 62 51 
322 822 166 83 62 53 
322 822 167 82 63 54 
323 822 166 82 62 51 
323 822 167 82 63 52 
324 816 162 80 61 50 
324 816 163 80 61 51 
324 817 163 81 62 52 
325 816 163 79 61 51 
324 818 163 80 61 51 
326 816 163 78 59 51 
325 816 164 79 60 51 
325 817 164 79 60 52 
324 818 164 80 61 51 
324 819 164 80 61 51 
325 818 164 79 60 51 
325 819 164 78 60 50 
325 819 165 79 60 51 
326 816 164 77 59 51 
326 817 164 77 59 50 
327 816 164 76 59 51 
327 817 164 75 59 51 
327 817 165 75 57 51 
326 818 164 78 60 51 
326 818 165 77 60 51 
326 819 164 77 59 51 
326 819 165 76 59 50 
327 818 165 75 58 51 
327 819 165 75 57 50 
326 819 166 74 57 48 
327 819 166 73 56 48 
324 820 164 80 60 50 
324 820 165 79 60 49 
325 820 165 79 60 51 
324 820 166 80 60 50 
324 821 166 80 61 51 
324 821 167 80 61 50 
325 820 166 78 59 50 
325 821 166 80 59 50 
325 821 167 78 59 50 
324 822 167 80 61 50 
325 822 167 79 60 52 
326 820 166 76 58 49 
326 820 167 75 58 49 
326 821 166 76 58 49 
326 821 167 76 58 49 
327 820 166 74 57 49 
327 820 167 73 57 48 
327 821 167 74 57 48 
320 822 168 85 65 56 
320 823 168 84 64 55 
321 823 168 83 63 55 
321 823 169 83 64 55 
322 822 168 82 63 53 
322 823 168 82 62 53 
322 823 169 82 63 53 
323 822 168 81 62 51 
323 823 168 80 62 50 
323 823 169 80 62 51 
323 823 170 80 62 53 
324 822 168 80 62 51 
324 823 168 79 61 51 
324 823 169 78 60 50 
325 822 168 78 60 51 
325 822 169 77 59 50 
325 823 168 78 60 50 
325 823 169 76 59 50 
324 823 170 77 61 51 
325 823 170 76 60 51 
327 821 168 73 56 47 
326 822 168 76 59 50 
326 822 169 75 58 50 
326 823 169 75 57 50 
327 822 168 74 57 49 
327 822 169 74 57 49 
327 823 169 74 57 50 
326 823 170 75 57 51 
323 824 170 79 62 52 
324 824 170 77 61 51 
324 825 171 78 59 51 
325 824 170 76 59 51 
325 825 171 76 58 51 
324 826 171 78 60 52 
324 827 171 78 59 51 
325 826 171 76 57 50 
325 827 171 77 58 51 
327 824 169 73 55 50 
326 824 170 74 57 51 
326 825 171 74 57 51 
327 824 170 73 56 50 
327 825 170 74 55 50 
327 825 171 74 56 50 
326 826 171 75 57 51 
326 827 171 75 57 51 
327 826 171 74 56 51 
327 827 171 74 56 51 
325 827 172 77 58 51 
326 827 172 74 56 50 
327 827 172 73 56 50 
325 828 172 76 57 50 
325 829 172 75 57 51 
325 830 172 73 57 53 
326 828 172 74 56 51 
326 829 172 73 57 52 
327 828 172 73 57 52 
327 829 172 71 57 52 
326 830 172 72 56 53 
326 830 173 69 53 50 
326 831 173 59 45 45 
327 830 172 66 53 49 
327 830 173 61 48 45 
327 831 173 52 42 41 
328 816 164 74 57 52 
328 817 165 73 56 52 
329 816 164 72 56 50 
329 816 165 71 56 50 
329 817 165 71 55 50 
328 818 165 73 55 50 
329 818 165 72 54 50 
328 819 166 72 55 48 
329 818 166 71 55 49 
329 819 166 71 55 49 
329 819 167 71 55 49 
330 816 164 71 55 49 
330 816 165 70 55 48 
330 817 165 69 55 48 
331 816 165 70 55 46 
330 817 166 69 55 47 
331 817 166 69 55 46 
330 818 166 69 55 48 
330 819 166 70 55 49 
330 819 167 69 54 48 
331 818 166 69 54 47 
331 819 167 69 54 47 
328 820 166 71 55 47 
328 820 167 73 56 48 
328 821 167 72 55 47 
329 820 167 71 55 49 
330 820 167 70 55 49 
331 820 167 69 54 48 
332 816 165 68 54 46 
333 816 165 68 53 46 
332 816 166 69 54 46 
332 817 166 69 54 47 
333 816 166 68 53 46 
333 817 166 68 53 48 
332 818 166 69 54 47 
332 818 167 68 54 47 
332 819 167 69 54 47 
333 818 167 68 53 48 
333 819 167 69 53 48 
334 816 166 66 52 46 
334 817 166 67 53 48 
334 817 167 67 53 48 
335 816 166 65 52 47 
335 817 166 65 53 48 
335 817 167 66 52 47 
334 818 167 68 53 48 
334 819 167 68 53 48 
335 818 167 66 53 48 
335 819 167 67 53 48 
332 820 167 69 54 47 
333 820 167 69 53 49 
334 820 167 69 53 49 
328 820 168 73 55 48 
328 821 168 73 56 48 
329 820 168 71 55 48 
329 821 168 71 55 48 
328 822 168 73 56 47 
328 822 169 73 57 49 
328 823 169 72 56 50 
329 822 168 72 56 47 
329 822 169 72 56 48 
329 823 169 71 56 49 
330 820 168 71 55 49 
330 821 168 70 55 48 
331 820 168 69 54 48 
331 821 168 69 54 48 
330 822 168 70 55 48 
330 822 169 71 55 50 
330 823 169 71 54 50 
331 822 169 71 55 49 
331 823 169 71 54 51 
332 820 168 70 54 48 
332 821 168 69 53 47 
332 821 169 69 53 46 
333 820 168 69 53 50 
333 821 168 69 53 49 
333 821 169 69 52 48 
332 822 169 71 54 48 
332 823 169 71 54 50 
333 822 169 70 53 49 
333 823 169 71 53 50 
333 823 170 71 54 49 
334 820 168 68 53 49 
334 821 168 69 53 50 
334 821 169 69 53 49 
335 820 168 67 53 48 
335 821 168 68 53 49 
335 821 169 68 53 49 
334 822 169 69 53 49 
335 822 169 69 53 49 
334 823 170 70 54 48 
335 822 170 70 53 48 
335 823 170 69 53 48 
335 823 171 68 52 45 
328 824 169 72 55 50 
328 825 169 73 55 49 
329 824 169 72 55 49 
329 825 169 73 55 49 
328 825 170 73 55 49 
328 826 170 74 55 48 
328 826 171 74 55 50 
328 827 171 73 55 49 
329 826 170 73 55 48 
329 827 170 73 56 49 
329 827 171 72 55 49 
330 824 169 72 55 50 
330 825 169 73 55 50 
331 824 169 72 55 50 
330 825 170 73 55 50 
331 825 170 73 55 50 
331 826 169 73 55 50 
330 826 170 73 55 50 
330 827 170 73 55 50 
330 827 171 72 56 52 
331 826 170 72 54 50 
331 826 171 73 56 50 
331 827 171 71 55 51 
331 827 172 68 53 51 
329 828 171 72 56 51 
328 828 172 72 56 52 
328 829 172 68 55 50 
329 828 172 71 56 52 
329 829 172 64 51 49 
328 830 172 61 49 44 
328 830 173 53 43 42 
328 831 173 48 41 44 
329 830 173 52 43 43 
329 831 173 46 43 47 
330 828 172 70 55 53 
330 829 172 60 47 46 
331 828 172 67 53 52 
331 829 172 58 46 46 
331 829 173 51 42 43 
330 830 173 49 41 42 
330 831 173 45 42 46 
331 830 173 48 42 44 
331 831 173 45 41 42 
332 824 169 72 54 50 
332 824 170 72 54 50 
332 825 170 72 55 49 
333 824 170 71 55 50 
333 825 170 72 55 48 
333 825 171 71 54 48 
332 826 171 72 55 48 
332 827 171 70 54 48 
333 826 171 70 54 48 
334 824 170 70 54 49 
334 824 171 70 53 48 
334 825 171 69 52 47 
335 824 171 67 51 47 
335 825 171 67 52 48 
332 827 172 67 54 48 
333 826 172 69 53 48 
333 827 172 66 52 48 
334 825 172 68 51 47 
335 824 172 67 51 47 
335 825 172 66 51 46 
334 826 172 67 52 49 
334 827 172 65 51 49 
334 827 173 57 45 45 
335 826 172 64 52 48 
335 826 173 61 50 48 
335 827 173 52 43 42 
332 828 172 61 49 46 
332 829 173 51 43 42 
333 828 172 60 48 45 
333 828 173 53 44 44 
333 829 173 48 42 43 
332 830 173 47 43 44 
332 831 173 47 41 41 
333 830 173 48 43 44 
332 831 174 48 40 37 
333 830 174 47 42 43 
333 831 174 51 42 39 
334 828 173 51 42 43 
334 829 173 48 42 43 
335 828 173 49 41 43 
334 829 174 48 44 45 
335 828 174 50 43 46 
335 829 174 50 45 46 
334 830 174 49 44 41 
334 831 174 61 50 43 
335 830 174 56 48 43 
335 831 174 66 55 47 
335 831 175 77 64 55 
336 809 160 63 50 45 
336 810 160 61 49 44 
336 810 161 62 50 45 
336 811 161 61 49 44 
337 810 160 61 49 44 
337 811 160 61 49 43 
337 811 161 61 49 44 
336 811 162 63 50 45 
338 811 160 60 48 44 
338 811 161 61 49 42 
339 811 160 60 49 46 
337 812 161 61 49 43 
336 812 162 62 51 45 
336 812 163 63 51 45 
337 812 162 63 50 43 
337 812 163 63 50 44 
337 813 162 63 50 43 
337 813 163 63 50 44 
338 812 160 60 49 45 
338 812 161 60 49 44 
338 813 161 61 49 45 
339 812 160 60 49 45 
339 813 160 60 49 45 
339 813 161 60 48 44 
338 813 162 62 49 45 
338 814 161 61 49 45 
339 814 161 61 49 46 
339 815 161 60 49 47 
338 814 162 61 49 45 
338 814 163 60 48 45 
339 814 162 60 48 45 
339 814 163 58 47 45 
339 815 162 60 49 47 
339 815 163 58 47 45 
336 812 164 63 51 45 
336 813 164 64 52 45 
337 813 164 64 51 44 
336 814 164 64 51 45 
336 814 165 65 52 46 
336 815 165 65 52 46 
337 814 164 62 50 44 
337 814 165 63 50 46 
337 815 165 62 49 45 
336 815 166 65 51 47 
338 814 164 62 50 46 
338 815 164 62 49 47 
338 815 165 60 50 46 
339 815 164 59 47 45 
340 813 160 60 50 47 
340 814 160 60 49 47 
340 814 161 60 49 47 
340 815 160 60 49 47 
340 815 161 60 49 47 
341 815 160 60 49 47 
340 815 162 60 49 47 
340 815 163 59 48 46 
336 816 166 64 51 47 
336 817 167 63 52 47 
337 816 166 61 49 46 
337 817 167 61 50 46 
336 818 167 64 52 47 
336 819 167 65 53 47 
337 818 167 62 51 45 
337 819 167 64 52 46 
338 816 165 61 50 46 
339 816 164 59 47 43 
339 816 165 59 48 43 
339 817 165 58 48 42 
338 816 166 59 48 45 
338 817 166 61 49 46 
338 817 167 60 49 45 
339 817 166 57 47 43 
339 817 167 58 47 44 
338 818 167 60 49 46 
339 818 167 57 47 43 
340 816 161 59 49 47 
341 816 160 61 51 49 
341 816 161 59 50 48 
341 817 161 59 50 49 
340 816 162 60 49 47 
340 816 163 60 49 47 
341 816 162 58 50 48 
341 816 163 59 51 49 
341 817 162 58 49 48 
341 817 163 57 50 48 
341 818 163 56 49 47 
342 817 160 59 50 48 
342 817 161 58 50 49 
342 817 162 57 49 48 
342 818 162 56 49 48 
342 818 163 55 48 47 
340 816 164 57 47 44 
340 817 164 56 48 45 
340 817 165 57 48 44 
341 817 164 57 50 47 
341 817 165 55 49 45 
340 817 166 57 47 43 
340 818 165 56 49 45 
341 818 164 57 49 47 
341 818 165 56 50 47 
340 818 166 57 49 45 
340 818 167 56 48 44 
341 818 166 56 48 45 
341 818 167 55 48 44 
341 819 166 55 48 44 
341 819 167 53 46 43 
342 818 164 57 50 48 
342 818 165 56 48 46 
342 819 164 55 49 47 
342 819 165 55 49 46 
342 819 166 55 48 46 
342 820 166 55 49 47 
342 820 167 55 48 47 
336 819 168 65 53 47 
337 819 168 63 51 46 
338 818 168 60 49 46 
338 819 168 61 49 46 
338 819 169 61 49 46 
339 818 168 58 47 44 
339 819 168 58 47 44 
339 819 169 58 47 44 
336 820 168 66 53 46 
336 820 169 66 52 47 
336 821 169 66 52 47 
337 820 168 65 52 47 
337 820 169 63 51 46 
337 821 169 64 50 46 
336 821 170 63 51 47 
337 821 170 64 51 46 
337 821 171 65 50 47 
336 822 170 67 52 47 
336 822 171 66 52 48 
336 823 170 69 53 46 
336 823 171 66 52 49 
337 822 170 66 51 46 
337 822 171 64 50 48 
337 823 171 65 50 48 
338 820 169 63 49 46 
339 820 169 59 47 43 
338 820 170 62 50 46 
338 821 170 62 50 46 
338 821 171 61 50 46 
339 820 170 59 48 44 
339 820 171 60 49 45 
339 821 171 59 48 45 
338 822 171 62 49 45 
337 823 172 63 50 48 
339 821 172 58 47 45 
338 822 172 61 49 46 
338 823 172 60 47 47 
338 823 173 59 48 48 
339 822 172 58 48 45 
339 823 173 57 48 47 
340 818 168 56 47 43 
340 819 168 54 46 43 
340 819 169 54 46 42 
341 819 168 54 47 44 
341 819 169 53 46 43 
342 819 168 53 46 43 
341 820 169 55 47 45 
341 821 169 54 46 44 
340 820 170 56 47 44 
340 820 171 56 47 45 
340 821 171 56 46 44 
341 820 170 54 46 44 
341 821 170 55 47 44 
341 821 171 55 46 44 
341 822 170 54 46 43 
341 822 171 54 47 44 
341 823 171 54 46 46 
342 820 168 55 47 45 
342 821 169 54 46 44 
340 821 172 57 47 44 
340 822 172 57 49 46 
340 823 172 57 49 48 
340 823 173 57 50 48 
341 822 172 56 48 45 
341 823 172 56 48 48 
336 824 171 66 51 48 
336 824 172 64 50 48 
336 825 172 64 50 46 
336 825 173 62 50 46 
337 824 172 63 49 46 
337 824 173 62 50 48 
337 825 173 61 50 47 
336 826 173 58 48 46 
336 827 173 51 44 43 
337 826 173 55 46 46 
337 827 173 53 46 46 
336 827 174 51 44 45 
337 827 174 52 47 49 
338 824 173 60 48 48 
338 825 173 57 46 48 
339 824 173 56 48 47 
339 825 173 54 46 48 
338 826 173 54 45 48 
339 826 173 53 46 48 
338 826 174 52 44 48 
338 827 174 52 47 50 
339 826 174 53 46 49 
339 827 174 53 47 49 
336 828 174 51 45 48 
336 829 174 53 47 48 
337 828 174 53 47 50 
337 829 174 56 48 48 
336 830 174 60 51 47 
336 830 175 66 55 49 
336 831 175 81 65 56 
337 830 174 63 51 46 
337 830 175 72 59 52 
337 831 175 86 67 59 
338 828 174 56 49 50 
338 829 174 60 49 45 
339 828 174 57 49 48 
339 829 174 62 50 44 
338 830 174 70 56 47 
338 830 175 84 67 58 
338 831 175 91 69 59 
339 830 174 81 63 54 
339 830 175 91 70 61 
339 831 175 96 71 60 
340 824 173 56 50 49 
340 825 173 53 48 47 
341 824 172 55 49 49 
341 825 172 52 47 46 
341 825 173 52 46 45 
340 826 173 52 46 45 
340 827 173 51 46 45 
341 826 172 52 45 44 
341 826 173 51 44 45 
341 827 173 53 44 44 
340 826 174 51 46 47 
340 827 174 53 47 46 
340 828 174 56 47 45 
340 829 174 64 51 44 
340 830 174 86 67 58 
340 831 174 93 69 59 
340 831 175 96 72 61 
326 832 173 53 45 42 
326 833 173 45 41 47 
327 832 173 47 43 45 
327 833 173 43 39 44 
326 834 173 41 37 45 
327 834 173 41 34 44 
327 834 174 57 44 41 
327 835 174 105 82 64 
327 836 174 133 101 76 
328 832 173 44 41 46 
328 833 173 43 38 39 
329 832 173 45 39 44 
329 833 173 46 36 37 
328 833 174 47 36 37 
329 833 174 60 44 35 
328 834 174 79 61 49 
328 835 174 123 94 75 
329 834 174 98 76 62 
329 835 174 127 93 75 
330 832 173 46 38 41 
330 833 173 53 38 36 
331 832 173 49 37 39 
330 833 174 77 58 48 
331 832 174 59 41 35 
331 833 174 88 67 54 
330 834 174 108 83 69 
330 835 174 123 88 68 
330 835 175 124 86 66 
331 834 174 117 86 69 
331 834 175 123 87 67 
331 835 175 124 84 64 
328 836 174 136 99 74 
328 836 175 134 94 66 
328 837 175 136 91 63 
329 836 174 132 93 70 
329 836 175 129 88 62 
329 837 175 131 87 59 
330 836 175 125 84 58 
330 837 175 126 83 58 
331 836 175 125 84 63 
332 832 174 67 48 37 
332 833 174 105 82 67 
333 832 174 79 60 49 
333 833 174 104 83 69 
333 833 175 111 84 68 
332 834 174 115 89 71 
332 834 175 119 86 68 
332 835 175 121 82 65 
333 834 175 111 81 64 
333 835 175 111 76 60 
334 832 174 83 64 52 
334 832 175 93 73 61 
334 833 174 100 79 66 
334 833 175 102 75 62 
335 832 175 91 70 59 
335 833 175 95 67 56 
334 834 175 102 70 56 
335 834 175 95 63 52 
332 836 175 120 81 63 
329 837 176 128 84 59 
329 838 176 129 84 63 
329 839 176 127 84 66 
330 837 176 126 83 59 
331 836 176 125 83 65 
331 837 176 125 84 66 
330 838 176 126 83 64 
330 839 176 126 82 67 
331 838 176 124 83 66 
331 839 177 121 80 64 
333 835 176 105 71 57 
335 833 176 93 64 53 
334 835 176 98 64 52 
335 834 176 94 63 53 
335 835 176 96 64 54 
335 835 177 98 67 56 
332 836 176 118 79 63 
332 837 176 117 78 64 
333 836 176 106 70 59 
333 837 176 107 72 62 
333 837 177 103 68 59 
332 838 176 118 78 64 
332 838 177 115 78 65 
332 839 177 113 77 64 
333 838 177 102 67 57 
333 839 177 101 66 55 
332 839 178 109 74 59 
333 839 178 96 64 53 
334 836 176 98 64 54 
334 836 177 97 62 53 
334 837 177 96 63 54 
335 836 177 99 65 56 
334 837 178 98 65 56 
335 837 178 100 66 55 
335 837 179 101 69 56 
334 838 178 97 65 56 
334 838 179 97 65 55 
334 839 178 97 66 57 
334 839 179 97 67 56 
335 838 179 100 68 54 
335 839 179 100 68 54 
335 839 180 99 65 50 
332 840 178 109 74 59 
333 840 178 98 65 54 
333 840 179 96 65 56 
333 841 179 95 65 54 
334 840 179 96 67 59 
334 840 180 98 67 57 
334 841 180 98 67 58 
335 840 180 96 64 49 
335 840 181 97 64 51 
335 841 181 95 64 49 
336 832 175 91 68 58 
336 833 175 92 65 54 
337 832 175 93 68 60 
338 832 175 98 69 57 
339 832 175 99 69 58 
339 833 175 100 69 58 
336 833 176 94 66 56 
337 832 176 94 67 58 
337 833 176 95 67 58 
336 834 176 97 66 57 
336 835 177 99 69 57 
337 834 176 97 67 57 
337 834 177 99 71 60 
337 835 177 102 72 60 
338 833 176 100 70 58 
339 833 176 101 70 57 
338 834 176 99 70 58 
338 835 177 102 72 59 
339 834 176 99 70 58 
339 835 176 94 66 54 
339 835 177 98 70 57 
336 836 177 101 68 57 
337 836 177 102 71 59 
336 836 178 104 69 56 
336 837 178 99 68 55 
336 837 179 102 68 55 
337 836 178 103 71 59 
337 837 178 103 71 60 
337 837 179 103 71 60 
336 838 179 99 68 55 
337 838 179 105 72 60 
338 836 177 103 72 61 
339 836 177 93 65 53 
338 836 178 102 72 61 
338 837 178 103 73 62 
338 837 179 101 72 62 
339 836 178 98 69 57 
339 837 178 95 66 54 
338 838 179 103 71 60 
336 838 180 105 71 57 
336 839 180 102 69 54 
337 838 180 103 71 59 
337 839 180 106 71 53 
337 839 181 104 71 54 
338 838 180 100 70 59 
338 839 180 100 69 57 
338 839 181 101 70 56 
336 840 181 101 68 54 
336 841 181 99 68 54 
337 840 181 102 69 54 
336 841 182 101 69 55 
337 841 182 99 69 54 
336 842 182 101 69 55 
338 840 181 97 67 53 
338 841 181 86 60 50 
338 841 182 92 65 52 
338 842 182 88 62 52 
338 842 183 89 63 54 
338 843 183 84 60 52 
365 698 127 65 51 42 
365 699 127 68 53 44 
367 697 125 65 52 40 
366 697 126 63 50 41 
366 697 127 64 51 42 
367 696 127 61 49 39 
367 697 126 63 48 39 
367 697 127 63 50 41 
367 698 125 68 53 42 
367 699 125 71 54 44 
366 698 126 65 51 41 
366 698 127 65 51 41 
366 699 126 70 54 43 
366 699 127 67 53 43 
367 699 126 72 55 44 
365 700 127 71 55 45 
365 701 127 73 56 46 
367 700 125 73 55 44 
366 700 126 73 56 47 
366 700 127 73 56 46 
366 701 127 72 54 44 
367 700 126 73 55 44 
367 701 126 71 52 41 
367 701 127 70 51 39 
366 702 127 71 52 41 
367 702 127 69 50 38 
368 695 127 60 48 37 
369 695 126 57 44 35 
369 695 127 60 47 36 
368 696 125 65 53 41 
368 697 124 70 56 45 
368 697 125 68 55 43 
368 696 126 60 47 38 
368 696 127 60 48 38 
368 698 124 71 55 43 
368 698 125 70 54 44 
304 670 154 62 39 44 
304 671 154 37 34 36 
305 670 154 54 39 45 
305 671 154 37 34 39 
306 670 154 39 35 43 
306 671 154 37 36 40 
307 670 154 36 35 44 
307 671 154 37 36 38 
308 670 153 45 30 36 
308 671 153 39 34 35 
309 670 153 60 30 34 
309 671 153 45 32 33 
308 670 154 42 31 37 
308 671 154 34 34 37 
310 670 153 76 42 44 
310 671 153 59 39 40 
311 670 153 75 32 34 
311 671 153 66 30 34 
312 670 153 90 32 37 
312 671 153 84 29 35 
313 670 153 101 38 41 
313 671 153 86 35 37 
314 670 153 87 27 30 
314 671 153 62 27 26 
315 670 153 67 25 25 
315 671 153 48 32 31 
316 670 153 52 27 29 
316 671 153 40 36 37 
317 670 153 46 35 38 
317 671 153 42 39 40 
318 670 153 47 38 42 
318 671 153 50 38 40 
319 670 153 48 37 41 
319 671 153 51 37 38 
303 678 153 120 17 28 
303 679 153 117 22 33 
303 680 153 112 28 37 
303 681 153 96 29 35 
303 682 153 78 26 30 
303 683 152 76 22 23 
303 683 153 49 27 26 
303 684 152 60 24 25 
303 684 153 41 32 31 
303 685 152 62 31 29 
303 685 153 42 34 33 
303 686 152 72 45 44 
303 686 153 57 39 38 
303 687 152 67 38 38 
302 689 152 35 34 45 
303 688 152 54 31 38 
303 689 152 38 36 42 
302 690 152 36 34 39 
302 691 152 62 29 25 
303 690 152 35 33 38 
303 691 152 61 31 29 
302 692 152 102 33 34 
302 693 152 129 20 35 
303 692 152 102 39 41 
303 693 152 128 30 43 
302 694 152 135 14 27 
302 695 152 131 16 24 
303 694 152 128 18 31 
303 695 152 120 18 28 
303 696 151 104 22 29 
303 697 151 111 24 31 
302 699 151 123 14 26 
303 698 151 117 21 32 
303 699 151 116 15 30 
301 700 151 117 17 27 
301 701 151 116 15 26 
301 702 151 118 14 29 
301 703 151 121 16 31 
302 700 151 119 14 25 
302 701 151 118 13 25 
303 700 151 119 10 30 
303 701 151 120 12 30 
302 702 151 118 13 28 
302 703 151 118 18 33 
303 702 151 116 14 29 
303 703 151 110 20 30 
302 696 152 128 17 31 
302 697 152 126 15 28 
303 696 152 117 20 30 
302 698 152 126 15 28 
302 699 152 122 14 26 
304 672 154 63 30 24 
304 673 154 103 29 32 
305 672 154 64 31 26 
305 673 154 103 28 33 
305 675 153 120 17 27 
304 674 154 120 23 32 
304 675 154 123 18 28 
305 674 154 121 20 36 
305 675 154 123 15 29 
307 673 153 88 36 44 
306 672 154 65 32 28 
306 673 154 101 31 40 
307 672 154 58 32 29 
307 673 154 96 36 47 
306 674 153 115 26 43 
306 675 153 110 21 30 
307 674 153 104 37 49 
307 675 153 87 24 28 
306 674 154 118 26 43 
304 676 153 123 16 27 
304 677 153 123 11 27 
305 676 153 121 18 28 
305 677 153 123 15 30 
304 676 154 122 16 28 
304 678 153 123 12 27 
304 679 153 122 15 28 
305 678 153 123 14 28 
305 679 153 123 13 28 
306 676 153 107 18 29 
306 677 153 110 20 33 
307 676 153 73 16 22 
307 677 153 72 18 24 
306 678 153 113 23 33 
306 679 152 113 30 37 
306 679 153 117 22 33 
307 678 152 77 32 34 
307 678 153 79 24 29 
307 679 152 94 38 43 
308 672 153 51 33 29 
308 673 153 80 37 43 
309 672 153 46 31 32 
309 673 153 60 36 39 
308 674 153 90 43 48 
308 675 153 69 30 31 
309 674 153 69 43 44 
309 675 153 54 35 35 
310 672 153 45 34 35 
310 673 153 43 34 34 
311 672 153 55 33 35 
311 673 153 48 34 35 
310 674 153 47 35 35 
310 675 153 45 35 35 
311 674 153 46 38 37 
311 675 153 43 35 35 
308 676 153 48 24 26 
308 677 153 43 26 29 
309 676 153 41 31 36 
309 677 152 36 35 36 
309 677 153 36 31 37 
308 678 152 51 27 32 
308 678 153 45 24 30 
308 679 152 59 35 40 
309 678 152 36 32 37 
309 679 152 33 31 37 
310 676 153 41 37 35 
310 677 152 39 36 35 
310 677 153 38 36 35 
311 676 153 42 35 34 
311 677 152 45 35 36 
310 678 152 38 33 35 
310 679 152 34 33 39 
311 678 152 43 32 35 
311 679 152 37 32 37 
306 685 151 128 18 28 
307 684 151 127 16 29 
307 685 151 129 15 29 
306 686 151 123 21 34 
306 687 151 113 30 40 
307 686 151 125 22 34 
307 687 151 113 31 41 
308 683 151 114 32 38 
309 682 151 60 21 24 
309 683 151 85 24 29 
310 682 151 45 26 26 
310 683 151 63 24 25 
311 682 151 37 32 35 
311 683 151 48 28 29 
308 684 151 122 24 36 
308 685 151 124 18 32 
309 684 151 105 34 40 
309 685 151 113 35 43 
308 686 151 118 25 34 
308 687 151 104 31 37 
309 686 151 96 24 30 
309 687 151 76 22 24 
310 684 151 84 38 40 
310 685 151 90 43 47 
311 684 151 66 40 41 
311 685 151 70 43 43 
310 686 151 71 24 26 
310 687 151 53 28 29 
311 686 151 54 29 29 
311 687 151 47 35 33 
304 680 153 121 19 29 
304 681 152 118 23 30 
304 681 153 115 23 32 
305 680 152 123 13 31 
305 680 153 123 14 28 
305 681 152 122 17 29 
304 682 152 112 26 33 
304 683 152 101 23 29 
305 682 152 121 19 31 
305 683 152 119 19 32 
306 680 152 117 20 34 
306 681 152 118 16 27 
307 680 152 96 31 38 
307 681 152 98 14 23 
306 682 152 118 16 24 
306 683 152 125 19 30 
307 682 152 108 18 28 
307 683 152 122 23 33 
304 684 152 95 19 29 
304 685 152 92 23 29 
305 684 152 118 18 31 
305 685 152 115 22 30 
304 686 152 85 32 32 
304 687 152 75 27 28 
305 686 152 109 27 32 
305 687 152 98 30 37 
306 684 152 126 17 27 
306 685 152 125 21 29 
307 684 152 127 18 27 
306 686 152 121 26 32 
308 680 152 68 32 38 
308 681 152 72 19 27 
309 680 152 35 33 38 
309 681 152 41 26 30 
308 682 152 92 24 33 
308 683 152 111 30 37 
309 682 152 61 25 28 
309 683 152 87 25 29 
310 680 152 31 36 43 
310 681 152 30 34 40 
311 680 152 35 34 42 
311 681 152 33 35 43 
310 682 152 38 30 31 
311 682 152 33 34 39 
312 672 153 76 36 39 
312 673 153 64 36 39 
313 672 153 70 38 37 
313 673 153 58 38 34 
312 674 153 53 37 38 
312 675 153 45 35 34 
313 674 153 47 35 33 
313 675 153 44 35 35 
314 672 153 46 33 30 
314 673 153 42 34 34 
315 672 153 41 36 36 
315 673 153 42 37 41 
314 674 153 41 34 36 
314 675 152 42 34 37 
314 675 153 42 33 36 
315 674 153 41 35 38 
315 675 152 41 34 35 
315 675 153 41 33 36 
312 676 152 47 36 36 
312 676 153 45 35 36 
312 677 152 50 38 39 
313 676 152 43 36 36 
313 676 153 44 36 36 
313 677 152 46 36 37 
312 678 152 48 37 38 
312 679 152 41 34 35 
313 678 152 47 37 37 
313 679 152 42 34 36 
314 676 152 41 34 35 
314 677 152 42 35 37 
315 676 152 42 35 36 
315 677 152 45 36 38 
314 678 152 44 36 38 
314 679 152 40 33 36 
315 678 152 45 37 40 
315 679 152 40 32 37 
316 672 153 41 39 40 
316 673 153 44 40 41 
317 672 153 45 39 39 
317 673 153 45 38 37 
316 674 152 43 36 37 
316 674 153 43 38 38 
316 675 152 42 35 35 
317 674 152 44 37 37 
317 674 153 44 37 36 
317 675 152 45 36 39 
318 672 153 50 38 40 
318 673 153 47 38 39 
319 672 153 50 38 38 
319 673 153 46 37 38 
318 674 152 45 38 39 
318 674 153 45 37 38 
318 675 152 45 37 40 
319 674 152 43 37 38 
319 674 153 44 36 38 
319 675 152 43 36 39 
316 676 152 43 36 37 
316 677 152 46 37 39 
317 676 152 46 37 41 
317 677 152 47 37 41 
316 678 152 44 35 38 
316 679 152 42 34 38 
317 678 152 47 37 41 
317 679 152 48 37 41 
318 676 152 46 37 40 
318 677 152 45 35 38 
319 676 152 44 38 39 
319 677 152 42 36 38 
318 678 152 46 35 39 
318 679 152 48 37 41 
319 678 152 44 36 39 
319 679 152 47 38 43 
312 681 151 36 33 41 
313 681 151 36 34 40 
312 682 151 37 33 39 
312 683 151 40 30 35 
313 682 151 37 33 39 
313 683 151 37 32 38 
314 681 151 38 34 39 
315 681 151 38 33 38 
314 682 151 37 34 40 
314 683 151 37 33 39 
315 682 151 38 34 39 
315 683 151 37 34 39 
312 684 151 52 39 41 
312 685 151 54 41 41 
313 684 151 42 36 40 
313 685 151 44 38 39 
312 686 151 45 33 33 
312 687 150 42 35 37 
312 687 151 42 35 35 
313 686 150 40 37 36 
313 686 151 42 37 36 
313 687 150 40 36 36 
314 684 151 40 34 40 
314 685 151 41 37 39 
315 684 151 40 35 39 
315 685 151 41 37 39 
314 686 150 41 37 38 
314 686 151 41 37 39 
314 687 150 39 35 36 
315 686 150 42 38 39 
315 687 150 41 36 37 
316 681 151 40 34 38 
317 680 151 47 39 42 
317 681 151 42 36 38 
316 682 151 39 35 38 
316 683 151 38 36 39 
317 682 151 40 34 37 
317 683 151 41 37 39 
318 680 151 46 37 41 
318 681 151 45 37 40 
319 680 151 45 36 41 
319 681 151 44 37 40 
318 682 151 42 36 38 
318 683 151 43 37 39 
319 682 151 43 37 38 
319 683 151 42 36 37 
316 684 151 39 37 40 
316 685 150 41 38 40 
316 685 151 40 37 40 
317 684 151 42 38 40 
317 685 150 42 38 40 
316 686 150 41 37 39 
316 687 150 43 37 39 
317 686 150 41 37 39 
317 687 150 41 36 38 
318 684 151 43 39 40 
318 685 150 43 39 39 
319 684 150 43 37 38 
319 684 151 43 37 37 
319 685 150 43 38 37 
318 686 150 42 38 38 
318 687 150 41 37 37 
319 686 150 43 38 36 
319 687 150 44 39 37 
312 680 152 36 34 39 
312 681 152 36 34 42 
313 680 152 37 33 38 
313 681 152 37 35 40 
314 680 152 38 33 37 
314 681 152 37 34 38 
315 680 152 38 33 38 
316 680 152 42 35 39 
317 680 152 47 38 41 
318 680 152 48 37 42 
319 680 152 46 37 43 
305 688 151 79 30 33 
305 689 151 44 32 33 
305 690 151 32 39 43 
305 691 151 44 38 40 
306 688 151 90 29 31 
306 689 151 49 31 28 
307 688 151 90 30 34 
307 689 151 58 31 29 
306 690 151 40 40 41 
306 691 151 43 39 41 
307 690 151 44 39 36 
307 691 151 42 39 39 
304 692 151 93 44 46 
304 693 151 102 44 49 
305 692 151 64 37 38 
305 693 151 69 37 37 
304 694 151 88 30 32 
304 695 151 73 22 24 
305 694 151 55 31 31 
305 695 151 39 31 31 
306 692 151 43 36 36 
306 693 151 40 34 36 
307 692 150 47 40 42 
307 692 151 45 40 40 
307 693 150 41 36 39 
307 693 151 42 38 40 
306 694 151 34 35 37 
306 695 150 32 35 38 
306 695 151 29 36 39 
307 694 150 36 35 37 
307 695 150 37 33 35 
308 688 151 85 34 38 
308 689 151 58 33 37 
309 688 151 60 28 30 
309 689 150 45 36 42 
309 689 151 49 31 37 
308 690 151 44 37 38 
308 691 150 43 37 38 
308 691 151 44 39 40 
309 690 150 44 36 39 
309 691 150 46 37 38 
310 688 151 47 37 37 
310 689 150 44 39 43 
310 689 151 44 39 41 
311 688 150 43 38 38 
311 688 151 44 38 38 
311 689 150 43 37 39 
310 690 150 44 38 38 
310 691 150 48 38 37 
311 690 150 42 34 34 
311 691 150 47 35 36 
308 692 150 48 40 41 
308 693 150 46 36 38 
309 692 150 47 36 35 
309 693 150 49 32 33 
308 694 150 41 33 35 
308 695 150 43 33 33 
309 694 150 50 33 36 
309 695 150 56 38 41 
311 693 149 57 32 37 
310 692 150 51 37 35 
310 693 150 57 35 38 
311 692 150 53 36 38 
311 693 150 56 33 37 
310 695 149 67 40 47 
311 694 149 62 35 41 
311 695 149 60 35 39 
310 694 150 68 41 47 
310 695 150 70 42 49 
311 694 150 62 33 41 
304 688 152 58 27 29 
304 689 152 36 34 35 
305 688 152 72 28 30 
305 689 152 50 30 29 
304 690 152 34 35 39 
304 691 152 53 33 32 
304 692 152 90 36 39 
304 693 152 116 37 48 
304 694 152 111 26 33 
304 695 152 97 23 26 
304 696 151 65 22 23 
304 697 151 72 23 24 
305 696 151 34 34 32 
305 697 151 51 28 27 
304 698 151 86 19 24 
304 699 151 101 11 24 
305 698 151 80 22 27 
305 699 150 110 21 39 
305 699 151 101 17 31 
306 696 150 48 33 34 
306 696 151 37 33 33 
306 697 150 76 34 34 
306 697 151 57 27 25 
307 696 150 56 35 36 
307 697 150 90 48 50 
306 698 150 99 36 40 
306 699 150 115 27 36 
307 698 150 106 45 49 
307 699 150 115 30 39 
304 700 151 116 8 33 
304 701 151 120 12 33 
305 700 150 119 13 36 
305 700 151 117 11 35 
305 701 150 122 14 32 
304 702 151 116 14 26 
304 703 150 110 16 23 
304 703 151 106 16 21 
305 702 150 120 13 26 
305 703 150 117 18 25 
307 700 149 120 20 34 
307 701 149 126 18 32 
306 700 150 123 16 29 
306 701 150 126 12 26 
307 700 150 124 17 30 
307 701 150 128 16 29 
307 702 149 128 13 29 
307 703 149 127 15 28 
306 702 150 125 12 27 
306 703 150 123 13 28 
307 702 150 128 13 30 
307 703 150 127 15 30 
309 696 149 50 33 35 
309 697 149 46 37 34 
308 696 150 53 33 34 
308 697 150 66 36 34 
309 696 150 53 35 37 
309 697 150 48 35 32 
308 698 149 67 26 24 
308 699 149 88 27 30 
309 698 149 43 35 32 
309 699 149 46 30 30 
308 698 150 79 34 32 
310 696 149 55 32 36 
310 697 149 46 36 36 
311 696 149 52 32 33 
311 697 149 49 37 37 
310 698 149 43 39 39 
310 699 149 44 37 36 
311 698 149 48 37 39 
311 699 149 49 37 38 
308 700 149 104 22 32 
308 701 149 121 26 38 
309 700 149 67 20 25 
309 701 149 104 27 36 
308 702 149 126 24 32 
308 703 149 127 20 25 
309 702 149 119 30 38 
309 703 149 122 24 35 
310 700 149 56 27 29 
310 701 149 88 35 41 
311 700 149 54 32 32 
311 701 149 72 39 40 
310 702 149 100 36 46 
310 703 149 97 26 37 
311 702 148 74 42 44 
311 702 149 87 45 49 
311 703 149 73 33 37 
312 688 150 41 35 37 
312 689 150 40 33 36 
313 688 150 41 34 37 
313 689 150 40 32 36 
313 691 149 50 38 39 
312 690 150 40 33 33 
312 691 150 47 36 37 
313 690 150 44 36 38 
313 691 150 50 39 40 
314 688 150 42 36 37 
314 689 150 45 37 38 
315 688 150 42 35 36 
315 689 150 45 36 37 
314 690 149 52 40 41 
314 691 149 54 41 42 
315 690 149 52 39 40 
315 691 149 54 41 42 
314 690 150 48 37 39 
315 690 150 48 38 38 
312 692 149 52 36 37 
312 693 149 55 35 38 
313 692 149 50 36 38 
313 693 149 50 32 35 
312 692 150 52 37 38 
312 693 150 54 36 38 
312 694 149 60 40 42 
312 695 149 56 36 36 
313 694 149 55 39 39 
313 695 149 52 38 35 
314 692 149 50 36 38 
314 693 149 49 31 34 
315 692 149 48 36 36 
315 693 149 50 32 33 
314 694 149 58 38 41 
314 695 149 57 38 39 
315 694 149 61 41 44 
315 695 149 62 41 43 
316 688 150 43 36 38 
316 689 150 44 36 36 
317 688 150 43 37 39 
317 689 150 42 36 38 
316 690 149 49 38 38 
316 691 149 49 37 37 
317 690 149 44 37 41 
317 691 149 44 37 40 
316 690 150 47 38 37 
318 689 149 40 38 38 
319 689 149 49 37 36 
318 688 150 41 38 38 
318 689 150 40 38 38 
319 688 150 44 37 37 
319 689 150 44 36 35 
318 690 149 44 38 40 
318 691 149 49 36 38 
319 690 149 60 39 40 
319 691 149 77 43 45 
316 692 149 45 33 33 
316 693 149 49 31 32 
317 692 149 41 34 35 
317 693 149 47 34 34 
316 694 149 64 42 45 
316 695 149 65 41 45 
317 694 149 63 43 45 
317 695 149 63 39 42 
318 692 149 45 31 30 
318 693 149 49 31 31 
319 692 149 68 29 29 
319 693 149 67 27 28 
318 694 149 63 40 40 
318 695 149 64 40 41 
319 694 149 77 39 40 
319 695 149 76 36 40 
312 696 149 51 32 32 
312 697 149 52 37 37 
313 696 149 49 35 32 
313 697 149 50 36 36 
312 698 149 52 39 41 
312 699 149 53 40 42 
313 698 149 49 35 39 
313 699 149 47 33 39 
314 696 149 51 36 34 
314 697 149 48 40 38 
315 696 149 52 34 35 
315 697 149 46 37 35 
314 698 149 47 38 40 
314 699 148 40 35 39 
314 699 149 43 33 39 
315 698 149 43 37 37 
315 699 148 38 35 38 
312 700 148 54 39 39 
312 700 149 54 37 39 
312 701 148 60 39 37 
313 700 148 45 35 40 
313 700 149 51 37 41 
313 701 148 45 39 41 
312 702 148 60 36 35 
312 703 148 55 36 37 
313 702 148 44 38 39 
313 703 148 43 34 38 
314 700 148 40 34 40 
314 701 148 38 35 40 
315 700 148 37 35 37 
315 701 148 41 36 40 
314 702 148 40 37 43 
314 703 148 39 34 41 
315 702 148 41 35 38 
315 703 148 46 36 39 
316 696 149 56 33 37 
316 697 149 48 33 34 
317 696 148 55 32 34 
317 696 149 57 31 35 
317 697 148 54 35 37 
317 697 149 52 31 35 
316 698 148 45 34 37 
316 698 149 45 34 36 
316 699 148 42 35 39 
317 698 148 53 39 42 
317 699 148 48 37 41 
318 696 148 57 34 33 
318 696 149 57 33 33 
318 697 148 54 37 36 
319 696 148 66 35 34 
319 697 148 60 39 41 
318 698 148 52 39 40 
318 699 148 45 36 38 
319 698 148 51 36 38 
319 699 148 44 34 34 
316 700 148 44 37 39 
316 701 148 49 38 40 
317 700 148 48 37 41 
317 701 148 50 36 37 
316 702 148 53 40 39 
316 703 148 68 42 42 
317 702 148 57 41 41 
317 703 148 71 42 41 
318 700 148 42 37 37 
318 701 148 43 35 35 
319 700 148 53 34 36 
319 701 148 69 35 36 
318 702 148 45 32 35 
318 703 148 50 32 35 
319 702 148 76 31 37 
319 703 148 70 27 35 
299 711 150 69 18 25 
301 704 151 121 19 29 
301 705 151 119 21 30 
301 706 151 118 25 37 
301 707 150 102 26 29 
301 707 151 111 29 38 
302 704 151 114 19 35 
302 705 151 108 19 33 
303 704 151 100 21 30 
303 705 150 92 20 26 
303 705 151 94 21 29 
302 706 150 89 22 24 
302 706 151 102 22 32 
302 707 150 93 18 24 
302 707 151 102 24 32 
303 706 150 90 20 22 
303 707 150 102 22 28 
300 709 150 80 27 31 
301 708 150 96 26 27 
301 709 150 90 21 25 
300 710 150 71 21 25 
300 711 150 83 25 30 
301 710 150 98 27 35 
301 711 150 102 33 40 
302 708 150 102 22 28 
302 709 150 114 30 42 
303 708 150 121 29 42 
303 709 150 128 23 41 
303 710 149 128 13 29 
303 711 149 123 16 30 
302 710 150 114 33 44 
302 711 150 107 22 31 
303 710 150 126 17 36 
303 711 150 118 19 33 
299 712 150 91 23 34 
299 713 150 109 29 43 
299 714 150 110 34 41 
299 715 150 102 34 35 
299 717 149 96 33 35 
299 716 150 91 33 29 
299 717 150 89 24 22 
298 719 149 105 17 26 
299 718 149 105 24 33 
299 719 149 113 18 33 
300 712 150 102 30 41 
300 713 150 112 29 43 
301 712 150 101 33 39 
