ply
format ascii 1.0
comment Created by CloudCompare v2.10.1 (Zephyrus)
comment Created 1/31/20 11:44 AM
obj_info Generated by CloudCompare!
element vertex 2167
property float x
property float y
property float z
property uchar red
property uchar green
property uchar blue
end_header
424 878 239 49 42 38 
424 879 239 49 42 38 
425 878 239 48 41 38 
425 879 238 52 45 39 
425 879 239 49 42 37 
426 876 239 49 41 35 
426 877 239 48 41 37 
427 876 238 50 42 36 
427 876 239 49 42 36 
427 877 238 52 45 39 
427 877 239 50 43 37 
426 878 237 56 49 42 
426 879 236 66 57 49 
426 879 237 59 51 45 
427 878 236 66 58 51 
427 878 237 57 49 42 
427 879 236 65 57 48 
427 879 237 60 52 45 
426 878 238 52 45 39 
426 878 239 49 42 39 
426 879 238 55 47 41 
427 878 238 54 47 41 
431 872 232 65 57 50 
431 872 233 58 50 43 
431 873 232 66 58 51 
431 873 233 61 52 46 
430 872 235 55 48 43 
430 873 234 59 50 45 
430 873 235 54 46 41 
431 872 234 56 47 42 
431 872 235 56 48 43 
431 873 234 59 50 44 
430 874 232 66 57 50 
430 874 233 64 55 49 
430 875 232 76 68 65 
430 875 233 63 55 49 
430 874 234 62 54 49 
430 874 235 58 50 44 
430 875 234 61 53 48 
430 875 235 61 53 47 
429 872 237 53 46 40 
429 873 237 53 46 41 
428 872 238 52 46 41 
428 872 239 49 43 38 
428 873 238 53 46 40 
428 873 239 52 45 40 
429 872 238 54 48 43 
429 873 238 52 45 39 
428 875 237 53 45 40 
429 874 236 52 45 39 
429 874 237 52 46 40 
429 875 236 57 49 43 
429 875 237 54 47 41 
428 874 238 48 41 34 
428 874 239 50 43 38 
428 875 238 48 41 35 
428 875 239 50 43 38 
429 874 238 50 43 37 
429 875 238 49 41 35 
430 872 236 57 49 44 
430 872 237 54 47 43 
430 873 236 54 47 42 
430 873 237 52 46 40 
430 874 236 53 46 40 
430 875 236 58 50 45 
429 877 232 100 93 91 
429 877 233 90 83 79 
429 876 234 62 54 49 
429 876 235 62 54 50 
429 877 234 63 55 50 
429 877 235 62 53 49 
428 879 232 92 83 85 
428 879 233 95 88 86 
429 878 232 92 83 82 
429 878 233 90 83 80 
428 878 234 66 57 51 
428 878 235 71 62 56 
428 879 234 65 57 51 
428 879 235 71 62 55 
429 878 234 63 54 49 
429 878 235 62 53 49 
430 876 232 93 87 85 
430 876 233 72 65 60 
430 876 234 62 54 48 
428 876 236 60 52 47 
428 876 237 55 47 42 
428 877 236 61 53 48 
428 877 237 56 48 41 
429 876 236 60 51 46 
429 876 237 58 51 46 
429 877 236 62 54 49 
428 876 238 51 43 37 
428 876 239 49 42 35 
428 877 238 52 45 39 
428 878 236 71 62 56 
428 878 237 59 51 46 
419 875 240 39 35 32 
416 877 240 40 36 33 
417 877 240 40 36 34 
416 878 240 39 35 33 
416 879 240 40 36 34 
417 878 240 42 38 36 
417 879 240 41 37 35 
418 876 240 40 36 33 
418 877 240 42 38 35 
419 876 240 41 37 34 
419 877 240 42 38 36 
418 878 240 43 39 36 
418 879 240 43 39 36 
418 879 241 42 38 35 
419 878 240 43 39 36 
419 879 240 44 40 37 
420 874 240 40 36 33 
420 875 240 40 36 33 
421 874 240 41 37 34 
421 875 240 42 38 35 
423 873 240 43 38 36 
422 874 240 42 37 35 
422 875 240 40 34 32 
423 874 240 42 37 35 
423 875 240 41 34 33 
420 876 240 42 37 34 
420 877 240 43 39 37 
421 876 240 41 35 33 
421 877 240 41 37 34 
421 877 241 41 35 33 
420 878 240 42 37 34 
420 879 240 44 39 36 
421 878 240 46 39 36 
421 879 240 47 40 38 
422 876 240 41 35 33 
422 877 240 44 38 36 
422 877 241 44 38 36 
423 876 240 45 39 37 
423 877 240 48 41 38 
422 878 240 47 40 38 
422 879 240 49 42 39 
423 878 240 47 40 37 
423 879 240 49 42 38 
424 875 240 44 38 35 
425 874 240 47 40 37 
425 875 240 47 40 36 
426 874 240 48 41 38 
426 875 240 48 41 37 
426 874 242 45 39 37 
424 876 240 48 41 38 
424 877 240 48 41 37 
425 876 240 49 42 37 
425 877 240 48 41 36 
424 878 240 48 41 38 
426 876 240 49 41 36 
418 883 224 74 67 64 
419 882 224 72 65 63 
419 883 224 71 64 61 
419 883 225 70 63 61 
416 885 224 78 70 67 
417 885 224 78 69 66 
416 886 224 79 71 67 
416 887 224 82 74 70 
417 886 224 82 73 70 
417 886 225 74 65 63 
417 887 225 72 63 60 
418 884 224 76 68 65 
418 884 225 71 63 59 
418 885 224 72 63 61 
418 885 225 69 60 58 
419 884 225 71 64 61 
419 885 225 74 67 62 
419 884 226 76 68 62 
419 885 226 78 69 64 
418 886 225 70 60 59 
418 887 225 75 64 65 
419 886 225 77 69 65 
418 886 226 77 67 65 
418 887 226 77 65 66 
419 886 226 74 66 61 
419 887 226 72 63 61 
420 881 224 74 66 65 
420 881 225 75 66 64 
421 880 224 75 68 64 
421 881 224 78 69 66 
421 881 225 74 66 64 
421 881 226 78 69 67 
420 882 224 72 63 63 
420 882 225 71 62 63 
420 883 225 72 64 63 
421 882 225 73 65 63 
420 883 226 77 69 67 
421 882 226 77 68 67 
421 883 226 75 66 64 
422 880 224 76 69 66 
422 880 225 78 71 69 
422 881 225 88 80 78 
423 880 225 84 75 74 
422 881 226 83 75 74 
423 880 226 80 72 70 
423 881 226 75 67 66 
422 882 226 75 65 65 
422 883 226 69 58 60 
422 883 227 66 58 57 
423 882 226 70 63 62 
423 882 227 78 72 70 
423 883 227 74 68 68 
420 884 225 73 66 64 
420 884 226 75 67 63 
420 885 226 73 65 61 
421 884 226 71 62 59 
421 885 226 68 59 57 
421 885 227 66 57 57 
420 886 226 70 62 58 
420 886 227 67 58 56 
420 887 226 69 61 58 
420 887 227 67 59 58 
421 886 227 67 59 59 
422 884 226 65 55 54 
422 884 227 66 59 58 
422 885 227 72 65 63 
423 884 227 74 69 68 
423 885 227 79 73 72 
422 886 227 70 64 61 
420 887 228 67 61 59 
420 887 229 77 67 67 
421 886 228 73 67 65 
421 886 229 81 75 73 
421 887 228 72 65 64 
421 887 229 77 70 68 
420 887 230 79 72 69 
420 887 231 80 72 68 
421 886 231 79 71 75 
421 887 230 81 75 72 
421 887 231 78 70 74 
422 885 228 78 72 70 
423 884 228 81 73 76 
423 885 228 80 74 74 
423 885 229 83 77 79 
423 885 230 80 74 74 
423 885 231 81 74 73 
422 886 228 80 73 71 
422 886 229 82 77 78 
423 886 229 78 72 75 
422 886 230 82 72 75 
422 886 231 84 73 74 
423 886 230 78 73 72 
419 887 237 69 63 59 
419 886 239 55 48 44 
419 887 238 92 86 85 
419 887 239 68 63 60 
422 881 239 49 43 38 
423 880 239 53 46 41 
423 881 238 55 47 42 
423 881 239 52 45 40 
423 882 237 60 52 45 
423 883 236 61 53 47 
423 883 237 60 52 46 
422 882 239 48 42 37 
422 883 238 50 43 38 
422 883 239 49 42 37 
423 882 238 55 48 42 
423 882 239 51 44 40 
423 883 238 56 49 43 
420 887 232 81 77 81 
420 887 233 79 72 75 
421 886 232 83 78 80 
421 886 233 82 73 75 
421 887 232 80 75 80 
421 887 233 78 72 73 
420 887 234 76 67 67 
420 887 235 79 72 69 
421 886 234 81 71 69 
421 886 235 78 69 65 
421 887 234 81 70 68 
421 887 235 79 71 67 
423 884 233 78 69 67 
423 885 232 88 79 79 
423 885 233 87 78 77 
422 885 234 83 72 71 
422 885 235 84 74 70 
423 884 234 77 67 64 
423 884 235 73 63 62 
423 885 234 80 71 69 
422 886 232 83 76 75 
422 886 233 87 78 78 
422 886 234 86 75 74 
422 886 235 75 64 63 
421 885 237 72 64 59 
420 885 239 51 44 39 
421 884 239 49 42 37 
421 885 238 54 46 41 
421 885 239 51 44 39 
420 886 237 70 63 60 
420 887 236 73 66 62 
420 887 237 72 65 61 
421 886 236 72 65 61 
421 886 237 82 74 69 
420 886 238 62 54 49 
420 886 239 57 50 46 
420 887 238 117 110 122 
421 886 238 61 53 47 
422 884 236 100 93 89 
422 884 237 60 52 46 
422 885 236 81 72 69 
422 885 237 64 56 51 
423 884 236 68 60 54 
423 884 237 60 52 46 
422 884 238 52 46 40 
422 884 239 48 42 36 
422 885 238 55 48 42 
416 888 224 79 66 68 
416 888 225 76 63 65 
416 889 225 71 61 61 
417 888 225 71 61 59 
417 889 225 69 62 58 
417 888 226 73 65 63 
417 889 226 71 63 62 
416 890 225 68 60 59 
416 891 225 67 62 60 
416 890 226 69 63 60 
416 891 226 68 63 62 
416 891 227 68 63 62 
417 890 226 68 62 61 
417 890 227 67 61 61 
417 891 227 67 62 62 
418 888 225 72 63 62 
418 888 226 74 64 63 
418 889 226 73 65 64 
418 889 227 68 61 61 
419 888 226 71 63 62 
419 888 227 67 60 59 
419 889 227 67 60 59 
418 890 227 65 59 60 
417 891 228 66 60 60 
417 891 229 66 61 61 
416 891 231 68 64 62 
417 891 230 67 62 62 
417 891 231 70 64 64 
419 888 228 65 60 58 
419 888 229 67 61 60 
419 889 228 66 61 59 
419 889 229 67 62 60 
419 889 230 73 65 65 
419 889 231 78 69 70 
418 890 228 66 61 61 
418 890 229 67 62 62 
418 891 228 66 62 62 
418 891 229 66 62 61 
419 890 229 67 61 59 
418 890 230 70 63 63 
418 890 231 73 66 67 
418 891 230 69 64 64 
418 891 231 73 66 67 
419 890 230 68 61 61 
416 892 226 67 62 61 
416 892 227 64 60 60 
416 892 228 65 61 60 
416 892 229 66 61 61 
416 893 228 64 59 59 
416 893 229 65 60 60 
417 892 228 66 61 61 
417 892 229 67 63 63 
416 892 230 67 62 62 
416 892 231 66 62 61 
417 892 230 67 63 62 
417 892 231 67 63 61 
420 888 227 67 60 59 
420 888 228 65 60 57 
420 888 229 71 63 62 
420 888 230 79 68 69 
420 888 231 82 72 71 
416 891 233 74 68 68 
417 890 233 78 73 71 
417 891 232 72 66 66 
417 891 233 75 70 68 
416 891 234 74 70 69 
416 891 235 81 77 77 
417 890 234 76 69 67 
417 890 235 76 68 63 
417 891 234 75 70 68 
418 889 232 72 67 68 
418 889 233 77 69 68 
419 889 232 75 67 69 
419 889 233 78 71 69 
418 889 234 79 71 68 
418 889 235 76 68 65 
419 888 234 77 70 69 
419 888 235 78 69 66 
419 889 234 81 74 70 
419 889 235 78 69 66 
418 890 232 72 67 67 
418 890 233 74 69 68 
418 890 234 77 70 68 
417 889 236 74 66 61 
417 889 237 73 64 60 
416 889 238 70 62 57 
416 889 239 65 58 54 
417 888 239 99 95 98 
417 889 238 83 74 70 
417 889 239 84 75 79 
416 890 237 74 66 61 
416 891 236 78 71 68 
416 891 237 73 64 59 
417 890 236 74 66 61 
417 890 237 73 65 60 
416 890 238 69 61 57 
416 890 239 70 64 60 
417 890 238 71 63 58 
418 888 237 82 72 70 
418 889 236 79 69 65 
418 889 237 90 81 75 
419 888 236 75 68 64 
419 888 237 78 69 67 
419 889 236 74 65 61 
418 888 238 80 70 69 
418 888 239 101 98 102 
418 889 238 85 76 72 
419 888 238 79 70 68 
419 888 239 100 96 99 
416 892 232 69 64 63 
416 892 233 74 68 67 
416 892 234 75 70 69 
416 892 235 78 74 74 
416 892 236 81 76 77 
420 888 232 76 68 69 
420 888 233 80 74 73 
420 888 234 77 68 68 
420 888 235 78 68 66 
424 880 225 84 75 73 
424 880 226 75 67 66 
424 881 226 75 68 66 
424 881 227 82 76 73 
425 880 226 79 72 69 
425 880 227 77 69 67 
425 881 227 81 73 72 
424 882 227 81 75 73 
424 883 227 83 77 78 
425 882 227 77 67 67 
426 880 227 79 71 70 
426 881 227 81 71 70 
424 883 228 81 74 77 
424 883 229 83 79 79 
425 882 228 82 74 75 
425 882 229 95 84 84 
425 883 228 81 75 79 
425 883 229 86 78 79 
425 883 230 72 68 69 
425 883 231 80 75 75 
426 880 228 108 99 96 
426 881 228 91 80 79 
426 881 229 90 79 78 
427 880 228 102 93 91 
427 880 229 95 88 87 
427 881 228 99 91 87 
427 881 229 86 78 77 
426 881 230 78 69 67 
426 881 231 87 77 76 
427 880 230 89 79 79 
427 880 231 87 74 77 
427 881 230 88 79 78 
427 881 231 86 75 75 
426 882 229 90 78 78 
426 882 230 82 73 74 
426 882 231 85 76 75 
426 883 230 84 74 76 
424 884 228 80 73 76 
424 884 229 84 80 80 
424 884 230 79 74 75 
424 884 231 79 74 74 
424 885 230 80 73 76 
424 885 231 78 72 73 
425 884 231 74 72 72 
428 880 230 88 80 80 
428 880 231 84 75 74 
425 881 235 62 53 47 
424 883 233 80 71 68 
425 882 232 81 71 69 
425 882 233 79 70 67 
425 883 232 86 78 77 
425 883 233 82 73 70 
424 882 235 63 54 46 
424 883 234 77 65 64 
424 883 235 66 56 50 
425 882 234 71 61 55 
425 882 235 62 53 46 
425 883 234 81 71 68 
426 881 232 79 69 68 
426 881 233 92 85 84 
427 880 232 85 75 78 
427 880 233 118 113 113 
427 881 232 76 66 66 
427 881 233 89 80 81 
426 880 235 62 53 46 
426 881 234 64 55 48 
426 881 235 62 53 46 
427 880 234 75 67 60 
427 880 235 67 58 50 
426 882 232 80 70 69 
426 882 233 84 73 74 
426 882 234 72 62 58 
424 881 236 60 52 46 
424 881 237 61 53 46 
425 880 236 63 54 46 
425 880 237 59 51 44 
425 881 236 62 54 46 
425 881 237 61 53 46 
424 880 238 55 48 42 
424 880 239 52 45 40 
424 881 238 54 47 41 
424 881 239 53 46 40 
425 880 238 53 46 40 
424 882 236 61 53 46 
424 882 237 60 52 45 
424 883 236 62 53 47 
425 882 236 61 52 44 
426 880 236 62 53 46 
424 884 232 85 78 76 
424 884 233 84 75 74 
424 885 232 89 82 80 
424 884 234 75 63 64 
428 880 232 87 77 80 
428 880 233 136 133 132 
416 880 241 40 36 35 
416 881 241 41 38 36 
417 880 241 41 36 34 
417 881 241 43 39 36 
416 882 242 42 37 36 
416 883 242 43 37 36 
416 883 243 42 37 36 
417 882 242 43 38 37 
417 883 242 45 40 38 
418 880 241 43 39 35 
418 881 241 44 39 36 
419 880 241 45 39 35 
419 881 241 45 39 35 
418 882 241 44 39 36 
418 883 241 46 40 37 
419 882 241 46 40 36 
419 883 240 47 41 38 
419 883 241 46 40 37 
418 882 242 45 39 37 
417 884 241 47 41 39 
417 885 241 46 39 38 
416 884 242 46 40 39 
416 884 243 43 38 36 
416 885 242 46 39 38 
416 885 243 46 40 38 
417 884 242 46 41 39 
417 885 242 47 40 38 
416 887 241 48 43 40 
417 886 241 48 43 40 
417 887 241 50 45 42 
416 886 242 45 39 37 
416 886 243 47 40 39 
416 887 242 47 42 39 
417 886 242 46 40 38 
418 884 240 48 42 39 
418 884 241 47 41 38 
418 885 240 48 42 40 
418 885 241 47 41 39 
419 884 240 47 41 38 
419 885 240 49 43 40 
418 886 240 50 44 41 
418 886 241 48 43 41 
418 887 240 51 46 42 
418 887 241 50 44 41 
419 886 240 52 45 41 
419 886 241 50 44 40 
419 887 240 53 47 42 
420 880 240 46 40 37 
420 881 240 47 41 37 
420 881 241 47 40 36 
421 880 240 48 41 39 
421 881 240 48 42 38 
420 882 240 47 41 37 
420 883 240 47 41 37 
421 882 240 48 42 38 
421 883 240 47 40 36 
422 880 240 51 44 40 
422 881 240 50 44 39 
423 880 240 52 45 41 
422 882 240 49 42 38 
420 884 240 49 43 39 
420 885 240 49 43 39 
421 884 240 48 41 36 
416 888 241 51 46 43 
416 889 240 85 82 87 
416 889 241 101 98 101 
417 888 240 85 83 86 
417 888 241 51 46 43 
416 888 242 47 43 40 
418 888 240 72 67 66 
432 867 224 84 73 72 
432 867 225 83 72 68 
433 866 224 88 77 77 
433 866 225 83 74 71 
433 867 224 87 76 73 
433 867 225 83 74 71 
432 867 226 85 75 71 
433 866 226 86 76 72 
433 866 227 82 71 69 
433 867 226 81 70 70 
433 867 227 80 69 68 
434 865 224 85 75 75 
434 865 225 92 84 79 
435 864 224 85 76 77 
435 864 225 92 85 82 
435 865 224 85 76 76 
435 865 225 80 72 71 
434 865 226 89 81 76 
434 865 227 83 74 72 
435 864 226 93 85 81 
435 864 227 83 75 73 
435 865 226 94 87 83 
435 865 227 84 76 74 
434 866 224 88 78 77 
434 866 225 82 73 71 
434 866 226 90 82 77 
434 866 227 82 72 68 
433 866 228 93 85 82 
433 866 229 75 65 61 
433 867 228 90 80 78 
433 867 229 89 81 77 
433 866 230 76 67 63 
433 866 231 75 66 63 
433 867 230 76 67 63 
433 867 231 75 66 62 
434 864 229 79 68 66 
434 865 228 89 82 81 
434 865 229 80 69 68 
435 864 228 95 85 86 
435 864 229 83 72 70 
435 865 228 87 79 79 
434 864 230 74 65 63 
434 864 231 61 53 52 
434 865 230 75 66 63 
434 865 231 67 59 56 
435 864 230 76 67 66 
435 864 231 62 54 53 
434 866 228 96 88 86 
434 866 229 77 67 63 
434 866 230 75 66 62 
434 866 231 65 58 54 
432 868 224 87 75 73 
432 868 225 83 72 68 
432 869 225 84 75 73 
432 868 226 86 76 72 
432 868 227 86 75 72 
432 869 226 81 71 71 
432 869 227 86 77 74 
433 868 227 85 73 71 
432 870 227 89 80 76 
432 869 228 83 74 72 
432 869 229 112 103 110 
433 868 228 84 76 75 
433 868 229 91 83 84 
433 869 229 122 118 121 
432 869 230 90 79 78 
432 869 231 81 70 66 
433 868 230 79 69 66 
433 868 231 76 68 64 
433 869 230 82 73 69 
433 869 231 82 71 68 
432 870 229 109 104 107 
432 870 230 109 101 99 
432 870 231 80 70 66 
432 871 230 113 104 102 
432 871 231 69 60 54 
433 865 233 52 46 43 
432 864 235 50 45 41 
432 865 235 51 45 42 
433 864 234 50 44 42 
433 864 235 51 45 42 
433 865 234 51 46 43 
433 865 235 51 46 43 
433 866 232 59 53 49 
433 866 233 55 49 45 
433 867 232 60 54 50 
433 867 233 58 52 48 
432 866 235 51 45 41 
432 867 234 56 50 46 
432 867 235 52 45 42 
433 866 234 52 47 43 
433 866 235 51 46 42 
433 867 234 55 49 45 
434 864 232 53 47 44 
434 864 233 50 44 41 
434 865 232 54 49 45 
434 865 233 52 46 42 
434 866 232 56 51 47 
434 866 233 54 48 44 
432 869 232 61 52 45 
432 869 233 60 51 46 
433 868 232 62 55 51 
433 868 233 60 52 49 
432 868 234 59 50 48 
432 868 235 56 47 45 
432 869 234 59 50 48 
432 869 235 58 48 47 
432 870 232 60 52 45 
432 870 233 57 50 44 
432 871 232 60 52 45 
432 871 233 55 48 41 
432 870 234 58 51 46 
432 871 234 58 51 44 
452 781 198 66 52 45 
452 781 199 61 48 44 
452 782 198 66 53 48 
452 782 199 61 48 44 
453 782 198 66 52 45 
453 782 199 60 48 43 
453 783 198 69 54 50 
453 783 199 64 51 47 
452 781 200 60 48 44 
452 781 201 59 49 44 
452 781 202 58 49 44 
452 781 203 59 49 45 
453 781 202 58 49 45 
452 782 200 61 47 42 
452 782 201 60 50 46 
453 782 200 61 49 45 
453 782 201 60 50 46 
453 783 200 63 51 45 
453 783 201 60 50 45 
452 782 203 58 47 45 
453 782 202 59 49 45 
453 782 203 58 47 44 
453 783 202 60 49 46 
453 783 203 58 46 45 
452 781 204 62 50 46 
452 781 205 62 50 45 
452 781 206 64 52 46 
452 781 207 61 50 45 
452 782 204 58 47 45 
452 782 205 62 50 45 
452 783 205 63 51 47 
453 782 204 57 45 44 
453 783 204 61 48 46 
452 782 206 65 53 47 
452 782 207 64 52 47 
452 783 206 66 53 48 
452 783 207 65 52 46 
451 783 212 49 43 41 
451 783 213 49 40 39 
451 783 214 51 41 37 
451 783 215 54 41 36 
452 781 208 55 46 43 
452 781 209 52 44 42 
452 781 210 50 43 41 
452 782 208 59 49 45 
452 782 209 55 46 43 
452 783 208 63 51 46 
452 783 209 59 50 45 
452 782 210 50 42 39 
452 782 211 50 45 42 
452 783 210 51 43 40 
452 783 211 50 43 41 
452 783 212 52 43 41 
450 788 199 71 58 55 
450 789 199 71 59 55 
450 791 199 72 58 53 
453 784 198 67 53 48 
453 784 199 63 51 46 
453 785 198 66 51 47 
453 785 199 64 53 47 
453 786 198 66 53 49 
453 786 199 67 55 50 
453 787 198 70 56 52 
453 787 199 69 55 51 
452 789 198 72 58 52 
453 788 198 72 56 54 
453 788 199 71 56 52 
453 789 198 73 57 53 
453 789 199 72 58 53 
452 790 198 72 59 52 
452 790 199 72 58 53 
452 791 198 73 59 53 
452 791 199 72 57 53 
453 790 198 73 59 53 
453 790 199 73 59 54 
453 791 198 74 59 55 
453 791 199 74 58 54 
454 789 197 74 59 55 
455 788 197 78 63 58 
455 789 197 79 63 59 
454 789 198 74 58 55 
454 789 199 75 60 56 
455 789 198 77 61 57 
455 789 199 76 60 56 
454 790 197 76 60 56 
454 791 197 77 61 55 
455 790 197 79 63 58 
455 791 197 79 62 57 
454 790 199 74 59 55 
454 791 198 76 60 55 
454 791 199 74 59 55 
455 790 198 80 64 59 
455 790 199 76 60 55 
455 791 198 79 62 58 
455 791 199 75 59 55 
450 786 200 67 53 49 
450 787 200 69 55 51 
449 788 200 71 56 54 
449 788 201 71 56 53 
449 789 200 73 56 53 
449 789 201 72 57 54 
449 788 202 68 54 50 
450 788 200 69 55 51 
450 791 200 74 59 55 
453 784 200 62 50 44 
453 784 201 65 53 47 
453 785 200 64 52 45 
453 785 201 66 53 46 
453 784 202 65 52 49 
453 784 203 64 50 48 
453 785 202 68 54 51 
453 785 203 68 53 52 
453 786 200 68 56 50 
453 786 201 67 54 48 
453 787 200 71 57 52 
453 787 201 68 56 51 
453 786 202 69 54 52 
453 786 203 72 56 54 
453 787 202 70 55 51 
453 787 203 73 57 54 
452 784 205 65 51 47 
452 785 205 67 50 48 
453 784 204 62 49 47 
453 784 205 64 50 47 
453 785 204 68 53 51 
453 785 205 68 53 50 
452 784 206 66 52 48 
452 784 207 65 51 48 
452 785 206 67 50 47 
452 785 207 66 51 49 
452 786 205 68 51 49 
453 786 204 70 54 52 
453 786 205 68 52 51 
453 787 204 69 53 51 
453 787 205 68 51 49 
452 786 206 69 52 50 
452 786 207 69 53 52 
452 787 206 68 52 50 
452 787 207 68 52 50 
453 787 206 68 52 50 
453 788 200 69 56 51 
453 788 201 67 54 51 
453 789 200 69 56 51 
453 789 201 67 54 51 
452 789 202 66 53 50 
453 788 202 71 57 53 
453 788 203 74 58 53 
453 789 202 69 55 51 
453 789 203 70 56 50 
452 790 200 73 59 54 
452 790 201 67 52 51 
452 791 200 75 60 56 
452 791 201 70 55 52 
453 790 200 70 57 53 
453 790 201 68 54 51 
453 791 200 72 57 53 
453 791 201 67 54 50 
452 790 202 67 53 50 
452 791 202 65 52 50 
452 791 203 68 55 51 
453 790 203 69 56 51 
453 791 203 69 56 50 
454 790 200 71 56 53 
454 791 200 71 56 53 
454 791 201 68 55 52 
453 788 204 73 58 53 
453 788 205 68 53 49 
453 789 204 75 60 54 
453 789 205 71 57 50 
453 788 206 67 52 47 
453 788 207 67 52 46 
453 789 206 67 53 47 
453 789 207 66 51 44 
453 790 204 74 60 54 
453 790 205 73 60 53 
453 791 204 72 58 52 
453 791 205 76 61 55 
453 790 206 69 55 49 
453 790 207 67 52 46 
453 791 206 70 56 51 
453 791 207 69 53 48 
454 790 207 67 50 43 
451 793 199 76 63 57 
450 794 199 77 62 56 
450 795 199 77 61 56 
451 794 199 76 63 57 
450 796 199 77 60 54 
450 797 199 76 60 54 
452 792 198 77 62 57 
452 792 199 75 61 56 
452 793 199 78 64 59 
453 792 199 75 59 56 
454 792 199 75 58 55 
449 793 201 74 59 53 
448 794 200 73 58 52 
448 795 201 73 57 52 
449 794 201 73 58 52 
450 792 200 74 59 55 
450 792 201 76 62 57 
450 793 201 73 60 53 
451 793 200 75 62 56 
450 794 201 71 58 51 
450 795 200 73 58 54 
451 794 200 74 61 55 
451 794 201 71 58 51 
451 795 200 74 60 55 
451 795 201 72 59 52 
451 794 202 71 58 54 
451 794 203 73 60 56 
451 795 202 71 57 53 
451 795 203 73 58 55 
451 794 204 72 56 54 
451 795 204 72 57 55 
451 795 205 72 56 55 
449 797 200 76 60 54 
448 796 203 74 64 60 
449 796 203 73 62 59 
448 798 200 77 60 54 
448 799 200 77 60 54 
448 799 201 76 59 53 
449 798 200 75 59 54 
449 798 201 73 58 53 
449 799 201 73 58 53 
448 799 202 72 58 51 
449 799 202 72 58 52 
449 799 203 72 57 52 
450 796 200 75 60 54 
450 797 200 73 58 53 
450 797 201 70 56 51 
451 796 200 73 58 53 
451 796 201 71 57 52 
451 797 200 71 56 52 
451 797 201 70 56 51 
450 796 203 74 63 59 
450 797 202 72 58 52 
451 796 202 71 57 53 
451 796 203 71 56 54 
451 797 202 72 57 52 
451 797 203 73 58 54 
450 798 201 71 57 52 
450 798 202 71 57 52 
450 798 203 74 59 54 
450 799 202 72 58 52 
450 799 203 72 57 52 
449 799 204 72 56 52 
451 796 204 72 57 54 
451 796 205 71 54 52 
451 797 204 73 58 54 
451 797 205 73 57 54 
451 797 206 69 53 48 
451 797 207 73 57 51 
450 798 204 73 57 52 
450 798 205 73 58 53 
450 799 204 72 56 51 
450 799 205 73 58 52 
451 798 205 72 58 53 
450 798 206 73 59 54 
450 799 206 73 58 52 
450 799 207 69 55 50 
451 798 206 70 56 50 
451 798 207 68 53 48 
451 799 207 68 54 47 
452 792 200 74 60 55 
452 792 201 71 57 54 
452 793 200 75 61 56 
452 793 201 74 60 55 
453 792 200 72 58 54 
453 792 201 70 57 54 
453 793 200 73 59 55 
453 793 201 71 57 55 
452 792 202 69 55 53 
452 792 203 68 55 51 
452 793 202 72 59 56 
452 793 203 71 58 54 
452 794 200 74 60 55 
452 794 201 72 58 53 
452 794 202 72 58 54 
452 794 203 72 58 55 
454 792 200 72 57 53 
454 792 201 70 58 54 
452 792 204 71 57 52 
452 792 205 74 59 54 
452 793 204 71 56 52 
452 793 205 76 60 56 
453 792 205 76 60 55 
453 792 206 74 58 54 
453 792 207 72 56 52 
453 793 206 75 60 55 
453 793 207 74 58 54 
452 794 204 71 56 52 
452 794 205 74 58 55 
452 795 205 74 56 55 
453 795 205 73 56 55 
452 794 206 77 60 56 
452 795 206 76 60 55 
452 795 207 76 60 55 
453 794 206 78 62 57 
453 794 207 76 60 54 
453 795 207 76 60 54 
452 796 205 73 55 54 
453 796 205 74 56 54 
452 796 206 76 59 55 
452 796 207 78 61 56 
452 797 207 78 61 56 
453 796 206 77 59 56 
453 796 207 77 61 55 
458 785 195 74 59 52 
459 785 195 76 60 54 
458 786 195 73 58 52 
458 787 195 74 58 52 
459 786 195 75 59 53 
456 787 196 77 62 56 
457 787 196 76 60 54 
459 785 196 76 59 53 
458 786 196 76 60 54 
458 787 196 78 62 55 
458 787 197 79 63 56 
456 788 196 78 64 58 
456 788 197 80 64 58 
456 789 196 78 63 57 
456 789 197 81 65 59 
457 788 196 78 63 56 
457 788 197 80 65 58 
456 788 198 80 63 58 
456 788 199 78 61 57 
456 789 198 80 63 59 
451 784 213 52 42 40 
451 784 214 50 40 37 
451 784 215 53 41 38 
452 784 208 65 51 48 
452 784 209 59 49 44 
452 785 208 66 51 47 
452 785 209 63 51 46 
453 785 208 66 51 48 
453 785 209 66 53 49 
452 784 210 51 43 39 
452 784 211 49 41 36 
452 785 210 52 42 37 
452 785 211 51 43 37 
453 785 211 50 43 37 
452 786 208 67 52 48 
452 787 208 67 52 47 
452 787 209 66 53 48 
453 786 208 66 51 46 
453 786 209 64 52 47 
453 787 209 61 51 46 
452 786 211 50 42 38 
453 786 210 56 47 41 
453 786 211 50 43 38 
453 787 210 56 47 42 
453 787 211 52 44 41 
452 784 212 52 44 41 
452 784 213 53 44 42 
452 785 212 53 43 40 
452 785 213 54 44 42 
452 785 214 52 41 41 
452 785 215 53 41 40 
452 786 212 50 42 39 
452 786 213 53 43 41 
453 786 212 51 43 39 
453 786 213 51 41 41 
453 787 212 51 42 40 
453 787 213 51 42 41 
452 786 214 53 42 43 
452 786 215 55 44 44 
452 787 215 55 47 44 
453 786 214 53 42 44 
453 787 214 51 43 42 
453 787 215 51 44 41 
452 788 208 68 55 48 
453 788 208 66 52 44 
453 788 209 61 49 45 
453 789 208 67 52 44 
453 789 209 63 50 46 
453 788 210 57 47 43 
453 788 211 55 46 42 
453 789 210 57 46 41 
453 789 211 56 46 43 
453 790 208 68 51 45 
453 790 209 65 51 47 
453 791 208 71 54 49 
453 791 209 69 53 50 
453 790 210 61 48 44 
453 790 211 57 46 43 
453 791 210 64 50 48 
453 791 211 59 47 44 
454 789 210 58 46 42 
454 790 208 68 52 48 
454 790 209 68 53 50 
454 791 208 70 53 48 
454 791 209 69 53 51 
454 790 210 64 50 46 
453 788 212 53 45 42 
453 788 213 52 43 42 
453 789 212 55 45 42 
453 789 213 55 45 44 
453 788 214 54 46 44 
453 788 215 53 45 43 
453 789 214 56 47 46 
453 789 215 58 48 46 
453 790 212 56 46 42 
453 790 213 56 47 44 
453 791 212 56 45 41 
453 791 213 57 47 43 
453 790 214 58 49 47 
453 790 215 62 51 48 
453 791 214 58 49 46 
453 791 215 61 51 48 
451 784 216 60 44 40 
451 785 216 58 42 38 
451 785 217 61 45 40 
450 786 217 68 49 46 
451 786 216 60 44 39 
451 786 217 64 46 42 
451 787 217 66 48 44 
450 786 218 71 52 44 
450 786 219 81 58 48 
451 786 218 69 52 46 
451 786 219 84 61 51 
451 787 218 69 50 43 
451 787 219 81 58 48 
450 786 220 95 67 56 
450 786 221 98 68 54 
451 786 220 96 67 53 
451 787 220 91 64 51 
451 787 221 87 60 46 
450 786 222 97 68 51 
450 786 223 96 69 51 
450 787 222 85 60 45 
451 787 222 83 58 44 
449 788 222 77 56 44 
449 788 223 74 54 42 
449 789 222 71 52 39 
448 791 222 70 49 38 
448 791 223 70 48 37 
449 790 222 72 51 39 
449 791 222 72 51 39 
451 788 221 82 59 45 
451 789 221 79 56 44 
450 788 222 79 56 43 
450 789 222 74 53 41 
451 788 222 82 57 45 
451 789 222 79 56 44 
451 791 221 73 51 43 
450 790 222 74 52 41 
450 791 222 73 51 40 
451 790 222 77 54 43 
451 791 222 73 51 40 
452 786 216 57 41 39 
452 787 216 58 47 44 
452 787 217 65 49 45 
452 787 218 69 51 44 
452 788 216 61 50 47 
452 788 217 65 49 45 
453 788 216 64 51 47 
453 788 217 67 52 47 
453 789 216 65 52 48 
453 789 217 68 52 47 
452 788 218 72 53 46 
452 788 219 79 57 47 
452 789 218 72 55 47 
452 789 219 74 53 45 
453 789 218 69 53 45 
453 789 219 73 54 45 
453 790 216 65 53 49 
453 790 217 65 51 46 
453 791 216 63 52 49 
453 791 217 64 52 48 
452 791 219 55 44 40 
453 790 218 72 55 47 
453 790 219 71 53 45 
453 791 218 68 53 48 
453 791 219 63 49 44 
452 788 220 85 61 50 
452 788 221 81 59 46 
452 789 220 75 55 46 
452 789 221 78 56 44 
452 789 222 83 58 48 
452 790 220 69 49 40 
452 790 221 74 53 43 
452 791 220 58 42 34 
452 791 221 63 45 37 
453 790 220 63 46 39 
453 791 220 59 45 38 
451 797 208 74 57 53 
451 798 208 71 56 51 
451 798 209 71 54 49 
451 799 208 68 54 48 
451 799 209 70 55 49 
451 799 210 68 52 46 
451 799 211 69 54 48 
453 792 208 73 56 51 
453 792 209 70 53 50 
453 793 208 74 57 53 
453 793 209 71 54 51 
453 792 210 66 51 48 
453 792 211 63 49 46 
453 793 210 67 52 48 
453 793 211 66 52 49 
453 794 208 75 58 53 
453 794 209 71 54 50 
453 795 208 74 59 53 
453 795 209 71 56 51 
453 794 210 66 52 47 
453 794 211 65 51 45 
453 795 210 68 54 49 
453 795 211 66 52 47 
453 792 212 60 47 45 
453 792 213 58 47 44 
453 793 212 63 49 47 
453 793 213 60 48 45 
453 792 214 58 49 46 
453 792 215 61 50 48 
453 793 214 59 49 46 
453 793 215 59 49 49 
453 794 212 66 51 47 
453 794 213 64 51 46 
453 795 212 64 50 45 
453 795 213 63 51 45 
453 794 214 63 51 48 
453 794 215 59 49 49 
453 795 214 63 52 47 
453 795 215 59 48 45 
452 796 209 70 56 49 
452 797 208 75 59 53 
452 797 209 71 56 49 
453 796 208 74 57 52 
453 796 209 72 57 52 
453 797 208 75 59 52 
453 797 209 71 56 49 
453 796 210 69 53 49 
453 796 211 67 52 47 
453 797 210 71 56 49 
453 797 211 69 54 48 
452 798 209 70 54 48 
452 798 210 69 54 47 
452 798 211 70 55 49 
452 799 211 70 55 49 
453 798 210 70 56 49 
453 798 211 70 55 49 
453 799 211 70 55 49 
452 796 212 66 52 45 
452 796 213 69 55 49 
452 797 212 68 52 47 
452 797 213 68 53 48 
453 796 212 67 52 47 
453 796 213 67 55 48 
453 797 212 68 53 45 
452 797 214 65 52 47 
452 797 215 61 48 44 
453 796 214 65 53 47 
453 796 215 61 49 45 
453 797 215 61 48 44 
452 798 212 68 52 47 
452 798 213 66 51 47 
452 799 212 70 55 50 
452 799 213 68 53 49 
453 798 212 69 53 47 
453 799 212 70 55 49 
453 799 213 68 53 50 
452 798 214 64 50 46 
452 798 215 60 47 44 
452 799 214 64 50 46 
452 799 215 60 46 43 
453 799 214 64 50 46 
453 799 215 62 48 43 
449 793 221 63 47 37 
448 792 222 70 52 42 
448 793 222 73 54 43 
449 792 222 72 53 42 
449 793 222 67 51 40 
449 794 221 60 46 40 
449 795 221 50 41 38 
448 794 222 73 54 45 
448 795 222 65 50 43 
448 795 223 73 53 44 
449 794 222 67 50 41 
450 793 221 63 47 39 
451 792 221 64 47 40 
451 793 220 57 43 37 
451 793 221 59 44 38 
450 792 222 71 51 41 
450 793 222 67 50 40 
450 794 221 51 42 39 
450 795 220 51 43 42 
450 795 221 50 42 40 
451 794 220 52 44 40 
451 794 221 51 42 39 
451 795 220 52 45 43 
449 796 221 52 42 39 
448 796 223 71 53 45 
448 797 223 59 44 41 
449 796 222 54 43 37 
449 796 223 55 43 39 
449 797 222 54 43 39 
449 797 223 57 43 39 
449 798 223 58 47 42 
449 799 223 56 47 41 
450 796 220 54 46 43 
450 796 221 53 45 41 
450 797 221 61 51 47 
451 796 220 60 51 49 
451 797 220 61 53 50 
450 797 222 53 44 40 
450 798 221 60 51 47 
451 798 220 62 54 51 
451 798 221 63 55 51 
451 799 220 63 54 51 
451 799 221 64 54 50 
450 798 222 58 49 45 
450 799 222 60 51 47 
450 799 223 57 48 43 
451 799 222 63 54 50 
453 792 216 61 51 48 
453 792 217 61 51 48 
453 793 216 60 50 49 
453 793 217 60 51 48 
452 792 218 57 47 46 
452 792 219 53 43 38 
452 793 218 57 47 44 
452 793 219 54 44 39 
453 792 218 61 51 48 
453 793 218 57 48 46 
453 794 216 58 48 48 
453 794 217 57 49 47 
453 795 216 59 47 47 
453 795 217 58 48 47 
452 794 218 57 47 45 
452 794 219 57 48 44 
452 795 218 55 46 45 
452 795 219 58 49 47 
452 792 220 55 41 35 
452 792 221 61 45 39 
452 793 220 55 43 38 
452 796 216 61 49 48 
452 796 217 59 48 46 
452 797 216 61 49 47 
452 797 217 61 50 49 
453 796 216 60 48 47 
452 796 218 58 47 46 
452 796 219 60 48 48 
452 797 218 61 49 48 
452 797 219 61 50 48 
452 798 216 63 51 49 
452 798 217 63 52 49 
452 799 216 61 49 45 
452 799 217 65 55 51 
453 799 216 60 46 43 
452 798 218 60 49 47 
452 798 219 61 51 48 
452 799 218 63 52 50 
452 799 219 62 52 50 
452 798 220 62 54 51 
452 799 220 62 54 51 
448 798 224 53 43 39 
448 799 224 55 45 40 
449 799 224 55 47 43 
448 800 202 74 59 52 
448 800 203 74 57 52 
449 800 203 73 58 53 
448 800 204 73 57 53 
448 801 204 74 58 52 
448 801 205 72 58 52 
449 800 204 71 55 51 
449 800 205 71 56 51 
449 801 205 71 56 51 
448 801 206 72 56 49 
449 800 206 73 58 52 
449 801 206 72 56 50 
449 801 207 74 57 53 
448 802 206 71 54 47 
448 802 207 72 55 49 
448 803 207 72 56 51 
449 802 207 73 55 50 
450 800 205 72 56 51 
450 800 206 73 57 52 
450 800 207 69 54 50 
450 801 207 72 56 52 
448 804 207 72 58 52 
448 803 208 71 55 50 
449 802 208 73 57 54 
449 802 209 70 55 52 
449 803 208 71 56 51 
449 803 209 72 58 52 
449 803 210 73 58 53 
449 803 211 74 58 54 
450 800 208 67 52 47 
450 800 209 69 54 50 
450 801 208 71 56 52 
450 801 209 69 54 50 
451 800 209 70 55 51 
450 801 210 69 54 49 
450 801 211 71 53 47 
451 800 210 69 54 49 
451 800 211 70 54 48 
451 801 211 70 53 47 
450 802 208 71 56 53 
450 802 209 69 54 51 
450 802 210 71 55 50 
450 802 211 73 54 49 
451 803 211 71 54 50 
449 803 212 73 56 52 
449 803 213 79 63 56 
449 803 214 81 65 57 
450 801 212 69 51 47 
451 800 212 72 57 51 
451 800 213 69 54 49 
451 801 212 71 54 51 
451 801 213 69 53 50 
451 801 214 75 60 54 
451 801 215 66 52 50 
450 802 212 68 50 47 
450 802 213 76 60 55 
450 803 213 83 67 59 
451 802 212 69 54 52 
451 802 213 66 51 49 
451 803 212 69 53 50 
451 803 213 72 56 53 
450 802 214 83 67 59 
450 802 215 82 66 59 
450 803 214 83 67 59 
450 803 215 82 66 59 
451 802 214 72 57 52 
451 802 215 74 59 54 
451 803 214 78 63 58 
451 803 215 78 64 57 
448 804 208 72 57 52 
448 804 209 74 60 54 
448 805 208 72 58 52 
448 805 209 72 58 52 
449 804 209 75 61 54 
448 805 210 74 60 54 
448 805 211 72 57 52 
449 804 210 75 61 55 
449 804 211 76 60 55 
449 805 210 76 62 56 
449 805 211 75 61 56 
448 806 209 71 58 53 
448 806 210 71 56 50 
448 806 211 73 59 52 
448 807 210 70 55 50 
448 807 211 72 57 51 
450 804 211 70 55 49 
450 805 211 72 56 52 
451 804 211 71 55 51 
451 805 211 72 56 53 
450 806 211 71 56 52 
450 807 211 73 57 53 
451 806 211 72 58 53 
451 807 211 75 59 54 
448 805 212 77 63 57 
449 804 212 72 56 51 
449 804 213 75 59 54 
449 805 212 74 59 54 
449 805 213 73 57 53 
449 804 214 80 64 56 
449 804 215 81 65 57 
449 805 214 75 60 53 
449 805 215 80 64 55 
448 806 212 76 61 55 
448 806 213 76 61 56 
448 807 212 76 61 55 
448 807 213 75 59 55 
449 806 213 75 59 54 
449 807 212 75 60 55 
449 807 213 77 60 57 
448 806 214 73 58 52 
448 807 214 71 55 51 
448 807 215 71 55 49 
449 806 214 73 58 51 
449 806 215 71 55 49 
449 807 215 72 56 51 
450 804 212 72 56 53 
450 804 213 75 59 56 
450 805 212 72 57 53 
450 805 213 75 60 55 
451 804 212 73 56 53 
451 804 213 72 56 54 
451 805 212 72 57 53 
450 804 214 79 64 58 
450 804 215 82 66 58 
450 805 214 78 62 56 
450 805 215 81 65 57 
450 806 212 74 57 53 
450 806 213 75 59 53 
450 807 212 76 60 56 
450 807 213 77 60 55 
451 806 212 79 63 59 
451 807 212 78 61 57 
450 806 214 75 58 52 
450 806 215 77 61 53 
450 807 214 74 57 51 
450 807 215 74 57 52 
451 807 215 74 57 52 
452 801 211 71 55 49 
453 800 211 70 55 49 
453 801 211 70 55 49 
452 802 211 72 55 50 
452 803 211 72 55 50 
452 800 212 71 56 50 
452 800 213 68 52 48 
452 801 212 70 54 49 
452 801 213 64 49 45 
453 800 212 70 55 49 
453 800 213 70 54 51 
453 801 212 68 53 48 
453 801 213 68 52 49 
452 800 214 62 48 45 
452 800 215 58 45 43 
452 801 214 63 47 45 
452 801 215 63 50 49 
453 800 214 68 53 50 
453 800 215 62 47 45 
453 801 214 65 50 48 
452 802 212 70 54 50 
452 802 213 66 50 48 
452 803 212 69 53 51 
452 803 213 66 51 49 
452 802 214 64 49 47 
452 802 215 64 49 48 
452 803 214 65 50 47 
453 802 214 65 51 49 
453 802 215 63 49 47 
453 803 214 66 52 49 
453 803 215 64 50 47 
454 800 215 65 50 48 
454 801 214 66 52 51 
454 801 215 62 49 48 
454 802 215 62 49 47 
452 804 212 71 54 52 
452 804 213 65 48 46 
452 805 212 71 56 53 
452 805 213 67 52 47 
452 804 214 66 51 48 
452 804 215 67 51 48 
452 805 214 69 53 50 
452 805 215 71 53 50 
453 804 215 65 50 47 
452 806 212 78 62 58 
452 806 213 75 59 54 
452 807 213 77 60 55 
452 806 214 74 58 53 
452 806 215 75 57 52 
452 807 214 74 58 53 
452 807 215 73 56 52 
451 801 216 62 50 47 
451 801 217 62 50 46 
451 801 218 69 57 54 
450 803 216 81 66 58 
451 802 216 74 60 54 
451 802 217 66 52 48 
451 803 216 78 63 56 
451 803 217 70 55 51 
451 802 218 70 56 53 
451 802 219 69 57 53 
451 803 218 73 57 53 
451 803 219 70 57 51 
449 800 223 57 49 44 
449 801 223 59 52 47 
450 801 221 66 55 50 
451 800 220 63 53 50 
451 800 221 66 56 52 
451 801 220 65 53 50 
451 801 221 65 54 50 
450 800 222 63 54 50 
450 800 223 61 53 48 
450 801 222 64 54 51 
450 801 223 63 55 52 
451 800 222 64 53 49 
451 801 222 64 53 49 
450 802 220 66 55 51 
450 802 221 65 54 50 
450 803 220 68 56 51 
450 803 221 64 53 49 
451 802 220 68 56 52 
451 802 221 64 53 49 
450 802 222 65 55 52 
450 802 223 65 57 54 
450 803 222 65 55 52 
450 803 223 63 55 53 
449 805 216 83 66 59 
448 807 216 73 56 51 
448 807 217 74 57 51 
449 806 216 72 55 50 
449 806 217 74 57 52 
449 807 216 72 56 51 
449 807 217 76 58 53 
448 807 218 71 53 48 
448 807 219 69 52 46 
449 806 218 73 56 51 
449 806 219 71 57 50 
450 804 216 78 61 55 
450 804 217 70 54 49 
450 805 216 76 59 53 
450 805 217 72 54 50 
451 804 216 77 60 55 
451 804 217 71 55 49 
451 805 216 75 54 52 
451 805 217 74 55 50 
450 804 218 74 58 52 
450 804 219 72 58 50 
450 805 218 74 57 50 
450 805 219 72 58 50 
451 804 218 74 59 52 
451 805 218 74 57 50 
450 806 216 74 56 51 
450 806 217 73 54 50 
450 807 216 73 56 51 
451 806 216 75 55 52 
451 806 217 74 55 51 
451 807 216 72 55 51 
450 806 218 74 57 50 
449 805 220 70 57 53 
449 805 221 64 54 50 
449 804 222 64 56 53 
449 804 223 63 55 52 
449 805 222 64 55 52 
449 805 223 63 55 51 
448 806 220 70 55 51 
448 806 221 66 53 50 
448 807 220 69 53 49 
448 807 221 64 51 48 
449 806 220 71 57 53 
449 806 221 68 56 52 
448 806 222 63 53 49 
448 806 223 63 54 49 
448 807 222 61 50 46 
448 807 223 62 53 47 
450 804 220 69 58 51 
450 804 221 64 54 49 
450 805 220 70 57 52 
450 805 221 65 54 50 
450 804 222 64 55 51 
450 804 223 63 55 52 
452 800 216 59 46 44 
452 800 217 64 52 48 
452 801 216 62 49 46 
452 801 217 62 50 46 
453 800 216 62 50 47 
453 800 217 66 54 50 
453 801 216 63 49 47 
453 801 217 66 54 49 
452 800 218 68 57 54 
452 800 219 64 54 53 
452 801 218 69 57 54 
452 801 219 67 55 54 
452 802 216 67 54 50 
452 802 217 68 53 49 
453 802 216 65 51 47 
453 802 217 68 54 49 
453 803 216 67 52 48 
453 803 217 73 57 52 
452 803 218 73 58 54 
453 803 218 75 60 54 
454 801 216 62 49 46 
454 802 216 64 50 48 
452 800 220 63 54 52 
452 801 220 64 54 52 
452 804 216 68 52 48 
452 804 217 74 58 51 
452 805 216 73 53 51 
452 805 217 74 57 50 
453 804 216 68 53 49 
453 804 217 73 57 51 
452 804 218 74 59 52 
452 806 216 74 54 51 
452 806 217 74 57 51 
452 807 216 72 55 51 
448 808 211 74 59 52 
449 809 211 77 61 56 
449 810 211 77 60 54 
450 808 211 72 56 52 
450 809 211 75 59 55 
451 808 210 74 58 54 
451 808 211 74 57 53 
451 809 210 73 56 53 
451 809 211 73 56 53 
450 810 210 74 58 52 
450 810 211 78 61 55 
448 808 212 76 60 55 
448 808 213 76 59 55 
449 808 212 75 60 55 
449 808 213 77 59 57 
449 809 212 79 61 56 
449 809 213 77 59 56 
448 808 214 72 56 52 
448 808 215 71 55 49 
450 808 213 78 60 55 
450 809 212 79 60 56 
450 809 213 77 59 56 
451 808 212 75 58 54 
451 808 213 77 59 54 
451 809 212 73 55 51 
450 808 214 75 58 53 
451 808 214 76 59 54 
451 808 215 74 57 51 
448 808 216 74 57 51 
448 800 224 56 47 42 
448 801 224 57 49 43 
448 801 225 57 47 41 
449 800 224 57 50 45 
449 801 224 58 51 46 
448 802 225 59 50 44 
448 803 225 59 51 46 
449 802 224 60 53 49 
449 802 225 60 52 47 
449 803 224 60 53 50 
449 803 225 60 53 49 
450 803 224 62 54 51 
448 804 225 62 53 48 
448 805 224 62 53 49 
448 805 225 61 51 46 
449 804 224 61 53 49 
449 804 225 61 54 49 
449 805 224 63 55 51 
448 806 224 62 52 48 
448 806 225 60 51 45 
407 901 222 68 60 60 
407 901 223 69 63 63 
407 902 222 70 63 63 
407 902 223 70 63 64 
407 903 222 71 63 64 
407 903 223 70 64 64 
407 904 222 71 65 65 
407 904 223 70 64 64 
407 905 222 70 65 65 
407 905 223 70 66 66 
406 907 223 69 64 64 
407 906 223 70 66 66 
407 907 223 69 65 65 
405 910 223 67 62 61 
405 911 223 67 62 62 
406 908 223 67 62 61 
406 909 223 69 63 63 
407 908 223 67 62 61 
406 910 223 68 62 62 
409 896 221 67 60 59 
409 897 221 67 60 59 
409 897 222 67 60 59 
409 897 223 69 63 62 
408 898 222 69 61 61 
408 898 223 68 61 62 
408 899 222 69 61 61 
408 899 223 68 62 62 
409 898 222 68 61 60 
409 898 223 68 61 61 
410 896 221 66 60 60 
410 896 222 68 62 62 
410 897 222 68 62 61 
410 897 223 70 64 63 
411 896 222 69 63 61 
411 896 223 70 64 61 
408 900 222 67 60 59 
408 900 223 68 61 61 
408 901 222 68 61 61 
408 901 223 68 61 61 
412 896 222 71 65 62 
412 896 223 72 65 63 
399 920 226 76 69 68 
399 921 226 78 71 71 
399 922 226 78 71 71 
399 923 226 77 69 70 
399 923 227 75 67 68 
407 901 224 69 63 63 
407 901 225 69 62 63 
407 901 226 70 64 64 
407 902 224 70 63 64 
407 902 225 70 64 64 
407 903 224 70 63 64 
407 903 225 70 63 65 
406 903 235 72 67 65 
407 902 235 70 65 64 
407 903 234 71 66 64 
407 903 235 72 67 65 
405 903 238 56 51 49 
405 903 239 50 45 43 
407 900 237 62 58 58 
407 901 236 69 63 61 
407 901 237 64 58 56 
406 901 238 51 47 45 
406 901 239 48 44 42 
407 900 238 62 57 56 
407 900 239 50 45 45 
407 901 238 58 52 52 
407 901 239 48 45 44 
406 902 237 63 59 57 
406 903 236 67 62 59 
406 903 237 64 59 57 
407 902 236 69 63 60 
407 902 237 67 62 60 
407 903 236 70 65 62 
406 902 238 60 55 53 
406 902 239 51 46 43 
406 903 238 60 54 52 
407 902 238 59 52 51 
407 904 224 69 63 65 
407 905 224 70 65 65 
407 907 224 69 64 64 
407 905 229 64 59 60 
407 904 231 66 62 63 
407 905 230 64 60 60 
407 905 231 68 62 61 
407 906 229 64 59 60 
407 907 228 62 57 59 
407 907 229 64 59 60 
406 906 231 68 61 61 
406 907 230 68 61 60 
406 907 231 65 59 59 
407 906 230 65 60 60 
407 906 231 68 62 60 
407 907 230 68 61 61 
405 911 224 65 59 60 
406 909 224 69 65 67 
407 908 224 70 66 66 
407 908 225 70 66 68 
407 909 224 69 65 67 
407 909 225 70 66 68 
407 908 226 71 66 68 
407 908 227 68 64 65 
407 909 226 70 66 68 
407 909 227 69 65 67 
406 910 224 67 62 64 
406 910 225 67 64 67 
406 911 224 65 60 61 
406 911 225 65 61 64 
407 910 224 67 63 65 
407 910 225 68 64 67 
407 910 226 70 65 68 
407 910 227 68 63 65 
407 911 226 68 63 65 
407 911 227 67 62 64 
406 908 229 67 59 58 
406 909 228 67 61 60 
406 909 229 67 60 59 
407 908 228 63 56 57 
407 908 229 64 58 59 
407 909 228 67 63 64 
406 908 230 66 58 58 
406 908 231 64 58 58 
406 909 230 66 59 58 
406 909 231 64 57 57 
406 910 228 68 62 62 
406 910 229 67 60 59 
406 911 228 69 63 63 
406 911 229 68 61 61 
407 910 228 66 61 62 
407 911 228 68 62 63 
407 911 229 67 61 61 
406 910 230 65 57 57 
406 910 231 64 57 57 
406 911 230 66 59 59 
406 911 231 66 58 59 
407 911 231 67 60 60 
405 905 235 73 67 64 
405 907 233 68 62 62 
405 906 235 72 66 64 
405 907 234 68 63 61 
405 907 235 71 65 63 
406 905 233 71 65 64 
407 904 232 67 63 63 
407 904 233 68 63 61 
407 905 232 68 63 62 
407 905 233 69 64 63 
406 904 234 72 67 65 
406 904 235 73 68 65 
406 905 234 71 66 64 
406 905 235 73 68 66 
407 904 234 71 66 65 
407 904 235 71 66 63 
406 906 232 69 63 62 
406 906 233 72 66 65 
406 907 232 65 59 57 
406 907 233 69 63 60 
407 906 232 68 61 60 
406 906 234 70 65 63 
406 906 235 71 65 61 
406 907 234 69 64 62 
405 904 236 67 60 58 
405 904 237 64 58 55 
405 905 236 68 62 60 
405 905 237 65 58 57 
404 904 239 49 45 45 
404 905 239 51 48 47 
405 904 238 58 52 50 
405 904 239 52 48 46 
405 905 238 59 54 53 
405 905 239 53 48 48 
405 906 236 72 64 63 
405 906 237 69 61 60 
405 907 236 71 64 62 
405 907 237 70 64 61 
404 906 239 54 50 49 
404 907 239 57 52 50 
405 906 238 62 56 56 
405 907 238 65 60 59 
405 907 239 60 55 54 
406 904 236 67 62 59 
406 904 237 64 59 56 
406 904 238 61 54 53 
405 908 233 67 60 58 
405 908 234 67 60 58 
405 908 235 67 60 57 
406 908 232 65 57 56 
406 908 233 66 59 57 
406 909 232 65 58 58 
406 909 233 67 59 56 
406 909 234 67 59 57 
406 909 235 65 58 55 
406 910 232 64 57 57 
406 910 233 65 57 56 
407 910 232 63 57 56 
407 910 233 63 56 55 
407 911 232 68 61 61 
407 911 233 68 62 60 
406 910 234 67 58 56 
407 910 234 64 56 53 
407 910 235 62 54 51 
407 911 234 65 58 56 
405 908 236 66 60 57 
405 908 237 68 62 59 
404 908 238 65 60 58 
404 908 239 58 53 51 
405 908 238 66 60 59 
405 908 239 60 55 55 
405 909 239 62 57 56 
405 910 239 59 54 52 
406 908 237 66 60 57 
406 909 236 65 58 56 
406 909 237 63 57 54 
407 909 236 62 55 53 
407 909 237 63 56 53 
406 908 238 64 58 56 
406 909 238 65 59 57 
406 909 239 64 58 56 
407 910 236 62 54 51 
407 910 237 63 55 52 
406 910 239 62 57 53 
406 911 239 62 57 53 
407 910 238 63 55 52 
407 910 239 64 57 53 
407 911 239 64 58 54 
409 897 224 70 65 65 
409 897 225 70 65 65 
409 897 226 68 62 64 
409 897 227 68 62 62 
408 898 224 68 62 63 
408 898 225 68 62 64 
408 899 224 68 62 64 
408 899 225 68 63 65 
409 898 224 69 62 63 
408 898 226 69 62 65 
408 898 227 69 62 63 
408 899 226 69 64 66 
408 899 227 69 64 65 
409 898 226 68 61 63 
409 898 227 69 63 63 
410 896 224 69 63 62 
410 896 225 68 62 61 
410 897 224 70 64 63 
410 897 225 69 63 62 
411 896 224 70 64 62 
411 896 225 68 61 60 
410 896 226 67 61 62 
410 896 227 68 62 62 
410 897 226 69 63 63 
410 897 227 68 61 62 
411 896 226 68 61 60 
411 896 227 67 61 61 
409 897 228 66 61 62 
409 897 229 66 60 60 
408 899 228 67 61 62 
409 898 228 67 61 62 
409 898 229 67 62 62 
409 899 228 68 62 62 
409 899 229 67 62 62 
409 898 230 65 60 61 
409 898 231 66 62 63 
409 899 230 66 62 62 
409 899 231 67 62 63 
410 896 228 68 63 63 
410 896 229 67 61 61 
410 897 228 67 61 62 
410 897 229 66 61 61 
411 896 228 68 63 62 
411 896 229 69 64 63 
410 896 230 69 63 62 
410 897 230 66 61 61 
410 897 231 67 62 61 
411 896 230 69 63 62 
411 896 231 69 63 62 
411 897 231 69 64 63 
410 898 230 66 62 62 
410 898 231 66 62 63 
408 900 224 68 62 64 
408 900 225 68 62 64 
408 901 224 67 61 62 
408 901 225 68 61 62 
408 900 226 66 61 63 
408 900 227 68 62 63 
408 901 226 69 63 64 
408 901 227 69 63 63 
408 902 225 70 64 65 
408 903 225 70 64 65 
408 902 226 71 64 65 
408 902 227 69 63 63 
408 903 226 70 64 64 
408 903 227 68 64 62 
408 900 228 68 62 62 
408 900 229 67 62 62 
408 901 228 69 62 62 
408 901 229 68 63 63 
409 900 229 65 60 61 
408 901 230 67 62 62 
408 901 231 65 61 61 
409 900 230 67 63 63 
409 900 231 66 61 62 
409 901 230 66 63 63 
409 901 231 65 61 61 
408 902 228 68 63 62 
408 902 229 67 62 62 
408 903 228 67 63 62 
408 903 229 67 63 62 
408 902 230 66 62 61 
408 902 231 64 61 61 
408 903 230 64 61 61 
408 903 231 64 60 60 
412 896 224 71 63 60 
409 899 232 65 60 60 
409 899 235 67 62 60 
411 896 232 67 61 61 
411 896 233 66 62 62 
411 897 232 66 61 61 
411 897 233 65 60 60 
411 896 234 66 63 64 
411 896 235 69 65 67 
411 897 234 67 62 62 
411 897 235 69 63 64 
410 898 232 66 62 62 
410 898 233 67 63 64 
410 899 232 66 62 63 
410 899 233 66 62 64 
410 898 234 68 64 64 
410 898 235 71 65 64 
410 899 234 70 64 64 
410 899 235 69 64 64 
411 898 234 69 64 62 
411 898 235 69 63 61 
409 899 236 70 65 64 
409 899 237 70 65 65 
408 899 238 62 57 57 
408 899 239 55 47 50 
409 898 239 60 51 54 
409 899 238 65 59 59 
409 899 239 59 52 54 
411 896 236 69 65 65 
411 897 236 68 63 63 
411 897 237 67 62 61 
411 896 239 62 56 56 
411 897 238 68 62 59 
411 897 239 64 58 58 
410 898 236 69 64 62 
410 898 237 71 66 64 
410 899 236 68 64 63 
410 899 237 70 65 64 
411 898 236 69 63 62 
411 898 237 68 63 61 
410 898 238 70 64 64 
410 898 239 63 57 57 
410 899 238 69 63 64 
411 898 238 70 64 63 
409 900 232 65 60 61 
409 900 233 67 62 63 
409 901 232 65 61 61 
409 901 233 66 62 62 
408 901 234 66 62 60 
408 901 235 66 62 60 
409 900 234 68 63 63 
409 900 235 68 64 62 
409 901 234 65 61 60 
409 901 235 67 62 61 
408 902 232 65 61 62 
408 902 233 65 61 61 
408 903 232 65 61 61 
408 903 233 68 64 64 
408 902 234 68 63 62 
408 902 235 68 64 63 
408 903 234 70 65 63 
410 900 234 68 63 62 
408 900 236 68 63 63 
408 900 237 64 60 60 
408 901 236 67 62 62 
408 901 237 67 62 61 
409 900 236 70 66 66 
409 900 237 67 62 62 
408 900 238 61 54 54 
408 900 239 50 43 46 
409 900 238 62 57 56 
412 897 233 66 62 63 
412 896 236 71 64 61 
412 896 237 67 60 57 
412 897 237 66 59 57 
412 896 238 68 61 59 
412 896 239 63 57 55 
412 897 238 67 61 58 
408 904 224 69 63 64 
408 904 225 70 63 64 
408 905 224 69 63 64 
408 905 225 67 62 63 
408 904 226 68 63 62 
408 904 227 68 63 62 
408 905 226 66 61 61 
408 905 227 66 60 60 
408 906 224 68 63 64 
408 906 225 67 62 63 
408 907 224 68 64 64 
408 907 225 67 62 64 
408 906 226 66 60 62 
408 906 227 63 59 61 
408 907 226 65 61 64 
408 907 227 64 59 61 
408 904 228 66 61 61 
408 904 229 66 62 62 
408 905 228 64 59 60 
408 905 229 64 60 61 
408 904 230 64 60 60 
408 904 231 64 61 61 
408 905 230 63 60 60 
408 906 228 64 59 61 
408 907 228 63 58 60 
408 908 225 68 64 66 
408 908 226 69 66 67 
408 908 227 67 63 65 
408 904 232 66 63 63 
408 904 233 68 64 63 
408 910 236 63 54 51 
408 910 237 63 55 52 
408 910 238 66 57 54 
407 896 243 37 34 33 
407 897 242 39 36 35 
407 897 243 37 34 33 
406 899 241 39 37 35 
407 898 241 44 41 42 
407 899 240 42 38 40 
407 899 241 42 39 40 
406 898 242 36 33 31 
406 899 242 39 36 36 
407 898 242 42 39 38 
407 899 242 43 40 39 
405 901 240 46 43 42 
405 901 241 41 39 38 
404 902 241 46 43 43 
404 903 240 42 39 40 
404 903 241 45 43 43 
405 902 240 44 41 40 
405 902 241 47 44 44 
405 903 240 46 43 42 
406 900 240 40 37 37 
406 900 241 39 36 35 
406 901 240 43 40 39 
406 901 241 40 38 36 
407 900 240 43 39 40 
406 900 242 38 36 34 
406 902 240 43 39 37 
403 910 240 50 45 44 
403 911 240 52 47 46 
