ply
format ascii 1.0
comment Created by CloudCompare v2.10.1 (Zephyrus)
comment Created 1/30/20 11:42 AM
obj_info Generated by CloudCompare!
element vertex 2158
property float x
property float y
property float z
property uchar red
property uchar green
property uchar blue
end_header
358 68 167 126 35 49 
358 69 166 125 33 46 
358 69 167 125 30 45 
358 70 164 126 29 46 
358 70 165 126 29 46 
358 71 164 130 21 47 
358 71 165 131 25 48 
358 70 166 126 26 44 
358 70 167 126 30 45 
358 71 166 128 20 43 
358 71 167 127 23 45 
357 64 168 102 33 41 
357 64 169 103 35 41 
357 65 169 107 35 42 
357 64 170 103 35 40 
357 64 171 102 34 39 
357 65 170 108 34 43 
357 65 171 108 33 44 
357 66 171 115 36 50 
358 65 168 108 38 44 
358 65 169 108 37 44 
358 65 170 110 36 45 
358 66 168 114 37 45 
358 66 169 115 38 47 
358 67 168 121 35 48 
358 67 169 122 42 52 
358 66 170 116 40 50 
358 66 171 119 41 53 
358 67 170 123 44 53 
358 67 171 123 42 54 
356 64 173 105 41 44 
357 64 172 101 30 36 
357 64 173 104 35 41 
357 65 172 108 30 42 
357 65 173 108 31 42 
356 64 174 107 44 46 
356 64 175 110 45 47 
356 65 174 108 42 45 
356 65 175 110 39 43 
357 65 174 109 39 45 
357 66 172 115 33 48 
357 66 173 112 24 44 
357 67 172 120 32 49 
357 67 173 117 20 45 
356 66 175 112 32 43 
357 66 174 111 29 43 
357 66 175 112 32 43 
357 67 174 115 18 43 
357 67 175 115 23 43 
357 69 171 124 20 43 
357 71 169 128 26 47 
357 70 171 126 22 45 
357 71 170 128 30 47 
357 71 171 128 29 50 
358 68 168 124 30 45 
358 68 169 123 30 44 
358 69 168 124 27 42 
358 69 169 124 21 39 
358 68 170 125 37 47 
358 68 171 124 34 47 
358 69 170 125 28 43 
358 69 171 124 26 44 
358 70 168 126 28 44 
358 70 169 126 20 42 
358 71 168 128 26 47 
358 71 169 128 24 46 
358 70 170 126 26 44 
358 71 170 127 27 45 
357 68 172 122 23 44 
357 68 173 119 17 40 
357 69 172 123 16 42 
357 69 173 119 16 38 
356 68 175 118 24 43 
356 69 175 117 18 41 
357 68 174 118 18 42 
357 68 175 118 22 43 
357 69 174 118 15 39 
357 69 175 118 18 41 
356 71 173 124 21 48 
357 70 172 124 15 44 
357 70 173 120 14 41 
357 71 172 127 19 49 
357 71 173 123 14 45 
356 70 174 118 12 42 
356 70 175 118 15 42 
356 71 174 122 14 45 
356 71 175 120 12 43 
357 70 174 118 12 40 
355 79 160 142 34 49 
355 79 166 137 23 51 
355 79 167 136 24 51 
357 72 160 119 18 33 
357 72 161 122 20 37 
357 73 160 120 14 34 
357 73 161 123 16 38 
357 72 162 126 19 40 
357 73 162 127 19 42 
357 73 163 129 14 42 
357 74 160 122 18 39 
357 74 161 123 15 38 
357 75 160 122 17 36 
357 75 161 124 17 39 
357 74 162 127 18 42 
357 74 163 129 16 41 
357 75 162 127 18 42 
357 75 163 128 18 40 
358 72 162 128 20 43 
358 72 163 129 16 44 
357 73 164 129 14 43 
357 73 165 131 21 47 
357 73 166 131 23 48 
357 73 167 130 17 45 
357 74 164 129 16 42 
357 74 165 130 21 47 
357 75 164 129 19 41 
357 75 165 130 20 44 
357 74 166 131 23 48 
357 74 167 131 18 47 
357 75 166 130 19 45 
357 75 167 130 14 45 
358 72 164 131 20 47 
358 72 165 132 26 50 
358 72 166 130 22 47 
358 72 167 128 16 43 
356 76 160 122 13 34 
356 76 161 125 14 34 
356 77 160 125 11 28 
356 77 161 127 14 33 
357 76 161 124 15 38 
356 77 162 131 17 39 
356 77 163 132 18 44 
357 76 162 128 17 38 
357 76 163 129 20 39 
356 78 160 133 24 40 
356 78 161 135 26 45 
356 79 160 140 32 50 
356 79 161 142 31 52 
356 78 162 136 23 48 
356 78 163 136 19 50 
356 79 162 142 28 54 
356 79 163 139 20 50 
356 76 165 130 13 41 
356 77 164 133 12 44 
356 77 165 131 10 42 
357 76 164 130 15 39 
357 76 165 130 15 42 
356 76 166 131 14 45 
356 76 167 132 16 46 
356 77 166 132 13 44 
356 77 167 132 13 46 
357 76 166 131 17 46 
357 76 167 131 16 46 
356 78 164 136 15 49 
356 78 165 135 17 47 
356 79 164 137 16 48 
356 79 165 137 19 49 
356 78 166 135 20 49 
356 78 167 134 18 49 
356 79 166 137 25 52 
356 79 167 137 27 53 
355 73 175 123 10 38 
355 74 173 128 19 47 
355 75 172 128 17 47 
355 75 173 128 21 49 
355 74 174 125 6 40 
355 74 175 125 5 40 
355 75 174 126 8 44 
355 75 175 126 5 43 
355 76 171 127 5 43 
355 77 170 128 8 45 
355 77 171 127 4 43 
355 78 168 133 15 48 
355 78 169 131 10 47 
355 79 168 135 18 51 
355 79 169 131 9 45 
354 79 171 130 7 47 
355 78 170 129 6 45 
355 78 171 129 4 46 
355 79 170 129 5 42 
355 79 171 130 4 47 
353 78 175 128 9 49 
353 79 174 130 14 51 
353 79 175 129 10 49 
354 77 173 129 14 51 
355 76 172 127 4 43 
355 76 173 128 10 47 
355 77 172 127 3 42 
355 77 173 128 8 46 
354 76 175 127 8 47 
354 77 174 130 23 54 
354 77 175 129 19 51 
355 76 174 128 12 49 
355 76 175 126 6 45 
354 78 172 129 1 46 
354 78 173 128 3 47 
354 79 172 130 2 49 
354 79 173 129 1 47 
355 78 172 128 2 45 
355 78 173 128 2 45 
354 78 174 130 17 52 
354 78 175 129 18 52 
354 79 174 130 10 50 
357 72 168 130 21 46 
357 72 169 132 32 51 
357 73 168 130 19 46 
357 73 169 132 30 51 
356 73 171 129 24 49 
357 72 170 131 34 52 
357 72 171 130 32 52 
357 73 170 132 32 52 
357 73 171 130 28 49 
356 75 168 130 13 46 
356 75 169 130 13 46 
357 74 168 130 15 45 
357 74 169 130 18 47 
357 75 168 130 14 46 
357 75 169 130 14 46 
356 74 170 129 16 46 
356 74 171 128 18 47 
356 75 170 128 10 45 
356 75 171 127 6 43 
357 74 170 130 22 48 
358 72 168 129 18 43 
356 72 172 129 25 50 
356 72 173 127 28 51 
356 73 172 129 29 51 
356 73 173 128 27 50 
357 72 172 129 22 50 
357 73 172 129 27 51 
356 72 174 124 16 45 
356 72 175 121 8 38 
356 73 174 125 13 42 
356 73 175 121 10 37 
356 74 172 129 26 49 
356 74 173 128 25 48 
356 75 172 127 11 44 
356 75 173 129 26 50 
356 74 174 125 9 41 
356 76 168 131 13 46 
356 76 169 130 10 46 
356 77 168 132 11 46 
356 77 169 130 7 47 
356 76 170 128 6 44 
356 76 171 127 5 43 
356 77 170 128 6 45 
356 78 168 133 15 48 
356 78 169 131 12 48 
356 76 172 127 5 43 
355 64 177 112 40 43 
355 65 177 114 32 44 
354 64 179 110 35 41 
355 64 178 111 39 43 
355 64 179 111 38 42 
355 65 178 113 28 45 
355 65 179 111 26 41 
355 66 178 114 17 43 
355 66 179 113 19 40 
355 67 178 118 22 44 
355 67 179 117 23 42 
353 64 180 111 34 42 
353 64 181 113 39 44 
353 65 181 115 37 47 
352 64 182 113 36 44 
352 64 183 114 31 45 
352 65 182 114 31 46 
352 65 183 114 29 46 
353 64 182 114 36 44 
353 65 182 116 36 47 
353 66 181 117 37 48 
353 67 181 118 35 49 
352 66 182 115 30 47 
352 66 183 115 25 45 
352 67 182 116 24 43 
352 67 183 116 18 41 
353 66 182 116 34 48 
353 67 182 117 28 47 
354 64 180 110 32 41 
354 65 180 112 27 42 
354 65 181 115 36 46 
354 66 180 114 25 43 
354 66 181 116 34 47 
354 67 180 117 24 44 
354 67 181 118 29 48 
355 66 180 114 18 40 
355 67 180 116 22 42 
355 68 178 121 31 46 
355 68 179 120 29 45 
355 69 178 121 24 46 
355 69 179 121 21 45 
355 70 177 121 21 45 
355 71 176 122 13 43 
355 71 177 123 19 48 
354 71 179 125 28 49 
355 70 178 122 23 48 
355 70 179 122 20 44 
355 71 178 124 27 50 
355 71 179 124 25 47 
353 69 181 120 21 46 
352 68 182 117 21 43 
352 68 183 115 19 40 
352 69 182 118 21 42 
352 69 183 115 21 39 
353 68 182 119 25 46 
353 69 182 120 25 46 
353 70 181 122 22 47 
353 71 181 125 28 50 
352 70 182 120 25 45 
352 70 183 117 27 42 
352 71 182 122 28 47 
352 71 183 120 28 47 
353 70 182 121 26 46 
353 71 182 123 28 48 
354 68 180 120 22 46 
354 68 181 120 25 48 
354 69 180 120 15 44 
354 69 181 120 16 44 
355 68 180 120 25 46 
355 69 180 121 20 46 
354 70 180 121 15 43 
354 70 181 121 14 43 
354 71 180 125 28 50 
356 64 176 112 45 47 
356 64 177 112 40 44 
356 65 176 112 37 44 
356 65 177 113 30 43 
356 66 176 113 31 44 
356 66 177 114 22 43 
356 67 176 117 30 46 
356 67 177 118 27 46 
356 67 178 118 23 45 
356 68 176 119 28 45 
356 68 177 120 29 46 
356 69 176 118 18 42 
356 69 177 120 21 44 
356 68 178 121 30 46 
356 70 176 118 13 41 
356 70 177 120 17 43 
356 71 176 121 15 44 
356 71 177 120 15 44 
353 74 179 128 18 49 
353 75 178 127 17 48 
353 75 179 127 19 49 
354 73 177 127 26 46 
355 72 176 122 9 40 
355 72 177 125 21 47 
355 73 176 123 17 40 
355 73 177 125 24 44 
354 72 178 128 31 50 
354 72 179 128 34 53 
354 73 178 128 26 48 
354 73 179 129 30 51 
355 72 178 127 31 50 
354 74 176 125 11 44 
354 74 177 126 20 46 
354 75 176 126 11 45 
354 75 177 126 17 47 
355 74 176 124 7 40 
355 74 177 124 16 40 
355 75 176 126 9 45 
354 74 178 128 20 48 
354 74 179 128 24 49 
354 75 178 127 19 49 
353 72 181 127 32 53 
353 73 180 129 32 54 
353 73 181 128 31 53 
352 72 182 123 26 48 
352 72 183 122 27 48 
352 73 182 124 25 49 
353 72 182 123 25 48 
352 74 181 125 21 49 
352 75 180 125 17 47 
352 75 181 124 14 46 
353 74 180 127 22 50 
353 74 181 127 24 51 
353 75 180 126 18 49 
352 74 182 124 19 46 
354 72 180 129 36 55 
354 73 180 129 35 55 
353 76 177 125 8 44 
353 77 176 126 7 45 
353 77 177 125 5 44 
352 77 178 126 7 47 
352 77 179 126 10 47 
353 76 178 126 8 44 
353 76 179 126 13 47 
353 77 178 125 5 44 
353 77 179 126 7 45 
352 78 177 125 6 46 
352 79 177 125 6 46 
353 78 176 126 5 44 
353 78 177 125 8 46 
353 79 176 126 2 44 
352 78 178 125 9 46 
352 78 179 126 11 47 
352 79 178 126 7 46 
352 79 179 125 9 46 
354 76 176 126 9 45 
354 76 177 125 10 45 
354 77 176 127 10 47 
352 76 180 125 20 49 
352 76 181 125 17 47 
352 77 180 126 21 50 
353 76 180 126 18 49 
355 80 160 143 28 46 
355 80 161 143 25 47 
355 81 160 142 19 40 
355 81 161 142 18 41 
355 80 162 142 25 48 
355 80 163 139 20 44 
355 81 162 141 20 42 
355 81 163 138 21 43 
354 82 160 143 21 43 
354 83 160 142 21 44 
354 83 161 144 20 50 
355 82 160 143 20 42 
355 82 161 144 19 45 
354 83 162 143 22 48 
354 83 163 139 19 47 
355 82 162 142 24 46 
355 82 163 140 23 47 
355 83 162 142 25 49 
355 83 163 141 22 48 
355 80 164 138 14 47 
355 80 165 137 15 47 
355 81 164 138 17 48 
355 81 165 137 15 48 
355 80 166 137 21 50 
355 80 167 137 19 50 
355 81 166 137 17 49 
355 81 167 137 14 50 
354 82 165 138 20 50 
354 83 164 138 18 48 
354 83 165 137 15 48 
355 82 164 139 24 51 
355 82 165 138 22 51 
354 82 166 137 17 49 
354 82 167 136 12 49 
354 83 166 137 15 48 
354 83 167 136 16 49 
355 82 166 137 16 49 
355 82 167 137 12 50 
353 85 160 139 22 45 
353 85 161 139 21 43 
353 85 162 139 16 44 
353 85 163 139 14 48 
352 87 160 142 22 47 
352 87 161 139 18 40 
353 86 160 141 24 48 
353 86 161 139 22 43 
353 87 160 140 22 46 
353 87 161 139 21 42 
353 86 162 139 16 44 
353 86 163 137 12 45 
353 87 162 139 17 44 
353 87 163 137 14 45 
354 84 160 141 21 44 
354 84 161 142 20 48 
354 85 160 140 23 44 
354 85 161 140 20 46 
354 84 162 141 18 46 
354 84 163 139 15 45 
354 85 162 140 16 45 
354 85 163 139 13 47 
353 85 164 137 14 46 
353 85 165 137 13 50 
353 84 167 136 11 50 
353 85 166 138 16 53 
353 85 167 137 10 52 
353 86 164 136 13 45 
353 86 165 136 13 48 
353 87 164 135 13 44 
353 87 165 136 12 47 
352 87 166 136 17 51 
352 87 167 136 16 52 
353 86 166 137 15 53 
353 86 167 137 13 53 
353 87 166 136 16 51 
353 87 167 137 17 53 
354 84 164 138 14 47 
354 84 165 137 12 49 
354 85 164 137 13 47 
354 85 165 137 14 49 
354 84 166 137 15 51 
354 84 167 137 16 50 
354 85 166 138 18 54 
356 80 161 144 30 53 
356 80 162 143 29 53 
356 80 163 139 19 47 
356 80 164 138 14 47 
356 80 165 137 13 46 
353 83 169 133 2 48 
353 82 170 132 1 45 
353 82 171 133 2 48 
353 83 170 132 2 46 
353 83 171 133 3 49 
354 81 168 134 6 47 
354 81 169 132 4 43 
355 80 168 135 14 49 
355 80 169 132 6 44 
355 81 168 135 11 48 
355 81 169 133 6 45 
354 80 170 130 4 44 
354 80 171 131 9 49 
354 81 170 131 2 45 
354 81 171 132 4 49 
355 80 170 129 3 39 
354 82 168 135 7 48 
354 82 169 132 5 46 
354 83 168 135 8 48 
354 83 169 133 4 47 
354 82 170 131 2 43 
354 82 171 132 2 47 
353 80 173 130 3 47 
353 81 172 132 1 48 
353 81 173 130 3 45 
352 81 175 129 2 44 
353 80 174 130 5 49 
353 80 175 129 5 46 
353 81 174 130 0 45 
353 81 175 129 2 45 
352 83 173 132 0 47 
353 82 172 133 2 50 
353 82 173 131 1 46 
353 83 172 133 2 49 
353 83 173 133 1 49 
352 82 174 130 0 44 
352 82 175 130 2 43 
352 83 174 131 0 45 
352 83 175 131 3 45 
353 82 174 130 0 44 
354 80 172 132 10 51 
354 80 173 130 3 48 
354 81 172 132 7 49 
352 85 169 135 9 50 
353 84 168 134 6 47 
353 84 169 134 3 48 
353 85 168 136 8 51 
353 85 169 135 6 51 
352 84 170 133 6 49 
352 84 171 134 12 48 
352 85 170 135 11 50 
352 85 171 135 13 50 
353 84 170 133 2 48 
353 84 171 133 8 47 
352 86 168 136 9 51 
352 86 169 135 9 48 
352 87 168 136 13 51 
352 87 169 135 7 47 
353 86 168 137 9 53 
352 86 170 134 15 48 
352 86 171 135 15 49 
352 87 170 134 8 45 
352 87 171 134 9 47 
354 84 168 135 9 48 
352 84 172 135 13 49 
352 84 173 134 2 46 
352 85 172 136 15 50 
352 85 173 136 12 50 
352 84 174 132 3 46 
352 84 175 132 3 47 
352 86 172 135 10 49 
352 88 160 144 20 47 
352 88 161 141 17 43 
352 89 160 145 22 50 
352 89 161 143 20 48 
352 88 162 139 17 48 
352 88 163 136 13 46 
352 89 162 141 18 48 
352 89 163 139 16 48 
352 90 162 142 20 50 
352 90 163 141 20 51 
352 88 164 135 12 42 
352 88 165 136 15 46 
352 89 164 138 17 47 
352 89 165 137 19 48 
352 88 166 136 18 49 
352 88 167 136 20 50 
352 89 166 136 21 48 
352 89 167 136 23 49 
352 90 164 140 19 51 
352 90 165 139 21 50 
352 88 168 136 16 48 
352 88 169 134 10 46 
352 89 168 136 18 48 
352 88 170 133 7 44 
352 80 176 126 3 44 
352 80 177 126 9 47 
352 81 176 128 5 45 
352 81 177 127 9 46 
353 80 176 127 1 42 
352 80 178 126 7 47 
352 82 176 129 7 46 
352 83 176 130 4 45 
335 75 207 109 28 40 
335 76 207 110 38 43 
335 77 207 109 45 42 
334 79 207 120 28 44 
335 78 206 115 83 68 
335 78 207 111 43 41 
335 79 206 116 71 59 
335 79 207 117 41 45 
320 70 215 124 24 47 
320 71 215 128 23 44 
321 71 215 129 21 43 
325 71 215 114 20 39 
327 68 215 118 19 41 
327 69 215 113 27 42 
326 70 215 111 26 40 
326 71 215 105 34 36 
327 70 215 105 42 42 
327 71 214 104 83 64 
327 71 215 102 63 49 
320 64 217 132 96 78 
320 65 217 128 96 78 
321 64 217 128 95 74 
321 65 217 125 94 74 
320 64 218 134 96 77 
321 64 218 130 96 75 
320 66 216 120 98 79 
320 66 217 122 97 78 
320 67 216 112 89 69 
321 66 217 120 93 74 
321 67 216 109 86 67 
322 64 217 124 93 72 
322 65 217 120 91 70 
323 64 217 119 87 70 
323 65 217 115 83 67 
322 64 218 125 92 74 
323 64 218 123 89 72 
322 66 217 115 86 66 
322 67 216 110 74 59 
322 67 217 111 80 63 
323 66 217 111 76 61 
323 67 216 112 56 49 
323 67 217 110 66 54 
320 68 216 106 61 48 
320 69 216 113 34 42 
321 68 216 104 67 50 
321 69 216 112 39 42 
320 70 216 122 27 47 
321 70 216 127 25 49 
321 71 216 130 22 45 
322 68 216 112 61 50 
322 69 216 120 45 50 
323 68 216 119 40 44 
323 69 216 127 32 45 
322 70 216 129 27 50 
322 71 216 131 22 47 
323 70 216 131 23 45 
323 71 216 130 21 46 
324 64 217 116 79 65 
324 65 217 114 70 61 
325 64 217 117 64 56 
325 65 217 117 50 51 
324 64 218 119 87 71 
325 64 218 119 80 67 
324 66 217 114 57 55 
324 67 216 120 37 45 
324 67 217 116 46 49 
325 66 217 121 33 47 
325 67 216 126 27 45 
326 64 217 120 42 47 
326 65 217 124 31 46 
327 64 217 129 25 47 
327 65 216 133 22 46 
327 65 217 131 24 46 
326 66 216 129 26 47 
326 66 217 128 27 46 
326 67 216 129 23 46 
327 66 216 132 22 47 
327 67 216 127 19 45 
324 68 216 126 28 45 
324 69 216 129 23 46 
325 68 216 128 23 45 
325 69 216 127 22 46 
324 70 216 129 21 45 
324 71 216 127 21 46 
325 70 216 123 23 46 
325 71 216 121 23 45 
326 68 216 126 21 45 
326 69 216 121 22 46 
327 68 216 124 18 44 
326 70 216 117 23 45 
320 72 215 129 22 47 
320 73 215 130 20 49 
321 72 215 130 25 45 
321 73 215 131 26 49 
320 74 215 128 21 46 
320 75 214 123 20 38 
320 75 215 127 25 42 
321 74 215 132 24 49 
321 75 215 131 24 46 
322 72 215 131 25 51 
322 73 215 132 27 53 
323 72 215 130 23 48 
323 73 215 130 25 49 
322 74 215 132 25 50 
322 75 215 131 23 47 
323 74 215 131 23 48 
323 75 215 132 25 49 
320 76 214 128 23 45 
320 76 215 130 25 45 
320 77 214 130 21 50 
321 76 215 132 23 48 
321 77 214 131 22 51 
321 77 215 132 22 50 
320 79 213 126 16 48 
321 79 213 117 24 40 
320 78 214 130 17 49 
320 79 214 126 17 47 
321 78 214 126 19 46 
321 79 214 117 28 40 
322 76 215 131 21 47 
322 77 214 128 22 48 
322 77 215 130 22 49 
323 76 215 132 21 47 
323 77 214 129 18 48 
323 77 215 129 20 47 
322 79 213 112 50 46 
323 79 213 114 60 55 
322 78 214 121 20 42 
322 79 214 113 37 40 
323 78 214 120 22 44 
323 79 214 116 47 50 
324 72 215 126 20 46 
324 73 215 127 21 47 
325 72 215 114 21 38 
325 73 215 117 27 43 
324 74 215 130 21 48 
324 75 215 132 21 48 
325 74 214 126 36 51 
325 74 215 125 32 50 
325 75 214 130 26 50 
325 75 215 131 23 51 
326 72 215 103 51 40 
326 73 214 107 67 51 
326 73 215 109 50 43 
327 72 214 105 85 64 
327 72 215 101 74 54 
327 73 214 108 84 64 
327 75 213 120 41 46 
326 74 214 118 53 51 
326 75 214 126 38 49 
327 74 214 114 75 61 
327 75 214 120 47 49 
324 76 214 133 21 49 
324 76 215 133 19 49 
324 77 214 130 20 49 
325 76 214 133 22 48 
325 77 214 131 24 49 
324 78 213 119 35 44 
324 79 213 116 54 53 
325 78 213 123 30 45 
325 79 213 118 49 49 
324 78 214 122 25 45 
325 78 214 127 28 48 
326 77 213 132 15 52 
327 76 213 126 26 48 
327 77 213 130 12 50 
326 76 214 130 23 48 
326 77 214 132 18 49 
327 76 214 127 27 47 
326 78 213 127 18 50 
326 79 213 119 31 43 
327 78 212 126 9 45 
327 78 213 127 10 48 
327 79 212 122 14 41 
327 79 213 121 14 42 
322 72 216 131 23 50 
323 72 216 130 22 47 
329 65 215 121 20 45 
328 66 215 117 16 39 
328 67 215 115 31 40 
329 66 215 115 38 46 
329 67 214 114 82 66 
329 67 215 112 58 51 
331 64 213 112 32 43 
331 65 213 111 58 51 
330 64 215 120 19 47 
330 65 214 113 45 48 
330 65 215 117 29 46 
331 64 214 116 22 44 
331 64 215 119 16 45 
331 65 214 112 47 48 
330 66 213 114 88 69 
330 67 213 116 94 74 
331 66 213 113 85 67 
331 67 212 121 100 82 
331 67 213 118 98 78 
330 66 214 115 66 59 
330 67 214 117 89 72 
331 66 214 113 75 61 
331 68 211 124 103 83 
331 69 211 123 103 82 
331 70 211 122 102 81 
331 71 211 121 102 82 
329 69 213 120 101 80 
328 68 214 111 73 56 
328 68 215 112 41 44 
328 69 214 114 86 70 
328 69 215 110 55 52 
329 68 214 116 95 74 
329 69 214 116 94 73 
329 70 213 122 102 81 
329 71 213 123 102 82 
328 70 214 114 90 73 
328 70 215 109 69 61 
328 71 214 114 93 76 
329 70 214 117 97 76 
329 71 214 119 98 80 
330 68 213 120 100 79 
330 69 212 125 103 81 
330 69 213 123 102 81 
331 68 212 124 103 84 
331 68 213 121 102 82 
331 69 212 124 102 81 
330 68 214 118 99 77 
330 70 212 126 104 82 
330 70 213 126 104 82 
330 71 212 126 105 83 
330 71 213 126 104 82 
331 70 212 124 103 80 
331 71 212 125 104 83 
333 64 211 108 42 48 
333 65 210 108 75 63 
333 65 211 110 74 62 
332 66 211 114 93 73 
332 67 211 120 101 81 
333 66 210 109 89 71 
333 66 211 113 92 73 
333 67 210 111 92 75 
333 67 211 116 97 79 
334 64 209 101 42 43 
334 65 209 101 57 48 
335 64 208 102 22 34 
335 64 209 102 36 40 
335 65 208 101 27 34 
335 65 209 98 39 37 
334 64 210 107 46 50 
334 65 210 104 67 55 
334 66 209 103 67 56 
334 67 209 103 69 57 
335 66 208 104 33 40 
335 66 209 100 41 41 
335 67 208 110 30 42 
335 67 209 104 44 43 
334 66 210 107 84 67 
334 67 210 108 87 71 
332 64 212 110 34 43 
332 64 213 112 29 42 
332 65 212 112 67 57 
332 65 213 111 62 52 
333 64 212 109 38 44 
332 66 212 115 93 73 
332 67 212 121 101 82 
332 68 211 121 102 83 
332 69 211 119 101 82 
333 68 210 113 94 77 
333 69 210 113 93 75 
332 70 211 117 100 80 
332 71 211 114 96 78 
333 70 210 109 86 68 
333 71 210 107 77 60 
334 68 209 102 64 52 
334 69 209 104 46 41 
335 68 208 116 26 45 
335 68 209 105 43 41 
335 69 208 122 22 46 
335 69 209 112 33 40 
334 68 210 108 80 67 
334 69 210 107 72 58 
334 70 209 111 37 40 
334 71 209 116 33 41 
335 70 208 126 22 46 
335 70 209 121 26 42 
335 71 208 125 21 44 
335 71 209 123 25 40 
334 70 210 106 62 49 
334 71 210 107 57 47 
328 64 216 131 20 48 
328 64 217 131 21 46 
328 65 216 130 20 47 
329 64 216 128 15 47 
329 65 216 126 16 49 
328 66 216 126 20 45 
328 67 216 125 21 45 
330 64 216 124 15 47 
331 72 211 120 102 83 
331 73 211 118 100 82 
331 74 211 113 96 76 
331 75 211 110 84 62 
328 72 213 120 102 85 
328 73 213 117 101 82 
329 72 213 124 105 86 
329 73 212 122 106 86 
329 73 213 120 104 85 
328 72 214 115 97 80 
328 73 214 113 97 77 
328 74 213 114 92 71 
328 75 213 114 68 54 
329 74 212 116 99 78 
329 74 213 117 100 80 
329 75 212 114 86 65 
328 74 214 112 94 73 
330 72 212 126 106 87 
330 73 212 124 106 87 
331 72 212 125 106 87 
330 74 212 118 102 82 
330 75 212 114 93 69 
330 76 211 115 78 60 
330 77 211 118 46 48 
331 76 211 114 69 54 
331 77 211 119 46 48 
330 78 211 126 15 48 
330 79 211 125 15 46 
331 78 210 126 15 42 
331 78 211 124 20 44 
331 79 210 127 14 44 
331 79 211 125 15 42 
328 76 213 120 39 50 
328 77 212 125 15 47 
328 77 213 127 13 49 
329 76 212 115 57 50 
329 77 212 122 27 48 
328 78 212 127 11 48 
328 79 212 124 11 45 
329 78 212 127 15 49 
329 79 212 125 13 48 
330 76 212 115 73 58 
330 77 212 120 36 48 
330 78 212 126 13 49 
332 72 210 107 87 69 
332 72 211 112 94 76 
332 73 210 105 78 61 
332 73 211 109 89 71 
333 72 210 103 65 51 
333 73 210 104 52 45 
333 75 209 123 20 45 
332 74 210 105 75 58 
332 75 210 108 59 48 
333 74 210 110 41 43 
333 75 210 116 27 41 
334 72 209 119 29 43 
334 73 209 122 26 46 
335 72 208 127 17 44 
335 72 209 127 22 41 
335 73 208 127 19 47 
334 72 210 110 39 41 
334 74 208 129 15 48 
334 74 209 125 22 47 
334 75 208 128 13 46 
334 75 209 127 19 47 
335 74 208 125 17 49 
335 75 208 123 15 47 
333 76 209 126 18 45 
333 77 209 129 15 45 
332 76 210 116 34 42 
332 77 210 123 25 45 
333 76 210 121 18 41 
333 77 210 127 17 45 
333 78 209 130 13 45 
333 79 209 129 13 46 
332 78 210 128 17 44 
332 79 210 129 15 45 
333 78 210 129 15 45 
334 76 208 129 11 47 
334 76 209 129 14 46 
334 77 208 128 12 46 
334 77 209 130 13 45 
335 76 208 122 15 45 
335 77 208 120 18 41 
334 78 208 127 13 48 
334 78 209 131 12 48 
334 79 208 127 15 49 
334 79 209 130 12 49 
335 78 208 121 16 41 
334 80 207 123 21 45 
334 81 207 126 14 45 
335 80 206 116 42 43 
335 80 207 120 27 43 
335 81 206 123 20 44 
335 81 207 125 16 45 
335 83 205 125 23 47 
334 82 207 125 15 44 
334 83 206 123 22 48 
334 83 207 122 15 45 
335 82 206 127 18 48 
335 83 206 125 21 48 
335 86 203 101 57 52 
335 87 203 104 70 63 
333 84 207 114 19 37 
333 85 207 107 41 43 
332 86 207 103 51 47 
332 87 207 104 52 49 
333 86 206 105 70 58 
333 86 207 105 58 52 
333 87 206 107 82 67 
333 87 207 106 74 62 
335 84 205 119 25 47 
335 85 204 106 31 39 
335 85 205 105 37 40 
334 84 206 115 24 43 
334 84 207 116 19 41 
334 85 206 105 47 46 
334 85 207 109 32 38 
335 84 206 118 24 47 
335 85 206 107 27 39 
334 86 205 103 72 59 
334 87 205 107 82 67 
335 86 204 101 61 53 
335 86 205 102 70 57 
335 87 204 106 75 66 
334 86 206 104 71 58 
331 91 207 105 83 65 
331 92 207 105 86 64 
331 93 207 106 85 61 
331 94 207 109 85 62 
331 95 207 113 59 48 
335 88 203 104 74 63 
335 89 203 105 80 63 
335 90 203 107 84 64 
335 91 203 105 83 62 
333 88 205 108 86 69 
333 89 205 111 86 68 
332 88 207 106 73 62 
332 89 206 107 86 68 
332 89 207 106 82 67 
333 88 206 107 85 70 
333 89 206 108 86 68 
333 90 205 112 88 70 
333 91 205 112 89 70 
332 90 206 108 87 69 
332 90 207 106 85 68 
332 91 206 109 88 69 
332 91 207 106 87 67 
333 90 206 110 88 70 
333 91 206 111 88 70 
334 88 204 110 80 69 
334 88 205 109 84 68 
334 89 204 111 85 66 
334 89 205 112 86 67 
335 88 204 109 77 67 
334 90 204 113 88 67 
334 90 205 113 89 68 
334 91 204 111 88 65 
334 91 205 112 89 67 
335 90 204 112 86 66 
335 91 204 109 86 64 
335 92 203 102 81 59 
333 92 205 111 90 67 
332 92 207 106 88 65 
332 93 207 107 86 62 
333 92 206 110 89 67 
333 93 206 111 90 67 
332 94 207 110 84 63 
332 95 207 114 68 56 
333 94 206 113 89 68 
333 95 206 116 77 63 
334 92 204 111 89 66 
334 92 205 111 90 67 
334 93 205 112 92 70 
335 92 204 109 88 66 
335 93 204 107 86 64 
334 94 205 114 93 71 
334 95 205 117 85 67 
335 94 204 108 86 63 
335 94 205 112 90 68 
335 95 204 112 81 62 
335 95 205 114 85 66 
334 94 206 115 90 70 
334 95 206 117 84 67 
320 80 213 122 19 46 
320 81 213 116 26 43 
321 80 213 113 42 45 
321 81 213 114 62 55 
320 82 212 116 64 57 
320 82 213 114 50 49 
320 83 212 118 75 65 
321 82 212 118 87 68 
321 82 213 115 78 63 
321 83 212 121 90 72 
322 80 213 113 66 56 
322 81 213 114 80 65 
323 80 213 115 76 66 
323 81 212 124 97 80 
323 81 213 120 90 75 
322 82 212 121 93 75 
322 82 213 117 88 69 
322 83 212 127 97 78 
323 82 212 129 99 82 
323 83 212 132 99 79 
320 85 211 126 96 78 
321 85 211 129 97 78 
320 86 211 128 99 78 
320 87 211 128 102 78 
321 86 211 131 100 77 
321 87 211 130 101 76 
322 85 211 132 98 76 
323 84 211 133 98 76 
323 85 211 132 98 75 
322 86 211 130 99 74 
322 87 211 128 99 74 
323 86 211 129 99 75 
323 87 211 127 98 75 
320 84 212 122 87 72 
320 85 212 124 94 77 
321 84 212 126 96 78 
321 85 212 129 98 80 
322 84 212 131 97 79 
322 85 212 132 97 78 
323 84 212 134 98 77 
324 83 211 132 97 73 
325 83 211 131 99 75 
327 81 211 121 80 69 
326 82 211 128 99 80 
326 83 211 127 98 79 
327 82 211 122 92 74 
327 83 211 120 96 76 
324 80 213 120 81 70 
324 81 212 128 99 81 
324 81 213 124 92 78 
325 80 212 124 84 71 
325 80 213 122 78 67 
325 81 212 128 97 79 
324 82 212 131 101 80 
324 83 212 133 99 76 
325 82 212 130 101 78 
326 80 212 122 66 60 
326 80 213 120 61 56 
326 81 212 128 91 76 
327 80 212 119 38 45 
327 81 212 124 75 67 
326 82 212 129 98 80 
324 84 211 133 97 73 
324 85 211 132 96 74 
325 84 211 130 97 75 
325 85 211 127 96 76 
324 86 211 127 96 75 
324 87 210 123 95 73 
324 87 211 126 96 75 
325 86 210 122 94 73 
325 86 211 124 95 74 
325 87 210 118 92 72 
326 84 211 126 97 78 
326 85 210 120 92 73 
326 85 211 123 94 75 
327 84 210 116 89 72 
327 84 211 119 95 76 
327 85 210 113 82 66 
327 85 211 118 93 74 
326 86 210 116 89 69 
326 87 210 111 83 64 
327 86 210 109 67 57 
327 87 210 107 52 48 
320 88 211 126 103 77 
320 89 210 119 94 71 
320 89 211 122 100 75 
321 88 211 127 102 75 
321 89 210 121 98 73 
320 90 210 116 76 60 
320 91 210 115 47 46 
321 90 210 117 85 67 
321 91 210 113 62 52 
322 88 210 125 100 75 
322 88 211 127 100 74 
322 89 210 121 98 74 
323 88 210 124 97 75 
323 88 211 125 98 74 
323 89 210 120 97 74 
322 90 210 116 88 68 
322 91 210 111 67 55 
323 90 210 113 90 68 
323 91 210 109 72 57 
320 92 210 123 22 47 
320 93 210 126 15 47 
321 92 210 120 30 45 
321 93 210 127 14 47 
320 94 209 118 20 44 
320 95 209 116 34 48 
321 95 209 118 30 47 
320 94 210 122 17 46 
321 94 210 127 16 47 
321 95 210 122 17 45 
322 92 210 118 34 45 
322 93 210 126 14 46 
323 92 210 115 44 47 
323 93 210 125 14 43 
322 94 210 128 15 48 
322 95 210 125 14 48 
323 94 210 129 12 46 
323 95 210 126 13 47 
324 88 210 120 96 74 
324 89 210 115 93 71 
325 88 210 116 89 70 
325 89 210 112 81 64 
324 90 210 110 85 63 
324 91 210 106 68 49 
325 90 210 109 68 53 
325 91 210 109 51 43 
326 88 210 107 72 54 
326 89 210 106 55 44 
327 88 210 109 36 43 
327 89 210 111 30 40 
326 90 210 111 42 43 
326 91 210 116 36 46 
327 90 210 118 23 44 
327 91 210 120 23 46 
324 92 210 114 47 46 
324 93 210 124 22 46 
325 92 210 115 36 42 
325 93 210 125 27 48 
324 94 210 128 9 47 
324 95 210 128 12 49 
325 94 210 128 14 47 
325 95 210 129 12 48 
326 92 210 121 27 46 
326 93 210 125 21 46 
327 92 210 124 16 47 
327 93 210 126 17 46 
327 95 209 127 21 45 
326 94 210 127 20 45 
326 95 210 128 16 45 
327 94 210 127 24 45 
327 95 210 127 21 43 
328 81 211 117 56 54 
329 80 211 120 15 45 
329 81 211 115 35 45 
328 82 211 116 81 64 
328 83 211 114 85 67 
329 82 211 113 58 50 
329 83 210 112 57 50 
329 83 211 112 68 54 
330 80 211 122 17 45 
330 81 211 117 18 41 
331 80 210 127 16 47 
331 80 211 124 14 43 
331 81 210 124 14 45 
331 81 211 123 13 44 
331 82 209 124 20 47 
331 83 209 124 18 47 
330 82 210 117 24 40 
330 82 211 114 35 40 
330 83 210 119 29 44 
331 82 210 122 12 43 
331 83 210 123 14 45 
328 80 212 119 18 42 
328 81 212 117 44 48 
329 80 212 121 12 46 
328 84 210 112 77 61 
328 85 210 109 52 47 
329 84 210 112 47 45 
329 85 210 115 26 39 
328 87 209 118 15 46 
329 86 209 119 15 42 
329 87 209 120 12 43 
328 86 210 112 31 45 
328 87 210 114 22 46 
329 86 210 116 17 40 
330 85 209 122 15 42 
331 84 209 124 16 46 
331 85 208 119 16 42 
331 85 209 123 15 44 
330 84 210 120 22 42 
330 85 210 121 19 41 
331 84 210 123 15 44 
330 86 209 122 13 41 
330 87 209 121 14 40 
331 86 208 115 16 41 
331 86 209 120 14 42 
331 87 208 113 18 41 
331 87 209 117 15 42 
332 80 209 127 15 45 
332 81 209 125 16 45 
333 80 209 128 14 45 
333 81 208 126 13 43 
333 81 209 126 15 44 
332 80 210 127 18 46 
332 81 210 126 19 46 
332 82 209 124 17 47 
332 83 208 124 17 48 
332 83 209 124 18 47 
333 82 208 125 15 43 
333 82 209 124 16 43 
333 83 208 123 12 44 
334 80 208 127 12 47 
334 81 208 127 12 45 
334 82 208 125 12 42 
332 84 208 123 16 47 
332 84 209 124 18 47 
332 85 208 117 18 43 
333 84 208 119 12 42 
333 85 208 112 20 39 
332 86 208 108 26 40 
332 87 208 106 38 44 
328 88 209 119 14 47 
328 89 209 121 15 48 
329 88 209 121 13 42 
329 89 209 119 17 43 
328 88 210 116 20 48 
328 90 209 121 14 45 
328 91 209 122 17 44 
329 90 209 118 22 43 
329 91 209 117 25 42 
328 91 210 123 17 45 
330 88 209 118 16 40 
330 89 208 111 26 42 
330 89 209 115 22 41 
331 88 208 107 32 42 
331 89 208 105 40 45 
330 90 208 108 35 43 
330 90 209 112 29 42 
330 91 208 105 46 42 
330 91 209 110 36 40 
331 90 208 103 50 47 
331 91 208 103 62 51 
328 92 209 123 15 47 
328 93 209 124 18 46 
329 92 209 116 26 41 
329 93 209 117 29 41 
328 92 210 126 14 48 
328 93 210 126 18 47 
328 94 209 126 26 48 
328 95 209 126 20 45 
329 94 209 118 32 43 
329 95 209 121 26 46 
328 94 210 127 25 48 
330 92 208 105 57 45 
330 92 209 109 44 40 
330 93 208 107 63 47 
330 93 209 110 48 42 
331 92 208 104 75 55 
331 93 208 106 79 54 
330 94 208 112 63 52 
330 94 209 114 49 45 
330 95 208 116 45 47 
330 95 209 118 36 46 
331 94 208 110 77 57 
331 95 208 114 60 50 
332 88 208 103 47 45 
339 66 199 122 103 86 
339 67 199 122 103 87 
339 68 199 121 102 86 
339 69 199 119 101 85 
339 70 199 117 99 83 
339 71 198 113 98 84 
339 71 199 116 100 85 
341 64 195 104 29 34 
341 65 195 103 31 35 
341 66 195 104 33 37 
341 67 195 104 32 38 
342 65 193 114 26 45 
343 64 192 104 34 38 
343 64 193 112 24 44 
343 65 192 107 33 39 
343 65 193 113 25 44 
342 64 194 111 26 42 
342 64 195 108 30 39 
342 65 194 111 29 43 
342 65 195 106 31 38 
342 66 193 115 25 42 
342 67 193 118 22 40 
343 66 192 113 32 42 
343 66 193 116 24 43 
343 67 192 118 28 43 
343 67 193 120 22 41 
342 66 194 111 29 41 
342 67 194 113 28 40 
340 65 197 103 84 70 
341 64 196 96 36 34 
341 64 197 98 65 53 
341 65 196 93 43 36 
341 65 197 97 70 56 
340 64 198 107 86 71 
340 64 199 112 86 71 
340 65 198 110 94 79 
340 65 199 116 97 81 
340 66 197 100 81 66 
340 67 197 100 81 67 
341 66 196 92 49 38 
341 67 196 91 49 37 
340 66 198 113 99 85 
340 66 199 119 102 85 
340 67 198 113 99 87 
340 67 199 120 103 88 
341 68 195 108 31 38 
341 69 195 111 30 39 
341 70 195 114 29 41 
341 71 195 120 23 46 
342 68 193 121 22 41 
343 68 192 122 21 43 
343 68 193 122 21 42 
343 69 192 122 20 43 
343 69 193 122 21 43 
342 68 194 117 24 41 
342 69 194 119 23 41 
343 70 192 120 18 42 
343 70 193 122 19 44 
343 71 192 116 25 43 
343 71 193 118 19 43 
342 70 194 121 22 43 
342 70 195 120 23 42 
342 71 194 124 19 48 
342 71 195 124 20 47 
343 70 194 123 21 46 
343 71 194 123 18 48 
340 68 197 100 79 64 
340 69 197 99 74 58 
341 68 196 93 45 36 
341 69 196 94 40 32 
340 68 198 112 99 86 
340 68 199 118 102 89 
340 69 198 110 97 83 
340 69 199 117 102 88 
340 70 197 96 66 50 
340 71 197 96 58 45 
341 70 196 99 36 34 
341 71 196 106 31 37 
340 70 198 109 95 81 
340 70 199 116 100 87 
340 71 198 103 88 73 
339 64 200 115 84 74 
339 64 201 115 84 74 
339 65 200 118 97 80 
339 65 201 116 97 81 
338 64 203 112 62 63 
338 65 203 105 77 63 
339 64 202 117 81 73 
339 64 203 116 72 69 
339 65 202 110 92 75 
339 65 203 107 86 70 
339 66 200 121 102 85 
339 66 201 121 103 87 
339 67 200 122 103 86 
339 67 201 121 103 87 
338 66 203 107 85 68 
338 67 203 113 95 77 
339 66 202 114 98 81 
339 66 203 109 92 74 
339 67 202 117 100 83 
339 67 203 113 97 80 
336 64 207 108 15 37 
336 65 207 111 18 41 
337 64 206 107 20 38 
337 65 206 110 19 40 
337 66 205 109 20 42 
337 67 205 107 23 40 
336 66 207 114 19 42 
336 67 207 117 18 43 
337 66 206 112 19 42 
337 67 206 115 18 45 
337 67 207 119 20 46 
338 64 204 106 41 49 
338 64 205 104 20 40 
338 65 204 102 56 51 
338 65 205 103 29 42 
338 66 204 104 68 56 
338 66 205 102 36 42 
338 67 204 110 84 69 
338 67 205 104 51 48 
339 68 200 121 102 84 
339 68 201 120 102 84 
339 69 200 119 100 83 
339 69 201 120 101 83 
338 68 203 113 94 75 
338 69 203 117 98 78 
339 68 202 117 98 80 
339 69 202 120 101 82 
339 70 200 118 99 81 
339 70 201 121 102 83 
339 71 200 117 98 81 
339 71 201 122 102 83 
338 70 202 127 107 88 
338 70 203 124 105 85 
338 71 202 129 109 90 
338 71 203 129 109 90 
339 70 202 125 105 87 
339 71 202 127 107 89 
337 68 205 106 29 39 
337 69 205 105 40 41 
336 68 207 121 18 46 
336 69 207 122 16 45 
337 68 206 114 15 45 
337 68 207 120 20 49 
337 69 206 112 19 43 
337 69 207 120 16 49 
337 70 205 107 63 51 
337 71 205 111 81 64 
336 70 207 121 13 44 
336 71 207 119 14 44 
337 70 206 110 25 41 
337 70 207 119 15 47 
337 71 206 107 38 42 
337 71 207 114 16 43 
338 68 204 111 89 71 
338 68 205 105 63 53 
338 69 204 113 93 74 
338 69 205 106 72 57 
338 70 204 119 101 82 
338 70 205 110 85 67 
338 71 204 125 108 90 
338 71 205 119 101 82 
340 64 200 113 85 72 
339 72 198 112 98 83 
339 72 199 117 101 86 
339 73 198 109 96 81 
339 73 199 117 101 86 
339 74 198 101 86 68 
339 74 199 115 100 85 
339 75 198 97 80 61 
339 75 199 114 100 84 
339 76 198 97 75 55 
339 76 199 111 98 82 
339 77 198 98 65 48 
339 77 199 105 92 76 
339 78 198 98 56 41 
339 78 199 99 83 63 
339 79 198 98 44 33 
339 79 199 97 72 51 
341 72 195 124 19 48 
341 73 195 126 18 47 
341 74 195 127 20 46 
341 75 194 127 18 48 
341 75 195 127 18 46 
343 72 192 114 45 51 
343 72 193 115 24 43 
343 73 192 116 69 64 
343 73 193 113 30 42 
342 72 194 124 17 49 
342 72 195 126 17 50 
342 73 194 123 18 49 
342 73 195 127 17 50 
343 72 194 121 17 47 
342 74 193 114 30 43 
342 75 192 116 57 56 
342 75 193 116 26 44 
343 74 192 115 75 64 
343 74 193 111 47 45 
343 75 192 120 76 69 
342 74 194 124 18 48 
342 75 194 124 14 47 
340 72 197 98 51 42 
340 73 197 101 43 39 
341 72 196 113 25 41 
341 73 196 119 22 46 
340 72 198 101 85 68 
340 73 198 100 81 63 
340 74 196 120 23 48 
340 74 197 103 36 39 
340 75 196 121 22 47 
340 75 197 108 32 39 
341 74 196 124 21 48 
341 75 196 125 18 46 
340 74 198 95 69 50 
340 75 198 94 53 37 
341 76 194 126 15 45 
341 76 195 126 17 46 
341 77 194 125 18 46 
341 77 195 126 20 46 
341 78 194 126 21 47 
341 78 195 125 22 44 
341 79 194 125 20 49 
341 79 195 125 24 48 
342 76 192 118 43 52 
342 76 193 121 24 47 
342 77 192 122 23 49 
342 77 193 124 18 48 
342 76 194 125 19 48 
342 77 194 125 20 48 
342 78 192 125 15 49 
342 78 193 126 16 46 
342 79 192 125 15 48 
342 79 193 125 18 48 
342 78 194 125 17 46 
342 79 194 125 17 46 
340 76 196 124 20 47 
340 76 197 113 23 37 
340 77 196 126 17 48 
340 77 197 118 20 40 
341 76 196 126 20 47 
341 77 196 127 20 47 
340 76 198 100 44 32 
340 77 198 107 36 34 
340 78 196 126 17 47 
340 78 197 122 19 46 
340 79 197 124 19 47 
341 78 196 125 20 44 
341 79 196 124 22 46 
340 78 198 110 33 40 
340 79 198 115 24 42 
337 74 203 128 108 88 
337 75 203 127 106 87 
338 73 201 121 101 82 
339 72 200 118 99 82 
339 72 201 121 101 82 
339 73 200 119 100 83 
339 73 201 119 99 82 
338 72 202 128 107 88 
338 72 203 130 110 90 
338 73 202 126 105 85 
338 73 203 130 110 90 
338 74 200 121 102 85 
338 74 201 120 101 83 
338 75 200 123 104 87 
338 75 201 123 104 88 
339 74 200 119 101 85 
339 75 200 121 104 88 
338 74 202 124 103 84 
338 74 203 128 108 88 
338 75 202 125 106 88 
337 72 204 130 113 97 
337 72 205 121 98 82 
337 73 204 131 114 97 
337 73 205 126 106 89 
336 72 207 113 14 40 
336 73 206 103 51 43 
336 73 207 109 18 38 
337 72 206 106 52 47 
337 72 207 108 15 36 
337 73 206 109 66 55 
336 75 205 120 104 85 
337 74 204 129 111 93 
337 74 205 126 108 90 
337 75 204 125 106 87 
337 75 205 124 106 88 
336 74 206 107 73 57 
336 74 207 107 26 40 
336 75 206 108 83 65 
336 75 207 106 40 43 
337 74 206 114 87 71 
338 72 204 130 112 95 
338 73 204 131 113 96 
337 76 202 129 110 92 
337 76 203 128 108 89 
337 77 202 130 110 91 
337 77 203 130 110 91 
337 78 202 129 110 90 
337 78 203 130 111 92 
337 79 202 125 107 87 
337 79 203 126 108 87 
338 76 200 121 104 88 
338 76 201 123 106 90 
338 77 200 117 101 85 
338 77 201 125 106 87 
338 76 202 126 108 91 
338 77 202 127 108 89 
338 78 200 113 99 82 
338 78 201 123 105 86 
338 79 200 110 94 76 
338 79 201 119 103 86 
338 78 202 127 108 89 
338 79 202 125 108 90 
336 76 205 122 106 88 
336 77 205 123 109 91 
337 76 204 127 107 87 
337 76 205 125 107 88 
337 77 204 128 109 90 
337 77 205 126 108 90 
336 76 206 111 86 70 
336 76 207 106 48 44 
336 77 206 114 93 76 
336 78 204 124 108 88 
336 78 205 123 107 89 
336 79 204 122 104 82 
336 79 205 119 96 76 
337 78 204 127 110 90 
337 79 204 124 106 84 
336 78 206 117 97 79 
344 69 192 122 20 45 
344 70 192 120 16 43 
344 71 192 115 25 42 
344 72 192 114 51 55 
336 65 208 106 21 38 
336 66 208 111 22 42 
336 67 208 115 22 43 
336 68 208 119 21 45 
336 69 208 124 15 45 
336 70 208 125 13 46 
336 71 208 126 16 48 
336 72 208 124 16 48 
336 73 208 122 17 48 
336 74 208 120 16 48 
339 80 198 102 33 30 
339 80 199 101 60 44 
339 81 198 115 23 41 
339 81 199 112 46 48 
339 82 199 120 26 50 
339 83 199 122 16 48 
339 84 199 122 13 47 
339 85 199 121 19 45 
339 86 199 119 23 43 
339 87 199 117 17 41 
341 80 194 121 19 46 
341 80 195 122 24 46 
341 81 194 115 35 44 
341 81 195 117 21 40 
341 82 193 112 78 60 
341 83 193 107 79 57 
341 82 194 111 58 50 
341 82 195 112 26 37 
341 83 194 109 65 52 
341 83 195 110 25 34 
342 80 192 121 20 44 
342 80 193 121 20 44 
342 81 192 116 37 44 
342 81 193 116 44 48 
342 80 194 121 17 43 
342 81 194 117 27 43 
342 82 192 114 67 57 
342 82 193 114 74 60 
342 83 192 112 82 64 
342 83 193 109 82 61 
340 80 197 124 17 46 
340 81 197 123 17 43 
341 80 196 122 23 43 
341 81 196 119 22 41 
340 80 198 119 19 43 
340 81 198 122 19 46 
340 82 197 121 18 41 
340 83 197 122 20 43 
341 82 196 118 19 41 
341 83 196 119 17 41 
340 82 198 123 23 44 
340 83 198 122 23 42 
341 84 193 109 81 61 
341 85 193 112 66 57 
341 84 194 110 64 53 
341 84 195 111 29 36 
341 85 194 113 52 51 
341 85 195 116 32 46 
341 86 193 115 29 47 
341 86 194 116 27 46 
341 86 195 118 20 45 
341 87 194 120 16 49 
341 87 195 118 11 42 
342 84 192 110 85 66 
342 85 192 113 75 63 
342 86 192 114 49 52 
342 86 193 115 37 50 
342 87 192 115 23 44 
342 87 193 119 16 48 
340 84 197 122 17 44 
340 85 197 122 15 45 
341 84 196 120 16 45 
341 85 196 121 18 49 
341 85 197 122 17 48 
340 84 198 122 17 41 
340 84 199 122 14 44 
340 85 198 121 14 41 
340 85 199 121 19 42 
340 86 197 121 15 46 
340 87 197 118 16 45 
341 86 196 120 16 48 
341 86 197 121 15 48 
341 87 196 118 13 44 
341 87 197 118 15 45 
340 86 198 120 15 42 
340 86 199 120 20 42 
340 87 198 119 18 43 
340 87 199 118 17 42 
337 80 202 120 101 81 
337 80 203 122 96 78 
337 81 202 114 72 58 
337 81 203 113 51 44 
336 82 203 122 17 43 
336 83 203 124 19 43 
337 82 202 117 29 43 
337 82 203 119 21 41 
337 83 202 124 17 44 
337 83 203 125 19 45 
338 80 200 109 88 69 
338 80 201 116 99 81 
338 81 200 113 78 63 
338 81 201 115 78 64 
339 81 200 116 69 62 
338 82 200 118 48 54 
338 82 201 117 40 49 
338 83 200 121 19 47 
338 83 201 122 18 44 
339 82 200 120 45 55 
339 83 200 122 16 48 
336 80 204 117 82 65 
336 80 205 115 73 58 
336 81 204 115 42 43 
336 81 205 119 29 46 
337 80 204 121 95 76 
336 80 206 114 52 45 
336 81 206 117 35 43 
336 82 204 123 18 46 
336 82 205 126 17 50 
336 83 204 123 19 43 
336 83 205 124 22 45 
336 84 203 122 20 46 
336 85 203 112 27 44 
337 84 202 123 20 44 
337 84 203 124 19 45 
337 85 202 118 27 47 
337 85 203 119 28 49 
337 86 201 103 35 43 
337 87 201 97 46 43 
336 86 202 102 49 49 
336 86 203 103 45 46 
336 87 202 99 62 53 
336 87 203 102 68 61 
337 86 202 109 30 45 
337 87 202 98 54 48 
338 84 201 123 18 43 
338 85 201 120 23 44 
339 84 200 124 14 48 
339 85 200 120 19 45 
338 86 201 111 26 44 
338 87 201 100 26 33 
339 86 200 116 29 42 
339 87 200 111 19 35 
336 84 204 121 22 46 
336 85 204 112 24 44 
339 88 199 115 15 41 
339 89 199 114 18 43 
339 90 199 114 18 41 
339 91 199 114 15 39 
339 92 199 116 14 42 
339 93 199 116 16 43 
339 94 199 115 13 41 
341 88 194 119 12 44 
341 88 195 118 13 41 
341 89 195 115 16 42 
341 90 195 114 37 46 
341 91 194 122 68 66 
341 91 195 121 71 67 
342 88 192 116 14 39 
342 88 193 119 11 43 
342 89 192 117 14 42 
342 89 193 117 11 40 
342 88 194 120 11 45 
342 89 194 117 12 42 
342 90 192 116 16 40 
342 90 193 114 17 38 
342 91 192 116 30 43 
342 91 193 117 43 49 
342 90 194 115 29 43 
342 91 194 120 58 58 
341 88 196 116 15 41 
341 88 197 116 22 42 
341 89 196 113 19 39 
341 89 197 111 19 36 
340 88 198 117 22 42 
340 88 199 117 15 43 
340 89 198 113 18 39 
340 89 199 115 16 41 
341 90 196 113 42 47 
341 90 197 108 25 39 
341 91 196 121 73 70 
341 91 197 112 49 52 
340 90 198 108 12 36 
340 90 199 112 14 38 
340 91 198 107 14 35 
340 91 199 112 15 37 
341 92 194 120 82 66 
341 92 195 119 83 67 
341 93 194 119 86 66 
341 93 195 118 84 66 
341 94 193 121 92 70 
341 95 193 122 94 72 
341 94 194 122 91 71 
341 94 195 121 88 71 
341 95 194 122 93 72 
341 95 195 121 88 70 
342 92 192 119 65 58 
342 92 193 122 77 66 
342 93 192 117 82 63 
342 93 193 118 84 64 
342 92 194 123 80 68 
342 94 192 118 88 67 
342 94 193 120 92 69 
342 95 192 119 90 69 
342 95 193 121 93 71 
341 92 196 117 79 68 
341 92 197 110 60 56 
341 93 196 114 83 67 
341 93 197 110 69 60 
340 92 198 105 20 36 
340 92 199 113 15 40 
340 93 198 104 29 36 
340 93 199 113 15 41 
341 94 196 115 85 68 
341 94 197 110 76 63 
341 95 196 114 85 66 
341 95 197 110 80 63 
340 94 198 105 41 40 
340 94 199 112 15 38 
340 95 198 106 53 46 
340 95 199 112 22 39 
337 88 201 94 57 48 
337 89 201 94 59 50 
336 88 202 96 70 56 
336 88 203 102 72 62 
336 89 202 96 74 55 
337 88 202 93 64 51 
337 89 202 92 66 52 
337 90 201 95 57 49 
336 90 202 97 76 55 
336 91 202 96 74 53 
336 91 203 99 78 57 
337 90 202 95 67 53 
337 91 202 95 66 52 
338 88 200 99 22 29 
338 88 201 96 34 34 
338 89 200 105 20 39 
338 89 201 95 43 42 
339 88 200 110 14 37 
338 90 200 109 24 40 
338 90 201 96 40 40 
338 91 200 110 22 40 
338 91 201 98 39 40 
339 91 200 115 16 41 
337 92 201 104 37 41 
337 93 201 108 38 43 
336 92 202 96 70 51 
336 92 203 99 77 56 
336 93 203 100 77 54 
337 92 202 98 57 47 
337 93 202 100 59 46 
336 94 203 103 73 52 
336 95 203 109 70 53 
337 94 202 105 51 42 
337 95 202 108 39 37 
337 95 203 106 61 46 
338 92 200 115 18 43 
338 92 201 107 29 41 
338 93 201 116 23 43 
339 92 200 117 15 42 
339 93 200 118 14 42 
338 94 201 119 22 44 
338 95 201 118 23 43 
339 94 200 119 14 42 
339 95 200 120 18 43 
339 95 201 122 17 44 
336 95 204 111 77 59 
320 98 207 130 94 75 
320 99 207 131 93 75 
321 99 207 131 94 76 
322 99 207 131 96 76 
323 99 207 131 95 76 
320 100 207 129 92 72 
320 101 206 127 91 70 
321 100 207 129 93 72 
321 101 206 129 93 72 
320 103 205 127 94 73 
321 103 205 128 95 74 
320 102 206 126 91 69 
320 103 206 126 93 71 
321 102 206 128 94 73 
321 103 206 128 94 73 
322 100 206 131 95 75 
322 100 207 131 94 74 
322 101 206 130 95 75 
323 100 206 131 95 75 
323 100 207 131 94 75 
323 101 206 131 95 76 
322 102 205 128 94 73 
322 103 205 128 95 74 
323 102 205 128 93 73 
323 103 205 127 94 73 
322 102 206 129 95 74 
323 102 206 129 94 74 
324 99 207 129 91 75 
325 99 207 127 88 74 
326 99 207 125 86 73 
327 99 207 125 80 71 
326 103 203 136 99 81 
327 102 203 140 101 85 
327 103 202 139 101 82 
327 103 203 139 101 83 
324 101 205 133 96 78 
325 101 205 135 98 81 
324 100 206 132 94 76 
324 100 207 130 92 74 
324 101 206 131 95 76 
325 100 206 134 96 79 
325 100 207 131 92 77 
325 101 206 136 98 81 
324 102 205 131 95 76 
324 103 204 130 96 75 
324 103 205 130 95 75 
325 102 205 135 98 81 
325 103 204 133 97 78 
326 101 205 138 99 84 
327 101 205 141 100 86 
326 100 206 136 98 81 
326 100 207 131 93 80 
326 101 206 137 99 83 
327 100 206 136 96 83 
327 100 207 132 92 80 
327 101 206 139 98 83 
326 102 204 139 101 86 
326 102 205 139 101 85 
326 103 204 137 100 83 
327 102 204 141 102 86 
327 102 205 141 101 87 
327 105 199 138 100 80 
326 107 199 138 102 81 
327 106 198 136 100 79 
327 106 199 138 101 81 
327 107 198 135 100 80 
327 107 199 137 101 80 
325 109 199 134 98 77 
325 110 199 133 98 78 
325 111 199 133 99 79 
327 109 197 132 99 79 
326 108 199 136 100 79 
326 109 198 135 101 80 
326 109 199 135 100 78 
327 108 198 133 100 79 
327 109 198 134 101 81 
327 110 197 132 99 78 
327 111 197 130 98 75 
326 110 198 132 99 77 
326 110 199 132 98 77 
326 111 198 131 99 76 
327 110 198 132 100 79 
327 111 198 131 98 76 
322 107 203 124 96 74 
323 106 203 125 95 74 
323 107 203 125 94 73 
320 104 205 127 95 73 
320 105 205 127 95 72 
321 104 205 127 95 73 
321 105 204 127 96 74 
321 105 205 127 95 72 
320 106 204 126 94 71 
320 106 205 127 95 71 
320 107 204 126 93 69 
321 106 204 126 96 73 
321 107 204 125 95 72 
322 104 205 127 95 73 
322 105 204 127 96 74 
323 104 204 127 95 74 
323 104 205 127 95 73 
323 105 204 127 96 75 
322 106 204 126 97 75 
322 107 204 125 97 75 
323 106 204 126 97 76 
320 109 203 126 94 71 
321 108 203 124 95 73 
321 109 203 124 94 71 
320 110 203 127 96 74 
320 111 203 128 97 74 
321 110 202 127 98 75 
321 110 203 126 96 73 
321 111 202 129 101 77 
321 111 203 128 100 76 
322 108 203 124 96 74 
322 109 202 127 98 76 
322 109 203 124 95 73 
323 108 202 127 95 76 
323 108 203 124 94 73 
323 109 202 130 99 79 
322 111 201 130 101 77 
323 110 201 133 101 78 
323 111 201 132 101 78 
322 110 202 128 100 77 
322 111 202 129 101 77 
320 108 204 125 92 68 
320 109 204 126 93 70 
321 108 204 124 93 70 
324 104 203 131 97 78 
324 105 203 131 98 78 
325 104 203 133 98 79 
325 105 202 136 99 81 
325 105 203 134 99 81 
325 106 201 138 101 82 
325 107 200 137 99 79 
325 107 201 137 100 81 
324 106 202 132 95 76 
324 106 203 130 96 77 
324 107 202 130 94 75 
325 106 202 135 98 79 
325 107 202 134 96 77 
326 105 201 139 101 81 
327 104 201 138 100 80 
327 105 200 139 101 81 
327 105 201 139 100 80 
326 104 202 136 99 80 
326 104 203 135 98 79 
326 105 202 137 100 82 
327 104 202 138 100 81 
326 106 200 140 103 83 
326 106 201 139 101 82 
326 107 200 137 101 80 
327 106 200 140 103 84 
324 104 204 129 96 76 
324 105 204 128 97 76 
324 108 201 135 98 79 
324 109 200 134 96 75 
324 109 201 134 98 79 
325 108 200 136 100 79 
325 108 201 137 100 80 
325 109 200 135 98 77 
324 108 202 131 96 78 
324 110 200 133 97 76 
324 110 201 134 100 79 
324 111 200 133 98 77 
325 110 200 133 96 75 
326 108 200 136 100 79 
330 103 199 140 99 82 
331 102 199 139 98 83 
331 103 198 136 96 78 
331 103 199 139 99 82 
334 103 194 134 98 78 
334 103 195 133 96 75 
335 103 194 131 95 75 
335 103 195 133 96 76 
332 103 197 135 95 78 
333 103 196 135 96 79 
333 103 197 136 95 80 
332 102 199 138 98 82 
332 103 198 136 95 78 
332 103 199 138 98 82 
333 102 198 136 96 81 
333 102 199 137 97 82 
333 103 198 135 94 78 
334 103 196 134 96 78 
334 103 197 136 96 81 
335 102 197 135 94 81 
335 103 196 134 96 79 
335 103 197 135 97 81 
334 102 198 136 96 82 
334 102 199 134 93 79 
334 103 198 136 95 81 
335 102 198 133 91 79 
335 102 199 129 86 71 
328 99 207 123 65 61 
329 99 207 120 38 47 
331 96 207 118 29 45 
331 97 207 123 8 44 
330 98 207 122 10 43 
330 99 206 124 62 59 
330 99 207 120 21 41 
331 98 207 123 9 44 
331 99 206 117 24 40 
331 99 207 119 16 41 
329 101 203 140 98 83 
328 103 201 139 100 82 
329 103 200 140 100 83 
329 103 201 140 100 83 
328 102 202 141 102 86 
328 102 203 141 102 86 
328 103 202 139 100 83 
329 102 202 140 100 85 
329 102 203 140 99 84 
329 103 202 140 100 84 
330 101 203 139 97 84 
331 101 202 138 96 84 
331 101 203 137 95 83 
330 102 201 139 98 83 
330 103 200 140 100 84 
330 103 201 140 99 83 
331 102 200 139 97 83 
331 102 201 139 97 85 
