ply
format ascii 1.0
comment Created by CloudCompare v2.10.1 (Zephyrus)
comment Created 1/31/20 11:43 AM
obj_info Generated by CloudCompare!
element vertex 2153
property float x
property float y
property float z
property uchar red
property uchar green
property uchar blue
end_header
488 806 226 99 75 55 
488 806 227 102 78 59 
488 807 226 96 72 55 
489 806 227 94 70 46 
489 807 226 100 78 64 
489 807 227 94 72 50 
490 807 227 86 66 41 
488 804 228 84 65 44 
489 804 228 89 70 49 
489 804 229 100 78 49 
489 805 228 92 70 44 
489 806 228 91 70 42 
490 804 229 111 82 56 
490 805 228 94 73 45 
490 805 229 107 85 60 
491 805 229 116 93 65 
490 804 230 125 96 69 
491 804 230 126 96 63 
491 804 231 119 88 56 
491 805 230 129 103 77 
490 806 228 93 72 44 
490 806 229 101 80 54 
490 807 228 91 70 43 
491 806 229 114 90 60 
491 807 228 99 78 56 
491 807 229 111 86 54 
492 804 231 117 85 59 
492 805 230 128 91 60 
492 805 231 120 82 56 
493 805 231 111 79 58 
492 806 229 128 99 69 
492 807 229 124 98 67 
492 806 230 134 100 73 
492 807 230 133 103 71 
493 806 230 125 90 59 
493 806 231 106 77 60 
493 807 230 125 94 65 
493 807 231 109 79 60 
494 807 231 104 76 61 
490 800 232 98 73 50 
490 800 233 82 61 47 
490 801 232 108 85 65 
491 800 233 86 65 53 
491 801 232 101 76 56 
491 801 233 90 65 49 
491 800 234 88 67 54 
491 801 234 90 67 53 
491 802 232 106 80 59 
491 802 233 91 63 41 
491 803 232 111 85 64 
491 800 239 79 60 51 
492 800 234 96 72 57 
492 800 235 101 78 60 
492 801 234 96 72 57 
492 801 235 103 80 64 
492 802 233 92 64 45 
492 803 232 100 73 49 
492 803 233 90 64 46 
492 802 234 97 72 59 
492 802 235 109 82 67 
492 803 234 95 71 60 
493 802 234 99 75 65 
493 802 235 105 79 63 
493 803 234 97 74 63 
493 803 235 106 80 64 
492 800 236 105 82 58 
492 800 237 101 78 60 
492 801 236 105 82 60 
492 801 237 98 74 59 
492 800 238 91 67 55 
492 800 239 80 62 53 
492 801 238 90 68 56 
492 801 239 81 64 54 
493 802 236 106 80 60 
493 802 237 96 72 60 
493 803 236 105 80 61 
493 803 237 94 71 57 
492 802 238 88 67 56 
492 802 239 83 65 50 
492 803 239 83 66 51 
493 802 238 90 68 58 
493 803 238 88 67 55 
493 803 239 82 64 49 
492 804 232 101 75 54 
492 804 233 88 65 51 
493 804 232 94 71 54 
493 804 233 88 68 57 
493 805 232 93 71 52 
493 805 233 88 65 54 
493 804 234 98 74 62 
493 804 235 106 81 64 
493 806 232 92 70 53 
494 805 233 88 65 54 
494 804 234 103 78 61 
494 804 235 107 82 64 
494 805 234 100 74 58 
494 805 235 104 79 59 
494 806 232 88 66 53 
494 806 233 89 65 55 
494 807 232 91 66 57 
494 807 233 90 66 53 
494 806 234 100 77 59 
494 806 235 101 77 59 
494 807 234 97 75 58 
494 807 235 98 75 59 
493 804 236 101 77 58 
493 804 237 92 69 56 
493 804 238 87 67 53 
493 804 239 83 65 50 
493 805 238 87 67 50 
493 805 239 83 66 50 
493 806 239 84 67 52 
493 807 239 83 66 50 
494 804 236 99 76 59 
494 805 236 96 73 57 
494 805 237 91 70 56 
494 805 238 87 67 50 
494 806 236 94 73 57 
494 806 237 91 71 57 
494 807 236 94 72 58 
494 807 237 89 70 54 
494 806 238 85 66 49 
494 806 239 86 69 53 
494 807 238 85 66 49 
494 807 239 84 66 51 
488 808 225 79 58 41 
488 809 224 74 56 41 
488 809 225 78 59 44 
489 809 225 88 65 48 
488 808 226 86 63 45 
489 808 226 94 72 57 
489 808 227 95 73 54 
489 809 226 96 73 56 
488 810 224 67 52 38 
488 811 224 65 54 41 
489 810 224 80 61 43 
489 810 225 86 65 45 
489 811 224 77 61 46 
490 808 227 84 65 41 
490 809 226 93 73 55 
490 809 227 75 59 40 
491 808 227 83 66 46 
491 809 227 79 63 47 
490 810 225 93 71 51 
490 811 224 82 62 49 
490 811 225 85 67 54 
491 810 225 90 71 55 
491 811 224 80 63 51 
491 811 225 82 66 55 
490 810 226 91 72 54 
491 810 226 80 65 48 
491 810 227 70 56 40 
490 808 228 87 67 41 
491 808 228 94 75 54 
490 812 224 80 60 47 
491 812 224 81 63 51 
491 813 224 80 60 48 
491 814 224 79 58 47 
491 815 224 75 57 46 
492 809 227 90 72 53 
492 811 225 70 61 55 
492 810 226 61 50 39 
492 810 227 85 69 50 
492 811 226 62 53 45 
492 811 227 75 58 34 
493 811 227 92 73 48 
492 808 228 105 78 41 
492 808 229 119 93 61 
492 809 228 102 78 47 
493 808 229 127 100 66 
493 809 228 113 88 56 
493 809 229 127 101 71 
493 808 230 130 103 72 
492 810 228 108 86 60 
493 810 228 110 86 56 
493 810 229 122 97 67 
493 811 228 110 88 61 
494 808 230 123 95 72 
494 808 231 107 77 62 
494 809 230 125 97 71 
494 809 231 110 81 66 
495 809 231 111 82 66 
494 810 229 123 98 66 
494 811 228 111 88 61 
494 811 229 120 94 63 
495 811 229 125 99 70 
494 810 230 125 98 69 
494 811 230 124 98 67 
495 810 230 122 94 70 
495 810 231 111 82 61 
495 811 230 122 95 68 
495 811 231 110 84 61 
492 812 224 72 59 49 
492 812 225 72 62 56 
492 813 224 74 58 48 
492 813 225 66 59 55 
493 813 225 66 61 58 
492 812 226 66 59 54 
493 812 226 69 57 45 
493 812 227 84 66 40 
493 813 226 68 55 41 
493 813 227 70 51 23 
492 814 224 78 63 52 
492 814 225 70 60 53 
492 815 224 76 60 48 
492 815 225 77 61 47 
493 814 225 71 63 57 
493 815 225 77 62 46 
493 814 226 68 54 39 
493 815 226 69 56 44 
494 812 227 105 85 64 
494 813 227 92 72 46 
494 814 227 80 61 35 
494 815 226 66 54 42 
494 815 227 70 54 34 
494 812 228 113 90 63 
494 812 229 110 83 45 
494 813 228 112 90 65 
495 812 229 117 92 61 
495 813 228 116 93 67 
495 813 229 117 93 63 
495 812 230 120 95 67 
495 813 230 121 97 72 
494 814 228 109 87 61 
495 814 228 115 94 71 
495 814 229 115 90 58 
495 815 228 108 87 62 
495 815 229 117 92 62 
494 808 232 93 66 58 
494 808 233 91 68 53 
495 808 232 92 66 53 
495 808 233 90 67 51 
495 809 232 96 70 58 
495 809 233 93 71 56 
494 808 234 101 79 63 
494 808 235 96 75 59 
495 808 234 98 77 63 
495 808 235 95 73 59 
495 809 234 97 77 63 
495 809 235 94 73 60 
495 810 232 97 72 56 
495 810 233 94 72 56 
495 811 232 97 74 52 
495 811 233 98 74 56 
495 810 234 99 78 64 
495 810 235 95 74 60 
495 811 234 101 79 63 
495 811 235 95 74 57 
494 808 236 92 72 58 
494 808 237 87 67 49 
495 808 236 91 71 56 
495 808 237 88 68 51 
495 809 236 91 71 55 
495 809 237 87 68 52 
494 808 238 86 68 53 
494 808 239 82 64 50 
494 809 238 83 63 51 
494 809 239 81 58 48 
495 809 238 86 67 53 
495 810 236 89 69 52 
495 810 237 87 69 54 
495 811 236 87 68 52 
495 811 237 84 65 51 
494 810 238 84 60 52 
494 810 239 84 60 53 
494 811 239 82 62 47 
495 810 238 82 62 50 
495 811 238 81 62 45 
495 811 239 81 62 46 
495 812 237 81 64 51 
495 812 238 78 62 46 
495 812 239 80 61 48 
495 813 238 77 62 48 
495 813 239 80 63 50 
495 814 238 78 64 50 
495 814 239 79 63 50 
495 815 238 77 62 48 
495 815 239 78 63 49 
480 800 243 64 52 42 
480 801 242 67 56 46 
480 801 243 65 53 44 
481 800 243 65 52 40 
481 801 243 65 52 41 
480 803 241 69 61 54 
480 802 242 70 58 49 
480 803 242 70 61 53 
481 802 243 66 54 43 
481 803 242 69 59 49 
481 803 243 67 56 45 
482 800 243 62 47 35 
482 801 243 64 50 38 
483 800 243 58 42 33 
483 801 243 59 43 33 
482 802 243 65 51 39 
482 803 243 67 54 43 
483 802 243 59 46 34 
483 803 243 62 48 38 
480 804 241 67 58 53 
480 805 241 64 55 50 
481 805 241 70 61 55 
480 804 242 70 61 54 
481 804 242 70 60 53 
481 805 242 70 61 55 
480 806 240 61 52 47 
480 807 240 61 52 47 
481 806 241 67 58 52 
481 807 240 66 57 53 
481 807 241 66 57 52 
482 804 242 70 60 50 
482 804 243 69 57 46 
482 805 242 71 60 52 
483 804 243 66 53 42 
483 805 242 73 60 50 
483 805 243 71 58 47 
482 806 241 69 60 53 
482 807 241 69 59 51 
482 806 242 72 61 54 
482 807 242 71 59 49 
483 806 242 74 61 52 
483 807 242 73 60 52 
484 800 243 55 39 32 
484 801 243 57 41 33 
485 800 243 57 41 36 
485 801 243 57 40 35 
484 802 243 55 44 32 
484 803 243 58 46 34 
485 802 243 54 44 32 
485 803 243 53 43 30 
486 800 243 57 45 37 
486 801 243 59 44 38 
487 800 243 56 46 36 
487 801 243 59 49 39 
486 802 243 57 47 37 
486 803 243 57 47 37 
487 802 243 60 50 40 
487 803 243 61 51 43 
484 804 243 63 50 38 
484 805 243 69 56 44 
485 804 243 58 45 35 
485 805 243 63 50 39 
484 806 243 72 58 47 
484 807 242 73 60 50 
484 807 243 72 58 48 
485 806 243 67 54 43 
485 807 243 69 56 46 
486 804 243 57 47 38 
486 805 243 58 48 39 
487 804 243 60 51 43 
487 805 243 60 52 44 
486 806 243 61 51 41 
486 807 243 62 51 40 
487 806 243 60 52 45 
487 807 243 60 51 43 
480 808 240 62 51 45 
481 808 240 63 54 49 
482 808 240 67 58 52 
482 808 241 69 60 52 
482 809 240 66 57 51 
483 808 241 72 62 54 
483 809 240 71 62 55 
483 809 241 71 62 55 
483 808 242 73 62 55 
482 810 240 62 53 46 
483 810 240 69 59 52 
483 811 240 69 59 52 
484 809 241 72 62 55 
484 808 242 72 60 52 
484 809 242 73 61 55 
485 808 242 72 59 50 
485 808 243 69 56 46 
485 809 242 73 60 52 
484 810 240 73 63 57 
484 810 241 73 63 57 
484 811 240 71 61 53 
484 811 241 72 63 57 
485 810 241 72 61 55 
485 811 240 72 62 56 
485 811 241 72 62 57 
485 810 242 72 60 51 
486 808 242 69 56 46 
486 808 243 63 52 41 
486 809 242 68 56 46 
487 808 243 61 51 42 
487 809 242 62 51 42 
487 809 243 61 51 42 
486 811 241 72 61 53 
486 810 242 70 58 48 
486 811 242 71 60 50 
487 810 242 62 52 41 
487 811 242 67 56 45 
484 812 240 70 59 52 
485 812 240 72 61 56 
485 813 240 70 59 55 
486 812 240 71 62 55 
486 812 241 71 61 53 
486 813 240 70 61 54 
486 813 241 70 61 53 
487 812 241 70 60 51 
487 813 241 69 60 52 
487 812 242 67 57 46 
486 814 240 70 61 54 
487 814 240 68 59 51 
487 814 241 68 60 52 
487 815 240 68 60 52 
488 800 242 57 47 37 
488 800 243 55 45 33 
488 801 243 59 49 39 
489 800 242 60 49 39 
489 801 242 61 51 41 
489 801 243 61 50 40 
488 802 243 61 50 40 
488 803 243 62 52 42 
489 802 242 62 51 40 
489 802 243 61 50 39 
489 803 243 63 50 42 
490 800 241 63 51 39 
490 801 241 64 53 43 
491 800 240 74 59 47 
491 800 241 68 55 42 
491 801 240 74 61 51 
491 801 241 69 56 45 
490 800 242 62 51 41 
490 801 242 62 52 43 
491 802 241 69 56 43 
491 803 241 72 58 44 
490 802 242 62 52 43 
490 803 242 64 55 45 
490 803 243 65 55 47 
491 802 242 67 55 44 
491 803 242 67 56 46 
488 804 243 61 52 43 
488 805 243 62 52 46 
489 804 243 64 52 46 
489 805 243 63 52 47 
488 806 243 61 51 46 
488 807 243 61 51 45 
489 806 243 62 51 47 
489 807 243 61 50 45 
490 804 242 67 57 48 
490 804 243 68 57 49 
490 805 243 69 58 49 
491 804 242 70 58 47 
491 805 242 72 61 50 
491 805 243 70 59 49 
490 806 243 68 57 49 
490 807 243 67 57 48 
491 806 242 73 62 52 
491 806 243 71 60 50 
491 807 243 70 60 51 
492 801 240 77 64 55 
492 802 240 78 64 49 
492 802 241 74 60 44 
492 803 240 82 66 49 
492 803 241 76 61 46 
492 804 240 82 66 51 
492 804 241 77 62 48 
492 805 241 76 63 50 
493 804 240 83 66 52 
493 805 240 80 63 51 
493 805 241 77 62 49 
492 804 242 72 60 47 
492 805 242 73 61 50 
492 806 241 77 64 52 
492 807 241 77 64 54 
493 806 240 79 63 51 
493 806 241 77 61 49 
493 807 240 80 64 51 
493 807 241 78 62 52 
492 806 242 76 65 54 
492 807 242 75 65 55 
488 808 243 61 52 45 
488 809 243 60 50 43 
489 808 243 60 50 44 
489 809 243 61 51 44 
488 810 242 60 51 43 
488 811 242 62 52 43 
489 810 242 61 52 46 
489 810 243 61 51 45 
489 811 242 61 52 45 
490 808 243 64 53 46 
490 809 243 62 51 46 
491 808 242 70 61 54 
491 808 243 68 59 51 
491 809 242 68 59 52 
491 809 243 65 56 49 
490 810 242 61 52 48 
490 811 242 60 53 47 
491 810 242 66 58 52 
491 811 242 65 57 52 
488 813 241 67 58 49 
489 813 241 63 54 46 
488 812 242 62 52 42 
488 813 242 63 54 45 
489 812 242 61 52 44 
489 813 242 62 53 45 
488 814 241 67 58 50 
488 815 240 66 58 51 
488 815 241 65 57 49 
489 814 241 61 52 44 
489 815 241 61 52 44 
489 814 242 62 53 45 
490 812 242 61 53 46 
490 813 242 63 54 48 
491 812 242 65 57 51 
491 813 242 65 56 50 
490 814 241 63 55 48 
490 815 241 62 53 45 
491 814 241 66 58 50 
491 815 241 66 57 50 
490 814 242 63 55 48 
491 814 242 64 56 49 
493 808 240 83 67 52 
493 808 241 83 68 58 
493 809 241 85 68 57 
492 808 242 75 65 57 
492 809 242 75 66 58 
493 808 242 80 68 58 
493 809 242 79 67 58 
493 810 241 82 68 56 
493 811 241 80 66 57 
492 810 242 73 65 57 
492 811 242 72 63 57 
493 810 242 78 67 57 
493 811 242 78 66 59 
494 808 240 82 65 51 
494 809 240 85 66 52 
494 809 241 88 71 54 
494 810 240 86 66 55 
494 810 241 89 71 55 
494 811 240 85 67 54 
494 811 241 84 70 58 
492 813 241 73 63 55 
493 812 241 77 66 56 
493 813 241 77 66 56 
492 812 242 71 63 56 
492 813 242 71 62 54 
493 812 242 76 66 58 
492 814 241 71 61 53 
492 815 241 69 60 51 
493 814 241 78 66 57 
493 815 241 75 64 55 
494 812 240 81 65 55 
494 812 241 82 67 57 
494 813 240 78 63 53 
495 813 240 80 63 52 
494 814 240 77 63 54 
494 815 240 77 65 55 
495 814 240 79 63 51 
495 815 240 78 63 50 
481 816 224 78 65 53 
481 816 225 78 67 57 
481 816 226 74 66 59 
481 816 227 62 55 49 
482 816 224 79 66 53 
482 817 224 75 63 52 
482 817 225 77 68 60 
482 816 227 66 57 49 
482 817 226 70 63 58 
482 817 227 65 58 50 
482 818 224 76 64 54 
482 818 225 77 67 59 
483 818 225 77 68 60 
483 819 224 77 67 58 
483 819 225 76 68 59 
482 818 226 70 63 56 
482 818 227 69 60 52 
483 818 226 69 60 51 
483 818 227 71 64 58 
483 819 226 66 57 47 
483 819 227 72 66 61 
481 816 228 69 61 55 
481 816 229 65 58 52 
481 816 230 55 47 40 
482 816 228 72 65 58 
482 816 229 70 64 58 
482 817 228 75 67 62 
482 817 229 70 64 58 
482 816 230 55 46 38 
482 816 231 51 37 33 
482 817 230 55 47 38 
482 817 231 50 39 32 
482 818 228 77 71 66 
482 818 229 71 66 60 
483 818 228 79 73 69 
483 818 229 74 68 64 
483 819 228 79 74 71 
483 819 229 75 70 65 
483 818 230 59 52 45 
483 818 231 52 44 37 
483 819 230 62 56 50 
483 820 224 78 68 58 
483 820 225 77 68 60 
483 820 226 69 59 49 
484 819 228 78 74 71 
484 819 229 74 68 65 
484 819 230 58 51 44 
484 819 231 53 45 37 
484 820 224 80 70 60 
484 820 225 77 67 58 
484 821 224 80 71 60 
484 821 225 72 62 52 
484 820 226 67 59 51 
484 820 227 74 70 67 
484 821 226 66 60 53 
484 821 227 75 72 70 
485 821 227 78 76 74 
485 822 224 75 68 62 
485 822 225 69 63 57 
485 823 224 75 68 61 
485 823 225 71 64 56 
485 822 226 69 62 55 
485 822 227 78 73 68 
485 823 226 74 65 58 
485 823 227 79 73 68 
486 823 226 75 68 61 
486 823 227 79 73 68 
484 820 228 78 75 72 
484 820 229 73 68 65 
484 821 228 78 75 73 
484 821 229 76 71 68 
485 821 228 79 75 73 
485 821 229 71 65 60 
484 820 230 59 51 44 
484 820 231 54 46 39 
485 820 231 56 49 42 
485 821 230 58 49 41 
485 821 231 52 45 38 
485 822 228 80 75 72 
485 822 229 74 68 63 
485 822 230 61 53 46 
485 822 231 54 45 37 
486 822 229 75 68 64 
486 823 228 80 75 71 
486 823 229 75 69 63 
486 822 230 59 51 42 
486 822 231 54 44 35 
486 823 230 59 52 45 
486 823 231 53 44 35 
482 816 232 53 42 38 
482 816 233 55 47 39 
482 817 232 56 46 42 
482 817 233 57 48 41 
483 817 232 54 45 39 
483 817 233 56 48 40 
482 816 234 51 42 33 
483 816 234 50 39 29 
483 816 235 52 40 31 
483 817 234 52 43 36 
483 817 235 55 45 38 
483 818 232 54 45 38 
483 818 233 55 46 38 
483 818 234 51 43 35 
483 816 236 54 43 33 
484 817 235 54 44 38 
484 818 232 55 47 39 
484 818 233 55 47 40 
484 819 232 54 46 39 
484 819 233 57 49 43 
484 818 234 50 40 32 
484 818 235 53 42 36 
484 819 234 53 45 37 
485 818 235 53 43 37 
485 819 234 53 45 38 
485 819 235 50 41 35 
484 816 236 55 44 36 
484 816 237 57 45 37 
484 817 236 55 44 37 
485 816 237 60 47 38 
485 817 236 57 45 39 
485 817 237 61 44 38 
485 818 236 55 43 38 
485 819 236 53 42 37 
486 817 237 62 49 39 
486 816 238 65 55 46 
486 816 239 68 59 51 
486 817 238 64 54 45 
487 816 239 68 59 51 
487 817 238 68 58 49 
487 817 239 69 59 51 
486 818 237 59 43 36 
486 819 236 53 41 35 
486 819 237 57 44 35 
486 818 238 62 50 41 
487 818 238 65 54 45 
487 819 238 63 51 40 
484 820 232 54 47 40 
485 820 232 56 48 42 
485 820 233 58 50 44 
485 821 232 56 49 42 
485 821 233 59 51 44 
485 820 234 55 47 39 
485 820 235 47 39 31 
485 821 234 58 50 43 
486 821 233 57 49 41 
486 820 235 49 41 32 
486 821 234 55 46 38 
486 821 235 48 39 30 
486 822 232 56 47 42 
486 822 233 57 51 47 
486 823 232 54 46 40 
486 823 233 56 51 47 
487 823 232 55 48 42 
487 823 233 56 51 46 
486 822 234 53 46 42 
486 822 235 48 38 34 
487 822 234 51 42 39 
487 822 235 52 42 38 
487 823 234 55 46 41 
487 823 235 52 42 36 
486 820 236 53 44 35 
486 820 237 56 46 37 
486 821 236 52 44 36 
487 820 237 57 45 36 
487 821 236 53 45 37 
487 821 237 55 43 38 
487 820 238 60 48 39 
487 821 238 58 45 40 
487 822 236 51 44 37 
487 822 237 54 43 38 
487 823 236 52 44 36 
487 822 238 57 43 39 
486 824 224 77 68 61 
486 824 225 73 64 55 
486 825 224 77 68 59 
486 825 225 74 64 54 
486 824 226 73 65 56 
486 824 227 78 72 67 
486 825 226 75 65 56 
486 825 227 80 73 67 
487 825 227 80 74 68 
487 826 224 79 68 58 
487 826 225 76 65 54 
487 827 224 83 73 64 
487 827 225 77 66 56 
487 826 226 75 65 55 
487 826 227 78 70 63 
487 827 226 74 65 55 
487 827 227 79 71 65 
486 824 228 81 75 71 
486 824 229 78 72 68 
486 825 228 81 76 72 
487 825 228 81 76 71 
487 825 229 78 73 70 
486 824 230 59 52 46 
487 824 230 58 52 47 
487 824 231 48 39 30 
487 825 230 58 53 49 
487 825 231 46 38 29 
487 826 228 79 74 69 
487 826 229 77 73 70 
487 827 228 80 74 70 
487 827 229 76 71 68 
487 826 230 62 57 53 
487 826 231 49 41 33 
487 827 230 70 65 62 
487 824 232 53 45 37 
487 824 233 56 49 43 
487 825 232 49 40 31 
487 825 233 54 46 37 
487 824 234 54 44 36 
487 824 235 54 45 38 
487 825 234 54 45 35 
487 826 232 46 37 28 
487 826 233 52 43 33 
491 816 224 69 51 42 
491 817 224 68 52 45 
492 816 224 71 56 46 
492 816 225 74 59 45 
492 817 224 64 52 47 
493 816 225 69 57 46 
493 817 225 68 54 46 
493 816 226 68 56 44 
493 817 226 69 59 50 
492 818 224 67 54 48 
492 819 224 62 48 42 
493 818 225 66 53 47 
493 819 224 65 48 43 
493 819 225 59 49 45 
493 818 226 62 54 46 
494 816 226 63 53 43 
494 816 227 67 54 42 
494 817 226 62 53 46 
494 817 227 64 53 44 
495 816 227 76 58 34 
495 817 227 73 58 39 
494 818 226 61 54 49 
494 818 227 60 53 46 
494 819 226 57 52 48 
494 819 227 57 51 48 
495 818 227 62 51 41 
495 819 227 60 51 43 
495 816 228 98 77 50 
495 816 229 119 98 75 
495 817 228 86 67 43 
495 818 228 77 62 45 
495 819 228 64 51 43 
492 820 224 67 48 38 
493 820 224 65 49 44 
493 820 225 56 48 44 
493 821 224 56 43 38 
493 821 225 52 45 42 
493 822 224 51 43 40 
494 820 225 53 48 46 
494 821 225 51 47 46 
494 820 226 59 53 50 
494 821 226 60 54 50 
495 820 227 60 52 45 
495 821 226 62 55 49 
495 821 227 68 59 51 
494 822 224 44 41 44 
494 822 225 51 46 46 
494 823 224 49 44 42 
495 822 225 55 49 45 
495 823 225 58 51 44 
495 822 226 61 53 46 
495 822 227 71 61 53 
495 823 226 61 53 44 
488 816 239 68 59 52 
488 817 239 68 58 51 
488 818 239 67 56 48 
488 819 238 69 58 48 
488 819 239 68 58 48 
489 818 239 64 54 48 
489 819 239 64 53 46 
488 820 238 67 56 46 
488 820 239 67 57 46 
488 821 238 61 51 41 
489 820 239 64 55 47 
489 821 239 64 56 48 
488 822 237 55 44 38 
488 823 237 54 45 37 
488 822 238 58 46 37 
488 823 238 55 45 37 
489 822 239 60 51 42 
489 823 238 57 47 39 
489 823 239 57 47 39 
495 816 239 80 64 49 
495 817 239 81 66 50 
488 827 229 75 70 66 
488 826 231 51 43 34 
488 827 230 62 56 51 
488 827 231 51 43 33 
488 828 227 77 71 66 
488 828 228 78 72 67 
488 828 229 78 72 67 
488 828 230 66 60 56 
488 828 231 50 42 34 
494 824 224 59 50 42 
495 824 224 53 45 37 
495 824 225 53 45 37 
495 825 224 58 49 41 
495 826 224 61 51 42 
488 824 235 54 46 38 
488 825 234 54 44 33 
488 825 235 53 45 36 
488 826 232 47 37 26 
488 826 233 50 40 30 
488 827 232 47 37 26 
488 827 233 48 38 27 
488 826 234 52 42 32 
488 826 235 53 45 35 
488 827 234 51 42 33 
489 826 235 53 44 34 
489 827 234 52 44 36 
489 827 235 50 41 33 
488 824 236 54 46 38 
488 824 237 56 47 38 
488 825 236 52 43 33 
488 825 237 53 43 33 
489 825 237 53 42 32 
488 824 238 55 45 36 
489 824 238 55 44 37 
489 824 239 56 45 38 
489 825 238 53 42 35 
488 826 236 53 44 33 
489 826 236 52 43 33 
489 826 237 49 39 29 
489 827 236 48 39 30 
489 827 237 46 36 28 
489 826 238 49 39 31 
490 824 239 55 45 39 
490 825 239 52 41 36 
490 827 237 45 36 28 
490 826 238 47 39 32 
490 826 239 47 39 32 
490 827 238 45 37 31 
491 826 239 48 40 33 
491 827 238 45 37 31 
491 827 239 47 38 33 
488 828 232 47 37 27 
488 828 233 48 39 29 
489 829 233 46 38 31 
488 828 234 53 45 38 
489 828 234 50 43 36 
489 828 235 49 41 34 
489 829 234 49 42 37 
489 829 235 47 40 34 
489 830 232 42 34 26 
489 830 233 46 39 33 
489 830 234 48 40 38 
489 830 235 47 40 35 
489 828 236 46 37 30 
489 829 236 45 38 31 
490 828 237 44 35 26 
490 829 236 44 36 29 
490 829 237 42 34 26 
490 828 238 45 36 29 
490 829 238 43 33 26 
491 828 238 45 37 32 
491 828 239 45 37 32 
491 829 238 44 36 31 
490 830 236 44 37 30 
490 830 237 43 35 27 
490 831 236 45 38 32 
490 831 237 45 35 29 
491 831 237 45 36 30 
491 830 238 44 35 30 
491 831 238 43 35 30 
492 826 239 48 40 33 
492 827 239 47 40 34 
493 827 239 48 41 36 
494 827 239 55 47 42 
495 827 239 61 53 47 
492 828 239 46 37 31 
492 829 238 45 37 33 
492 829 239 45 36 31 
493 828 239 50 41 35 
493 829 239 48 40 34 
492 830 238 45 37 33 
492 831 238 45 38 32 
493 830 238 48 40 35 
493 830 239 49 42 36 
493 831 238 47 39 33 
494 828 239 55 47 41 
494 829 239 53 46 39 
495 828 239 60 52 46 
495 829 238 61 53 46 
495 829 239 59 51 44 
494 830 238 53 46 40 
494 830 239 51 44 39 
494 831 238 53 45 39 
495 830 238 59 50 43 
495 831 238 59 50 42 
488 816 240 66 57 51 
488 817 240 67 58 51 
489 816 240 61 52 45 
489 816 241 59 50 42 
489 817 240 61 52 45 
489 818 240 61 52 46 
489 819 240 60 50 43 
490 816 241 60 50 43 
490 817 240 59 49 42 
491 816 241 63 54 46 
491 817 240 56 46 37 
491 817 241 60 50 41 
490 818 240 58 48 41 
490 819 240 58 48 41 
491 818 240 57 46 37 
491 819 240 54 45 36 
489 820 240 60 51 45 
489 821 240 60 52 45 
489 822 240 59 51 43 
490 820 240 57 48 41 
490 821 240 56 48 41 
491 820 240 54 45 37 
491 821 240 52 43 35 
490 822 240 55 47 39 
490 823 240 55 45 38 
491 822 240 51 42 35 
491 822 241 48 40 32 
491 823 240 48 39 31 
491 823 241 48 39 31 
492 816 241 67 57 47 
492 817 241 64 53 45 
493 816 241 73 62 53 
493 817 240 74 63 54 
493 817 241 70 60 51 
492 818 240 59 48 40 
492 818 241 63 53 46 
492 819 240 53 45 37 
492 819 241 54 44 38 
493 818 240 66 57 49 
493 818 241 64 54 47 
493 819 240 61 53 46 
493 819 241 57 49 43 
494 816 240 78 66 56 
494 817 240 78 67 57 
495 816 240 80 66 52 
495 817 240 81 67 53 
494 818 240 75 64 53 
494 819 240 72 60 51 
495 818 240 79 65 50 
495 819 240 79 65 52 
492 820 240 52 44 37 
492 820 241 51 43 38 
492 821 241 48 40 35 
493 820 241 55 48 42 
493 821 241 53 45 39 
492 822 241 47 39 33 
492 823 241 48 39 33 
493 822 241 51 42 37 
493 823 241 51 44 39 
494 820 240 71 60 51 
494 820 241 65 55 46 
494 821 241 62 53 45 
495 820 240 76 63 51 
495 821 240 73 61 49 
495 821 241 69 59 49 
494 822 241 58 50 42 
494 823 241 57 49 42 
495 822 241 67 57 48 
495 823 241 64 55 47 
490 824 240 54 44 38 
491 824 240 51 42 35 
491 825 240 49 40 33 
491 826 240 51 43 36 
492 824 240 48 40 33 
492 824 241 48 40 33 
492 825 240 48 40 32 
493 824 241 49 41 37 
493 825 240 49 42 37 
493 825 241 50 43 37 
492 826 240 47 40 33 
493 826 240 47 40 35 
493 827 240 48 41 36 
494 824 241 55 48 41 
494 825 240 55 47 42 
494 825 241 52 45 39 
495 824 240 63 55 48 
495 824 241 59 52 45 
495 825 240 62 54 48 
494 826 240 53 46 41 
494 827 240 54 47 42 
495 826 240 61 53 47 
495 827 240 59 51 46 
496 811 231 110 87 66 
496 812 230 115 91 66 
496 812 231 108 86 65 
496 813 230 117 93 69 
496 813 231 106 85 63 
496 815 229 114 88 55 
496 814 230 119 95 68 
496 814 231 110 86 58 
496 815 230 119 95 68 
497 814 231 105 84 65 
497 815 231 108 84 54 
496 811 232 96 74 52 
496 811 233 98 75 56 
496 811 234 102 80 63 
496 811 235 94 74 56 
496 812 232 98 78 57 
496 812 233 100 78 58 
496 813 232 99 79 59 
496 813 233 101 80 58 
496 812 234 101 80 62 
496 812 235 93 73 56 
496 813 234 102 82 64 
496 813 235 84 67 52 
496 814 233 104 82 61 
497 814 232 101 79 59 
497 814 233 102 79 58 
497 815 232 97 76 56 
497 815 233 98 78 61 
496 814 234 102 81 63 
496 814 235 84 67 52 
496 815 235 92 72 57 
497 814 234 106 85 66 
497 815 234 103 81 63 
497 815 235 94 73 58 
496 812 236 80 64 52 
496 812 237 57 47 38 
496 813 236 65 53 43 
496 813 237 67 54 43 
496 813 238 76 61 48 
496 814 236 70 57 46 
496 814 237 72 58 46 
496 815 236 83 66 53 
496 815 237 80 64 52 
497 815 236 86 67 54 
496 814 238 77 62 49 
496 815 238 78 63 49 
496 816 229 118 95 68 
496 817 229 113 92 69 
496 816 230 114 89 58 
496 817 230 111 88 58 
497 816 231 111 87 64 
497 817 230 114 89 63 
497 817 231 109 85 63 
496 818 228 71 56 43 
496 818 229 107 87 64 
496 819 228 68 52 43 
496 819 229 95 75 47 
496 818 230 111 89 64 
496 819 230 110 89 67 
497 818 230 108 83 56 
497 818 231 104 78 57 
497 819 230 108 84 63 
497 819 231 102 77 58 
496 821 227 62 50 42 
496 822 227 68 57 46 
496 823 226 67 57 48 
496 823 227 70 60 51 
497 823 227 67 56 50 
496 820 228 62 47 36 
496 820 229 83 63 35 
496 821 228 66 52 38 
496 821 229 78 61 36 
497 820 229 89 69 45 
497 821 229 80 61 36 
497 820 230 105 83 64 
497 820 231 102 78 60 
497 821 230 100 78 59 
497 821 231 101 79 62 
496 822 228 70 58 45 
497 822 228 69 56 40 
497 822 229 76 59 33 
497 823 228 67 54 46 
497 823 229 73 57 44 
497 822 230 91 68 43 
497 822 231 99 77 60 
497 823 230 82 65 48 
497 823 231 90 74 57 
498 823 231 89 73 56 
497 816 232 97 76 59 
497 816 233 86 69 56 
497 817 232 97 76 60 
497 817 233 85 69 56 
497 816 234 88 70 56 
497 816 235 92 73 57 
497 817 234 78 64 51 
497 817 235 93 74 60 
497 818 232 96 74 58 
497 818 233 86 68 54 
497 819 232 96 74 60 
497 819 233 84 67 52 
497 818 234 74 60 47 
497 818 235 81 65 51 
497 819 234 73 59 47 
497 819 235 67 55 44 
496 816 237 82 65 53 
497 816 236 85 66 53 
497 816 237 83 65 53 
497 817 236 86 68 56 
497 817 237 83 66 54 
496 816 238 80 65 51 
496 816 239 80 65 51 
496 817 238 82 66 51 
496 817 239 81 66 51 
497 818 236 83 65 52 
497 818 237 82 65 52 
497 819 236 72 59 46 
497 819 237 80 64 49 
496 818 238 81 64 48 
496 818 239 82 66 50 
496 819 239 80 65 51 
497 818 238 81 64 49 
497 819 238 81 64 48 
497 820 232 93 72 57 
497 820 233 84 68 54 
497 821 232 91 72 56 
497 821 233 84 68 54 
497 820 234 73 60 48 
497 820 235 65 54 43 
497 821 234 74 60 48 
497 821 235 66 55 45 
497 822 232 91 73 57 
497 822 233 83 68 53 
497 823 232 89 74 57 
497 823 233 81 66 50 
497 822 234 74 60 48 
497 822 235 68 57 48 
497 823 234 77 62 49 
498 823 232 86 71 54 
498 823 233 82 67 51 
498 822 235 67 56 48 
498 823 234 71 58 46 
498 823 235 64 53 44 
497 820 236 68 57 46 
497 820 237 72 58 45 
497 821 236 64 53 44 
497 821 237 66 54 44 
496 820 239 77 62 49 
497 820 238 78 62 47 
497 820 239 75 61 47 
497 821 238 71 57 45 
497 821 239 74 59 45 
497 822 236 64 53 45 
497 822 237 63 52 44 
497 822 238 65 53 42 
497 822 239 68 53 41 
497 823 238 61 49 40 
497 823 239 65 50 39 
498 822 236 65 54 47 
498 822 237 63 53 46 
498 823 236 63 52 45 
498 823 237 62 52 45 
498 822 238 61 51 43 
498 823 238 60 50 42 
496 824 225 54 47 41 
496 825 225 60 55 52 
496 824 226 66 58 49 
496 824 227 71 62 55 
496 825 226 63 56 51 
497 824 227 69 57 50 
497 825 227 72 60 52 
496 826 224 57 52 53 
496 826 225 51 50 53 
496 827 224 54 51 57 
496 827 225 51 50 58 
497 827 225 55 50 53 
496 826 226 57 50 47 
497 826 226 66 55 49 
497 826 227 75 62 54 
497 827 226 64 52 48 
497 827 227 78 66 57 
497 824 228 68 54 46 
497 824 229 74 58 46 
497 825 228 72 58 48 
497 825 229 76 60 48 
497 824 230 81 64 48 
497 824 231 87 71 54 
497 825 230 80 63 50 
497 825 231 81 65 50 
497 826 228 75 61 51 
497 826 229 76 60 49 
497 827 228 79 66 57 
497 827 229 74 59 50 
497 826 230 78 63 52 
497 826 231 80 66 54 
497 827 230 78 64 55 
497 827 231 79 68 58 
498 824 231 86 70 55 
498 825 231 82 66 52 
496 828 224 52 44 50 
496 828 225 49 47 55 
496 829 224 61 41 40 
496 829 225 57 48 50 
497 828 225 56 49 52 
497 829 225 56 48 48 
497 828 226 63 51 45 
497 828 227 73 62 53 
497 829 226 63 53 47 
497 829 227 72 61 54 
496 830 224 68 55 48 
496 830 225 63 49 45 
496 831 224 88 68 57 
496 831 225 69 56 47 
497 830 226 59 52 46 
497 830 227 76 66 58 
497 831 226 79 68 58 
497 831 227 80 70 60 
497 828 228 82 70 60 
497 828 229 81 68 58 
497 829 228 82 70 60 
497 829 229 81 70 61 
497 828 230 80 69 59 
497 828 231 77 67 58 
497 829 230 78 68 59 
497 829 231 75 66 58 
497 830 228 84 73 62 
497 830 229 82 71 61 
497 831 228 83 72 62 
497 831 229 82 72 63 
497 830 230 78 68 60 
497 830 231 73 65 57 
497 831 230 79 70 63 
497 831 231 74 66 59 
497 825 233 75 61 47 
497 825 234 70 56 42 
497 825 235 63 51 40 
497 826 232 78 65 53 
497 826 233 74 61 49 
497 827 232 76 65 54 
497 827 233 73 62 50 
497 826 234 68 55 40 
497 826 235 61 49 37 
497 827 234 67 56 44 
497 827 235 60 49 39 
498 824 232 85 70 54 
498 824 233 80 66 51 
498 825 232 81 66 53 
498 825 233 79 65 52 
498 824 234 71 58 45 
498 824 235 64 52 43 
498 825 234 71 58 44 
497 825 236 61 51 41 
497 825 237 60 50 41 
496 825 239 65 52 40 
497 824 238 61 50 40 
497 824 239 64 51 39 
497 825 238 60 48 38 
497 825 239 63 50 37 
497 826 236 60 48 38 
497 826 237 59 49 39 
497 827 236 58 48 37 
497 827 237 57 46 34 
496 826 239 65 55 44 
496 827 238 61 50 40 
496 827 239 64 54 46 
497 826 238 61 50 39 
497 826 239 62 49 34 
497 827 238 58 46 34 
498 824 236 60 50 42 
498 824 237 59 48 41 
498 824 238 58 48 40 
497 828 232 74 64 55 
497 828 233 70 60 49 
497 829 232 72 63 56 
497 829 233 67 58 50 
497 828 234 63 52 41 
497 828 235 58 48 37 
497 829 234 61 51 41 
497 829 235 59 49 38 
497 830 232 70 62 55 
497 830 233 67 59 52 
497 831 232 71 62 55 
497 831 233 67 59 52 
497 830 234 61 52 43 
497 830 235 58 47 36 
497 831 234 63 54 45 
497 831 235 59 49 39 
497 828 236 58 47 36 
497 828 237 58 47 35 
497 829 236 58 48 37 
497 829 237 57 47 35 
496 828 238 59 49 39 
496 828 239 64 55 46 
496 829 238 61 52 42 
497 828 238 57 46 35 
497 829 238 57 47 35 
496 830 237 58 48 37 
497 830 236 59 48 37 
497 830 237 59 48 37 
497 831 236 59 48 37 
497 831 237 60 49 39 
496 830 238 60 50 42 
496 831 238 61 51 42 
496 819 240 80 65 49 
496 820 240 78 63 49 
496 821 240 75 62 49 
496 822 240 73 60 48 
496 823 240 70 58 47 
497 822 240 69 55 43 
497 823 240 69 55 44 
496 824 240 68 57 47 
496 825 240 67 56 46 
496 826 240 66 56 48 
495 835 215 160 135 109 
493 836 215 141 115 90 
493 837 215 145 121 101 
494 836 215 163 140 121 
494 837 215 165 145 132 
495 836 215 161 138 116 
495 837 215 161 141 123 
490 832 216 94 71 53 
491 832 216 99 76 54 
491 832 217 102 79 56 
491 833 216 95 72 50 
491 833 217 99 76 54 
492 832 217 106 81 55 
492 833 217 106 83 59 
492 832 218 109 85 56 
492 832 219 111 89 63 
492 833 218 108 86 64 
492 833 219 109 87 65 
493 832 219 116 91 63 
493 833 219 111 88 63 
492 835 217 107 85 63 
493 835 217 113 89 64 
492 834 218 106 85 63 
492 834 219 114 91 67 
492 835 218 111 88 64 
492 835 219 143 106 64 
493 834 219 114 89 62 
493 835 218 133 101 63 
493 835 219 126 96 62 
494 835 216 148 126 106 
495 835 216 146 121 96 
495 835 217 115 93 69 
493 832 220 125 98 68 
493 833 220 123 98 72 
493 834 220 116 91 63 
493 835 220 114 90 66 
494 832 220 128 98 68 
494 832 221 134 99 65 
494 833 221 140 109 77 
494 832 222 136 97 64 
494 833 222 141 102 67 
495 832 222 141 102 60 
495 832 223 142 105 75 
495 833 222 139 100 64 
495 833 223 140 101 76 
494 834 221 132 102 72 
494 835 220 110 88 63 
494 835 221 143 112 82 
494 834 222 140 106 77 
494 835 222 150 116 91 
495 834 222 140 103 74 
495 834 223 138 97 76 
495 835 222 142 106 81 
495 835 223 136 94 74 
493 836 216 131 107 82 
493 836 217 127 99 66 
493 837 216 123 101 77 
493 836 218 111 86 57 
493 836 219 108 84 59 
494 836 216 143 121 102 
494 836 217 111 88 63 
495 836 217 112 90 67 
495 837 216 146 124 102 
495 837 217 135 110 85 
494 836 218 110 87 63 
494 836 219 109 86 61 
494 837 218 134 110 83 
494 837 219 132 106 76 
495 837 218 135 110 84 
494 838 216 160 142 128 
494 838 217 149 129 113 
495 838 216 154 134 117 
495 838 217 148 125 104 
494 838 218 148 125 104 
494 838 219 138 113 87 
493 836 220 108 86 61 
494 836 220 126 100 70 
494 836 221 149 118 90 
494 837 220 131 105 75 
494 837 221 140 110 85 
495 837 221 147 115 95 
494 836 222 163 128 104 
495 836 222 159 124 99 
495 836 223 137 100 78 
495 837 222 157 124 99 
495 837 223 142 106 83 
494 838 220 135 109 80 
494 838 221 138 109 87 
495 838 221 130 102 84 
495 839 221 112 89 70 
495 838 222 131 103 81 
495 838 223 101 78 67 
495 839 222 120 93 69 
495 840 221 120 93 62 
495 840 222 127 98 65 
496 835 215 158 135 114 
496 836 215 157 135 116 
496 834 216 159 134 111 
496 835 216 156 129 102 
496 835 217 149 122 94 
497 835 216 144 116 86 
496 835 223 136 96 80 
496 836 216 144 119 93 
496 836 217 135 110 81 
496 837 216 146 122 98 
497 836 216 144 117 87 
496 836 223 129 93 70 
496 837 223 113 85 67 
496 838 223 93 73 63 
496 839 222 96 74 64 
496 839 223 109 82 68 
497 839 223 83 68 58 
496 840 222 96 74 64 
496 840 223 97 74 62 
496 841 222 118 88 69 
496 841 223 113 85 64 
497 840 223 94 73 57 
497 841 223 86 69 60 
496 842 222 113 83 64 
496 842 223 118 89 64 
497 842 223 86 70 59 
503 848 221 73 64 58 
503 848 223 73 64 58 
503 849 222 73 64 57 
503 850 222 73 63 57 
503 850 223 76 66 57 
504 851 219 70 57 56 
507 849 217 67 59 52 
504 849 221 71 63 56 
504 850 220 66 56 53 
504 851 221 74 64 57 
504 852 218 68 53 52 
490 832 236 45 38 31 
490 832 237 45 36 30 
491 832 237 43 35 29 
491 833 237 43 36 32 
492 833 237 44 38 33 
492 832 238 43 36 30 
492 833 238 45 39 33 
493 832 238 47 39 32 
493 833 238 48 40 33 
492 834 237 44 38 34 
492 835 237 44 39 35 
493 834 238 48 41 35 
493 835 238 48 41 34 
494 832 238 52 44 37 
494 833 238 54 45 38 
495 832 238 58 49 41 
495 833 238 59 49 42 
495 834 237 61 50 41 
495 835 237 63 52 42 
494 834 238 55 46 39 
494 835 238 55 45 37 
495 834 238 59 48 41 
495 835 238 60 50 39 
493 836 238 50 42 37 
493 837 238 52 44 39 
495 836 237 65 54 44 
494 836 238 57 47 39 
494 837 238 60 49 41 
495 836 238 64 53 43 
495 837 238 68 57 47 
494 838 238 60 49 41 
495 838 238 68 55 45 
495 839 238 69 58 46 
495 839 239 68 57 48 
495 840 239 69 58 47 
496 832 224 122 92 69 
496 832 225 80 67 56 
496 833 224 120 87 61 
496 833 225 93 77 61 
497 832 226 84 72 60 
497 832 227 82 71 61 
497 833 226 87 75 62 
497 833 227 82 72 63 
496 834 224 119 88 67 
496 834 225 86 73 61 
496 835 224 114 87 68 
496 835 225 92 78 64 
497 834 225 92 78 65 
497 835 225 92 76 62 
497 834 226 88 76 64 
497 834 227 81 72 64 
497 835 226 74 63 56 
497 835 227 75 65 59 
497 832 228 82 72 63 
497 832 229 81 71 63 
497 833 228 77 69 61 
497 833 229 80 71 63 
497 832 230 79 70 63 
497 832 231 76 68 60 
497 833 230 77 69 62 
497 833 231 76 68 60 
497 834 228 76 68 61 
497 834 229 76 68 61 
497 835 228 74 67 60 
497 835 229 74 67 62 
497 834 230 78 70 63 
497 834 231 78 69 61 
497 835 230 75 68 63 
497 835 231 77 69 63 
496 836 224 111 84 61 
496 837 224 89 71 61 
497 836 224 83 69 57 
497 836 225 85 70 58 
497 837 224 88 73 60 
497 837 225 87 74 60 
497 836 226 72 61 55 
497 836 227 75 64 59 
497 838 224 82 68 58 
497 839 224 99 79 51 
498 837 225 85 72 59 
498 836 226 71 59 54 
498 836 227 75 67 60 
498 837 226 76 64 59 
498 837 227 78 69 63 
498 838 224 83 68 59 
498 838 225 80 67 58 
498 839 224 84 68 53 
498 839 225 70 60 58 
498 838 226 69 58 54 
498 838 227 65 57 58 
498 839 226 63 52 53 
499 839 226 62 52 55 
499 839 227 69 60 58 
497 836 230 75 69 64 
497 836 231 72 65 61 
498 836 228 76 69 63 
498 836 229 75 68 63 
498 837 228 69 61 61 
498 837 229 71 64 63 
498 836 230 73 66 64 
498 836 231 68 62 60 
498 837 230 70 64 61 
498 837 231 69 62 58 
498 838 228 70 62 62 
498 838 229 71 63 60 
498 839 228 76 68 61 
498 839 229 77 69 61 
499 839 228 78 69 62 
499 839 229 78 69 60 
498 838 230 74 67 61 
498 838 231 76 66 59 
498 839 230 78 70 63 
498 839 231 77 70 63 
497 832 232 72 63 55 
497 832 233 69 59 51 
497 833 232 75 66 57 
497 833 233 73 63 52 
497 832 234 66 57 48 
497 832 235 61 52 44 
497 833 234 69 60 51 
497 833 235 62 54 48 
497 834 232 76 66 57 
497 834 233 75 65 53 
497 835 232 74 65 56 
497 835 233 75 63 52 
497 834 234 72 61 51 
497 834 235 65 57 52 
497 835 234 73 62 49 
497 835 235 69 60 50 
496 832 237 61 51 40 
496 833 237 62 51 41 
497 832 236 61 51 42 
497 832 237 62 52 42 
497 833 236 61 51 42 
497 833 237 62 51 41 
496 832 238 60 50 42 
496 833 238 61 50 42 
496 834 237 64 53 43 
496 835 237 67 55 43 
497 834 236 63 55 46 
497 835 236 68 57 45 
497 836 232 72 65 58 
497 836 233 74 64 54 
497 837 232 72 63 55 
497 837 233 77 66 56 
497 836 234 75 64 53 
497 836 235 70 61 52 
497 837 234 75 66 57 
497 837 235 74 64 56 
497 838 235 77 67 58 
498 837 232 75 63 52 
498 837 233 77 66 56 
498 838 232 75 64 55 
498 838 233 76 66 56 
498 839 232 77 69 63 
498 839 233 76 68 62 
498 838 234 74 66 58 
498 838 235 77 67 59 
498 839 234 75 66 59 
498 839 235 75 66 58 
496 836 237 69 57 45 
496 837 237 71 59 46 
497 836 236 69 58 47 
497 836 237 71 59 46 
497 837 236 72 61 51 
497 837 237 71 59 46 
496 837 238 71 59 49 
496 838 237 74 61 47 
496 839 237 75 62 48 
497 838 236 74 64 54 
497 838 237 74 62 50 
497 839 236 76 65 55 
497 839 237 76 64 52 
496 838 238 72 59 45 
496 839 238 74 61 47 
498 839 236 77 66 57 
497 840 224 87 70 57 
497 841 224 84 69 59 
497 842 224 85 71 60 
497 843 224 79 65 56 
498 840 224 81 67 59 
498 840 225 70 61 60 
498 841 224 78 66 56 
498 841 225 66 57 53 
499 840 225 71 61 56 
499 841 225 67 57 53 
499 840 226 68 57 53 
499 840 227 75 64 56 
499 841 226 76 64 55 
499 841 227 82 70 59 
498 842 224 72 62 54 
498 842 225 85 72 59 
498 843 225 81 70 60 
499 842 225 84 71 58 
498 843 226 66 56 52 
499 842 226 85 73 61 
499 842 227 82 70 61 
499 843 226 77 68 62 
499 843 227 79 70 62 
499 840 228 81 70 60 
499 840 229 80 69 59 
499 841 228 85 72 60 
499 841 229 84 72 59 
498 840 231 77 68 60 
499 840 230 78 68 59 
499 840 231 78 69 59 
499 841 230 82 70 59 
499 841 231 80 68 58 
499 842 228 78 65 56 
499 842 229 86 72 58 
499 843 228 81 70 62 
499 843 229 90 78 66 
499 842 230 85 73 61 
499 842 231 75 63 53 
498 844 225 77 66 66 
498 844 226 73 63 60 
498 845 226 65 55 58 
498 845 227 57 49 53 
499 844 226 74 65 60 
499 844 227 74 66 60 
499 845 227 66 59 58 
499 846 227 69 60 58 
499 844 228 81 70 62 
499 845 228 81 71 63 
499 846 228 70 60 55 
499 846 229 86 74 63 
499 847 228 66 57 53 
499 847 229 85 73 63 
499 847 230 89 76 62 
500 843 229 89 77 66 
500 842 230 89 78 68 
500 842 231 84 73 63 
500 843 230 89 76 64 
500 843 231 88 75 61 
502 847 224 74 63 53 
502 847 225 77 66 55 
500 844 228 85 74 64 
500 844 229 89 77 66 
500 845 229 87 76 66 
501 845 228 82 68 58 
500 844 230 91 79 67 
500 844 231 89 76 63 
500 845 230 89 78 67 
500 845 231 91 79 69 
500 846 229 87 75 65 
501 846 228 83 71 61 
500 846 230 90 78 66 
500 846 231 91 77 66 
500 847 230 90 76 63 
500 847 231 90 76 63 
502 847 228 81 68 57 
498 840 232 77 69 61 
498 840 233 77 68 60 
499 840 232 77 65 55 
499 840 233 78 65 55 
499 841 232 78 65 55 
499 841 233 79 65 55 
498 840 234 76 67 58 
498 840 235 76 67 60 
498 841 234 76 66 56 
498 841 235 79 70 61 
499 841 234 80 68 57 
499 842 232 77 65 55 
499 842 233 79 67 56 
498 842 235 90 79 70 
499 842 234 84 72 59 
499 842 235 87 76 65 
499 843 234 86 76 66 
499 843 235 87 76 67 
497 840 236 78 67 57 
497 840 237 80 68 57 
497 841 237 81 69 58 
496 840 238 75 61 46 
496 840 239 74 60 44 
496 841 238 79 66 51 
496 841 239 75 61 47 
497 840 238 78 65 51 
497 841 238 81 68 56 
496 842 238 80 67 53 
496 842 239 77 63 49 
497 842 238 82 70 57 
497 843 238 83 70 57 
498 840 236 79 68 59 
498 841 236 80 70 60 
498 841 237 81 70 59 
498 842 236 83 73 63 
498 842 237 83 72 61 
498 843 236 87 76 66 
498 843 237 85 73 62 
499 843 236 90 79 69 
498 843 238 84 72 60 
499 844 234 85 73 61 
499 844 235 86 74 62 
499 845 235 87 74 61 
499 847 233 86 73 61 
499 846 234 95 80 65 
499 846 235 92 77 62 
499 847 234 89 76 62 
499 847 235 92 77 62 
498 844 237 86 74 64 
498 845 237 85 72 59 
499 844 236 88 76 65 
499 844 237 86 74 64 
499 845 236 85 73 61 
499 845 237 85 73 61 
498 844 238 86 74 63 
498 845 238 86 73 61 
499 846 236 89 75 61 
499 846 237 88 74 60 
499 847 236 95 79 62 
500 842 232 78 66 56 
500 843 232 86 75 65 
500 843 233 88 78 69 
500 843 234 87 77 68 
500 844 232 88 75 61 
500 844 233 88 74 60 
500 845 232 99 83 67 
500 845 233 95 78 61 
500 844 234 86 73 59 
500 845 234 89 74 57 
500 846 232 97 81 64 
500 846 233 99 82 64 
500 847 232 91 78 65 
500 847 233 91 78 65 
500 846 234 97 81 65 
500 847 234 92 79 67 
504 847 225 81 72 66 
502 848 225 76 65 56 
503 849 224 78 65 51 
502 848 227 79 67 56 
502 849 226 84 69 55 
501 848 229 82 72 63 
471 734 199 85 63 47 
471 735 199 85 62 46 
471 734 200 86 64 48 
471 735 200 85 62 45 
471 735 201 84 62 44 
471 735 207 72 54 40 
474 727 202 88 65 50 
474 727 203 89 66 51 
474 727 204 87 65 51 
474 727 205 81 62 48 
474 727 206 73 55 41 
474 727 207 72 54 43 
472 732 199 82 61 49 
472 733 199 83 62 47 
473 729 200 85 63 52 
473 729 201 85 63 51 
473 729 202 87 66 50 
473 729 203 86 64 48 
473 730 200 85 62 51 
473 730 201 86 64 51 
473 731 200 84 60 49 
473 731 201 85 63 49 
473 730 202 86 65 50 
473 731 202 87 66 52 
474 728 203 86 64 47 
474 729 203 86 64 49 
474 730 202 86 65 50 
474 730 203 87 65 50 
474 731 202 86 65 49 
474 731 203 87 66 52 
473 729 206 73 57 41 
473 729 207 73 57 43 
473 730 205 75 58 42 
473 731 204 77 59 46 
473 731 205 77 59 46 
473 730 206 72 55 39 
473 730 207 72 55 41 
473 731 206 73 56 43 
473 731 207 72 55 42 
474 728 204 85 64 50 
474 728 205 81 62 49 
474 729 204 83 64 50 
474 729 205 77 60 45 
474 728 206 75 59 45 
474 730 204 82 63 49 
474 730 205 76 59 44 
474 731 204 80 61 46 
474 731 205 76 59 45 
472 732 200 84 63 52 
472 733 200 86 65 51 
472 733 201 85 64 50 
473 732 200 83 61 50 
473 732 201 83 63 49 
473 733 201 83 62 46 
473 732 202 86 66 52 
473 732 203 87 67 54 
473 733 202 85 65 50 
473 733 203 87 66 53 
472 734 200 86 64 49 
472 734 201 84 64 49 
472 735 201 84 64 48 
472 734 202 84 63 49 
472 734 203 85 64 50 
472 735 202 83 63 47 
472 735 203 84 64 50 
473 734 202 85 65 49 
473 734 203 85 65 52 
473 732 204 82 63 51 
473 732 205 79 60 47 
473 733 204 82 62 50 
473 733 205 79 60 48 
472 733 206 75 57 46 
472 733 207 72 56 44 
473 732 206 75 57 45 
473 732 207 74 57 44 
473 733 206 75 57 46 
472 734 204 82 61 48 
472 734 205 78 58 48 
472 735 204 81 61 49 
472 735 205 78 57 47 
473 734 204 82 61 49 
473 734 205 80 60 49 
472 734 206 75 56 46 
472 734 207 73 55 44 
472 735 206 75 55 45 
472 735 207 72 53 41 
474 732 204 83 63 51 
471 734 208 70 53 40 
471 734 209 72 55 42 
471 735 208 70 53 38 
471 735 209 69 52 36 
471 734 210 78 63 50 
471 734 211 80 65 51 
471 735 210 75 59 41 
471 735 211 79 63 48 
473 729 208 75 58 44 
473 729 209 77 60 44 
473 729 210 77 61 44 
473 730 208 72 56 42 
473 730 209 72 56 42 
473 731 208 72 55 42 
473 731 209 72 56 42 
473 730 210 74 58 42 
472 732 208 73 57 43 
472 732 209 72 54 41 
472 733 208 74 57 44 
472 733 209 73 56 42 
473 732 208 72 55 42 
472 732 210 75 57 45 
472 733 210 74 57 43 
472 734 208 71 54 41 
463 754 209 77 60 47 
463 754 210 77 61 49 
463 754 211 77 60 48 
463 755 210 75 59 47 
463 755 211 78 61 49 
463 755 212 78 60 47 
463 755 213 78 61 46 
463 754 214 81 65 48 
463 754 215 79 63 48 
463 755 214 78 62 46 
463 755 215 76 60 46 
469 739 198 86 63 50 
469 739 199 84 62 49 
470 737 198 88 66 49 
470 737 199 87 65 49 
470 738 199 84 62 49 
469 739 200 85 62 49 
469 739 201 85 63 49 
469 739 202 80 59 47 
470 737 200 86 66 51 
470 737 201 82 61 47 
471 736 200 86 65 48 
471 736 201 83 62 46 
471 737 200 86 65 50 
471 737 201 83 62 47 
471 736 202 80 59 45 
471 737 202 79 59 47 
471 737 203 79 61 48 
470 738 200 85 63 49 
470 738 201 80 60 46 
470 739 201 85 64 49 
470 738 202 76 56 45 
470 738 203 75 56 46 
470 739 202 76 55 46 
470 739 203 74 55 46 
471 738 202 76 57 46 
471 738 203 75 57 46 
471 736 204 80 60 48 
471 736 205 79 58 48 
471 737 204 79 60 47 
471 737 205 77 56 45 
471 736 206 75 56 46 
471 736 207 70 53 40 
471 737 206 74 54 44 
471 737 207 73 55 43 
470 739 204 76 58 47 
470 739 205 76 58 45 
471 738 204 77 58 46 
471 738 205 75 56 43 
471 739 205 76 57 45 
470 738 207 71 52 41 
470 739 206 71 53 41 
470 739 207 70 51 40 
471 738 206 71 53 41 
471 738 207 72 53 41 
469 740 200 85 64 50 
469 740 201 84 63 50 
469 740 202 81 59 48 
469 740 203 75 56 45 
469 741 202 81 61 50 
469 741 203 79 60 48 
468 742 203 79 59 48 
470 740 203 75 56 45 
469 740 204 77 58 45 
469 741 204 79 61 46 
469 741 205 77 59 44 
469 741 206 72 53 42 
469 741 207 71 52 42 
468 742 204 79 59 47 
468 742 205 77 58 46 
468 743 204 78 58 46 
468 743 205 76 56 44 
469 742 204 80 61 48 
469 742 205 78 59 47 
468 743 206 75 53 41 
468 743 207 73 52 40 
469 742 206 74 55 43 
469 742 207 72 53 41 
469 743 207 73 52 40 
470 740 204 77 59 47 
470 740 205 77 58 44 
470 740 206 73 54 43 
470 740 207 70 51 41 
467 744 204 75 55 43 
467 744 205 73 52 41 
467 745 204 72 53 41 
467 745 205 71 51 39 
467 744 206 72 50 41 
467 745 206 73 52 42 
467 745 207 73 54 43 
466 747 206 74 56 48 
466 747 207 74 58 46 
467 746 207 74 56 44 
468 744 205 75 53 43 
468 744 206 73 52 42 
468 744 207 73 52 40 
472 736 202 80 59 44 
472 736 203 81 61 45 
472 736 204 80 60 48 
472 736 205 78 58 47 
472 736 206 75 55 45 
469 739 210 73 53 42 
469 739 211 72 54 40 
470 737 208 75 56 42 
470 737 209 75 57 42 
471 736 208 70 54 38 
471 736 209 71 54 37 
471 737 208 73 56 41 
470 737 210 77 59 42 
470 737 211 76 59 43 
471 736 210 72 56 38 
470 738 208 73 53 43 
470 738 209 74 54 42 
470 739 208 71 50 40 
470 739 209 72 52 40 
470 738 210 76 56 41 
469 739 212 72 55 42 
469 740 209 72 52 41 
469 741 208 68 48 39 
469 741 209 70 52 42 
469 740 210 73 55 42 
469 740 211 70 55 42 
469 741 210 71 57 45 
469 741 211 69 56 45 
468 743 208 70 50 38 
468 743 209 72 53 42 
469 742 208 69 49 38 
469 742 209 69 51 41 
469 743 208 69 49 37 
469 743 209 71 54 43 
468 743 210 74 57 43 
468 743 211 71 54 42 
469 742 210 70 55 45 
469 742 211 69 55 43 
469 743 210 69 53 40 
469 743 211 69 53 41 
470 740 208 70 49 40 
470 740 209 71 51 41 
469 740 212 70 55 40 
469 741 212 72 58 44 
468 742 212 72 56 44 
468 742 213 73 53 45 
468 743 212 72 55 43 
468 743 213 73 54 43 
467 745 208 74 55 43 
467 745 209 76 55 42 
467 745 210 72 54 42 
467 745 211 73 55 43 
466 747 208 76 61 49 
466 747 209 76 59 46 
467 746 208 77 59 46 
467 746 209 76 58 44 
467 747 209 75 57 44 
466 747 210 76 56 45 
466 747 211 74 55 44 
467 746 210 73 55 42 
467 746 211 72 55 41 
467 747 210 74 56 43 
467 747 211 73 56 42 
467 744 212 74 57 45 
467 744 213 74 56 44 
467 745 212 74 57 45 
467 745 213 74 57 43 
467 744 214 76 57 45 
467 744 215 76 58 45 
467 745 214 77 59 45 
467 745 215 77 59 47 
466 747 212 74 57 44 
467 746 212 74 58 44 
467 746 213 75 59 44 
467 747 212 76 58 44 
467 747 213 78 62 46 
466 747 214 82 64 48 
466 747 215 84 65 50 
467 746 214 79 61 45 
467 747 214 79 62 45 
465 749 209 79 60 48 
465 749 210 76 58 46 
465 749 211 72 56 44 
465 750 209 77 56 46 
465 750 210 74 56 43 
465 750 211 73 56 45 
465 751 211 73 56 45 
466 748 210 76 57 46 
466 748 211 74 56 46 
466 749 211 75 58 47 
465 749 212 73 56 44 
465 749 213 78 59 48 
465 749 214 86 66 51 
465 749 215 85 65 49 
465 750 212 75 58 44 
465 750 213 81 63 49 
465 751 212 76 58 45 
465 751 213 82 64 50 
465 750 214 83 63 49 
465 750 215 84 63 46 
465 751 214 81 61 46 
466 748 212 76 59 46 
466 748 213 79 62 47 
466 749 212 77 59 47 
466 749 213 81 63 50 
466 748 214 84 66 51 
466 748 215 84 64 50 
466 749 214 86 68 53 
468 744 208 72 52 40 
468 744 209 74 56 44 
468 745 208 75 54 42 
468 745 209 76 57 44 
468 744 210 73 55 43 
468 744 211 72 53 42 
468 745 210 74 56 43 
468 745 211 74 56 43 
468 744 212 74 56 44 
466 747 216 85 65 51 
466 747 217 84 65 51 
465 749 216 87 66 48 
465 749 217 87 66 47 
465 750 216 87 66 46 
466 748 216 86 66 51 
466 748 217 89 68 53 
464 752 209 76 56 45 
464 752 210 74 57 45 
464 752 211 75 57 45 
464 753 210 77 60 48 
464 753 211 77 59 48 
464 754 211 79 61 49 
464 752 212 80 61 47 
464 752 213 87 68 53 
464 753 212 81 62 49 
464 753 213 85 66 51 
465 752 212 80 61 48 
