ply
format ascii 1.0
comment Created by CloudCompare v2.10.1 (Zephyrus)
comment Created 1/30/20 11:43 AM
obj_info Generated by CloudCompare!
element vertex 2168
property float x
property float y
property float z
property uchar red
property uchar green
property uchar blue
end_header
370 923 300 46 44 44 
370 923 301 48 45 45 
371 922 300 45 42 43 
371 923 300 47 44 45 
371 923 301 49 47 46 
368 924 301 48 45 44 
368 925 301 48 44 44 
369 924 301 47 44 44 
368 925 302 47 43 43 
369 925 302 46 43 43 
368 926 302 44 41 40 
368 927 303 43 40 40 
369 926 302 45 41 41 
369 927 303 41 38 39 
370 924 301 48 45 45 
371 924 301 50 47 46 
370 925 302 47 44 43 
371 924 302 51 48 46 
371 925 302 48 44 43 
370 926 302 45 42 41 
370 926 303 43 40 40 
370 927 303 42 39 39 
371 926 302 44 41 40 
371 926 303 42 39 38 
371 927 303 43 41 41 
372 920 296 35 34 35 
372 921 297 35 34 35 
373 920 296 35 34 34 
373 921 297 36 35 36 
372 921 298 38 36 38 
372 921 299 39 36 38 
373 921 298 37 36 37 
373 921 299 39 36 38 
372 922 299 41 38 40 
373 922 299 39 37 38 
374 920 296 34 33 33 
374 921 297 37 36 36 
375 920 296 33 32 33 
375 921 297 36 35 35 
374 921 298 38 36 37 
374 921 299 38 37 37 
375 921 298 37 36 36 
375 921 299 38 36 37 
374 922 299 40 38 39 
375 922 299 39 38 38 
372 922 300 43 40 41 
372 923 300 47 44 44 
372 923 301 50 47 46 
373 922 300 42 39 40 
373 923 300 44 41 41 
373 923 301 49 46 45 
374 922 300 42 39 40 
374 923 300 43 41 40 
374 923 301 48 45 44 
375 922 300 42 40 40 
375 923 301 47 44 43 
372 924 301 51 47 45 
373 924 301 49 46 44 
372 924 302 51 47 46 
372 925 302 47 43 42 
373 924 302 50 46 45 
373 925 302 47 43 42 
372 926 302 43 39 38 
372 926 303 42 39 39 
372 927 303 46 43 44 
373 926 302 43 39 39 
373 926 303 42 40 39 
373 927 303 48 45 46 
374 924 301 49 46 45 
375 924 301 49 46 45 
374 924 302 49 45 44 
374 925 302 46 42 40 
375 924 302 48 45 44 
375 925 302 46 42 41 
374 926 302 44 40 39 
374 926 303 45 42 42 
374 927 303 50 47 47 
375 926 302 44 40 39 
375 926 303 47 44 43 
375 927 303 51 49 49 
376 912 289 37 35 36 
376 913 289 37 36 36 
377 912 289 37 35 36 
376 913 290 38 36 36 
377 912 290 38 36 37 
377 913 290 38 36 37 
376 914 290 37 35 35 
376 915 290 37 34 35 
376 915 291 36 34 34 
377 914 290 38 35 35 
377 914 291 37 35 35 
377 915 291 37 34 34 
378 912 290 39 37 38 
378 913 290 39 37 37 
378 913 291 38 36 37 
379 912 290 40 37 37 
379 912 291 40 37 36 
379 913 291 39 36 36 
378 914 291 38 35 35 
378 915 291 37 35 34 
379 914 291 38 35 35 
379 913 292 38 35 35 
378 915 292 36 34 34 
379 914 292 38 35 35 
379 915 292 37 35 35 
376 916 291 36 34 35 
377 916 291 36 34 35 
376 917 292 38 36 37 
377 916 292 37 35 35 
377 917 292 38 36 36 
376 918 292 39 37 37 
376 918 293 39 36 36 
376 919 293 38 37 37 
377 918 292 39 37 37 
377 918 293 39 37 37 
377 919 293 39 37 37 
376 919 294 36 35 36 
377 919 294 38 36 36 
378 916 292 36 34 34 
378 917 292 38 36 36 
378 917 293 40 37 37 
379 916 292 37 34 35 
379 916 293 37 35 36 
379 917 293 39 37 37 
378 918 293 40 37 37 
379 918 293 41 38 39 
378 919 294 39 37 36 
378 919 295 38 35 35 
379 918 294 41 38 38 
379 919 294 40 37 37 
379 919 295 39 36 36 
380 912 291 40 37 36 
380 913 291 39 36 36 
380 912 292 40 37 37 
380 913 292 39 36 36 
381 912 292 40 37 37 
381 913 292 40 37 37 
380 914 292 38 35 36 
380 915 292 37 35 35 
380 915 293 38 35 36 
381 914 292 39 36 36 
381 914 293 38 35 36 
381 915 293 39 36 37 
382 912 292 40 37 36 
382 912 293 41 38 38 
382 913 292 41 38 37 
382 913 293 40 38 37 
383 912 293 42 39 38 
383 913 293 41 38 37 
382 914 293 39 37 37 
382 915 293 39 36 37 
383 914 293 40 37 37 
383 915 293 40 37 37 
383 915 294 41 37 37 
380 916 292 38 35 36 
380 916 293 37 35 35 
380 917 293 39 37 37 
381 916 293 38 35 36 
381 917 293 39 36 37 
381 917 294 39 37 38 
380 918 294 41 38 38 
380 919 294 40 38 37 
380 919 295 39 36 37 
381 918 294 40 38 38 
381 918 295 40 38 38 
381 919 295 40 37 37 
382 916 293 39 36 36 
383 916 293 40 37 37 
382 916 294 38 36 36 
382 917 294 39 37 37 
383 916 294 40 37 36 
383 917 294 39 37 36 
383 917 295 40 37 37 
382 918 294 40 38 38 
382 918 295 40 38 37 
382 919 295 41 38 38 
383 918 295 40 38 38 
383 919 295 41 38 38 
381 919 296 38 35 36 
382 919 296 40 36 38 
383 919 296 40 36 37 
376 920 295 32 31 32 
377 920 295 34 32 32 
378 920 295 35 33 33 
379 920 295 37 33 33 
380 920 295 38 35 35 
376 920 296 33 32 32 
376 921 297 36 34 35 
377 920 296 32 31 31 
377 921 297 35 33 34 
376 921 298 36 34 35 
377 921 298 36 34 35 
376 922 299 38 37 37 
377 922 299 37 36 37 
378 920 296 32 30 31 
378 921 297 34 32 33 
379 920 296 33 30 31 
379 921 297 34 32 34 
378 921 298 35 33 34 
379 921 298 34 32 33 
378 922 299 37 35 36 
379 922 299 38 35 35 
376 922 300 42 40 40 
376 923 300 44 42 42 
376 923 301 46 43 43 
377 922 300 40 39 39 
377 923 300 43 41 41 
377 923 301 45 43 42 
378 923 300 42 40 39 
378 923 301 44 41 41 
379 923 300 42 40 39 
376 924 301 47 45 44 
377 924 301 47 44 44 
376 924 302 48 45 44 
376 925 302 45 42 41 
377 925 302 45 42 42 
376 926 302 45 41 42 
376 926 303 47 44 44 
376 927 303 51 49 49 
377 926 302 46 42 43 
377 926 303 48 45 45 
377 927 302 49 46 46 
377 927 303 51 48 48 
378 924 301 48 44 44 
378 925 301 45 42 42 
379 924 301 47 44 43 
379 925 301 46 42 41 
378 925 302 45 42 41 
379 925 302 44 40 40 
378 926 302 48 44 43 
378 927 303 51 48 47 
379 926 302 46 43 42 
379 927 302 49 46 44 
379 927 303 53 50 49 
380 920 296 33 31 32 
380 921 297 33 32 33 
381 920 296 33 31 32 
381 921 297 34 31 33 
380 921 298 35 33 33 
381 921 298 34 32 32 
380 922 298 36 33 33 
380 922 299 38 36 35 
380 923 299 41 38 37 
381 922 298 36 34 33 
381 922 299 40 37 36 
381 923 299 42 39 38 
382 920 296 35 31 33 
382 921 297 34 31 32 
383 920 296 35 31 34 
383 921 297 34 31 32 
382 921 298 35 33 33 
383 921 298 37 34 34 
382 922 298 38 35 35 
382 922 299 42 39 38 
382 923 299 44 40 40 
383 922 298 41 39 38 
383 922 299 44 41 40 
383 923 299 43 40 39 
380 923 300 42 39 38 
381 923 300 43 39 38 
382 923 300 43 40 39 
383 923 300 44 40 39 
380 924 300 46 43 42 
380 924 301 47 44 43 
380 925 301 46 42 41 
381 924 300 44 40 39 
381 924 301 46 42 41 
381 925 301 46 41 40 
380 926 301 46 42 42 
381 926 301 45 41 40 
380 926 302 45 42 41 
380 927 302 48 44 43 
381 926 302 46 42 41 
381 927 302 46 42 40 
382 924 300 44 40 39 
382 925 301 46 41 40 
383 924 300 45 40 39 
383 925 300 47 41 40 
383 925 301 46 41 40 
382 926 301 45 40 39 
383 926 301 43 38 37 
383 927 301 42 39 39 
382 927 302 44 39 36 
383 927 302 43 39 38 
360 959 271 82 76 74 
361 959 270 72 65 62 
361 959 271 75 68 66 
362 959 269 66 58 53 
363 959 268 67 59 56 
363 959 269 68 60 56 
362 958 271 72 66 63 
362 959 270 71 63 60 
362 959 271 70 63 59 
363 958 270 70 63 58 
363 958 271 68 60 56 
363 959 270 70 62 58 
365 959 267 67 60 57 
366 959 267 65 59 56 
367 958 267 63 56 52 
367 959 266 64 56 52 
367 959 267 63 56 53 
364 957 271 69 61 57 
365 957 270 66 59 55 
365 957 271 68 60 57 
364 958 269 66 58 54 
364 959 268 67 60 57 
364 959 269 66 59 56 
365 958 268 62 54 51 
365 958 269 64 57 53 
365 959 268 66 59 56 
364 958 270 69 61 57 
364 958 271 69 61 56 
365 958 270 64 56 53 
367 957 269 63 54 51 
366 956 271 67 59 55 
366 957 270 63 55 52 
366 957 271 66 58 55 
367 956 271 63 55 51 
367 957 270 63 55 51 
367 957 271 64 56 52 
366 958 268 64 57 54 
366 958 269 63 56 52 
366 959 268 66 59 56 
367 958 268 64 57 53 
367 958 269 64 57 53 
367 959 268 65 58 55 
357 951 287 65 59 58 
358 951 287 67 61 60 
359 951 287 65 58 56 
352 959 278 79 73 70 
352 959 279 80 74 71 
353 959 278 77 71 69 
353 959 279 76 70 68 
354 959 277 77 71 69 
355 959 276 76 70 67 
355 959 277 77 71 69 
354 958 279 72 67 65 
354 959 278 77 71 69 
354 959 279 72 67 65 
355 958 278 77 72 70 
355 958 279 74 69 68 
355 959 278 77 72 70 
357 959 273 71 64 63 
356 959 275 76 70 68 
357 959 274 72 66 64 
357 959 275 73 67 65 
358 959 273 69 63 62 
359 959 272 75 70 69 
359 959 273 69 64 64 
358 958 275 73 68 66 
358 959 274 70 64 62 
358 959 275 72 66 64 
359 958 275 71 65 63 
359 959 274 69 64 62 
356 957 279 74 69 67 
357 957 279 73 68 67 
356 958 277 77 71 70 
356 959 276 74 68 65 
356 959 277 75 69 67 
357 958 276 72 66 65 
357 958 277 70 65 64 
357 959 276 72 67 65 
356 958 278 75 71 69 
356 958 279 74 69 68 
357 958 278 76 72 71 
357 958 279 74 70 68 
359 957 277 69 64 63 
358 956 279 76 71 69 
358 957 278 70 66 65 
358 957 279 74 69 68 
359 956 279 70 66 66 
359 957 278 69 65 64 
359 957 279 71 67 67 
358 958 276 73 68 66 
358 958 277 70 65 64 
359 958 276 73 68 66 
359 958 277 69 64 63 
358 958 278 69 65 64 
352 952 287 78 72 71 
352 953 286 76 69 67 
352 953 287 77 71 68 
353 952 287 74 68 67 
353 953 286 76 70 67 
353 953 287 76 70 67 
352 954 285 76 71 68 
352 955 284 84 78 75 
352 955 285 79 74 71 
353 954 285 79 73 71 
353 955 284 82 75 72 
353 955 285 81 75 72 
352 954 286 75 69 65 
354 952 287 74 68 67 
354 953 286 75 69 67 
354 953 287 74 68 66 
355 952 287 71 65 63 
355 953 286 71 65 62 
355 953 287 69 64 61 
354 954 285 77 71 68 
354 955 284 78 71 68 
354 955 285 78 71 68 
355 954 285 73 67 64 
355 955 284 74 66 64 
355 955 285 76 69 66 
353 956 283 82 75 72 
353 957 283 81 75 72 
352 959 280 80 74 71 
352 959 281 85 78 76 
353 959 280 74 69 66 
353 959 281 79 73 70 
352 958 283 87 80 77 
352 959 282 84 78 76 
352 959 283 86 80 77 
353 958 282 77 71 70 
353 958 283 82 76 73 
353 959 282 82 76 73 
355 957 281 68 62 59 
354 957 282 73 66 66 
354 957 283 76 69 67 
355 956 283 68 61 58 
355 957 282 69 63 62 
355 957 283 71 64 62 
354 958 280 71 65 63 
354 958 281 70 64 63 
354 959 280 71 66 63 
354 959 281 71 65 63 
355 958 280 70 65 63 
355 958 281 69 63 60 
354 958 282 76 70 69 
354 958 283 78 71 70 
352 956 284 84 78 75 
352 957 284 86 79 76 
353 956 284 82 75 72 
353 957 284 84 77 74 
352 958 284 87 80 77 
354 956 284 78 70 67 
355 956 284 73 65 62 
359 955 280 71 66 65 
359 955 281 67 63 62 
358 955 282 63 58 56 
358 955 283 64 58 55 
359 954 283 64 57 56 
359 955 282 61 56 55 
359 955 283 64 58 56 
356 952 287 69 62 62 
356 953 286 70 63 61 
357 952 287 68 62 60 
357 953 286 72 65 62 
356 954 285 74 67 64 
356 955 284 71 62 59 
356 955 285 73 65 61 
357 954 285 72 64 60 
357 955 284 66 59 54 
357 955 285 71 62 59 
357 954 286 75 67 64 
359 953 285 74 65 61 
358 952 286 70 64 60 
358 952 287 65 59 57 
358 953 286 74 67 63 
359 952 286 72 65 60 
359 952 287 68 62 58 
359 953 286 74 66 62 
358 954 285 72 63 59 
358 955 284 66 59 55 
359 954 284 67 59 57 
359 954 285 71 62 58 
359 955 284 66 59 56 
358 954 286 73 65 62 
356 957 280 71 66 64 
356 957 281 67 62 59 
357 956 281 65 59 56 
357 957 280 72 67 65 
357 957 281 68 62 60 
356 956 282 69 63 61 
356 956 283 65 58 55 
356 957 282 68 62 60 
357 956 282 66 61 58 
357 956 283 66 60 57 
357 957 282 66 60 57 
356 958 280 73 67 65 
358 956 280 72 67 65 
358 956 281 65 60 57 
359 956 280 71 67 65 
359 956 281 68 63 63 
358 956 282 64 58 56 
358 956 283 65 59 56 
356 956 284 64 56 52 
360 951 287 66 60 56 
367 951 287 58 52 52 
360 955 279 69 64 63 
361 955 279 67 63 62 
362 955 278 64 60 60 
362 955 279 63 60 60 
363 954 279 61 57 57 
363 955 278 65 62 62 
363 955 279 63 59 59 
361 957 275 65 62 62 
360 958 273 65 61 61 
360 959 272 77 72 72 
360 959 273 66 63 63 
361 958 272 76 72 71 
361 958 273 67 63 63 
361 959 272 78 72 71 
361 959 273 67 64 64 
360 958 274 64 60 60 
360 958 275 69 64 63 
360 959 274 66 62 62 
361 958 274 60 57 57 
361 958 275 61 58 58 
363 957 272 71 65 62 
363 957 273 69 64 63 
362 957 274 60 57 57 
362 957 275 61 57 57 
363 956 275 58 53 53 
363 957 274 62 58 57 
363 957 275 59 55 55 
362 958 272 75 70 69 
362 958 273 68 64 63 
363 958 272 72 66 63 
362 958 274 63 59 59 
360 957 276 71 66 64 
360 957 277 69 65 64 
361 956 277 68 64 63 
361 957 276 68 64 64 
361 957 277 69 65 64 
360 956 278 67 63 63 
360 956 279 69 65 65 
360 957 278 65 62 62 
361 956 278 66 61 61 
361 956 279 67 63 62 
360 958 276 71 66 64 
362 956 276 64 61 61 
362 956 277 67 63 63 
362 957 276 64 61 62 
363 956 276 64 60 60 
363 956 277 66 61 61 
362 956 278 66 62 62 
363 956 278 67 63 64 
365 955 275 62 55 54 
367 955 273 66 58 55 
366 955 274 67 61 58 
366 955 275 65 59 57 
367 954 275 63 57 54 
367 955 274 66 59 55 
367 955 275 65 58 55 
364 955 276 62 57 56 
364 955 277 66 61 61 
365 955 276 61 55 52 
365 955 277 67 61 60 
364 954 278 62 57 57 
364 954 279 64 60 61 
364 955 278 66 61 61 
364 955 279 64 60 61 
365 954 278 69 64 62 
365 954 279 64 60 58 
365 955 278 69 64 63 
366 953 279 64 58 57 
367 953 278 67 62 60 
367 953 279 68 63 62 
366 954 276 64 58 55 
366 954 277 65 59 57 
366 955 276 63 57 55 
367 954 276 62 55 53 
367 954 277 64 58 55 
366 954 278 67 61 59 
366 954 279 65 61 59 
367 954 278 65 59 58 
364 956 273 69 62 59 
364 957 272 70 62 58 
364 957 273 68 62 59 
365 956 272 68 61 58 
365 956 273 70 63 60 
365 957 272 69 61 58 
364 956 274 64 58 57 
364 956 275 60 54 54 
364 957 274 64 58 57 
365 956 274 66 60 59 
365 956 275 63 57 55 
366 956 272 67 59 56 
366 956 273 68 60 57 
367 956 272 63 55 51 
367 956 273 65 57 53 
366 956 274 69 62 59 
364 956 276 60 55 54 
364 956 277 66 61 61 
360 955 280 66 61 60 
360 955 281 67 62 60 
361 954 280 64 59 58 
361 954 281 67 59 59 
361 955 280 65 61 60 
360 954 282 65 59 57 
360 954 283 61 54 53 
360 955 282 66 61 59 
361 954 282 68 61 59 
361 954 283 64 58 57 
363 953 282 66 60 59 
363 953 283 62 56 55 
362 954 280 67 62 61 
362 954 281 68 61 61 
362 955 280 66 61 61 
363 954 280 64 59 58 
363 954 281 67 62 61 
362 954 282 66 59 58 
362 954 283 64 60 60 
363 954 282 69 62 62 
363 954 283 64 58 57 
360 953 285 71 63 60 
361 953 284 62 53 52 
361 953 285 65 57 54 
360 952 286 74 67 63 
360 952 287 69 62 58 
360 953 286 74 66 63 
361 952 286 74 67 64 
361 952 287 73 66 62 
361 953 286 72 64 61 
360 954 284 65 56 55 
360 954 285 71 62 59 
361 954 284 62 54 53 
362 953 284 63 56 56 
362 953 285 63 54 53 
363 953 284 62 57 56 
363 953 285 65 58 57 
362 952 286 69 61 59 
362 952 287 75 68 64 
362 953 286 66 57 55 
363 952 286 65 57 55 
363 952 287 70 63 60 
363 953 286 66 58 56 
362 954 284 63 56 56 
364 953 281 62 57 57 
365 953 280 58 53 52 
365 953 281 59 55 54 
364 953 282 64 59 59 
364 953 283 63 58 56 
365 953 282 62 57 56 
365 953 283 64 59 58 
364 954 280 62 57 57 
364 954 281 63 58 57 
365 954 280 59 54 53 
366 953 280 61 55 54 
366 953 281 59 55 54 
367 952 281 63 58 56 
367 953 280 67 61 61 
367 953 281 62 57 56 
366 952 283 61 56 56 
366 953 282 59 54 54 
366 953 283 63 58 58 
367 952 282 61 55 55 
367 952 283 59 54 53 
364 953 284 61 57 55 
364 953 285 64 59 57 
365 952 284 61 56 54 
365 952 285 60 55 54 
365 953 284 62 58 56 
365 953 285 59 55 53 
364 952 286 66 60 58 
364 952 287 70 62 60 
365 952 286 65 60 58 
365 952 287 68 61 59 
366 952 284 64 59 58 
366 952 285 60 55 54 
367 952 284 61 56 56 
367 952 285 61 56 56 
366 952 286 60 55 54 
366 952 287 64 58 56 
367 952 286 61 55 55 
367 952 287 59 53 53 
370 959 263 68 61 56 
371 959 263 67 60 57 
373 959 259 71 65 62 
374 959 256 73 67 67 
374 959 257 75 68 67 
375 959 256 73 66 67 
375 959 257 73 67 66 
374 959 258 74 66 65 
374 959 259 71 65 63 
375 958 259 68 62 61 
375 959 258 71 64 63 
375 959 259 70 63 62 
373 959 260 69 63 59 
373 959 261 64 57 53 
372 959 262 66 59 55 
372 959 263 66 59 56 
373 958 262 63 57 53 
373 958 263 65 57 54 
373 959 262 64 57 53 
373 959 263 64 57 54 
375 957 262 65 57 55 
375 957 263 64 57 54 
374 958 261 62 55 53 
374 959 260 67 61 58 
374 959 261 64 57 55 
375 958 260 66 60 58 
375 958 261 63 56 55 
375 959 260 65 59 57 
374 958 262 62 55 52 
374 958 263 65 58 54 
374 959 262 62 55 52 
375 958 262 63 56 54 
370 955 271 65 56 53 
371 955 271 66 58 54 
369 959 265 75 65 58 
368 958 267 64 56 52 
368 959 266 70 60 55 
368 959 267 64 56 51 
369 958 267 66 58 53 
369 959 266 71 61 56 
369 959 267 69 60 55 
371 957 267 65 56 51 
370 959 264 69 59 53 
370 959 265 74 64 58 
371 958 265 67 59 53 
371 959 264 65 57 52 
371 959 265 68 59 54 
370 958 266 70 62 58 
370 958 267 65 56 52 
370 959 266 71 61 55 
371 958 266 72 64 59 
371 958 267 69 60 57 
368 957 269 64 56 52 
369 957 268 67 60 55 
369 957 269 65 57 53 
368 956 270 63 54 50 
368 956 271 63 54 49 
368 957 270 64 56 52 
369 956 270 65 56 53 
369 956 271 65 56 53 
369 957 270 65 56 53 
368 958 268 64 57 53 
369 958 268 67 59 55 
370 957 268 64 56 51 
370 957 269 66 58 54 
371 956 269 65 56 51 
371 957 268 65 56 51 
371 957 269 65 56 52 
370 956 270 66 57 54 
370 956 271 66 58 55 
371 956 270 67 58 55 
371 956 271 67 59 56 
370 958 268 67 59 54 
375 955 267 66 58 54 
372 955 271 63 54 50 
373 955 270 61 53 49 
373 955 271 60 51 47 
374 955 269 59 52 50 
375 955 268 64 58 54 
375 955 269 58 51 48 
374 954 271 62 55 50 
374 955 270 60 52 49 
374 955 271 63 56 52 
375 954 270 60 53 49 
375 954 271 61 54 49 
375 955 270 58 51 48 
373 957 265 60 52 47 
372 957 266 71 63 58 
372 957 267 70 62 58 
373 957 266 66 57 52 
373 957 267 68 59 55 
372 958 264 64 57 52 
372 958 265 66 58 53 
372 959 264 65 58 53 
373 958 264 65 57 54 
373 958 265 63 55 50 
372 958 266 70 61 56 
373 958 266 65 57 51 
374 957 264 63 55 52 
374 957 265 59 51 48 
375 956 265 56 48 42 
375 957 264 61 53 49 
375 957 265 58 49 44 
374 956 266 62 55 50 
374 956 267 66 58 54 
374 957 266 61 54 49 
374 957 267 68 60 56 
375 956 266 59 51 45 
375 956 267 66 58 54 
374 958 264 65 57 55 
372 956 269 62 53 47 
372 957 268 64 55 51 
373 956 268 64 55 52 
373 956 269 60 51 47 
373 957 268 65 56 53 
372 956 270 64 55 50 
372 956 271 65 56 53 
373 956 270 60 52 48 
374 956 268 62 54 52 
374 956 269 60 52 50 
383 951 267 57 50 48 
382 951 269 58 49 46 
383 951 268 54 47 46 
383 951 269 54 47 44 
382 951 270 59 51 48 
382 951 271 60 53 50 
383 950 271 59 51 48 
383 951 270 57 49 46 
383 951 271 60 51 49 
379 955 262 60 54 51 
379 955 263 56 49 46 
377 957 258 66 60 58 
377 957 259 66 59 57 
376 958 256 71 66 65 
376 958 257 72 66 65 
376 959 256 72 66 66 
376 959 257 72 66 65 
377 958 256 70 64 63 
377 958 257 71 65 64 
376 958 258 68 61 60 
376 958 259 67 60 61 
376 959 258 71 64 62 
377 958 258 67 60 59 
377 958 259 65 59 58 
378 957 256 70 64 62 
378 957 257 71 65 63 
379 957 256 70 64 62 
379 957 257 71 64 62 
378 957 258 68 62 59 
378 957 259 66 60 58 
379 956 258 69 63 59 
379 956 259 66 60 57 
379 957 258 70 63 61 
379 957 259 66 60 57 
378 958 256 70 64 63 
378 958 257 71 65 64 
376 957 260 65 59 59 
376 957 261 64 58 55 
377 957 260 65 58 58 
377 957 261 63 57 55 
376 957 262 64 56 54 
376 957 263 62 55 52 
377 956 262 62 56 52 
377 956 263 60 53 49 
377 957 262 63 56 53 
377 957 263 62 54 51 
376 958 260 65 59 59 
376 958 261 65 58 56 
376 958 262 65 57 55 
378 956 261 60 54 51 
378 957 260 64 59 56 
378 957 261 61 55 52 
379 956 260 63 57 54 
379 956 261 60 53 50 
379 957 260 65 59 56 
378 956 262 62 55 52 
378 956 263 59 51 47 
379 956 262 60 54 51 
381 955 259 66 58 55 
382 955 256 68 61 61 
382 955 257 66 59 58 
383 954 256 67 60 60 
383 954 257 68 60 60 
383 955 256 67 60 61 
383 955 257 67 61 60 
382 955 258 66 60 58 
382 955 259 65 59 56 
383 954 258 67 59 57 
383 954 259 66 58 55 
383 955 258 66 60 58 
383 955 259 65 58 55 
380 955 261 62 56 53 
381 955 260 63 55 52 
381 955 261 62 55 52 
380 954 263 56 48 46 
380 955 262 59 52 49 
380 955 263 56 49 47 
381 954 262 60 53 50 
381 954 263 56 49 46 
381 955 262 60 53 50 
383 953 263 58 51 48 
382 954 261 59 51 48 
382 955 260 63 55 52 
382 955 261 61 53 50 
383 954 260 62 54 51 
383 954 261 61 54 51 
383 955 260 63 55 53 
382 954 262 61 54 51 
382 954 263 58 51 48 
383 954 262 59 52 48 
383 954 263 57 50 46 
380 956 256 68 62 62 
380 956 257 69 62 60 
381 956 256 66 60 60 
381 956 257 66 59 58 
380 956 258 68 61 58 
380 956 259 66 60 56 
381 956 258 68 61 58 
381 956 259 66 58 55 
380 956 260 65 59 55 
380 956 261 60 54 51 
381 956 260 64 57 53 
377 955 265 57 50 46 
376 955 266 60 52 46 
376 955 267 63 55 51 
377 954 267 57 49 43 
377 955 266 57 50 45 
377 955 267 60 52 47 
378 955 264 58 50 46 
378 955 265 57 50 47 
379 954 265 55 49 45 
379 955 264 55 47 43 
379 955 265 56 49 45 
378 954 266 57 51 47 
378 954 267 57 50 45 
378 955 266 57 50 46 
379 954 266 55 48 45 
379 954 267 55 48 45 
377 953 270 58 51 47 
377 953 271 58 50 47 
376 954 269 58 52 47 
376 955 268 61 55 51 
376 955 269 60 54 49 
377 954 268 61 54 50 
377 954 269 58 51 46 
377 955 268 61 54 50 
376 954 270 56 49 45 
376 954 271 59 52 48 
377 954 270 56 49 45 
378 953 269 60 52 48 
379 953 268 57 49 46 
379 953 269 60 52 48 
378 953 270 59 51 48 
378 953 271 59 52 48 
379 952 271 60 53 49 
379 953 270 60 52 49 
379 953 271 60 53 50 
378 954 268 59 51 46 
378 954 269 59 52 48 
379 954 268 57 49 45 
378 954 270 57 49 46 
376 956 264 59 52 49 
376 956 265 58 51 46 
376 957 264 60 53 49 
377 956 264 59 51 48 
377 956 265 58 51 47 
376 956 266 58 50 44 
377 956 266 56 49 44 
378 956 264 58 51 47 
381 953 265 55 48 45 
380 953 267 56 49 46 
381 952 267 56 49 47 
381 953 266 55 48 45 
381 953 267 56 49 47 
380 954 264 56 49 46 
380 954 265 55 47 45 
380 955 264 55 47 45 
381 954 264 56 49 46 
381 954 265 56 48 45 
380 954 266 53 46 43 
380 954 267 56 49 46 
381 954 266 55 47 44 
382 953 264 57 49 47 
382 953 265 56 48 46 
383 952 265 60 51 49 
383 953 264 57 50 47 
383 953 265 59 50 47 
382 952 266 55 48 45 
382 952 267 56 49 47 
382 953 266 56 48 45 
382 953 267 56 49 47 
383 952 266 60 53 50 
383 952 267 57 50 49 
382 954 264 57 50 47 
380 953 268 58 50 48 
380 953 269 59 51 48 
381 952 268 57 50 48 
381 952 269 60 52 50 
381 953 268 58 50 48 
380 952 270 58 51 47 
380 952 271 59 52 49 
380 953 270 59 51 49 
381 952 270 58 51 48 
381 952 271 59 52 48 
382 952 268 56 49 47 
382 952 269 58 50 48 
383 952 268 54 46 45 
382 952 270 59 51 49 
371 951 278 61 53 49 
371 951 279 64 57 54 
372 951 277 61 54 50 
373 951 277 60 53 49 
372 950 279 64 56 52 
372 951 278 62 55 51 
372 951 279 63 55 51 
373 950 279 64 56 52 
373 951 278 61 53 48 
374 949 279 61 53 49 
375 949 279 60 52 49 
374 950 277 60 54 51 
374 951 276 64 56 53 
374 951 277 61 54 51 
375 950 277 58 50 47 
375 951 276 63 54 50 
375 951 277 61 53 50 
374 950 278 62 55 51 
374 950 279 63 54 50 
375 950 278 59 52 49 
375 950 279 60 52 49 
369 951 282 68 62 60 
369 951 283 64 57 55 
370 951 280 69 63 60 
370 951 281 67 61 58 
371 951 280 67 60 57 
371 951 281 67 61 59 
370 951 282 67 61 58 
370 951 283 67 60 57 
371 951 282 68 61 58 
371 951 283 68 62 58 
368 951 284 62 57 54 
368 951 285 61 55 53 
369 951 284 63 57 54 
369 951 285 62 57 54 
368 951 286 61 55 54 
368 951 287 60 54 53 
369 951 286 60 54 53 
369 951 287 61 55 54 
370 951 284 64 58 55 
370 951 285 63 56 54 
371 950 284 69 62 59 
371 950 285 67 60 57 
371 951 284 68 61 58 
371 951 285 65 57 55 
370 950 286 62 56 53 
370 950 287 61 55 54 
370 951 286 60 54 52 
370 951 287 60 54 53 
371 950 286 64 57 54 
371 950 287 62 55 52 
371 951 286 63 56 53 
372 950 280 65 57 54 
372 950 281 64 57 54 
372 951 280 63 55 52 
372 951 281 64 58 55 
373 950 280 65 58 55 
373 950 281 66 60 57 
372 950 282 65 58 54 
372 950 283 65 58 54 
373 950 282 66 60 57 
373 950 283 64 57 55 
374 949 280 64 56 53 
374 949 281 65 58 55 
375 949 280 62 55 51 
375 949 281 63 55 52 
374 949 282 66 60 58 
374 949 283 66 60 58 
375 949 282 65 58 55 
375 949 283 63 57 55 
374 950 280 63 56 52 
373 949 285 63 57 54 
373 949 286 65 59 57 
373 949 287 65 58 56 
372 950 284 67 60 57 
372 950 285 69 62 59 
373 950 284 64 57 55 
373 950 285 64 58 56 
372 950 286 67 61 58 
372 950 287 64 57 54 
373 950 286 67 60 58 
373 950 287 64 58 55 
374 949 284 64 57 55 
374 949 285 62 55 53 
375 949 284 64 58 57 
375 949 285 61 54 52 
374 949 286 64 58 56 
374 949 287 65 59 56 
375 949 286 61 55 54 
375 949 287 61 56 54 
368 955 272 63 55 52 
368 955 273 62 54 51 
369 955 272 65 57 54 
369 955 273 65 57 54 
368 954 274 63 56 53 
368 954 275 63 55 52 
368 955 274 64 56 53 
369 954 274 64 57 54 
369 954 275 64 57 54 
370 953 275 64 56 55 
371 953 275 66 58 56 
370 954 273 63 56 53 
370 955 272 67 58 55 
370 955 273 66 58 55 
371 954 273 67 59 55 
371 955 272 65 58 53 
371 955 273 67 59 55 
370 954 274 64 57 55 
370 954 275 65 58 56 
371 954 274 67 59 56 
368 953 276 61 54 50 
368 953 277 64 56 53 
369 953 276 61 54 51 
369 953 277 61 53 50 
368 952 279 68 62 61 
368 953 278 64 58 56 
368 953 279 69 63 62 
369 952 278 62 55 52 
369 952 279 66 60 58 
369 953 278 62 54 52 
368 954 276 60 53 50 
368 954 277 62 55 51 
369 954 276 60 53 50 
370 952 277 61 53 51 
370 953 276 61 54 51 
370 953 277 62 54 51 
371 952 276 63 56 53 
371 952 277 61 54 50 
371 953 276 64 57 54 
370 952 278 61 53 50 
370 952 279 67 60 58 
371 952 278 61 53 50 
371 952 279 65 58 55 
368 956 272 65 57 53 
372 952 275 65 57 54 
372 953 274 68 59 56 
372 953 275 65 57 53 
373 952 275 62 54 51 
373 953 274 64 56 51 
373 953 275 65 56 52 
372 954 272 62 55 50 
372 954 273 63 55 50 
372 955 272 61 53 48 
373 954 272 61 53 48 
373 954 273 61 53 48 
373 955 272 60 52 47 
372 954 274 68 60 55 
374 953 273 62 54 48 
375 953 272 59 52 48 
375 953 273 58 50 45 
374 952 275 64 55 50 
374 953 274 60 52 46 
374 953 275 66 58 53 
375 952 274 58 49 42 
375 952 275 61 53 48 
375 953 274 57 50 43 
374 954 272 61 53 48 
374 954 273 61 54 49 
375 954 272 60 53 48 
372 952 276 62 55 51 
372 952 277 60 53 49 
373 952 276 63 56 52 
374 952 276 62 55 52 
368 952 280 67 61 60 
368 952 281 66 60 58 
368 953 280 68 62 61 
369 952 280 67 61 59 
369 952 281 67 61 58 
368 952 282 63 57 55 
368 952 283 62 56 54 
369 952 282 66 60 57 
370 952 280 66 60 58 
370 952 281 65 59 56 
368 952 284 60 54 53 
368 952 285 61 55 54 
368 952 286 63 57 56 
379 947 279 48 43 41 
376 951 275 60 51 46 
377 951 275 60 51 47 
378 951 275 61 53 49 
379 951 275 58 50 46 
377 949 277 66 58 54 
376 949 278 58 50 47 
376 949 279 58 50 48 
377 949 278 63 55 52 
377 949 279 60 52 49 
376 950 277 61 52 49 
376 951 276 61 51 47 
377 950 276 63 53 48 
377 950 277 65 55 51 
377 951 276 61 51 46 
376 950 278 58 49 46 
377 950 278 62 54 51 
378 949 277 65 56 52 
379 948 277 62 54 50 
379 949 277 63 54 49 
378 948 278 59 52 48 
378 948 279 57 51 48 
378 949 278 62 54 51 
378 949 279 60 52 48 
379 948 278 58 51 48 
379 948 279 53 47 45 
378 950 276 61 52 48 
378 950 277 61 52 47 
378 951 276 61 53 49 
379 950 276 60 51 46 
383 947 275 62 54 52 
380 947 279 53 48 46 
381 947 278 56 50 47 
381 947 279 53 48 45 
382 947 277 57 51 50 
383 947 276 58 51 48 
383 947 277 57 50 48 
382 947 278 56 50 48 
382 947 279 56 50 48 
383 946 278 60 54 51 
383 946 279 61 55 51 
383 947 278 58 51 49 
383 947 279 60 54 51 
381 949 275 61 53 49 
381 951 272 61 54 53 
381 951 273 58 52 49 
380 950 275 59 50 47 
380 951 274 58 48 45 
380 951 275 58 49 46 
381 950 275 59 50 48 
381 951 274 57 49 47 
383 949 272 62 53 52 
383 949 273 62 54 53 
382 948 275 60 52 50 
382 949 274 60 51 50 
382 949 275 61 53 50 
383 948 274 65 57 56 
383 948 275 60 52 50 
383 949 274 60 52 50 
382 950 273 59 52 51 
382 951 272 61 54 53 
382 951 273 60 53 52 
383 950 272 61 53 51 
383 950 273 60 53 51 
382 950 274 58 50 49 
382 950 275 59 50 49 
380 948 277 61 53 47 
380 949 276 61 52 45 
380 949 277 61 52 46 
381 948 277 60 52 48 
381 949 276 58 49 44 
380 948 278 60 53 49 
381 948 278 59 53 50 
380 950 276 61 52 46 
382 948 276 57 50 47 
382 948 277 58 52 49 
382 949 276 58 50 47 
383 948 276 64 56 53 
379 947 280 53 47 44 
379 947 281 53 47 44 
379 947 282 57 51 47 
379 947 283 51 45 41 
376 949 280 59 51 49 
376 949 281 60 53 49 
377 948 280 59 51 49 
377 948 281 58 51 48 
376 948 282 64 57 53 
376 948 283 62 55 52 
376 949 282 62 55 51 
376 949 283 63 56 53 
377 948 282 61 54 51 
377 948 283 60 54 51 
378 948 280 56 50 48 
378 948 281 55 48 46 
379 948 280 49 44 42 
379 948 281 50 45 42 
378 948 282 57 50 48 
378 948 283 56 49 48 
379 948 282 50 45 42 
379 948 283 50 44 41 
376 948 284 64 57 54 
376 949 284 63 57 54 
376 949 285 60 53 51 
377 948 284 59 53 50 
377 948 285 57 50 48 
376 948 286 60 51 50 
376 948 287 61 54 53 
376 949 286 63 55 55 
377 948 286 58 51 48 
377 948 287 53 48 45 
378 948 284 58 51 48 
378 948 285 56 49 46 
379 948 284 56 49 45 
379 948 285 57 50 47 
378 948 286 53 48 46 
378 948 287 51 46 44 
379 948 286 55 49 46 
379 948 287 50 45 42 
380 947 280 53 47 45 
380 947 281 58 52 49 
381 947 280 49 43 40 
381 947 281 53 47 43 
380 947 282 59 52 50 
380 947 283 57 50 48 
381 947 282 59 53 51 
381 947 283 68 61 60 
382 947 280 60 52 49 
382 947 281 58 50 47 
383 946 280 61 55 52 
383 946 281 69 61 58 
383 947 280 62 55 52 
383 947 281 61 55 51 
382 947 282 66 59 57 
382 947 283 61 56 53 
383 947 282 60 54 51 
383 947 283 65 59 57 
380 947 284 53 46 43 
381 947 284 56 50 48 
382 947 284 66 58 55 
382 947 285 61 53 50 
383 947 284 63 56 53 
383 947 285 61 53 50 
382 947 286 61 53 49 
382 947 287 60 53 49 
383 947 286 63 54 52 
383 947 287 59 51 49 
380 948 284 53 46 43 
380 948 285 52 46 43 
381 948 285 52 47 44 
380 948 286 57 49 46 
380 948 287 56 49 46 
381 948 286 56 48 45 
381 948 287 59 51 49 
382 948 285 54 48 46 
382 948 286 58 50 47 
382 948 287 59 52 48 
376 953 272 63 55 53 
376 953 273 59 53 49 
377 953 272 61 54 51 
377 953 273 62 55 52 
376 952 274 58 50 44 
376 952 275 57 49 43 
376 953 274 59 51 47 
377 952 274 58 51 48 
377 952 275 58 49 45 
376 954 272 63 56 53 
378 952 273 61 53 50 
378 953 272 60 52 49 
378 953 273 64 56 53 
379 952 272 60 52 49 
379 952 273 61 52 49 
379 953 272 59 52 49 
378 952 274 58 49 46 
378 952 275 57 50 46 
379 952 274 59 50 47 
379 952 275 59 50 47 
380 952 272 59 52 49 
380 952 273 59 51 48 
381 952 272 59 53 50 
381 952 273 58 52 49 
380 952 274 60 51 48 
352 928 301 41 39 38 
352 929 301 42 39 39 
353 928 301 42 39 39 
352 929 302 42 39 39 
353 928 302 43 40 40 
353 929 302 43 41 41 
352 930 302 41 38 38 
352 930 303 40 37 37 
352 931 303 40 38 37 
353 930 302 41 38 38 
353 930 303 41 38 38 
353 931 303 41 38 38 
354 928 301 42 39 39 
354 928 302 43 40 40 
354 929 302 44 41 41 
354 929 303 43 40 40 
355 928 302 41 38 38 
355 929 302 44 41 41 
355 929 303 44 42 41 
354 930 303 41 38 38 
354 931 303 42 39 39 
355 930 303 42 40 39 
355 931 303 43 40 39 
352 932 303 43 40 40 
352 933 303 49 46 46 
353 932 303 42 39 39 
354 932 303 42 39 39 
356 928 302 39 37 37 
356 929 302 43 41 41 
356 929 303 45 43 43 
357 928 302 39 37 37 
357 929 302 43 40 41 
357 929 303 45 42 42 
356 930 303 44 41 41 
356 931 303 45 41 41 
357 930 303 46 43 43 
358 928 302 39 37 37 
358 929 303 43 40 40 
359 928 302 39 37 37 
359 929 303 43 40 40 
358 930 303 46 43 43 
359 930 303 47 44 43 
352 939 303 60 55 54 
353 939 303 57 52 50 
354 939 303 59 54 54 
355 939 303 63 59 59 
352 940 303 58 52 49 
352 941 302 65 60 58 
352 941 303 65 60 57 
353 940 303 62 57 56 
353 941 302 61 57 58 
353 941 303 63 60 59 
352 942 301 67 65 70 
352 943 300 74 71 73 
352 943 301 67 65 68 
353 942 301 73 70 71 
353 943 300 77 73 73 
353 943 301 70 67 69 
352 942 302 64 61 62 
353 942 302 69 66 67 
354 940 303 62 59 58 
354 941 302 64 61 61 
355 940 303 64 60 59 
355 941 302 73 70 70 
354 942 301 76 72 72 
354 943 300 77 71 70 
355 942 301 77 72 72 
355 943 300 72 67 65 
354 942 302 70 67 67 
356 939 303 65 61 60 
356 943 299 61 57 56 
357 943 299 58 54 53 
358 943 299 58 53 52 
359 943 299 60 55 55 
356 940 303 68 64 63 
356 941 302 77 73 74 
357 940 303 72 69 69 
357 941 302 75 71 72 
356 942 300 76 70 69 
356 942 301 76 71 72 
356 943 300 67 61 60 
357 942 300 71 65 64 
357 942 301 74 70 70 
357 943 300 63 58 57 
358 941 301 75 70 70 
359 941 301 73 69 68 
358 940 303 73 70 70 
358 941 302 71 67 67 
359 940 303 70 66 65 
359 941 302 73 69 68 
358 942 300 62 56 55 
358 942 301 69 63 62 
358 943 300 59 53 53 
359 942 300 59 53 51 
359 942 301 64 58 57 
359 943 300 58 52 50 
360 928 302 40 37 37 
360 928 303 41 38 39 
360 929 303 44 41 41 
361 928 302 40 37 37 
361 928 303 43 40 40 
361 929 303 45 42 42 
360 930 303 47 44 43 
362 928 302 41 38 37 
362 928 303 44 41 40 
362 929 303 46 42 42 
363 928 303 43 41 41 
363 929 303 45 42 42 
364 928 303 44 41 41 
364 929 303 47 44 44 
365 928 303 44 41 41 
365 929 303 48 45 45 
366 928 303 46 43 43 
366 929 303 48 45 45 
367 928 303 47 44 44 
367 929 303 48 45 44 
363 939 303 69 63 62 
360 943 298 50 45 47 
360 943 299 58 53 54 
361 942 299 55 50 52 
361 943 298 50 46 47 
361 943 299 54 49 50 
363 943 297 55 50 48 
362 942 299 54 49 51 
362 943 298 55 51 50 
362 943 299 53 48 49 
363 942 299 53 48 49 
363 943 298 56 52 50 
363 943 299 57 53 52 
360 941 301 69 63 61 
361 941 301 64 57 55 
360 940 303 71 67 65 
360 941 302 74 69 68 
361 940 302 71 66 64 
361 940 303 71 67 65 
361 941 302 71 65 63 
360 942 300 59 53 52 
360 942 301 61 55 53 
361 942 300 60 54 53 
361 942 301 59 52 49 
362 941 301 59 52 49 
363 941 301 59 51 50 
362 940 302 71 65 64 
362 940 303 72 66 65 
362 941 302 66 60 57 
363 940 302 68 62 60 
363 940 303 71 65 64 
363 941 302 65 58 56 
362 942 300 59 52 51 
362 942 301 59 51 48 
363 942 300 56 49 50 
364 939 303 68 63 61 
365 939 303 68 62 60 
366 939 303 69 62 62 
367 939 303 69 62 61 
364 943 297 55 51 49 
365 943 297 57 52 50 
364 942 299 56 52 51 
364 943 298 55 50 48 
364 943 299 57 53 51 
365 942 299 53 49 47 
365 943 298 56 51 49 
367 941 299 60 54 53 
366 943 296 61 55 54 
366 943 297 61 55 52 
367 943 296 57 50 50 
367 943 297 62 55 53 
366 942 298 57 52 50 
366 942 299 55 51 49 
366 943 298 58 52 50 
367 942 298 61 55 52 
367 942 299 59 53 51 
367 943 298 62 55 52 
364 941 300 54 47 47 
364 941 301 58 51 51 
365 941 300 55 49 49 
365 941 301 58 51 51 
364 940 302 66 59 57 
364 940 303 69 64 61 
364 941 302 64 56 56 
365 940 302 64 56 57 
365 940 303 68 62 59 
364 942 300 54 48 48 
365 942 300 56 52 50 
366 941 300 58 53 51 
366 941 301 59 53 53 
367 940 301 62 57 55 
367 941 300 55 49 48 
367 941 301 60 54 53 
366 940 302 64 56 57 
367 940 302 64 57 56 
367 940 303 67 59 59 
366 942 300 53 49 47 
355 931 304 45 41 41 
352 933 304 50 47 47 
353 932 304 45 42 42 
353 933 304 50 47 47 
352 934 304 59 55 56 
352 935 304 59 54 54 
353 934 304 60 56 56 
353 935 304 57 52 51 
354 932 304 45 42 42 
354 933 304 53 50 50 
355 932 304 48 44 44 
355 933 304 55 52 51 
354 934 304 59 55 54 
354 935 304 57 52 52 
355 934 304 61 56 56 
355 935 304 59 55 54 
356 931 304 45 41 41 
357 931 304 46 42 42 
358 930 304 47 44 43 
358 931 304 48 44 44 
359 930 304 49 46 45 
359 931 304 49 46 45 
356 932 304 49 45 45 
356 933 304 58 54 54 
357 932 304 53 49 48 
357 933 304 60 56 55 
356 934 304 63 58 57 
356 935 304 61 57 55 
357 934 304 63 59 57 
357 934 305 62 58 57 
357 935 305 62 57 56 
358 932 304 55 51 51 
358 933 304 59 55 54 
358 933 305 61 57 57 
359 932 304 55 51 50 
359 933 304 57 53 53 
359 933 305 59 56 55 
358 934 305 62 58 58 
358 935 305 62 57 56 
359 934 305 62 58 57 
359 935 305 63 59 57 
352 936 304 58 54 53 
352 937 304 62 57 57 
353 936 304 60 56 55 
353 937 304 59 54 54 
352 938 304 61 57 56 
352 939 304 63 58 57 
353 938 304 61 56 56 
353 939 304 60 55 54 
354 936 304 62 58 57 
354 937 304 58 53 52 
355 936 304 61 56 55 
355 937 304 61 55 53 
354 938 304 62 57 56 
354 939 304 60 55 54 
355 938 304 63 58 56 
355 939 304 61 56 56 
356 936 304 60 55 53 
356 937 304 63 56 54 
357 936 305 61 56 54 
357 937 304 65 57 56 
357 937 305 65 57 56 
356 938 304 64 58 57 
356 939 304 64 59 58 
357 938 304 65 57 56 
357 939 304 66 60 59 
358 936 305 62 57 56 
358 937 304 66 59 58 
358 937 305 66 59 58 
359 936 305 63 57 56 
359 937 305 65 58 57 
358 938 304 63 57 56 
358 939 304 66 61 60 
359 938 304 63 57 56 
359 938 305 60 53 52 
359 939 304 68 63 63 
360 930 304 48 44 44 
360 931 304 51 47 46 
361 930 304 48 44 44 
361 931 304 54 50 49 
362 929 304 49 45 44 
363 929 304 50 47 46 
362 930 304 50 47 46 
362 931 304 54 51 52 
363 930 304 52 48 48 
363 931 304 55 52 53 
360 932 304 56 52 51 
360 933 304 59 54 54 
360 933 305 59 55 55 
361 932 304 60 55 54 
361 932 305 61 56 55 
361 933 304 60 55 55 
361 933 305 62 57 57 
360 934 305 63 59 58 
360 935 305 64 59 58 
361 934 305 66 62 61 
361 935 305 65 61 59 
362 932 304 60 56 57 
362 932 305 62 58 58 
362 933 305 65 60 59 
363 932 304 60 56 58 
363 932 305 61 57 58 
363 933 305 65 61 60 
362 934 305 69 64 63 
362 935 305 68 62 61 
363 934 305 70 65 64 
363 935 305 67 61 61 
364 929 304 50 46 45 
365 929 304 50 46 45 
364 930 304 52 49 48 
364 931 304 55 52 53 
365 930 304 53 49 48 
365 931 304 56 53 52 
365 931 305 58 55 54 
366 929 304 49 46 45 
367 929 304 51 48 47 
366 930 304 54 50 49 
366 931 304 57 53 53 
366 931 305 59 55 55 
367 930 304 58 55 54 
367 931 305 57 54 53 
364 932 305 58 55 55 
364 933 305 65 61 60 
365 932 305 57 55 54 
365 933 305 64 60 59 
364 934 305 70 65 64 
364 935 305 67 61 61 
365 934 305 71 66 64 
365 935 305 70 64 63 
366 932 305 58 54 54 
366 933 305 64 60 59 
367 932 305 58 54 53 
367 933 305 66 62 60 
366 934 305 72 67 65 
366 935 305 71 65 64 
367 934 305 71 66 64 
367 935 305 66 61 60 
360 936 305 64 60 58 
360 937 305 62 56 53 
361 936 305 65 59 58 
361 937 305 62 56 56 
360 938 304 65 58 58 
360 938 305 62 55 54 
360 939 304 66 61 60 
361 938 304 64 58 58 
361 939 304 67 62 61 
362 936 305 63 56 57 
362 937 305 62 57 57 
363 936 305 64 57 58 
363 937 305 62 57 56 
362 938 304 64 58 58 
362 939 304 68 63 61 
363 938 304 67 62 61 
363 938 305 66 61 61 
363 939 304 67 62 61 
364 936 305 64 57 58 
364 937 305 64 58 57 
365 936 305 64 57 57 
365 937 305 65 60 59 
364 938 304 67 63 61 
364 938 305 69 65 64 
364 939 304 67 62 61 
365 938 304 67 63 61 
365 939 304 67 63 61 
366 936 305 62 57 56 
366 937 305 66 62 60 
367 936 305 60 55 54 
367 937 304 69 64 64 
367 937 305 67 62 61 
366 938 304 68 63 61 
366 939 304 68 63 61 
367 938 304 69 63 62 
352 947 295 63 60 59 
353 947 294 52 48 47 
353 947 295 59 55 55 
355 947 293 54 51 50 
354 946 295 57 53 52 
354 947 294 49 47 48 
354 947 295 53 49 48 
355 946 295 50 46 46 
355 947 294 49 46 47 
355 947 295 48 45 45 
352 949 291 55 54 56 
353 949 291 59 55 56 
352 951 288 72 69 70 
352 951 289 73 69 70 
353 950 289 70 67 67 
353 951 288 70 66 65 
353 951 289 69 66 66 
352 950 290 67 64 63 
352 950 291 58 55 56 
353 950 290 69 66 68 
353 950 291 65 62 62 
354 949 291 64 61 62 
355 949 291 61 59 59 
354 950 289 66 63 63 
354 951 288 68 63 62 
354 951 289 65 61 60 
355 950 289 64 60 60 
355 951 288 70 64 63 
355 951 289 65 61 61 
354 950 290 67 65 67 
355 950 290 65 62 64 
352 948 293 50 47 48 
352 949 292 52 52 54 
353 948 292 52 51 52 
353 948 293 46 45 47 
353 949 292 52 50 52 
352 948 294 55 52 50 
353 948 294 49 47 47 
354 948 292 54 50 49 
354 948 293 50 48 49 
354 949 292 58 53 52 
355 948 292 60 57 56 
355 948 293 54 51 49 
356 947 293 59 55 54 
357 947 293 61 56 55 
356 946 295 51 46 46 
356 947 294 53 49 48 
357 946 295 52 48 47 
357 947 294 57 52 51 
358 947 293 60 56 55 
359 947 293 61 56 54 
358 946 294 58 53 52 
358 946 295 52 48 47 
358 947 294 59 54 53 
359 946 294 59 54 52 
359 946 295 57 52 51 
356 949 290 62 58 58 
356 949 291 61 58 58 
357 948 291 60 56 56 
357 949 290 63 58 57 
357 949 291 61 56 56 
356 950 289 67 61 61 
356 951 288 67 60 60 
356 951 289 68 62 61 
357 950 289 67 61 61 
357 951 288 66 59 60 
356 950 290 64 60 60 
357 950 290 65 60 59 
358 948 291 59 54 53 
358 949 290 63 57 56 
358 949 291 61 55 55 
359 948 291 61 56 56 
359 949 290 61 54 52 
359 949 291 61 56 55 
358 950 288 64 58 58 
358 950 289 64 58 57 
358 951 288 64 57 58 
359 950 288 65 59 59 
359 950 289 64 58 55 
359 951 288 63 57 56 
358 950 290 63 57 55 
356 948 292 60 57 57 
356 948 293 60 56 55 
357 948 292 59 55 55 
357 948 293 60 56 55 
358 948 292 59 55 55 
358 948 293 59 54 54 
359 948 292 60 55 54 
352 944 299 78 73 73 
352 945 298 63 59 58 
352 945 299 71 65 65 
353 944 299 68 63 63 
353 945 298 60 57 58 
352 946 296 63 59 60 
352 946 297 59 56 56 
352 947 296 66 63 63 
353 946 296 63 60 60 
353 946 297 58 55 55 
353 947 296 65 62 62 
352 946 298 63 60 60 
354 945 297 61 58 57 
355 945 297 62 58 57 
354 944 299 63 58 57 
354 945 298 59 55 55 
355 944 298 55 51 50 
355 944 299 62 57 56 
355 945 298 56 53 52 
354 946 296 62 58 57 
354 946 297 62 58 57 
355 946 296 55 51 49 
355 946 297 61 57 56 
352 944 300 79 75 75 
353 944 300 78 73 73 
356 945 297 56 52 51 
357 945 297 52 48 46 
356 944 298 54 50 49 
356 944 299 57 53 52 
356 945 298 59 55 54 
357 944 298 59 55 54 
357 944 299 56 51 50 
357 945 298 58 53 52 
356 946 296 49 44 44 
356 946 297 57 53 52 
357 946 296 51 45 46 
358 945 296 49 46 48 
358 945 297 47 41 41 
359 945 296 50 47 47 
359 945 297 47 44 44 
358 944 298 57 53 53 
358 944 299 60 55 54 
358 945 298 51 46 46 
359 944 298 50 45 46 
358 946 296 49 45 46 
359 946 296 50 47 47 
352 952 288 76 72 72 
353 952 288 72 67 66 
363 947 291 62 55 53 
360 945 295 62 57 55 
361 945 295 59 54 51 
360 947 292 59 54 54 
360 947 293 61 56 54 
361 946 293 60 55 56 
361 947 292 61 54 54 
361 947 293 60 55 55 
360 946 294 61 56 54 
360 946 295 59 55 52 
361 946 294 61 55 53 
361 946 295 61 55 52 
362 945 295 60 55 52 
363 944 295 61 56 55 
363 945 294 59 53 53 
363 945 295 60 55 54 
362 946 293 61 55 54 
362 947 292 62 55 54 
362 947 293 60 54 54 
363 946 293 62 55 54 
363 947 292 63 56 54 
363 947 293 62 56 54 
362 946 294 61 56 56 
363 946 294 60 54 54 
360 948 291 60 54 53 
360 949 290 63 56 53 
360 949 291 59 53 50 
361 948 291 61 54 52 
361 949 290 65 59 55 
360 950 288 63 57 56 
360 950 289 64 58 55 
360 951 288 62 56 54 
361 950 288 62 56 54 
361 950 289 64 58 56 
361 951 288 65 58 54 
362 948 291 65 58 55 
362 949 290 63 57 56 
363 948 291 63 57 55 
363 949 290 62 56 56 
362 950 289 62 55 54 
362 951 288 67 60 56 
362 951 289 65 59 56 
363 950 289 65 58 56 
363 951 288 72 65 61 
363 951 289 67 60 56 
362 950 290 58 52 52 
363 950 290 64 57 57 
360 948 292 60 54 54 
361 948 292 61 54 51 
362 948 292 62 55 52 
364 947 291 60 55 54 
365 947 291 62 56 56 
364 945 293 60 54 53 
365 945 293 58 52 52 
364 944 295 59 53 53 
364 945 294 57 51 51 
364 945 295 57 51 51 
365 944 295 54 48 48 
365 945 294 56 50 50 
365 945 295 51 45 46 
364 946 292 58 53 52 
364 946 293 61 54 53 
364 947 292 58 52 52 
365 946 292 56 51 51 
365 946 293 56 51 51 
365 947 292 57 52 53 
366 945 293 55 50 49 
367 945 293 56 51 50 
366 944 295 54 48 49 
366 945 294 58 52 52 
367 944 294 58 52 51 
367 944 295 59 53 52 
367 945 294 57 51 50 
366 946 293 54 50 50 
366 947 292 62 56 56 
367 946 293 60 54 53 
367 947 292 63 58 56 
364 948 291 62 56 56 
364 949 290 64 58 58 
365 948 291 63 57 57 
365 949 290 64 58 56 
365 949 291 64 59 58 
364 950 289 64 58 55 
364 951 289 70 63 59 
365 950 289 70 63 59 
365 951 288 72 65 61 
365 951 289 73 66 62 
364 950 290 65 58 57 
365 950 290 67 60 57 
366 948 291 63 57 56 
366 949 290 65 58 55 
366 949 291 63 58 55 
367 948 291 65 59 56 
367 949 290 67 60 56 
367 949 291 66 59 56 
366 950 289 72 65 61 
366 951 288 70 63 60 
366 951 289 72 65 62 
367 950 289 72 66 62 
367 951 288 66 59 57 
367 951 289 70 64 60 
366 950 290 69 62 58 
367 950 290 72 65 61 
367 948 292 66 60 58 
360 944 297 49 46 46 
360 945 296 59 55 53 
360 945 297 53 50 48 
361 944 296 57 52 50 
361 944 297 54 51 49 
361 945 296 59 54 52 
360 944 298 47 42 44 
361 944 298 50 46 46 
362 944 296 57 52 51 
362 944 297 55 51 50 
362 945 296 58 54 52 
363 944 296 57 52 50 
363 944 297 55 50 49 
362 944 298 54 50 49 
364 944 296 60 54 52 
364 944 297 56 51 50 
365 944 296 60 55 53 
366 944 296 55 49 50 
367 944 296 56 49 49 
362 952 288 73 66 63 
363 952 288 75 68 65 
364 952 288 74 67 63 
365 952 288 70 63 59 
366 952 288 69 63 60 
368 928 303 46 43 43 
369 928 303 47 45 44 
370 928 303 49 46 46 
371 928 303 51 48 48 
372 928 303 53 50 51 
373 928 303 55 52 52 
374 928 303 56 53 54 
375 928 303 58 56 56 
375 935 303 68 63 61 
369 943 295 64 58 56 
370 943 295 65 59 57 
371 943 295 64 59 56 
372 943 295 66 60 57 
373 943 295 69 62 58 
374 943 295 68 59 55 
368 938 303 69 62 61 
368 939 302 66 59 57 
368 939 303 69 61 61 
369 938 303 71 63 62 
369 939 302 66 58 55 
369 939 303 69 61 60 
371 937 303 79 71 69 
371 939 301 68 57 53 
370 938 303 76 68 66 
370 939 302 66 57 53 
370 939 303 70 62 60 
371 938 302 73 63 60 
371 938 303 78 69 67 
371 939 302 68 58 54 
368 941 299 61 54 51 
369 941 299 65 58 54 
368 943 296 60 53 53 
368 943 297 60 53 53 
369 942 297 60 54 52 
369 943 296 63 57 55 
369 943 297 61 54 53 
368 942 298 63 56 54 
368 942 299 62 55 52 
369 942 298 63 57 55 
369 942 299 63 57 54 
370 941 299 65 58 55 
371 941 298 65 58 54 
371 941 299 67 60 56 
370 942 297 62 55 52 
370 943 296 68 61 60 
370 943 297 65 58 56 
371 942 297 66 60 58 
371 943 296 65 59 58 
370 942 298 63 57 54 
370 942 299 64 58 55 
371 942 298 64 57 53 
368 940 301 62 55 54 
368 941 300 59 53 51 
368 941 301 58 52 50 
369 940 301 61 53 50 
369 941 300 62 54 50 
368 940 302 65 58 56 
369 940 302 63 56 53 
370 940 300 66 57 53 
370 940 301 64 54 50 
370 941 300 65 56 52 
371 940 300 69 60 56 
371 940 301 68 58 54 
371 941 300 67 59 55 
370 940 302 63 56 51 
372 937 303 82 74 72 
373 937 303 79 72 70 
372 939 301 71 60 56 
373 939 301 73 62 58 
372 938 302 74 64 61 
372 938 303 81 72 69 
372 939 302 70 58 54 
373 938 302 75 66 61 
374 936 303 74 69 68 
374 937 302 77 69 65 
374 937 303 78 70 68 
375 936 303 73 67 65 
375 937 302 78 70 67 
375 937 303 76 70 66 
374 939 300 67 57 52 
374 939 301 72 61 56 
375 938 301 74 64 60 
375 939 300 66 56 52 
375 939 301 71 60 56 
374 938 302 75 65 60 
375 938 302 77 68 64 
372 941 298 62 55 50 
372 941 299 64 56 51 
373 940 299 62 53 48 
373 941 298 63 56 53 
373 941 299 61 53 47 
372 942 297 65 59 57 
372 943 296 63 58 55 
373 942 297 63 57 54 
373 943 296 65 57 54 
372 942 298 63 56 52 
373 942 298 63 57 53 
374 940 299 62 54 50 
374 941 298 61 54 50 
374 941 299 63 56 52 
375 940 299 65 57 54 
375 941 298 65 57 54 
374 942 297 63 55 52 
374 943 296 66 58 54 
375 942 296 62 54 50 
375 942 297 69 63 60 
375 943 296 61 54 49 
374 942 298 60 53 49 
372 940 300 69 61 56 
372 940 301 72 62 59 
373 940 300 69 60 55 
374 940 300 67 58 52 
375 940 300 64 55 51 
376 928 303 57 55 55 
377 928 303 56 53 53 
377 929 303 58 53 52 
378 928 303 57 54 53 
378 929 303 57 53 51 
379 928 303 57 54 54 
379 929 303 56 52 50 
378 930 303 53 48 44 
379 930 303 53 47 44 
379 931 303 55 46 40 
377 933 303 54 48 45 
376 934 303 61 56 53 
376 935 303 65 59 56 
377 934 303 59 53 50 
377 935 303 64 58 54 
378 932 303 56 49 45 
378 933 303 54 48 44 
379 932 303 56 49 43 
379 933 303 54 48 43 
378 934 303 59 53 50 
378 935 302 64 56 52 
378 935 303 63 56 52 
379 934 302 62 56 52 
379 934 303 56 50 48 
379 935 302 62 55 51 
380 928 302 51 48 47 
380 928 303 54 51 51 
380 929 303 54 50 49 
381 928 302 49 45 44 
381 929 302 48 44 43 
381 929 303 50 46 44 
380 930 303 51 45 41 
380 931 303 54 46 39 
381 930 303 48 42 39 
381 931 303 53 45 39 
382 928 302 47 43 42 
382 929 302 47 43 41 
383 928 302 48 43 42 
383 929 302 49 44 42 
382 930 302 46 41 38 
382 930 303 49 42 39 
382 931 302 56 48 42 
382 931 303 54 46 41 
383 930 302 50 44 41 
383 931 302 57 50 45 
380 932 303 57 49 42 
380 933 303 55 49 44 
381 932 302 58 51 44 
381 932 303 59 51 44 
381 933 302 54 47 43 
381 933 303 55 49 43 
381 935 301 56 48 42 
380 934 302 57 51 48 
380 934 303 54 48 45 
380 935 302 60 53 49 
381 934 302 54 48 44 
381 935 302 57 49 44 
382 932 302 58 50 43 
382 933 302 54 47 41 
383 932 302 56 48 42 
383 933 302 53 46 40 
382 934 301 55 48 42 
382 935 301 57 49 43 
383 934 301 54 47 42 
383 935 301 55 47 40 
382 934 302 53 47 43 
383 934 302 52 45 41 
376 943 295 64 59 57 
377 943 295 68 63 61 
378 943 295 66 60 58 
379 943 295 70 64 61 
380 943 295 70 63 61 
381 943 295 66 60 57 
382 943 295 67 60 56 
383 942 295 65 59 55 
383 943 295 66 60 55 
379 939 299 65 55 48 
377 937 301 74 65 60 
376 936 303 71 65 61 
376 937 302 76 68 65 
377 936 302 68 61 57 
377 936 303 66 59 56 
377 937 302 74 66 62 
376 938 301 71 61 57 
376 939 300 68 58 54 
376 939 301 69 58 54 
377 938 301 71 60 56 
377 939 300 70 60 55 
376 938 302 75 65 62 
378 937 301 73 64 59 
379 937 301 71 63 57 
378 936 302 67 59 54 
378 937 302 72 64 59 
379 936 302 65 57 52 
378 938 300 68 58 51 
