ply
format ascii 1.0
comment Created by CloudCompare v2.10.1 (Zephyrus)
comment Created 1/31/20 11:55 AM
obj_info Generated by CloudCompare!
element vertex 2126
property float x
property float y
property float z
property uchar red
property uchar green
property uchar blue
end_header
408 577 254 163 16 48 
408 580 248 153 13 45 
408 584 246 152 13 45 
408 584 247 158 13 49 
408 585 246 150 17 46 
408 585 247 158 15 48 
409 584 246 147 13 46 
408 587 245 150 16 52 
408 586 246 151 19 50 
408 586 247 156 20 49 
408 587 246 158 14 51 
408 588 245 156 20 55 
408 589 245 160 17 53 
408 588 246 163 15 51 
408 584 248 151 14 47 
403 597 246 152 14 40 
403 597 247 150 14 43 
403 598 245 166 16 50 
403 599 244 167 15 52 
403 599 245 162 15 49 
402 599 246 134 18 54 
402 599 247 110 14 40 
403 598 246 153 14 45 
403 598 247 138 14 40 
403 599 246 145 15 50 
403 599 247 127 13 41 
406 593 243 162 15 48 
406 594 243 165 15 49 
406 595 243 167 16 50 
405 593 245 172 16 53 
404 593 247 155 14 44 
405 592 246 163 15 53 
405 592 247 154 14 46 
405 593 246 166 15 52 
405 593 247 155 14 45 
405 594 245 171 16 52 
405 595 244 173 16 55 
405 595 245 171 16 53 
404 594 246 157 15 45 
404 594 247 154 14 42 
404 595 246 161 15 48 
404 595 247 155 14 46 
405 594 246 166 15 49 
405 595 246 166 16 50 
406 592 244 166 15 51 
406 592 245 170 16 53 
406 593 244 167 16 49 
406 593 245 171 16 53 
407 592 244 164 15 53 
406 594 244 169 16 52 
406 595 244 169 15 53 
405 596 243 170 16 54 
405 597 243 172 16 53 
404 598 243 173 16 54 
404 599 242 170 15 53 
404 599 243 171 15 55 
405 598 242 169 14 52 
405 598 243 171 15 54 
405 599 242 168 14 51 
406 596 243 168 15 53 
406 597 243 169 15 51 
404 596 245 171 16 52 
404 597 244 172 16 55 
404 597 245 169 16 53 
405 596 244 173 16 55 
405 596 245 173 17 53 
405 597 244 173 16 55 
404 596 246 161 15 48 
404 596 247 156 15 46 
404 597 246 161 15 46 
404 597 247 154 15 44 
404 598 244 171 16 54 
404 598 245 168 16 51 
404 599 244 169 15 53 
403 592 251 173 16 50 
403 593 251 172 16 53 
403 594 251 173 16 52 
403 595 251 174 17 49 
403 592 252 175 17 54 
403 592 253 176 17 53 
403 593 252 175 17 54 
403 593 253 175 17 55 
403 592 254 173 19 52 
403 592 255 156 17 48 
403 593 254 169 21 56 
403 593 255 143 17 45 
402 595 253 159 23 52 
403 594 252 175 17 53 
403 594 253 173 19 54 
403 595 252 175 20 52 
403 595 253 168 20 52 
402 595 254 146 19 47 
402 595 255 112 20 33 
403 594 254 161 18 51 
403 594 255 132 17 38 
403 595 254 155 18 49 
403 595 255 113 18 31 
403 596 249 165 17 51 
403 597 248 154 19 48 
403 597 249 159 24 54 
403 596 250 170 18 54 
403 596 251 169 18 53 
403 597 250 158 24 59 
403 597 251 148 17 50 
402 599 248 80 16 27 
402 599 249 80 22 30 
403 598 248 128 15 37 
403 598 249 136 27 52 
403 599 248 98 10 26 
402 598 250 113 19 43 
402 598 251 115 17 40 
402 599 250 90 26 36 
402 599 251 104 27 38 
403 598 250 130 26 52 
403 598 251 126 19 48 
401 599 252 117 40 46 
401 599 253 105 35 48 
401 599 254 79 25 33 
401 599 255 64 34 33 
402 596 252 163 32 53 
402 596 253 153 31 52 
402 597 252 142 27 45 
402 597 253 138 35 52 
403 596 252 167 24 53 
403 596 253 165 31 56 
403 597 252 154 19 49 
402 596 254 132 26 42 
402 596 255 99 23 33 
402 597 254 117 33 46 
402 597 255 90 26 35 
402 598 252 122 29 40 
402 598 253 121 37 46 
402 599 252 118 37 42 
402 599 253 113 40 47 
402 598 254 101 33 38 
402 598 255 80 32 33 
402 599 254 86 31 35 
402 599 255 67 34 31 
404 592 248 155 13 46 
404 592 249 161 14 48 
404 593 248 154 14 44 
404 593 249 163 15 49 
405 592 248 152 14 45 
404 592 250 168 15 48 
404 592 251 171 15 49 
404 593 250 169 15 49 
404 593 251 171 16 50 
404 594 248 155 14 44 
404 594 249 163 15 49 
404 595 248 156 15 45 
404 595 249 164 16 47 
404 594 250 169 16 51 
404 594 251 171 16 51 
404 595 250 171 17 50 
404 596 248 158 16 44 
404 596 249 164 17 48 
404 597 248 156 16 44 
403 600 243 170 15 52 
403 601 242 171 15 53 
403 601 243 169 15 51 
402 603 243 169 16 53 
403 602 242 171 15 54 
403 602 243 169 15 53 
403 603 242 171 16 54 
403 603 243 170 16 52 
401 603 245 127 24 41 
401 602 246 96 27 34 
401 602 247 62 28 27 
401 603 246 97 32 40 
401 603 247 58 24 33 
402 600 245 150 14 47 
402 601 245 149 15 49 
403 600 244 167 15 52 
403 600 245 160 15 50 
403 601 244 166 15 52 
402 600 246 133 16 47 
402 600 247 99 19 39 
402 601 246 119 17 39 
402 601 247 81 24 28 
403 600 246 146 19 53 
402 602 244 164 16 53 
402 602 245 146 18 50 
402 603 244 164 16 52 
402 603 245 145 20 46 
403 602 244 166 15 52 
402 602 246 110 21 38 
402 602 247 73 28 25 
401 606 243 164 16 51 
401 607 243 169 18 51 
402 604 243 170 16 52 
402 605 243 170 17 52 
403 604 242 172 17 52 
403 605 242 170 17 54 
403 606 241 143 13 42 
403 607 241 147 18 52 
402 606 242 169 17 54 
402 606 243 170 17 53 
402 607 242 170 19 57 
402 607 243 171 18 54 
403 606 242 163 16 52 
403 607 242 158 17 54 
401 604 244 156 15 50 
401 604 245 134 18 45 
401 605 244 156 15 50 
401 605 245 130 17 46 
401 604 246 85 26 39 
401 604 247 55 28 36 
401 605 246 91 21 39 
401 605 247 62 24 36 
400 606 245 129 29 46 
400 607 244 147 16 47 
400 607 245 130 24 41 
401 606 244 158 15 48 
401 606 245 137 22 49 
401 607 244 157 20 47 
401 607 245 146 22 49 
400 606 246 98 27 43 
400 606 247 77 27 42 
400 607 246 100 19 34 
400 607 247 75 17 28 
401 606 246 107 30 47 
402 604 244 164 16 51 
402 605 244 164 16 51 
404 600 242 170 15 52 
404 600 243 171 15 54 
404 601 242 171 15 53 
405 600 242 170 15 54 
404 602 242 169 15 52 
401 601 248 62 25 28 
401 601 249 60 28 28 
401 600 250 89 36 43 
401 600 251 111 37 51 
401 601 250 82 36 42 
401 601 251 99 39 52 
401 602 248 56 26 30 
401 602 249 49 30 28 
401 603 248 47 25 32 
401 603 249 44 28 35 
400 602 251 52 26 34 
400 603 250 42 28 38 
400 603 251 46 28 37 
401 602 250 58 26 34 
401 602 251 71 31 41 
401 603 250 43 25 36 
402 600 248 75 23 34 
402 600 249 68 27 33 
402 601 248 69 25 31 
402 601 249 60 23 27 
402 600 250 86 32 39 
402 600 251 103 31 43 
401 600 252 114 39 49 
401 600 253 98 34 44 
401 601 252 100 41 50 
401 601 253 82 33 37 
401 600 254 75 30 36 
401 600 255 58 31 35 
401 601 254 63 30 33 
401 601 255 53 34 34 
400 602 252 67 33 36 
400 602 253 62 29 30 
400 603 252 56 31 30 
400 603 253 57 34 32 
401 602 252 75 34 40 
401 602 253 68 31 31 
400 603 254 52 36 35 
401 602 254 58 33 33 
401 602 255 55 37 35 
401 603 254 52 37 35 
401 603 255 55 39 37 
402 600 255 59 35 36 
402 601 255 57 36 36 
400 604 249 42 26 38 
400 605 248 54 29 32 
400 605 249 52 31 39 
401 604 248 49 25 32 
401 604 249 45 26 34 
401 605 248 54 27 32 
400 604 250 44 28 36 
400 604 251 54 27 38 
400 605 250 51 31 37 
400 605 251 60 33 38 
400 606 248 61 31 37 
400 606 249 55 34 38 
400 607 248 59 28 28 
400 607 249 55 30 31 
400 606 250 56 34 34 
400 606 251 60 37 37 
400 607 250 53 31 29 
400 604 252 58 34 35 
400 604 253 53 35 35 
400 605 252 57 35 38 
400 605 253 53 37 38 
400 604 254 47 34 31 
400 605 254 49 35 32 
401 604 254 49 39 37 
401 604 255 55 40 35 
401 605 254 50 39 34 
401 605 255 60 43 31 
400 606 252 51 35 40 
400 606 253 50 34 38 
400 607 252 45 33 33 
400 607 253 50 33 33 
400 606 254 50 36 32 
400 607 254 51 32 31 
401 606 254 58 40 35 
401 606 255 68 48 36 
401 607 254 64 41 37 
401 607 255 72 49 36 
402 604 255 67 46 34 
402 605 255 73 53 34 
402 606 255 77 55 39 
402 607 255 80 56 41 
399 617 237 48 31 34 
399 616 238 77 19 23 
399 616 239 90 26 29 
399 617 238 54 28 30 
399 617 239 56 27 27 
398 618 236 45 34 35 
398 618 237 41 30 34 
398 619 236 40 32 34 
398 619 237 36 30 32 
399 618 237 45 29 36 
398 618 238 36 29 35 
398 618 239 33 30 33 
398 619 238 32 29 37 
398 619 239 27 31 38 
399 618 238 42 28 36 
397 621 235 36 34 35 
396 623 235 107 35 44 
397 622 235 37 32 35 
397 623 235 89 35 42 
397 621 236 35 33 36 
397 621 237 32 31 35 
397 620 239 35 32 34 
397 621 238 35 31 33 
397 621 239 42 31 35 
396 623 236 98 31 36 
396 623 237 82 26 30 
397 622 236 39 31 35 
397 622 237 36 29 32 
397 623 236 71 31 31 
397 623 237 56 27 29 
396 623 238 66 23 31 
397 622 238 37 25 31 
397 622 239 43 26 33 
397 623 238 47 24 31 
397 623 239 48 19 30 
398 620 236 37 30 35 
398 620 237 36 30 37 
398 620 238 33 31 36 
398 620 239 32 31 36 
399 609 245 148 21 50 
399 608 247 115 29 44 
399 609 246 139 33 53 
399 609 247 131 36 49 
399 610 244 155 17 45 
399 610 245 150 19 42 
399 611 244 157 17 47 
399 611 245 150 27 47 
398 611 247 133 26 49 
399 610 246 142 27 48 
399 610 247 139 35 48 
399 611 246 141 24 52 
399 611 247 138 33 54 
399 612 243 167 18 52 
399 613 242 176 18 56 
399 613 243 167 21 53 
399 614 241 175 26 52 
399 615 240 161 27 53 
399 615 241 170 25 53 
398 615 243 158 33 52 
399 614 242 176 23 53 
399 614 243 166 22 53 
399 615 242 173 28 56 
399 615 243 167 31 53 
398 612 245 138 31 48 
398 613 244 145 16 50 
398 613 245 124 19 42 
399 612 244 156 24 52 
399 612 245 147 30 50 
399 613 244 155 24 52 
399 613 245 150 27 53 
398 612 246 129 28 47 
398 612 247 122 30 49 
398 613 246 100 22 30 
398 613 247 94 27 38 
399 612 246 136 30 54 
398 614 244 146 24 50 
398 614 245 111 25 41 
398 615 244 137 34 48 
398 615 245 100 34 39 
399 614 244 154 18 49 
398 614 246 83 27 35 
398 614 247 74 28 36 
398 615 246 70 29 31 
398 615 247 66 33 37 
399 608 248 91 27 40 
399 608 249 63 23 32 
399 609 248 124 38 53 
399 609 249 94 32 45 
399 608 250 49 29 32 
399 608 251 40 34 30 
399 609 250 53 30 34 
399 609 251 39 33 32 
398 611 248 125 35 49 
398 611 249 106 31 43 
399 610 248 130 33 46 
399 610 249 106 32 42 
399 611 249 89 31 39 
399 610 250 56 30 36 
399 610 251 41 35 34 
399 611 250 55 27 34 
399 611 251 46 34 32 
399 608 252 41 35 33 
399 609 252 43 33 34 
399 610 252 46 35 35 
399 611 252 55 36 35 
398 612 248 111 36 54 
398 612 249 77 23 38 
398 613 248 81 25 41 
398 613 249 62 23 34 
399 612 250 53 25 33 
399 612 251 52 36 33 
399 613 250 55 32 33 
399 613 251 59 38 36 
398 614 248 64 28 37 
398 614 249 60 27 33 
398 615 248 63 33 41 
398 615 249 67 30 36 
399 614 250 59 32 31 
399 614 251 63 39 35 
399 615 250 66 37 33 
399 615 251 65 39 33 
399 612 252 57 37 34 
397 617 243 96 45 52 
397 619 241 25 28 36 
397 618 243 63 33 37 
397 619 242 32 27 36 
397 619 243 37 26 30 
398 616 241 135 27 51 
398 617 240 75 23 30 
398 617 241 103 25 35 
399 616 240 127 29 48 
399 616 241 154 30 56 
399 617 240 82 22 29 
398 616 242 147 31 53 
398 616 243 140 34 49 
398 617 242 111 33 47 
398 617 243 112 43 51 
399 616 242 165 28 56 
398 618 240 39 28 32 
398 618 241 53 24 28 
398 619 240 24 32 37 
398 619 241 26 30 36 
398 618 242 65 25 34 
398 618 243 81 39 45 
398 619 242 36 25 33 
397 616 245 64 25 31 
397 617 244 88 35 39 
397 617 245 69 24 36 
397 617 246 54 28 37 
397 617 247 58 29 38 
397 618 244 60 35 37 
397 618 245 52 30 36 
397 619 244 45 28 30 
397 619 245 48 32 32 
397 618 246 51 29 38 
397 618 247 62 28 36 
397 619 246 59 28 36 
397 619 247 68 27 35 
398 616 244 120 33 42 
398 616 245 89 31 37 
398 617 244 107 36 41 
398 616 246 57 25 27 
398 616 247 56 26 32 
397 620 240 33 31 33 
397 620 241 31 30 35 
397 621 240 48 33 34 
397 621 241 52 32 35 
397 620 242 36 29 36 
397 620 243 45 28 32 
397 621 242 60 30 36 
397 621 243 78 35 44 
397 622 240 55 29 37 
397 622 241 64 31 39 
397 623 240 53 22 29 
397 623 241 63 24 28 
396 623 242 90 28 34 
396 623 243 102 26 38 
397 622 242 82 33 43 
397 622 243 96 30 44 
397 623 242 83 26 33 
397 623 243 98 22 36 
398 620 240 28 33 37 
397 620 244 58 28 30 
397 620 245 65 31 32 
397 621 244 87 37 42 
397 621 245 84 32 37 
397 620 246 69 27 33 
397 620 247 71 26 32 
397 621 246 83 27 34 
396 623 244 102 18 34 
397 622 244 97 32 40 
397 622 245 92 32 38 
397 623 244 100 25 38 
397 623 245 93 29 33 
397 622 246 90 29 33 
397 623 246 91 30 33 
398 620 247 77 28 33 
398 621 247 84 32 37 
398 622 247 89 37 35 
398 623 247 92 38 36 
398 616 248 62 29 33 
398 616 249 71 32 36 
398 617 248 68 30 37 
398 617 249 75 31 34 
399 616 250 70 38 34 
399 616 251 68 37 33 
399 617 250 77 40 35 
399 617 251 73 40 36 
398 618 248 73 28 36 
398 618 249 80 37 36 
398 619 248 77 29 32 
398 619 249 84 39 38 
399 618 249 82 42 37 
399 619 249 84 42 39 
399 618 250 81 42 35 
399 619 250 84 43 37 
398 620 248 82 34 35 
398 620 249 84 38 38 
398 621 248 86 39 37 
399 620 249 85 42 38 
399 621 249 85 42 39 
399 620 250 84 43 37 
398 622 248 89 40 38 
398 623 248 90 40 35 
399 622 248 88 42 39 
399 622 249 86 41 36 
399 623 248 87 42 38 
399 623 249 85 42 38 
395 627 235 163 17 48 
395 626 236 165 18 45 
395 627 236 164 17 48 
395 627 237 164 17 46 
395 627 238 162 17 43 
395 628 238 153 16 47 
395 628 239 151 16 45 
395 629 238 147 18 46 
395 629 239 143 14 43 
395 630 238 138 14 38 
395 630 239 133 12 35 
395 631 238 130 13 38 
395 631 239 122 15 33 
396 624 235 151 31 58 
396 625 235 167 18 46 
396 626 235 164 17 41 
396 627 235 162 16 48 
396 624 236 141 34 53 
396 624 237 131 27 47 
396 625 236 167 22 50 
396 625 237 163 24 53 
396 624 238 110 19 40 
396 624 239 94 16 35 
396 625 238 153 24 55 
396 625 239 141 26 53 
396 626 236 166 17 44 
396 626 237 166 19 46 
396 627 236 162 17 50 
396 627 237 163 17 48 
396 626 238 163 19 53 
396 626 239 160 24 57 
396 627 238 161 17 44 
396 627 239 158 18 42 
396 628 235 161 16 49 
396 629 235 158 16 44 
396 630 235 153 15 40 
396 631 235 150 17 45 
396 628 236 160 16 50 
396 628 237 158 16 49 
396 629 236 155 16 46 
396 629 237 151 15 45 
396 628 238 155 16 45 
396 629 238 150 15 46 
396 630 236 149 14 40 
396 630 237 145 14 38 
396 631 236 146 16 44 
396 631 237 138 13 38 
396 630 238 138 15 35 
396 631 238 132 16 36 
395 632 238 127 16 43 
395 632 239 114 11 35 
395 633 238 124 12 32 
395 633 239 112 7 29 
395 634 239 123 12 36 
395 635 239 129 16 39 
395 636 239 125 22 42 
395 637 239 113 22 41 
395 638 239 95 22 36 
395 639 239 62 25 33 
396 632 235 148 15 55 
396 633 235 140 14 38 
396 634 235 144 14 37 
396 635 235 158 16 46 
396 632 236 144 15 52 
396 632 237 138 15 48 
396 633 236 138 13 38 
396 633 237 134 11 35 
396 632 238 132 18 45 
396 633 238 129 14 35 
396 634 236 144 15 39 
396 634 237 141 13 38 
396 635 236 156 16 46 
396 635 237 152 17 46 
396 634 238 133 15 36 
396 635 238 143 18 43 
396 635 239 135 15 40 
396 636 235 168 17 53 
396 637 235 171 18 52 
396 638 235 170 21 53 
396 639 235 155 20 52 
397 639 235 134 27 49 
396 636 236 165 18 53 
396 636 237 158 19 53 
396 637 236 168 21 56 
396 637 237 159 25 58 
396 636 238 145 19 50 
396 636 239 133 20 47 
396 637 238 141 28 55 
396 637 239 129 24 50 
396 638 236 165 27 55 
396 638 237 149 27 52 
396 639 236 138 22 44 
396 639 237 114 19 37 
396 638 238 123 23 46 
396 638 239 96 15 34 
396 639 238 88 19 36 
396 639 239 71 17 31 
395 627 241 142 15 39 
395 628 240 143 15 41 
395 628 241 130 14 38 
395 629 240 136 13 41 
395 629 241 124 13 37 
395 628 242 118 12 37 
395 629 242 110 16 38 
395 629 243 92 14 32 
394 631 241 108 18 37 
395 630 240 127 11 33 
395 630 241 117 14 34 
395 631 240 113 17 31 
395 631 241 116 19 37 
394 631 242 96 22 39 
394 631 243 78 27 34 
395 630 242 105 21 37 
395 630 243 87 16 33 
395 631 243 81 27 33 
394 631 244 65 32 33 
395 630 244 80 27 33 
395 631 244 78 31 36 
395 631 245 82 33 37 
396 624 240 83 19 29 
396 624 241 90 20 32 
396 625 240 133 25 50 
396 625 241 125 24 46 
396 624 242 103 20 38 
396 624 243 106 20 40 
396 625 242 117 24 47 
396 625 243 107 20 42 
396 626 240 154 28 56 
396 626 241 139 23 50 
396 627 240 152 17 42 
396 627 241 137 15 42 
396 626 242 121 21 45 
396 626 243 102 20 37 
396 627 242 121 17 42 
396 627 243 101 19 33 
396 624 244 102 16 37 
396 624 245 94 27 34 
396 625 244 97 20 36 
396 625 245 91 30 33 
397 624 245 91 31 32 
397 625 245 90 33 32 
397 624 246 91 34 33 
397 624 247 91 38 36 
397 625 246 90 36 33 
396 626 244 91 24 33 
396 626 245 90 31 34 
396 627 244 88 25 32 
396 627 245 88 31 34 
397 626 245 90 34 34 
397 627 245 90 35 36 
397 626 246 90 36 35 
397 627 246 90 38 36 
398 624 247 91 41 36 
398 625 247 90 41 36 
398 626 247 89 42 36 
398 627 246 90 39 36 
398 627 247 89 42 37 
399 626 247 88 45 36 
399 627 247 86 45 35 
396 628 242 113 15 36 
396 628 243 97 22 32 
396 629 243 86 21 29 
396 628 244 87 29 37 
396 628 245 89 32 39 
396 629 244 85 32 37 
396 629 245 87 35 38 
397 628 245 89 35 39 
397 629 245 90 35 39 
397 628 246 90 40 37 
397 629 246 88 39 37 
396 630 244 81 31 37 
396 630 245 86 35 38 
396 631 245 85 38 37 
397 630 245 88 37 39 
397 630 246 86 41 38 
397 631 246 83 42 36 
398 628 247 86 44 34 
398 629 246 86 42 34 
398 629 247 84 44 33 
399 628 247 82 44 33 
399 629 247 80 46 33 
398 630 246 84 43 36 
398 630 247 81 44 32 
398 631 246 82 46 35 
398 631 247 79 46 34 
399 630 247 79 47 32 
399 631 247 77 48 32 
398 624 248 90 42 34 
399 624 248 87 42 36 
399 625 248 86 44 35 
399 626 248 86 46 36 
399 627 248 83 45 36 
399 628 248 80 47 35 
399 629 248 80 50 35 
393 632 242 87 12 29 
393 632 243 67 19 26 
393 633 242 83 14 26 
393 633 243 62 22 27 
393 634 242 78 21 30 
393 634 243 62 21 33 
393 635 243 65 31 40 
394 632 240 104 8 30 
394 632 241 103 13 32 
394 633 240 102 6 29 
394 633 241 101 12 32 
395 632 240 106 13 33 
395 633 240 106 5 28 
394 632 242 89 14 31 
394 632 243 61 22 26 
394 634 240 104 11 36 
394 634 241 96 10 36 
394 635 240 108 18 40 
394 635 241 93 22 40 
395 634 240 109 13 37 
395 635 240 112 22 41 
394 634 242 79 26 34 
394 635 242 81 34 39 
394 635 243 62 31 42 
393 633 244 44 24 26 
393 634 244 43 24 28 
394 632 244 53 30 29 
394 632 245 61 33 34 
394 633 244 44 30 25 
394 633 245 52 30 28 
395 632 245 72 36 38 
395 633 245 65 36 35 
394 634 244 42 32 34 
394 634 245 47 30 29 
394 635 244 52 36 40 
395 634 245 58 36 32 
395 635 245 57 37 36 
394 636 241 86 27 36 
394 637 241 68 15 29 
395 636 240 102 24 37 
395 637 240 86 23 31 
395 637 241 70 17 30 
394 636 242 70 28 35 
394 636 243 54 27 34 
394 637 242 53 22 29 
394 637 243 51 30 31 
395 637 243 54 32 32 
395 638 240 66 22 29 
395 638 241 57 22 34 
395 639 240 48 31 33 
395 639 241 54 37 38 
395 638 242 54 31 35 
395 638 243 61 34 35 
395 639 242 63 38 38 
395 639 243 74 38 39 
394 636 244 49 34 36 
395 636 244 56 38 34 
395 636 245 63 45 39 
395 637 244 57 37 28 
395 638 244 64 35 32 
395 639 244 73 39 39 
396 632 245 78 38 37 
396 632 246 75 39 34 
396 633 246 67 40 33 
397 632 246 76 42 31 
397 633 246 69 42 32 
396 635 245 61 39 33 
396 634 246 63 41 32 
396 635 246 65 43 35 
397 634 246 67 46 33 
397 635 246 65 44 33 
398 632 246 75 44 31 
398 632 247 76 46 32 
398 633 246 72 44 31 
398 633 247 75 52 32 
399 632 247 76 52 35 
399 633 247 76 53 32 
398 634 246 69 47 32 
398 634 247 73 52 33 
398 635 246 70 49 34 
399 634 247 75 56 33 
399 635 246 73 54 35 
399 635 247 76 55 35 
396 636 245 65 44 36 
396 637 245 66 48 36 
397 636 245 66 45 37 
397 637 245 68 52 39 
397 636 246 67 47 36 
397 637 246 68 51 39 
396 638 244 69 40 30 
396 638 245 71 48 36 
396 639 244 80 44 41 
396 639 245 80 50 42 
397 638 245 72 54 38 
397 639 245 79 55 41 
398 636 246 70 50 37 
398 637 246 71 52 38 
399 636 246 74 53 37 
399 636 247 78 57 38 
399 637 246 74 54 37 
398 639 245 78 58 41 
398 638 246 73 57 38 
398 639 246 75 57 39 
399 638 246 75 57 37 
399 639 246 77 58 39 
401 613 239 161 24 47 
400 614 239 154 37 55 
400 615 238 103 31 45 
400 615 239 136 34 53 
401 614 239 150 32 52 
400 616 238 78 19 30 
400 616 239 115 25 43 
401 608 243 170 18 53 
401 609 242 175 18 55 
401 609 243 169 18 55 
401 611 241 177 18 52 
400 610 243 164 18 50 
400 611 243 170 17 54 
401 610 242 175 18 53 
401 610 243 174 18 52 
401 611 242 176 18 52 
402 609 241 175 18 50 
403 608 241 163 23 55 
403 609 241 174 21 51 
402 608 242 172 20 54 
402 609 242 174 18 54 
402 610 241 178 18 55 
402 611 240 178 18 53 
402 611 241 178 18 52 
403 610 241 178 18 55 
402 610 242 175 18 56 
400 608 244 156 17 50 
400 608 245 139 24 46 
400 609 244 156 18 49 
400 609 245 146 21 51 
401 608 244 160 16 49 
400 608 246 114 33 42 
400 608 247 96 28 35 
400 609 246 137 40 57 
400 610 244 155 20 45 
400 613 240 173 22 47 
400 613 241 176 20 49 
401 612 240 179 19 54 
401 612 241 178 19 52 
401 613 240 173 21 49 
401 613 241 177 20 53 
400 612 242 176 18 54 
400 612 243 173 18 54 
400 613 242 177 19 53 
401 612 242 176 18 53 
400 614 240 169 30 53 
400 614 241 175 23 49 
400 615 240 159 31 56 
400 615 241 172 26 54 
401 614 240 166 31 54 
402 612 240 178 20 54 
400 608 248 72 19 26 
400 608 252 43 34 33 
400 608 253 54 39 35 
400 609 252 44 34 35 
400 609 253 54 37 34 
401 608 254 68 47 37 
401 608 255 77 54 38 
401 609 254 70 49 36 
400 610 252 48 33 33 
400 610 253 59 39 36 
400 611 252 57 34 35 
400 611 253 66 45 37 
401 610 253 67 47 36 
401 611 253 75 50 35 
401 610 254 75 53 37 
401 611 254 78 54 37 
402 608 255 84 60 42 
402 609 255 86 63 42 
403 609 255 91 65 44 
402 610 254 83 62 41 
402 610 255 89 66 42 
402 611 254 87 63 41 
402 611 255 89 67 43 
403 610 255 91 68 42 
403 611 255 93 70 43 
400 615 251 70 41 32 
400 612 252 62 39 34 
400 613 252 66 41 34 
401 612 253 75 51 34 
401 613 253 80 53 35 
401 612 254 80 53 34 
400 614 252 72 46 33 
400 615 252 74 47 31 
401 614 252 81 52 33 
401 614 253 84 54 36 
401 615 252 81 53 34 
401 615 253 85 56 36 
402 613 253 88 61 41 
402 612 254 88 63 40 
402 613 254 89 63 42 
403 612 255 95 72 45 
403 613 254 93 70 44 
403 613 255 96 73 46 
402 614 253 89 62 40 
402 615 253 89 63 40 
403 615 253 94 69 46 
402 614 254 91 65 43 
403 614 254 96 71 47 
403 615 254 95 71 47 
404 612 255 97 74 44 
404 613 255 98 75 46 
404 614 255 99 76 48 
404 615 254 97 74 48 
404 615 255 99 76 48 
405 615 255 101 78 51 
400 616 251 72 43 32 
400 617 251 78 44 37 
401 617 251 82 51 39 
400 618 250 79 43 34 
400 618 251 80 48 36 
400 619 250 81 44 35 
400 619 251 79 45 33 
401 618 251 83 52 38 
401 619 251 82 52 36 
402 619 251 88 61 43 
400 616 252 73 46 31 
401 616 252 82 54 35 
401 617 252 84 54 38 
402 616 252 87 60 40 
402 616 253 89 63 43 
402 617 252 89 61 42 
402 617 253 90 64 46 
403 616 253 94 69 46 
403 617 253 95 71 48 
403 616 254 95 71 46 
402 618 252 90 61 44 
402 619 252 91 66 47 
403 618 252 94 68 49 
403 618 253 97 74 50 
403 619 252 95 71 50 
403 619 253 99 77 52 
400 621 249 85 44 39 
400 620 250 81 44 35 
400 621 250 84 47 39 
401 620 250 82 50 35 
401 620 251 83 54 37 
401 621 250 84 54 39 
401 621 251 86 59 40 
400 622 249 83 44 35 
400 623 249 81 45 36 
400 622 250 82 49 38 
400 623 250 81 49 36 
401 622 250 84 56 40 
401 623 250 84 58 41 
402 620 251 89 66 44 
402 621 251 91 68 45 
403 621 251 95 74 48 
402 622 251 91 69 46 
402 623 250 90 68 47 
402 623 251 92 70 48 
403 622 251 96 74 50 
403 623 251 97 75 51 
402 620 252 92 69 48 
403 620 252 97 75 53 
403 620 253 100 78 54 
403 621 252 98 77 52 
403 622 252 100 77 52 
403 623 252 100 78 53 
404 617 253 98 75 50 
404 616 254 98 75 48 
404 616 255 99 77 49 
404 617 254 100 77 51 
405 616 255 102 79 52 
405 617 254 102 79 52 
405 617 255 103 80 53 
404 618 253 100 77 52 
404 619 253 101 78 53 
404 618 254 100 78 52 
404 619 254 101 79 53 
405 618 254 101 79 53 
405 618 255 103 80 54 
405 619 254 102 80 53 
406 617 255 104 82 55 
406 618 255 105 83 57 
406 619 255 105 82 56 
407 619 255 106 83 57 
404 620 253 102 80 54 
404 621 253 102 80 54 
405 621 253 104 82 57 
405 620 254 103 81 55 
405 621 254 104 82 56 
404 622 252 102 80 55 
404 622 253 104 82 58 
404 623 252 103 81 57 
404 623 253 104 82 58 
405 622 253 105 83 59 
405 623 253 105 83 59 
405 622 254 105 83 58 
405 623 254 105 83 58 
406 620 254 104 82 56 
406 620 255 106 83 57 
406 621 254 106 83 57 
406 621 255 106 84 57 
406 622 254 106 84 58 
406 622 255 105 83 58 
406 623 254 105 83 58 
406 623 255 105 83 57 
407 622 255 106 84 58 
407 623 255 105 83 57 
400 624 249 82 46 37 
400 625 248 84 46 37 
400 625 249 82 50 38 
401 625 249 86 61 45 
401 624 250 84 58 42 
401 625 250 88 64 47 
400 626 248 84 49 37 
400 626 249 84 53 39 
400 627 248 83 52 38 
401 626 249 87 63 45 
401 627 249 87 64 45 
402 624 250 90 68 47 
402 624 251 93 71 48 
402 625 250 93 72 52 
403 624 251 98 77 53 
403 625 251 99 79 56 
402 627 249 92 71 50 
402 626 250 94 73 52 
402 627 250 95 75 53 
403 626 250 97 77 54 
403 626 251 100 80 56 
403 627 250 97 77 55 
403 627 251 99 79 56 
403 624 252 102 81 56 
400 628 248 82 52 36 
400 629 248 82 57 38 
401 628 249 88 67 45 
401 629 248 87 65 44 
401 629 249 89 69 47 
400 630 248 82 59 39 
400 631 248 83 60 39 
401 630 248 89 69 47 
401 631 248 89 70 48 
402 628 249 94 74 53 
402 629 249 93 75 54 
403 629 249 96 78 57 
403 628 250 97 78 56 
403 628 251 98 79 56 
403 629 250 95 76 54 
402 630 249 93 74 53 
402 631 248 91 73 50 
402 631 249 92 73 51 
403 630 249 92 74 52 
403 631 249 89 70 48 
403 630 250 90 71 50 
403 631 250 86 68 45 
404 626 251 100 79 55 
404 627 251 100 80 56 
404 624 252 103 82 57 
404 624 253 103 82 57 
404 625 252 102 82 57 
405 624 253 103 81 56 
405 625 253 102 80 55 
404 626 252 101 80 55 
404 627 252 99 79 56 
405 626 252 100 79 55 
405 626 253 100 79 54 
405 627 252 97 77 52 
405 627 253 98 77 53 
406 625 253 101 80 55 
406 624 254 103 81 55 
406 624 255 104 82 56 
406 625 254 101 80 55 
407 624 255 104 82 56 
407 625 255 103 82 58 
406 626 253 99 79 54 
406 627 253 94 73 47 
406 626 254 100 79 55 
406 627 254 95 74 49 
407 626 254 98 78 54 
407 626 255 101 80 57 
407 627 254 96 76 52 
407 627 255 99 78 55 
404 628 251 95 76 55 
404 629 251 89 71 48 
404 630 250 86 68 45 
404 630 251 86 68 45 
404 631 250 85 67 44 
404 631 251 84 66 44 
405 630 251 86 67 45 
405 631 251 85 66 44 
404 628 252 97 78 55 
405 628 252 91 72 47 
405 629 252 86 67 44 
405 630 252 87 68 46 
405 631 252 86 68 46 
406 628 253 90 69 45 
406 629 252 87 68 43 
406 629 253 90 70 48 
407 629 253 93 73 53 
407 628 254 94 74 51 
407 628 255 100 79 56 
407 629 254 97 77 55 
406 630 252 88 70 48 
406 630 253 91 72 52 
406 631 252 89 71 50 
406 631 253 92 74 54 
407 630 253 95 76 56 
407 631 253 94 76 55 
407 630 254 99 79 58 
407 631 254 97 77 55 
400 632 247 82 59 39 
400 633 247 84 63 40 
400 634 247 85 63 40 
400 635 247 84 64 42 
401 634 247 91 72 47 
401 635 247 90 69 47 
400 636 247 83 62 41 
400 637 246 81 60 40 
400 637 247 82 62 41 
401 636 247 91 71 48 
401 637 247 89 70 46 
400 638 246 82 62 39 
400 638 247 83 62 40 
400 639 246 82 63 42 
401 638 247 89 68 45 
401 639 246 85 65 45 
401 639 247 88 67 45 
402 636 247 95 76 54 
402 637 247 94 75 53 
402 638 247 95 74 52 
402 639 247 95 74 54 
403 638 247 95 74 52 
403 639 247 96 74 54 
400 632 248 86 64 42 
400 633 248 87 65 43 
401 632 248 90 70 49 
401 633 248 91 70 48 
401 634 248 91 71 48 
401 635 248 93 73 51 
402 632 248 91 71 49 
402 632 249 91 71 48 
402 633 248 91 70 48 
403 632 249 86 67 44 
403 633 249 84 64 42 
403 632 250 84 66 44 
402 634 248 92 71 49 
402 635 248 93 74 52 
403 634 248 88 68 44 
403 634 249 83 64 39 
403 635 248 87 67 43 
403 635 249 82 62 35 
402 636 248 94 75 52 
403 636 248 87 65 38 
403 637 248 92 71 48 
403 638 248 93 71 48 
403 639 248 94 71 49 
404 632 250 84 66 44 
404 633 250 83 65 43 
405 632 251 85 67 45 
405 633 250 86 68 47 
405 633 251 88 69 48 
404 634 249 83 63 38 
404 635 249 83 63 37 
404 634 250 85 66 42 
405 634 250 88 69 46 
405 634 251 89 70 48 
405 635 250 89 69 44 
406 633 251 88 70 48 
406 634 251 91 72 49 
406 635 250 91 71 47 
406 635 251 92 72 48 
407 635 251 97 76 52 
405 632 252 86 68 46 
406 632 252 90 71 50 
406 633 252 90 71 50 
407 632 252 92 73 51 
407 632 253 94 74 52 
407 633 252 93 74 52 
407 633 253 96 76 53 
406 634 252 92 73 50 
407 634 252 95 75 52 
407 634 253 98 78 55 
407 635 252 98 77 52 
404 636 249 86 64 36 
404 637 248 89 68 42 
404 637 249 91 69 42 
405 636 249 92 70 44 
405 637 249 96 73 47 
405 636 250 94 72 47 
404 638 248 92 69 45 
404 638 249 92 70 44 
404 639 248 93 71 47 
405 638 249 98 74 49 
405 639 249 99 76 51 
406 636 250 96 75 51 
406 636 251 95 75 52 
406 637 250 100 78 54 
407 636 251 100 78 54 
407 637 251 104 80 55 
406 638 249 102 79 54 
406 639 249 103 80 55 
406 638 250 102 79 53 
406 639 250 105 82 56 
407 638 250 103 80 53 
407 638 251 107 82 56 
407 639 250 107 83 57 
407 639 251 111 86 59 
407 636 252 104 81 55 
407 637 252 109 84 58 
408 627 255 102 81 57 
408 628 255 103 82 59 
408 629 255 104 84 60 
408 630 255 108 86 63 
408 631 254 101 80 57 
408 631 255 108 86 62 
409 631 255 112 90 65 
408 633 253 98 78 53 
408 632 254 100 79 52 
408 632 255 108 84 56 
408 633 254 104 81 53 
408 633 255 109 85 55 
409 632 255 113 89 61 
409 633 255 116 91 62 
408 634 253 101 80 55 
408 635 252 105 83 57 
408 635 253 109 86 59 
408 634 254 108 84 56 
408 635 254 115 90 63 
409 634 254 115 91 63 
409 634 255 122 96 68 
409 635 254 123 96 68 
409 635 255 129 102 74 
410 635 255 133 103 75 
408 636 252 109 85 59 
408 636 253 119 93 66 
408 637 252 114 88 62 
408 637 253 122 95 68 
409 637 253 127 98 70 
409 636 254 127 99 70 
409 636 255 132 103 74 
409 637 254 129 100 71 
409 637 255 133 102 74 
408 638 252 118 91 65 
408 638 253 126 98 71 
408 639 252 120 92 65 
408 639 253 127 98 71 
409 638 253 129 99 71 
409 639 253 127 98 71 
409 638 254 131 100 72 
409 638 255 134 102 74 
409 639 254 130 100 73 
409 639 255 133 102 74 
410 636 255 135 103 75 
410 637 255 135 102 74 
410 638 255 135 102 74 
410 639 255 133 101 73 
395 640 239 43 30 33 
395 641 239 39 32 34 
397 640 235 101 26 40 
397 641 235 72 26 30 
397 642 235 69 32 34 
396 640 236 86 17 26 
396 640 237 62 19 31 
396 641 237 45 28 34 
397 640 236 81 23 29 
397 641 236 57 30 31 
397 641 237 44 29 33 
396 640 238 50 21 30 
396 640 239 45 26 32 
396 641 238 40 30 32 
396 641 239 40 32 34 
396 642 237 45 31 34 
396 643 237 44 30 37 
397 642 236 59 31 35 
397 642 237 49 29 35 
397 643 236 56 30 33 
397 643 237 46 30 35 
396 642 238 41 31 33 
396 642 239 37 31 34 
396 643 238 37 30 34 
396 643 239 34 30 34 
396 644 239 33 34 36 
395 640 240 43 31 34 
395 640 241 54 33 36 
395 641 240 42 30 33 
395 641 241 57 30 35 
395 640 242 64 34 31 
395 640 243 74 37 33 
395 641 242 61 33 31 
395 641 243 70 39 31 
395 642 240 41 30 31 
395 642 241 53 33 33 
395 643 240 35 31 33 
395 643 241 43 32 33 
395 642 242 59 39 34 
395 642 243 65 41 35 
395 643 242 47 34 31 
395 643 243 54 39 35 
395 644 240 33 33 36 
395 644 241 37 31 34 
395 644 242 39 33 32 
395 644 243 43 36 32 
395 645 242 36 33 35 
396 643 240 32 32 33 
396 642 243 68 42 37 
396 643 243 60 43 39 
396 640 244 83 46 44 
396 640 245 87 51 48 
396 641 244 81 47 42 
397 640 245 85 57 48 
397 641 245 85 54 49 
396 642 244 74 43 39 
396 643 244 64 43 39 
397 642 245 79 52 45 
397 643 245 70 50 41 
398 640 245 84 61 47 
398 641 245 82 58 47 
398 640 246 81 59 46 
399 640 246 78 58 43 
399 641 246 78 57 43 
398 642 245 79 58 46 
398 643 245 70 52 41 
399 642 246 74 56 42 
399 643 246 68 52 39 
396 644 240 31 34 36 
396 644 243 49 39 35 
396 645 243 40 36 34 
396 644 244 55 41 36 
396 645 244 44 38 35 
397 644 245 62 49 40 
397 645 245 57 48 41 
396 646 244 43 38 36 
397 646 244 47 42 38 
397 646 245 51 45 40 
398 644 245 63 50 40 
398 645 245 58 49 40 
399 644 245 64 52 39 
399 645 245 61 50 40 
399 644 246 66 53 40 
398 646 245 58 50 43 
399 646 245 59 49 43 
400 640 246 79 61 43 
400 641 246 76 58 41 
401 640 246 84 65 46 
401 640 247 88 69 48 
401 641 246 82 64 44 
400 642 246 73 56 40 
400 643 246 68 53 38 
401 642 246 78 60 42 
401 643 246 73 57 39 
402 640 247 93 72 53 
402 641 247 89 69 49 
403 640 247 95 74 55 
403 641 247 90 71 51 
402 642 247 83 65 44 
402 643 247 79 61 42 
403 642 247 85 66 45 
403 643 247 81 63 43 
400 644 246 65 51 38 
400 645 246 62 50 38 
401 644 246 70 55 39 
401 645 246 66 53 38 
400 646 245 59 49 41 
400 646 246 61 50 40 
401 646 246 64 52 39 
402 644 246 76 58 39 
402 644 247 78 59 39 
402 645 246 72 57 37 
403 644 247 80 61 41 
403 645 247 77 59 38 
402 646 246 69 54 36 
403 646 246 73 57 37 
403 646 247 74 58 37 
403 647 247 73 57 37 
404 641 247 88 67 45 
404 642 247 85 65 43 
404 643 247 82 63 42 
404 644 247 81 63 42 
404 645 247 80 62 41 
404 646 247 78 61 39 
404 647 247 76 59 37 
405 646 247 82 64 42 
405 647 247 80 63 40 
403 640 248 93 71 49 
403 641 248 89 68 46 
404 640 248 92 70 45 
404 641 248 88 66 40 
405 640 248 93 71 46 
405 640 249 98 75 50 
405 641 248 90 69 42 
405 641 249 95 73 47 
404 642 248 85 65 40 
404 643 248 84 64 42 
405 642 248 88 67 41 
405 642 249 90 69 44 
405 643 248 87 67 43 
406 640 249 103 80 56 
406 641 249 101 80 56 
406 640 250 105 83 58 
406 641 250 103 82 60 
407 640 250 107 85 59 
407 640 251 111 87 61 
407 641 250 105 84 61 
407 641 251 108 85 61 
406 642 249 96 75 52 
406 643 249 91 72 48 
406 642 250 101 80 58 
407 642 250 100 80 57 
407 642 251 103 82 59 
407 643 250 97 78 56 
407 643 251 100 80 58 
404 644 248 83 65 42 
404 645 248 81 63 41 
405 644 248 86 67 43 
405 645 248 85 66 42 
405 646 248 84 65 42 
405 647 248 83 65 42 
406 644 249 90 71 48 
406 645 248 88 69 46 
406 645 249 91 72 48 
407 645 249 93 74 51 
407 644 250 95 76 55 
407 644 251 97 78 57 
407 645 250 95 76 54 
406 646 248 88 69 46 
406 646 249 90 71 48 
406 647 248 87 69 45 
407 646 249 93 74 51 
407 647 249 92 73 50 
407 646 250 95 76 54 
408 641 251 109 88 63 
408 642 251 104 83 59 
408 643 251 101 81 59 
408 640 252 117 91 63 
408 641 252 112 88 62 
409 640 253 123 95 67 
409 641 253 116 91 62 
409 640 254 125 97 69 
409 640 255 126 98 68 
409 641 254 118 92 63 
409 641 255 119 93 63 
408 642 252 107 84 58 
408 643 252 104 83 58 
409 642 253 109 85 58 
409 643 252 104 83 59 
409 643 253 106 85 60 
409 642 254 111 88 60 
409 643 254 108 86 61 
410 640 255 125 96 64 
410 641 255 120 93 62 
410 642 255 115 90 62 
410 643 254 109 87 62 
410 643 255 113 90 63 
408 644 251 98 79 58 
408 645 251 98 79 57 
408 646 250 96 77 54 
408 646 251 98 79 56 
408 647 250 96 76 52 
408 647 251 98 78 54 
409 647 251 100 80 55 
408 644 252 102 82 60 
408 645 252 100 81 59 
409 644 252 104 83 60 
409 644 253 106 85 61 
409 645 252 104 84 61 
409 645 253 107 86 62 
409 644 254 108 87 63 
408 646 252 101 81 58 
409 646 252 104 83 59 
409 646 253 108 86 62 
409 647 252 104 83 56 
410 644 254 109 88 64 
410 644 255 113 90 63 
410 645 254 110 88 63 
410 645 255 115 91 63 
410 646 253 110 87 62 
410 647 252 108 85 58 
410 647 253 110 87 61 
410 646 254 112 89 64 
410 646 255 115 91 63 
410 647 254 113 90 63 
411 646 255 117 92 63 
411 647 254 115 90 62 
411 647 255 118 91 61 
408 648 250 96 75 51 
409 648 251 100 78 53 
409 648 252 104 81 54 
410 648 252 108 85 57 
410 648 253 111 87 59 
411 648 253 113 88 59 
411 649 253 113 89 60 
411 648 254 115 90 60 
411 648 255 118 91 60 
411 649 254 117 91 61 
412 648 255 120 92 61 
412 649 254 118 92 62 
412 649 255 120 93 61 
413 649 255 122 93 63 
407 519 283 98 7 33 
406 519 284 65 20 33 
406 519 285 49 26 27 
407 518 284 29 30 30 
407 518 285 26 30 31 
407 519 284 57 19 29 
407 519 285 32 30 26 
406 519 286 55 28 28 
406 519 287 68 35 35 
407 518 286 30 29 33 
407 518 287 44 30 30 
407 519 286 34 27 27 
407 519 287 53 28 26 
407 525 279 56 27 26 
407 526 279 52 15 30 
407 527 279 42 25 32 
405 521 283 161 23 62 
405 523 281 153 29 62 
405 522 282 157 17 57 
405 522 283 150 16 56 
405 523 282 136 17 45 
405 523 283 112 17 32 
406 520 283 151 22 57 
406 521 282 172 20 57 
406 521 283 167 33 62 
407 520 282 172 18 56 
407 520 283 129 16 45 
407 521 282 173 19 51 
406 522 281 168 18 56 
406 523 281 155 20 61 
407 522 281 168 18 50 
407 523 280 156 16 62 
407 523 281 161 17 63 
406 522 282 169 19 59 
405 520 284 123 26 44 
405 520 285 100 20 38 
405 521 284 147 27 56 
405 521 285 114 30 47 
405 521 286 114 46 54 
405 522 284 133 17 47 
405 522 285 113 29 41 
405 523 284 98 12 31 
405 523 285 99 31 35 
405 522 286 115 53 49 
405 523 286 112 55 45 
406 520 284 114 19 41 
406 520 285 85 21 30 
406 520 286 97 28 38 
406 520 287 103 51 44 
406 521 286 114 48 48 
406 521 287 118 63 53 
406 522 287 118 68 54 
406 523 286 115 63 49 
406 523 287 123 73 57 
404 525 281 65 27 39 
405 524 280 112 45 45 
405 524 281 113 29 42 
405 525 280 95 42 36 
405 525 281 79 25 34 
404 524 282 83 11 32 
404 524 283 83 17 35 
404 525 282 67 22 36 
404 525 283 74 13 30 
405 524 282 100 19 32 
405 525 282 73 12 30 
405 525 283 74 20 29 
404 526 281 62 25 37 
405 526 280 64 19 30 
405 526 281 61 22 34 
405 527 280 47 22 33 
405 527 281 46 21 30 
404 526 282 59 23 35 
405 526 282 55 21 34 
405 526 283 64 24 28 
405 527 282 51 18 25 
405 527 283 61 27 30 
406 524 280 118 31 46 
406 525 280 77 29 33 
407 524 280 113 21 43 
407 525 280 76 21 31 
406 526 280 58 17 33 
406 527 280 39 22 35 
407 526 280 54 9 35 
407 527 280 38 24 34 
404 524 284 71 21 31 
405 524 284 80 23 39 
405 524 285 95 46 44 
405 525 284 75 30 38 
405 525 285 105 60 50 
405 524 286 116 62 49 
405 526 284 79 43 35 
405 526 285 103 62 48 
405 527 284 79 43 40 
405 527 285 96 57 48 
406 525 285 113 70 54 
406 524 286 118 69 54 
406 524 287 123 76 58 
406 525 286 120 72 57 
406 525 287 127 78 60 
407 525 287 127 80 61 
406 526 285 111 71 52 
406 527 284 86 46 44 
406 527 285 106 65 51 
406 526 286 119 74 59 
406 526 287 129 75 61 
406 527 286 122 74 58 
407 526 287 132 80 61 
407 527 286 118 75 58 
407 527 287 127 81 63 
409 515 287 36 28 29 
410 513 287 69 36 37 
411 512 287 52 30 27 
411 513 286 53 26 31 
411 513 287 51 26 25 
411 515 285 72 21 23 
410 514 287 54 28 35 
410 515 286 42 31 30 
410 515 287 42 29 34 
411 514 286 56 24 32 
411 515 286 51 28 24 
408 519 283 108 3 30 
409 518 283 96 0 40 
409 519 283 115 10 38 
411 517 283 156 25 54 
410 518 283 111 9 37 
410 519 282 154 30 48 
410 519 283 132 24 48 
411 518 282 165 16 52 
411 518 283 145 17 47 
411 519 282 161 20 46 
408 517 285 28 29 35 
409 517 284 40 23 39 
409 517 285 31 24 34 
408 516 287 38 31 28 
408 517 286 23 31 36 
408 517 287 34 33 32 
409 516 286 32 32 30 
409 516 287 37 27 29 
409 517 286 26 30 35 
408 518 284 40 20 34 
408 518 285 31 30 37 
408 519 284 60 12 27 
409 518 284 54 14 37 
408 518 286 34 32 40 
410 516 285 49 28 29 
410 517 284 69 22 37 
410 517 285 41 25 29 
411 516 284 109 31 44 
411 516 285 74 25 25 
411 517 284 129 34 55 
410 516 286 34 29 28 
410 518 284 89 8 33 
413 515 283 173 49 69 
415 513 283 70 13 32 
414 514 283 101 0 34 
414 515 283 157 30 60 
415 514 283 86 5 31 
415 515 282 154 18 48 
415 515 283 132 13 42 
413 513 285 57 28 29 
412 512 286 49 29 32 
412 512 287 49 27 31 
412 513 286 60 33 35 
413 512 286 41 26 27 
413 513 286 47 31 28 
412 514 285 95 37 50 
412 515 284 131 22 52 
412 515 285 108 28 46 
413 514 284 137 57 71 
413 514 285 106 43 54 
413 515 284 154 45 69 
412 514 286 81 37 47 
414 512 285 37 29 29 
414 513 284 52 21 25 
414 513 285 37 27 25 
415 512 284 55 30 29 
415 512 285 47 32 29 
415 513 284 55 23 27 
414 512 286 37 26 28 
414 514 284 101 21 41 
412 516 283 172 32 60 
412 517 283 173 26 62 
413 516 283 179 23 61 
413 517 282 182 22 65 
413 517 283 183 22 65 
413 519 281 171 17 59 
412 518 282 173 19 56 
412 519 282 170 17 53 
413 518 282 175 18 56 
413 519 282 171 17 55 
414 517 281 177 18 55 
415 517 281 177 19 55 
414 516 282 185 23 61 
414 516 283 181 24 59 
414 517 282 182 19 57 
415 516 282 178 22 60 
415 517 282 182 18 54 
414 518 281 173 18 54 
414 519 281 171 18 52 
415 518 281 172 18 55 
415 519 280 172 18 55 
415 519 281 172 18 55 
414 518 282 176 18 57 
412 516 284 137 19 39 
412 517 284 159 43 57 
413 516 284 163 35 56 
408 524 279 75 8 19 
408 525 279 70 26 29 
409 524 279 100 12 25 
409 525 279 99 26 41 
408 526 279 69 24 38 
408 527 279 50 28 27 
409 526 279 97 27 42 
409 527 279 68 21 26 
410 524 279 139 18 42 
410 525 279 132 16 42 
411 524 279 156 18 49 
411 525 279 148 17 42 
410 526 279 122 26 45 
410 527 279 92 18 28 
411 526 279 136 19 44 
411 527 278 107 12 35 
411 527 279 114 19 40 
413 523 279 168 17 54 
414 522 279 172 17 57 
414 523 279 171 17 55 
415 522 279 174 18 55 
415 523 278 173 19 52 
415 523 279 173 19 53 
415 527 275 178 17 53 
412 524 279 161 16 48 
412 525 279 153 15 45 
413 524 279 165 17 53 
413 525 278 156 15 48 
413 525 279 158 15 47 
413 527 277 131 13 49 
412 526 278 144 14 48 
412 526 279 141 14 45 
412 527 278 116 8 39 
413 526 278 150 15 50 
413 527 278 134 13 50 
415 525 277 166 16 48 
414 524 278 166 17 52 
414 524 279 167 17 54 
414 525 278 161 16 47 
415 524 278 171 18 53 
415 525 278 166 17 52 
414 526 277 155 15 40 
414 527 276 156 18 47 
414 527 277 148 15 45 
415 526 276 161 16 42 
415 526 277 160 16 41 
415 527 276 164 16 48 
414 526 278 154 15 44 
408 521 281 171 18 46 
409 521 281 168 17 48 
408 520 282 165 18 51 
408 520 283 128 14 42 
408 521 282 172 18 46 
409 520 282 165 21 46 
409 521 282 170 18 42 
408 522 281 167 17 51 
408 523 280 159 16 58 
409 522 281 165 17 46 
409 523 280 160 16 55 
410 521 281 167 18 49 
411 520 281 165 18 51 
411 521 281 165 18 49 
410 520 282 166 20 46 
411 520 282 165 20 49 
410 522 281 165 17 43 
410 523 280 161 17 52 
411 522 280 163 16 42 
411 522 281 164 18 41 
411 523 280 163 17 46 
408 524 280 112 12 39 
409 524 280 134 12 42 
410 524 280 149 15 47 
411 524 280 161 18 51 
412 520 281 167 16 53 
412 521 281 166 16 50 
413 520 281 169 17 56 
413 521 280 168 16 49 
413 521 281 167 16 50 
412 522 280 165 16 43 
412 522 281 165 16 45 
412 523 280 165 16 48 
413 522 280 168 17 46 
413 523 280 168 17 51 
414 520 280 171 17 52 
414 520 281 171 17 53 
414 521 280 172 19 53 
415 520 280 172 20 56 
415 521 280 174 22 58 
414 522 280 171 17 53 
415 522 280 174 20 58 
412 524 280 164 17 51 
415 535 261 47 23 27 
415 534 263 167 31 59 
415 535 262 80 17 30 
415 535 263 127 23 46 
415 534 264 175 27 60 
415 534 265 182 20 58 
415 535 264 166 30 61 
415 535 265 179 23 59 
415 534 266 185 16 56 
415 534 267 183 16 53 
415 535 266 184 19 55 
415 535 267 184 19 55 
415 533 268 182 13 55 
415 533 269 183 15 57 
415 532 271 179 18 53 
415 533 270 183 17 55 
415 533 271 178 19 56 
414 535 268 182 19 56 
414 535 269 181 18 59 
415 534 268 182 16 54 
415 534 269 182 16 58 
415 535 268 182 17 54 
415 535 269 181 17 57 
414 534 270 182 21 54 
414 534 271 180 20 56 
414 535 270 182 19 58 
414 535 271 181 22 55 
415 534 270 183 18 57 
415 534 271 180 19 56 
415 537 259 60 30 34 
414 539 259 39 28 29 
415 538 258 96 23 36 
415 538 259 58 29 31 
415 539 258 103 25 37 
415 539 259 52 26 29 
413 539 263 30 28 33 
415 536 260 37 28 32 
415 536 261 35 29 33 
415 537 260 46 28 33 
415 537 261 37 30 34 
414 537 262 28 28 34 
414 537 263 48 20 30 
415 536 262 46 27 29 
415 536 263 88 16 31 
415 537 262 33 30 33 
415 537 263 53 19 29 
414 538 260 46 31 33 
414 538 261 41 31 33 
414 539 260 40 29 33 
414 539 261 38 32 34 
415 538 260 50 32 33 
414 538 262 29 27 34 
414 538 263 27 25 32 
414 539 262 33 28 32 
414 539 263 28 25 31 
413 542 259 80 25 36 
413 543 258 142 35 58 
413 543 259 93 32 41 
415 540 257 161 18 57 
415 541 257 163 22 58 
414 540 259 53 25 32 
414 541 258 119 26 44 
414 541 259 66 26 34 
415 540 258 114 18 39 
415 540 259 67 24 32 
415 541 258 133 23 46 
414 543 257 172 20 56 
415 542 257 167 21 55 
415 543 256 161 17 46 
415 543 257 169 17 50 
414 542 258 146 30 58 
414 542 259 93 19 35 
414 543 258 160 30 62 
413 540 261 35 31 34 
413 541 260 36 25 34 
413 541 261 35 30 33 
413 540 262 35 28 34 
413 540 263 28 29 33 
413 541 262 34 29 32 
413 541 263 32 29 33 
412 543 261 36 28 34 
413 542 260 45 25 32 
413 542 261 34 30 32 
413 543 260 51 28 34 
413 543 261 35 28 32 
412 542 262 36 30 31 
412 542 263 33 29 31 
412 543 262 37 30 33 
412 543 263 36 30 33 
413 542 262 35 30 30 
414 540 260 35 27 33 
414 540 261 35 30 36 
414 541 260 37 26 34 
414 540 262 35 28 34 
411 543 265 43 29 35 
411 543 266 38 29 34 
411 543 267 31 27 34 
411 541 270 161 20 51 
411 541 271 175 21 56 
411 542 269 106 12 26 
411 543 268 48 21 30 
411 543 269 98 21 36 
410 543 271 177 23 59 
411 542 270 147 17 44 
411 542 271 174 20 57 
411 543 270 153 23 52 
411 543 271 174 21 58 
413 539 264 30 29 34 
413 539 265 68 20 26 
413 538 266 162 29 60 
413 538 267 174 26 58 
413 539 266 129 24 44 
413 539 267 163 31 59 
414 536 265 167 28 61 
414 537 264 97 16 36 
414 537 265 140 27 53 
415 536 264 146 27 56 
415 536 265 171 31 63 
414 536 266 181 23 57 
414 536 267 183 19 56 
414 537 266 171 29 61 
414 537 267 179 23 54 
415 536 266 180 26 59 
414 538 264 49 20 25 
414 538 265 93 18 31 
414 539 264 37 24 28 
414 538 266 148 27 54 
413 537 269 180 22 53 
413 536 271 181 21 54 
413 537 270 180 23 52 
413 537 271 182 22 54 
413 538 268 179 25 55 
413 538 269 180 23 54 
413 539 268 176 28 59 
413 539 269 180 23 57 
412 538 271 184 19 58 
412 539 270 182 21 50 
412 539 271 183 21 54 
413 538 270 182 21 53 
413 538 271 182 22 56 
413 539 270 181 24 51 
414 536 268 182 19 56 
414 536 269 181 19 55 
414 537 268 181 22 54 
414 537 269 181 21 53 
414 536 270 181 20 56 
414 536 271 182 20 56 
414 537 270 181 22 53 
412 541 264 33 27 35 
412 541 265 41 24 32 
413 540 264 23 30 33 
413 540 265 44 26 28 
413 541 264 27 29 33 
413 541 265 48 21 25 
412 541 266 58 19 26 
412 541 267 98 26 31 
413 540 266 101 22 36 
413 540 267 145 33 55 
413 541 266 77 16 27 
413 541 267 106 23 35 
412 542 264 36 28 37 
412 542 265 40 28 37 
412 543 264 40 32 36 
412 543 265 41 31 36 
412 542 266 45 30 34 
412 542 267 53 28 26 
412 543 266 41 32 35 
412 543 267 35 28 30 
412 540 269 176 24 60 
412 541 268 128 33 50 
412 541 269 148 24 53 
413 540 268 165 31 61 
413 540 269 178 22 60 
412 540 270 181 22 52 
412 540 271 181 23 55 
412 541 270 165 20 54 
412 541 271 177 23 56 
412 542 268 69 28 29 
412 542 269 96 18 29 
412 543 268 43 22 28 
407 535 279 64 27 34 
405 528 281 43 19 27 
405 528 282 47 20 27 
405 528 283 60 30 32 
406 528 280 39 22 26 
406 528 281 39 22 26 
406 529 281 39 25 24 
407 528 280 41 24 29 
407 529 280 40 27 27 
407 529 281 41 25 27 
406 528 282 45 21 26 
406 528 283 59 30 30 
406 529 282 44 26 26 
406 529 283 57 34 29 
406 530 281 42 28 25 
407 530 280 39 28 28 
407 530 281 42 27 28 
407 531 281 45 27 28 
406 530 282 46 30 28 
406 530 283 56 35 31 
407 531 282 52 31 30 
407 531 283 60 37 32 
406 528 284 77 44 38 
406 528 285 99 63 48 
406 529 284 79 50 39 
407 528 285 109 72 53 
407 529 284 98 63 49 
407 529 285 103 69 51 
407 528 286 117 77 59 
407 528 287 126 84 65 
407 529 286 115 77 59 
406 530 284 69 46 36 
407 530 284 79 53 42 
407 530 285 99 66 51 
407 531 284 79 50 40 
407 531 285 96 65 50 
407 532 281 59 32 36 
407 533 281 64 32 38 
407 532 282 63 36 37 
407 532 283 67 37 33 
407 533 282 70 39 40 
407 533 283 74 43 36 
407 534 280 68 31 33 
407 534 281 79 35 41 
407 535 280 82 41 43 
407 535 281 89 40 43 
407 534 282 79 39 38 
407 534 283 84 50 41 
407 535 282 83 43 36 
407 535 283 89 55 42 
407 532 284 83 54 42 
407 532 285 97 67 51 
407 533 284 90 61 46 
407 534 284 95 66 48 
407 535 284 98 67 48 
407 536 279 66 30 36 
407 537 279 65 34 35 
407 538 279 60 35 35 
407 539 278 35 26 31 
407 539 279 49 30 31 
407 540 278 36 28 30 
407 540 279 47 34 32 
407 541 278 38 30 29 
407 541 279 55 40 35 
407 542 277 35 28 26 
407 543 276 42 30 29 
407 543 277 44 32 29 
407 542 278 42 33 29 
407 542 279 58 45 35 
407 543 278 48 37 31 
407 543 279 64 50 38 
407 536 280 86 39 44 
407 536 281 85 38 38 
407 537 280 77 33 36 
407 537 281 82 41 36 
407 536 282 80 46 38 
407 536 283 92 60 44 
407 537 282 81 52 38 
407 537 283 92 64 45 
407 538 280 72 40 37 
407 538 281 79 46 39 
407 539 280 63 39 31 
407 539 281 75 49 36 
407 538 282 85 57 42 
407 538 283 95 68 46 
407 540 280 61 43 33 
407 540 281 70 51 35 
407 541 280 65 51 37 
407 541 281 75 58 40 
407 542 280 71 55 41 
407 543 280 69 54 40 
408 528 279 38 27 28 
408 529 279 36 30 36 
409 528 279 43 22 27 
409 529 279 30 28 34 
409 530 279 32 29 34 
409 531 279 34 27 34 
410 528 279 52 25 27 
410 529 279 32 32 29 
411 528 278 67 23 27 
411 528 279 68 31 32 
411 529 278 41 29 24 
410 530 279 33 34 32 
410 531 279 32 30 34 
411 530 278 39 36 29 
411 531 278 33 32 32 
408 533 279 42 29 30 
409 532 279 32 28 32 
409 533 279 36 31 34 
408 534 279 48 24 26 
408 535 279 49 24 28 
409 534 278 39 31 36 
409 534 279 40 31 35 
409 535 278 39 30 32 
409 535 279 42 29 32 
410 532 278 33 30 35 
410 532 279 31 28 34 
410 533 279 32 28 34 
411 532 278 30 31 34 
411 533 278 32 30 34 
411 534 277 36 30 31 
