ply
format ascii 1.0
comment Created by CloudCompare v2.10.1 (Zephyrus)
comment Created 1/31/20 10:02 AM
obj_info Generated by CloudCompare!
element vertex 1959
property float x
property float y
property float z
property uchar red
property uchar green
property uchar blue
end_header
159 535 223 108 117 133 
154 537 221 81 93 118 
155 537 222 79 90 121 
156 537 223 81 96 128 
157 536 222 82 98 134 
157 537 223 83 98 128 
158 536 223 87 101 128 
159 536 223 102 113 132 
155 543 230 97 107 121 
157 537 224 86 101 129 
157 539 227 82 97 123 
158 537 225 87 102 128 
159 536 224 104 115 133 
159 537 225 93 107 129 
159 537 226 85 101 126 
158 539 227 82 97 120 
159 538 226 83 99 121 
159 538 227 81 95 118 
159 539 227 86 98 116 
158 539 228 80 97 126 
159 539 228 84 97 118 
159 540 227 92 102 116 
157 540 228 82 100 127 
157 541 229 75 94 118 
157 542 229 75 94 117 
157 543 229 74 97 120 
156 542 230 76 91 117 
156 543 230 80 93 116 
157 542 230 79 99 123 
157 543 230 76 93 112 
158 540 228 80 97 122 
158 540 229 71 96 128 
158 541 228 82 98 116 
158 541 229 78 97 121 
159 540 228 90 101 117 
159 541 228 99 106 117 
159 541 229 87 100 116 
158 542 229 77 92 110 
158 543 229 77 89 104 
159 542 229 85 96 110 
159 543 229 78 90 105 
158 543 230 76 90 106 
159 543 230 76 89 105 
140 556 215 93 115 137 
137 559 217 101 118 138 
137 559 218 99 117 137 
138 558 216 99 118 138 
138 558 217 97 116 136 
139 558 217 94 114 135 
138 559 218 96 115 136 
138 559 219 96 116 137 
139 558 218 97 116 137 
139 558 219 99 118 138 
139 559 219 97 117 137 
138 559 220 101 119 139 
139 558 220 102 119 138 
139 559 220 101 118 139 
139 559 221 102 119 138 
139 559 222 99 116 135 
142 555 216 102 120 139 
142 555 217 104 120 137 
143 555 217 100 116 134 
142 555 218 105 119 137 
143 555 218 101 116 134 
143 555 219 94 110 128 
143 555 220 89 105 123 
140 557 216 95 115 137 
140 557 217 98 117 137 
141 556 216 99 118 139 
141 556 217 102 119 138 
140 557 218 101 118 138 
140 557 219 102 118 137 
141 556 218 104 119 138 
141 556 219 103 117 135 
141 557 218 105 121 139 
141 557 219 100 116 134 
140 558 218 98 116 136 
140 558 219 101 118 138 
142 556 216 103 120 139 
142 556 217 104 120 139 
142 556 218 104 118 136 
142 556 219 99 114 131 
143 556 219 98 113 130 
140 557 220 99 115 133 
141 557 220 99 114 132 
141 557 221 97 112 129 
141 557 222 93 108 125 
140 558 220 100 115 134 
140 558 221 95 111 130 
140 559 221 99 116 134 
141 558 221 95 110 128 
140 558 222 94 110 128 
140 559 222 96 113 131 
140 559 223 91 108 127 
141 558 222 91 106 124 
141 558 223 87 103 121 
141 559 223 88 104 122 
142 556 220 101 114 131 
142 556 221 100 113 129 
142 557 221 99 112 129 
143 556 220 98 112 128 
143 556 221 94 108 124 
142 557 222 92 105 122 
142 557 223 88 101 117 
143 556 222 90 103 118 
143 556 223 87 99 114 
143 557 222 89 102 117 
143 557 223 87 99 114 
142 558 223 90 104 120 
135 563 222 89 111 136 
137 560 219 99 118 138 
136 561 220 94 114 136 
136 561 221 91 112 135 
137 560 220 98 117 138 
137 560 221 99 117 138 
137 561 220 93 113 136 
137 561 221 95 115 137 
137 561 222 98 117 138 
137 561 223 98 117 138 
136 562 221 90 111 135 
136 562 222 93 114 136 
136 563 223 98 118 139 
137 562 222 95 115 137 
137 562 223 94 114 136 
138 560 220 101 119 139 
138 560 221 102 120 139 
138 560 222 101 119 139 
138 561 222 101 119 138 
138 561 223 93 113 134 
139 560 222 99 117 136 
139 560 223 94 111 131 
139 561 223 90 110 131 
140 560 223 90 107 127 
149 551 219 60 82 102 
149 551 220 56 76 95 
149 551 221 51 73 95 
150 551 220 59 77 96 
150 551 221 58 78 98 
151 550 220 65 81 98 
151 550 221 62 80 99 
151 551 221 62 80 99 
150 551 222 66 84 103 
151 550 222 63 81 99 
151 551 222 63 82 100 
151 551 223 68 83 99 
145 553 217 59 87 112 
145 553 218 57 86 112 
144 554 217 85 104 124 
145 554 217 67 92 116 
144 554 218 78 99 122 
144 554 219 65 91 114 
144 555 218 86 105 126 
144 555 219 78 99 120 
145 554 218 64 90 115 
145 554 219 53 85 110 
146 553 218 54 84 109 
146 553 219 61 88 112 
147 552 218 55 83 108 
147 552 219 60 85 108 
147 553 219 58 85 109 
144 555 220 77 95 114 
144 555 221 79 95 112 
145 554 220 53 83 107 
145 554 221 65 86 105 
145 555 220 58 85 107 
145 555 221 70 88 107 
144 555 222 80 94 110 
145 554 222 73 88 104 
145 555 222 75 89 105 
145 555 223 70 84 100 
146 553 220 57 83 107 
146 553 221 66 85 105 
147 552 220 59 83 105 
147 553 220 59 81 104 
147 553 221 65 84 103 
147 553 222 71 86 103 
147 553 223 73 85 101 
146 554 220 54 82 105 
146 554 221 65 85 104 
146 554 222 67 82 100 
146 554 223 69 82 98 
146 555 223 68 80 97 
147 554 222 68 83 99 
147 554 223 75 85 101 
144 556 222 83 96 111 
144 556 223 84 96 111 
145 556 223 75 89 104 
148 552 219 61 84 106 
148 552 220 58 79 100 
148 552 221 60 80 100 
148 553 221 61 81 100 
149 552 220 55 76 96 
149 552 221 62 81 101 
148 552 222 72 88 106 
148 553 222 73 88 105 
148 553 223 79 90 105 
149 552 222 71 88 105 
149 552 223 74 88 104 
149 553 223 79 90 105 
150 552 222 69 87 104 
150 552 223 69 84 101 
154 547 221 62 80 99 
152 549 220 63 79 97 
152 549 221 60 79 97 
153 548 221 61 78 97 
153 549 221 64 82 100 
153 549 222 72 87 103 
153 549 223 72 85 100 
152 550 221 63 81 100 
152 550 222 65 83 100 
152 550 223 70 84 100 
152 551 223 70 84 98 
153 550 222 70 85 101 
153 550 223 74 86 99 
154 548 221 67 82 101 
154 549 221 73 87 105 
154 548 222 80 92 108 
154 549 222 77 90 106 
154 549 223 79 90 103 
155 548 222 81 92 107 
155 548 223 82 92 105 
155 549 223 83 93 105 
156 547 222 79 91 107 
156 547 223 78 88 103 
157 546 222 70 86 103 
157 547 222 75 88 104 
157 547 223 79 89 102 
158 545 223 72 86 101 
159 545 223 74 87 101 
158 546 223 72 83 98 
158 547 223 76 87 100 
156 548 222 81 90 106 
156 548 223 83 91 105 
140 559 224 89 104 124 
141 558 224 88 102 120 
141 559 224 86 101 121 
141 559 225 83 98 117 
141 559 226 80 95 112 
143 557 224 80 94 110 
143 557 225 77 91 109 
142 558 224 83 98 115 
142 558 225 77 92 110 
142 559 225 77 93 112 
143 558 225 76 90 107 
142 559 226 72 88 105 
142 559 227 70 85 101 
143 558 226 71 86 102 
143 558 227 70 84 100 
143 559 227 70 84 101 
142 559 228 65 78 97 
143 559 228 66 80 99 
143 559 229 64 79 96 
143 559 230 60 77 94 
135 564 224 100 119 140 
135 565 226 93 115 137 
135 565 227 80 102 129 
134 566 227 86 110 134 
135 566 228 70 91 123 
135 567 230 87 106 130 
135 568 231 83 103 125 
134 569 232 105 115 131 
135 568 232 89 101 118 
135 569 233 89 102 120 
135 569 234 84 100 118 
134 570 234 115 121 138 
135 570 235 96 106 120 
134 571 236 117 125 138 
134 571 237 107 116 128 
135 570 236 91 102 115 
135 570 237 83 95 110 
135 571 237 91 102 116 
134 571 238 90 100 113 
135 571 238 85 95 108 
135 571 239 83 92 104 
133 572 237 104 118 135 
133 573 239 76 97 122 
134 572 238 100 110 124 
134 572 239 78 93 112 
134 573 239 79 97 119 
135 572 239 73 87 103 
137 562 224 84 108 132 
137 563 224 87 109 131 
137 563 225 79 103 125 
137 563 226 73 99 125 
138 561 224 80 104 129 
139 561 224 80 101 126 
139 561 225 83 102 126 
139 561 226 97 111 130 
139 561 227 99 112 130 
138 562 224 79 103 128 
138 562 225 75 100 125 
138 563 225 75 100 124 
139 562 225 80 102 126 
138 562 226 87 105 127 
138 563 226 75 99 125 
138 563 227 89 110 132 
139 562 226 91 107 128 
139 562 227 96 113 132 
138 563 228 88 106 127 
139 562 228 82 99 122 
139 563 228 88 105 127 
139 563 229 76 94 113 
139 563 230 82 95 110 
139 563 231 81 89 102 
136 564 225 92 113 133 
136 564 226 80 102 126 
136 565 227 67 92 123 
137 564 226 74 98 125 
137 564 227 70 96 125 
138 564 227 85 107 130 
136 565 228 74 96 123 
137 564 228 83 103 127 
137 565 228 67 92 120 
137 565 229 90 108 130 
137 565 230 95 110 129 
136 566 229 82 104 129 
136 566 230 91 110 131 
136 567 230 86 106 129 
136 567 231 92 109 127 
137 566 230 100 115 132 
137 566 231 108 118 133 
138 564 228 90 108 128 
138 564 229 91 108 127 
138 565 229 93 111 131 
138 564 230 92 106 122 
138 565 230 98 111 127 
138 565 231 102 110 122 
139 564 230 89 101 115 
139 564 231 85 94 107 
138 566 231 109 118 130 
140 560 224 87 104 126 
140 560 225 89 105 125 
140 561 225 88 105 126 
141 560 225 87 102 121 
140 560 226 90 103 121 
140 561 226 95 108 126 
140 561 227 83 99 116 
141 560 226 82 96 112 
141 560 227 74 88 105 
141 561 227 68 87 106 
140 562 227 88 106 124 
142 560 227 67 83 101 
140 561 228 63 81 106 
141 560 228 64 79 100 
141 561 228 62 79 103 
141 561 229 63 80 100 
141 561 230 69 79 93 
140 562 228 70 88 113 
140 562 229 69 84 104 
140 563 229 73 88 106 
140 562 230 73 82 96 
140 562 231 77 84 96 
140 563 230 75 86 99 
140 563 231 77 85 99 
141 562 230 71 81 95 
141 562 231 73 81 94 
142 560 228 65 79 98 
142 560 229 63 79 97 
142 561 229 63 79 96 
142 560 230 63 78 95 
142 560 231 63 77 93 
142 561 230 66 79 95 
142 561 231 66 77 93 
143 560 230 64 79 95 
143 560 231 58 75 92 
136 567 232 103 112 125 
136 567 233 111 117 129 
137 566 232 111 118 130 
137 566 233 114 118 128 
137 567 232 115 120 131 
137 567 233 112 118 128 
137 567 234 107 114 125 
137 567 235 101 107 117 
138 565 232 93 101 113 
138 565 233 87 94 104 
139 564 232 77 86 102 
139 564 233 74 83 98 
139 565 232 85 94 106 
139 565 233 80 89 100 
139 565 234 83 90 101 
139 565 235 84 91 100 
138 566 232 106 113 124 
138 566 233 102 107 115 
138 566 234 91 98 108 
138 566 235 86 92 102 
138 567 235 89 96 108 
139 566 234 85 92 101 
139 566 235 79 87 98 
138 567 236 72 84 98 
138 567 237 63 78 93 
139 566 236 71 82 96 
139 566 237 61 76 93 
139 567 237 55 73 90 
139 567 238 59 74 91 
139 567 239 72 82 96 
140 563 232 75 82 100 
140 563 233 71 81 100 
141 562 232 70 78 95 
141 562 233 63 73 95 
141 563 232 70 77 98 
141 563 233 67 78 98 
141 563 234 66 78 95 
141 563 235 58 71 89 
142 561 232 62 75 93 
142 561 233 59 70 93 
143 560 232 55 73 93 
143 561 232 57 73 93 
143 561 233 55 70 93 
143 561 234 57 71 91 
143 561 235 69 78 93 
142 562 232 63 73 94 
142 562 233 60 71 94 
142 562 234 59 72 91 
142 563 234 58 72 91 
142 563 235 56 69 87 
143 562 235 63 74 91 
142 563 236 55 68 88 
143 562 236 69 79 95 
143 563 236 61 73 92 
143 563 237 75 83 96 
143 563 238 80 86 97 
140 564 232 75 82 102 
140 564 233 75 84 101 
140 564 234 77 87 101 
140 564 235 73 82 95 
140 565 234 81 89 101 
140 565 235 74 83 95 
141 564 234 70 81 96 
141 564 235 61 73 90 
140 566 235 74 84 96 
140 565 236 65 78 93 
140 565 237 57 73 91 
141 564 236 59 73 90 
141 565 236 59 74 89 
141 565 237 58 74 91 
141 565 238 60 75 92 
141 565 239 67 78 95 
140 566 236 67 80 94 
140 566 237 57 73 91 
140 566 238 60 75 93 
140 566 239 61 76 94 
140 567 238 58 74 93 
140 567 239 68 80 95 
141 566 239 65 77 93 
142 564 236 57 70 89 
142 564 237 66 78 94 
143 564 237 73 82 95 
142 564 238 73 82 94 
142 565 238 68 79 93 
142 565 239 72 80 93 
143 564 238 77 85 96 
143 564 239 83 90 100 
143 565 239 76 83 96 
136 568 232 90 102 117 
136 568 233 95 106 120 
136 568 234 99 109 124 
136 568 235 103 112 125 
136 569 234 91 104 118 
136 569 235 98 109 124 
137 568 235 102 109 121 
136 569 236 98 107 120 
136 569 237 91 99 111 
137 568 236 88 98 111 
137 568 237 78 88 101 
137 569 237 87 95 107 
137 568 238 65 76 89 
137 569 238 75 84 96 
137 569 239 72 81 93 
136 570 236 90 101 113 
136 570 237 89 99 112 
136 570 238 85 93 105 
136 570 239 76 84 95 
136 571 239 81 89 99 
137 570 238 74 82 93 
137 570 239 74 81 93 
138 568 237 67 81 94 
138 568 238 67 78 90 
138 568 239 77 86 97 
138 569 238 77 84 95 
138 569 239 78 86 97 
139 568 239 77 86 97 
135 571 240 80 90 102 
135 571 241 85 92 103 
133 574 241 78 94 112 
133 574 242 77 91 107 
133 575 242 76 92 112 
133 575 243 71 86 105 
134 572 240 74 89 106 
134 573 240 69 89 109 
134 573 241 77 90 105 
135 572 240 78 90 105 
135 572 241 85 93 104 
134 573 242 79 90 102 
135 572 242 88 93 102 
135 572 243 86 92 102 
135 573 242 84 92 102 
135 573 243 81 90 101 
134 574 241 75 90 107 
134 574 242 76 88 103 
134 574 243 71 84 100 
134 575 243 70 84 102 
135 574 243 80 89 101 
133 575 244 71 84 98 
133 575 245 65 79 94 
134 574 244 76 86 99 
134 575 244 72 82 96 
134 575 245 69 81 94 
135 574 244 82 89 100 
135 574 245 80 88 100 
135 575 245 77 87 100 
134 575 246 67 80 94 
135 575 246 73 83 96 
135 575 247 69 79 93 
140 567 240 71 82 94 
140 567 241 81 88 99 
141 566 240 74 82 93 
141 566 241 76 85 95 
141 567 240 74 82 94 
141 567 241 79 86 97 
142 565 240 78 84 94 
143 564 240 84 88 98 
143 565 240 80 86 95 
143 565 241 84 89 98 
142 566 240 76 83 93 
142 566 241 78 85 96 
142 567 241 76 85 96 
143 566 241 87 91 99 
142 567 242 77 85 97 
143 566 242 80 86 96 
143 567 242 75 83 93 
143 566 250 96 95 97 
143 566 251 91 91 94 
143 567 251 86 87 92 
143 567 252 85 86 91 
136 570 240 81 88 98 
136 571 240 81 89 100 
136 571 241 83 90 99 
137 570 240 82 88 99 
137 570 241 84 90 99 
136 571 242 86 91 100 
137 570 242 83 89 98 
137 571 242 84 90 99 
137 571 243 85 92 101 
138 568 240 82 90 101 
138 569 240 85 91 100 
138 569 241 88 94 103 
139 568 240 82 89 101 
139 568 241 86 92 101 
139 569 240 87 93 102 
139 569 241 88 93 103 
139 569 242 90 95 103 
138 570 240 83 89 99 
138 570 241 83 89 100 
138 570 242 86 92 101 
138 570 243 93 97 104 
138 571 243 86 91 100 
139 570 242 90 94 102 
139 570 243 94 97 104 
138 571 244 96 98 104 
139 570 244 98 99 105 
139 571 244 94 97 104 
139 571 245 88 93 101 
136 572 242 88 93 101 
136 572 243 85 91 101 
136 573 243 85 92 101 
137 572 243 87 92 101 
136 572 244 86 91 100 
136 573 244 84 91 99 
136 573 245 82 89 100 
137 572 244 85 91 100 
137 573 245 83 90 100 
137 573 246 73 81 92 
136 574 244 88 94 103 
136 574 245 81 89 100 
136 574 246 76 85 96 
136 575 247 71 81 93 
137 574 246 71 80 91 
137 574 247 74 82 92 
137 575 247 71 80 91 
138 572 244 86 92 100 
138 572 245 82 89 99 
139 572 245 87 92 100 
138 572 246 79 86 96 
138 573 246 75 82 93 
138 573 247 75 82 92 
139 572 246 81 87 96 
139 572 247 80 85 94 
139 573 247 82 86 95 
138 574 247 76 83 93 
140 568 240 81 90 101 
140 568 241 86 92 102 
140 569 241 87 93 103 
141 568 241 84 91 100 
140 568 242 87 94 104 
140 569 242 92 97 105 
140 569 243 96 98 104 
141 568 242 88 94 103 
141 569 243 95 97 103 
140 570 243 96 98 104 
142 568 242 83 89 98 
142 568 243 89 91 98 
142 569 243 97 97 101 
143 568 243 85 88 95 
141 569 244 98 98 103 
140 570 244 96 97 103 
140 570 245 89 93 101 
140 571 245 88 93 101 
141 570 244 96 97 102 
141 570 245 91 93 100 
141 571 245 91 94 99 
140 571 246 89 91 97 
141 571 246 93 95 100 
142 569 244 95 95 100 
143 569 244 94 94 99 
143 569 245 91 93 98 
142 570 244 95 96 101 
142 570 245 92 94 99 
143 570 245 96 97 102 
142 570 246 96 97 102 
142 571 246 97 97 101 
142 571 247 93 94 99 
143 570 246 99 99 103 
143 570 247 100 100 103 
143 571 247 95 95 99 
140 572 246 87 90 97 
140 572 247 89 91 97 
140 573 247 86 89 96 
141 572 246 92 93 98 
141 572 247 90 92 97 
142 572 247 91 93 98 
136 575 248 69 79 92 
137 574 248 72 81 92 
137 575 248 72 80 92 
137 575 249 70 78 90 
139 573 248 79 84 93 
138 574 248 75 82 93 
138 574 249 74 81 92 
138 575 249 72 79 90 
139 574 248 76 82 92 
139 574 249 75 82 92 
139 575 249 73 80 91 
138 575 250 71 78 88 
139 575 250 72 78 88 
143 571 248 92 94 99 
141 568 252 82 83 89 
141 569 253 80 82 88 
140 570 254 81 83 90 
140 571 254 81 82 88 
140 571 255 86 87 91 
141 570 254 80 82 89 
141 571 254 83 84 90 
141 571 255 86 87 91 
142 568 252 82 83 88 
142 568 253 82 84 89 
142 569 253 80 82 87 
143 568 252 84 85 90 
143 569 252 84 84 89 
143 569 253 82 82 87 
142 570 253 80 82 87 
143 570 252 83 83 87 
143 570 253 82 82 86 
143 571 253 84 83 87 
142 570 254 81 82 87 
142 571 254 83 84 88 
140 573 248 79 84 92 
141 573 248 79 84 92 
141 573 249 76 82 91 
140 574 249 76 82 92 
141 574 249 77 83 92 
140 574 250 74 80 88 
140 575 250 74 79 88 
140 575 251 78 83 90 
141 574 250 75 81 89 
141 575 250 74 79 88 
141 575 251 79 83 90 
142 572 248 83 86 93 
142 573 248 78 83 91 
142 573 249 77 83 91 
143 572 248 87 89 96 
143 572 249 80 84 92 
143 573 249 79 83 91 
142 573 250 80 84 92 
143 573 250 80 84 91 
143 573 251 80 84 91 
142 574 250 77 82 90 
142 574 251 79 83 91 
142 575 251 80 84 91 
143 574 250 79 83 91 
143 574 251 79 83 90 
140 572 255 93 92 95 
140 573 255 96 94 96 
141 572 255 89 88 91 
141 573 255 95 93 94 
141 575 252 81 83 89 
141 575 253 90 89 92 
141 574 255 94 92 93 
141 575 254 95 93 95 
141 575 255 95 93 94 
143 572 253 86 85 88 
143 573 253 83 84 89 
142 572 254 86 85 89 
142 572 255 87 86 88 
142 573 254 88 87 88 
142 573 255 89 87 89 
143 572 254 87 85 88 
143 573 254 88 86 89 
142 574 253 88 87 91 
142 575 252 83 84 90 
142 575 253 88 87 90 
143 574 252 83 85 90 
143 574 253 87 87 91 
142 574 254 90 88 90 
142 575 254 92 90 93 
151 551 224 69 82 97 
151 551 225 71 85 100 
151 548 233 83 92 113 
150 549 234 80 91 113 
151 549 234 77 88 108 
150 550 235 71 83 104 
151 550 235 74 84 102 
151 551 235 75 86 101 
149 551 236 77 89 108 
150 551 236 75 85 101 
151 551 236 77 86 100 
145 555 224 65 80 97 
145 555 225 66 80 97 
146 554 224 70 81 98 
146 555 224 68 80 97 
146 555 225 70 82 100 
147 554 224 80 88 103 
147 554 225 80 89 105 
147 555 225 77 88 105 
146 555 226 75 86 102 
147 554 226 80 90 107 
147 554 227 79 90 106 
147 555 226 80 89 106 
147 555 227 81 91 105 
147 555 228 74 87 101 
144 556 224 75 88 104 
144 556 225 70 85 100 
144 557 224 79 92 108 
144 557 225 73 87 102 
145 556 224 67 81 98 
145 556 225 68 82 98 
144 557 226 71 85 100 
144 557 227 71 84 100 
145 556 226 75 87 100 
145 556 227 77 88 101 
145 557 226 73 85 99 
145 557 227 75 86 101 
144 558 226 71 85 102 
144 558 227 70 83 98 
146 556 225 69 82 98 
146 556 226 82 92 105 
146 556 227 83 92 105 
147 556 227 84 94 106 
144 557 228 71 84 100 
145 557 228 72 85 101 
145 557 229 68 82 100 
144 558 228 69 83 99 
144 558 229 65 80 97 
144 559 229 64 79 97 
145 558 229 67 81 99 
144 558 230 61 77 95 
144 559 230 60 77 94 
144 559 231 57 75 93 
145 558 230 62 78 96 
145 559 231 60 76 96 
146 556 228 77 89 103 
146 557 228 73 85 100 
146 557 229 68 83 101 
147 556 228 75 87 102 
147 556 229 70 83 101 
147 557 229 68 82 101 
146 557 230 63 78 98 
147 557 230 64 78 98 
147 557 231 69 81 99 
146 558 230 62 78 97 
146 558 231 66 80 98 
146 559 231 62 77 98 
147 558 231 69 81 98 
148 553 224 87 93 106 
148 553 225 85 92 106 
149 552 224 80 89 103 
149 552 225 69 81 96 
149 553 224 83 90 104 
149 553 225 78 87 102 
148 553 226 77 87 102 
149 553 226 66 80 97 
149 553 227 66 81 98 
148 554 224 86 92 106 
148 554 225 84 92 106 
148 554 226 77 88 105 
148 554 227 75 86 102 
149 554 227 70 83 100 
150 552 224 73 84 99 
150 552 225 63 78 95 
151 552 224 71 84 98 
151 552 225 67 82 98 
150 552 226 61 78 96 
150 553 226 58 75 93 
150 553 227 62 78 96 
151 552 226 68 83 101 
151 552 227 67 83 100 
151 553 227 63 81 99 
148 554 228 69 83 100 
148 555 228 69 83 99 
148 555 229 65 79 96 
149 554 228 67 82 101 
149 554 229 65 80 98 
149 555 229 62 77 94 
148 555 230 60 77 95 
149 555 230 64 79 96 
149 555 231 65 79 94 
150 553 228 67 83 100 
150 553 229 69 84 100 
151 552 228 65 82 100 
151 553 228 67 84 101 
151 553 229 71 85 100 
150 554 229 67 83 99 
151 554 229 70 85 100 
150 554 230 72 85 100 
150 555 230 72 85 99 
150 555 231 69 83 98 
151 554 230 78 90 104 
151 554 231 77 89 102 
151 555 231 75 88 101 
148 556 229 65 80 98 
148 556 230 64 78 96 
148 557 230 67 80 97 
148 557 231 66 80 98 
149 556 230 63 78 95 
149 556 231 65 79 96 
150 556 231 67 81 96 
147 553 237 79 88 101 
147 554 238 93 98 106 
147 555 239 95 97 104 
145 559 232 63 77 96 
145 559 233 67 79 96 
146 558 232 68 80 97 
146 559 232 68 79 96 
146 559 233 69 80 96 
147 558 232 68 80 97 
147 558 233 68 80 96 
147 559 233 69 80 96 
146 559 234 70 81 96 
146 559 235 68 80 95 
147 559 234 71 82 97 
147 559 235 71 82 96 
147 559 236 71 81 95 
150 555 232 72 86 101 
151 555 232 77 88 102 
148 552 236 79 89 104 
148 553 237 79 88 100 
149 552 237 80 89 104 
149 553 238 82 90 100 
148 554 238 87 94 104 
148 554 239 93 97 105 
149 554 239 91 95 103 
150 552 237 76 85 99 
151 552 237 77 85 99 
150 552 238 78 87 99 
150 553 238 82 90 100 
150 553 239 84 90 100 
151 552 238 77 86 99 
151 553 239 79 86 97 
150 554 239 88 93 102 
148 557 232 68 80 98 
149 556 232 65 80 98 
149 557 232 67 81 98 
149 557 233 68 81 97 
148 558 232 68 81 98 
148 558 233 68 80 96 
149 558 233 68 80 96 
148 558 234 71 82 97 
148 559 235 71 82 96 
149 558 234 70 82 97 
149 558 235 71 83 97 
149 559 235 69 81 95 
150 556 232 68 82 99 
150 556 233 71 84 100 
150 557 233 69 82 98 
151 556 232 72 85 99 
151 556 233 74 86 101 
150 557 234 69 82 97 
150 557 235 73 85 99 
151 556 234 70 84 99 
151 557 234 71 83 98 
151 557 235 74 85 99 
150 558 234 69 82 96 
150 558 235 72 83 98 
148 559 236 71 82 96 
149 559 236 71 82 97 
151 557 236 73 84 99 
150 558 236 70 81 97 
150 559 236 72 83 97 
150 559 237 83 90 102 
151 558 236 72 83 98 
151 558 237 73 83 97 
151 559 237 78 86 99 
151 559 238 86 92 101 
151 559 239 90 94 102 
154 544 231 93 104 120 
154 545 231 78 94 114 
155 544 230 89 102 118 
155 544 231 87 100 117 
155 545 231 81 92 108 
152 550 224 74 86 99 
152 551 224 73 85 99 
152 551 225 74 87 102 
153 550 224 77 88 101 
153 550 225 75 88 103 
152 551 226 70 86 102 
152 551 227 70 85 102 
153 550 226 72 86 102 
153 551 226 71 86 102 
153 551 227 68 85 101 
154 549 224 83 92 104 
154 549 225 85 95 108 
155 549 224 86 95 107 
155 549 225 88 97 110 
155 549 226 86 95 108 
154 550 224 81 91 104 
154 550 225 82 93 106 
154 550 226 77 90 104 
154 550 227 74 88 103 
154 551 227 68 85 101 
155 550 226 83 93 106 
155 550 227 78 91 106 
155 551 227 70 86 103 
153 551 228 67 85 102 
154 551 228 71 87 104 
155 550 228 73 88 104 
155 551 228 72 87 103 
155 551 229 79 91 104 
155 551 230 85 94 107 
155 551 231 91 98 110 
157 547 224 85 94 106 
157 547 225 87 96 109 
157 547 226 82 93 107 
159 545 224 74 85 99 
158 546 224 76 87 101 
158 546 225 74 86 102 
158 547 224 79 90 105 
158 547 225 78 90 104 
159 546 224 70 84 99 
159 546 225 68 82 98 
158 547 226 77 90 106 
158 547 227 77 90 105 
159 546 226 65 81 99 
159 547 226 72 86 104 
159 547 227 75 89 105 
156 544 230 72 88 108 
156 544 231 70 87 106 
156 545 231 77 89 106 
157 544 230 72 87 105 
157 544 231 69 85 104 
157 545 231 77 89 104 
157 546 231 89 97 109 
159 545 229 92 97 107 
158 544 230 72 86 103 
158 545 230 80 91 104 
158 545 231 76 88 103 
159 544 230 78 89 104 
159 545 230 88 96 107 
159 546 229 83 91 102 
159 547 228 77 89 104 
159 547 229 77 88 102 
158 546 230 84 91 102 
158 546 231 87 93 103 
158 547 230 77 86 98 
158 547 231 76 84 95 
159 546 230 87 94 105 
159 547 230 80 90 103 
156 548 224 86 94 107 
156 548 225 90 98 110 
156 549 225 91 99 111 
157 548 224 90 98 111 
157 548 225 90 98 111 
156 548 226 88 97 110 
156 549 226 86 95 108 
156 549 227 81 92 106 
157 548 226 85 95 109 
157 548 227 81 93 107 
156 550 227 75 89 105 
158 548 227 79 91 106 
156 549 228 81 92 106 
157 549 228 82 93 106 
157 549 229 87 96 109 
157 549 230 93 99 109 
157 549 231 97 102 111 
156 550 228 79 91 105 
156 550 229 85 95 107 
156 551 229 80 91 104 
156 550 230 88 96 108 
156 551 231 94 100 110 
157 550 230 93 99 109 
157 550 231 96 101 110 
158 548 228 81 92 106 
158 548 229 82 92 105 
158 549 229 87 96 108 
159 548 228 81 92 105 
159 548 229 76 88 102 
158 548 230 85 93 105 
158 548 231 81 89 100 
158 549 230 93 99 109 
158 549 231 93 99 108 
152 546 232 76 93 124 
152 547 233 85 95 117 
153 546 232 79 93 117 
153 547 232 88 97 121 
153 547 233 88 97 115 
154 545 232 76 94 119 
154 546 232 88 97 113 
154 547 232 94 100 112 
154 547 233 90 98 112 
155 546 232 88 96 109 
155 547 232 93 99 109 
155 547 233 91 98 109 
152 548 233 87 95 114 
153 548 233 89 96 111 
152 548 234 86 95 113 
152 549 234 79 90 107 
153 548 234 85 94 107 
153 549 234 79 89 103 
152 550 235 74 85 98 
153 550 235 80 89 102 
154 548 233 91 97 109 
154 548 234 85 93 106 
154 549 234 78 88 100 
154 549 235 78 88 100 
155 548 234 82 90 102 
155 549 234 79 88 100 
155 549 235 81 90 102 
155 551 232 93 99 110 
154 550 235 83 91 103 
154 551 235 85 93 104 
155 550 235 85 93 104 
155 551 235 86 93 104 
152 551 236 79 88 101 
153 551 236 82 91 102 
154 551 236 85 93 104 
155 551 236 84 92 103 
156 546 232 87 95 107 
156 547 233 86 93 104 
157 546 232 90 96 106 
157 547 232 86 91 100 
157 547 233 83 90 100 
158 546 232 89 94 103 
158 547 232 83 90 99 
156 548 233 81 89 100 
157 548 233 83 90 99 
157 549 232 94 99 108 
157 549 233 86 93 103 
156 548 234 80 89 100 
156 549 234 86 93 103 
156 550 233 93 98 107 
156 551 232 97 103 111 
156 551 233 95 100 109 
157 550 232 100 104 112 
157 550 233 96 100 108 
156 550 234 88 95 105 
156 550 235 85 92 102 
156 551 234 89 96 107 
156 551 235 86 94 104 
158 548 232 82 89 100 
158 549 232 86 92 103 
152 552 226 70 85 103 
152 552 227 69 85 101 
152 552 228 69 85 102 
152 553 229 74 86 100 
153 552 228 70 87 103 
153 552 229 74 86 101 
152 553 230 78 89 102 
152 553 231 81 91 104 
153 552 230 77 89 103 
153 553 230 77 89 103 
153 553 231 81 91 103 
152 554 230 79 90 103 
152 554 231 82 92 105 
154 552 228 73 88 103 
154 552 229 76 88 102 
154 552 230 76 88 102 
154 552 231 80 90 102 
154 553 231 79 88 100 
155 552 230 78 90 104 
155 552 231 86 95 107 
153 553 232 81 90 101 
152 554 232 81 91 104 
152 555 232 80 90 103 
152 555 233 76 88 103 
153 554 232 81 90 101 
153 554 233 78 89 103 
153 555 233 78 90 103 
152 555 234 74 87 101 
153 554 234 77 88 101 
153 555 234 76 87 101 
153 555 235 75 86 99 
154 552 232 81 90 101 
154 553 232 76 86 98 
154 553 233 77 88 101 
155 552 232 90 97 109 
155 552 233 90 98 109 
154 552 235 82 91 103 
154 553 234 76 88 101 
154 553 235 74 87 101 
155 552 234 87 95 106 
155 552 235 85 93 105 
155 553 234 79 90 103 
155 553 235 81 90 102 
154 554 233 75 87 102 
154 554 234 75 87 101 
154 554 235 75 87 101 
154 555 235 76 87 101 
155 554 235 76 88 101 
152 552 236 79 88 100 
152 552 237 78 87 100 
153 552 236 79 88 99 
153 552 237 77 86 98 
152 552 238 77 86 98 
152 552 239 78 86 97 
152 553 239 79 86 96 
153 552 238 77 86 98 
153 553 238 78 86 98 
153 553 239 78 86 96 
152 554 239 83 88 97 
153 554 239 80 86 95 
153 555 239 83 88 96 
154 552 236 81 90 101 
154 552 237 76 86 98 
154 553 237 77 86 99 
155 552 236 81 90 102 
155 553 236 78 88 100 
155 553 237 77 87 99 
154 552 238 76 85 97 
154 553 238 77 87 98 
154 554 237 78 87 99 
154 555 236 77 88 101 
154 555 237 78 88 100 
155 554 236 77 88 100 
155 554 237 77 86 98 
155 555 236 79 89 101 
154 554 238 78 87 98 
154 555 238 80 88 99 
154 555 239 82 88 98 
152 556 234 72 85 99 
152 556 235 73 84 98 
152 557 235 74 85 98 
153 556 235 76 86 99 
152 557 236 74 84 98 
152 557 237 75 85 99 
153 556 236 75 86 99 
153 557 236 75 85 99 
153 557 237 77 86 99 
153 556 239 81 87 96 
153 557 238 79 87 98 
153 557 239 86 92 102 
152 558 236 74 84 98 
152 558 237 75 84 98 
152 559 237 76 85 98 
153 558 237 76 85 99 
152 558 238 78 86 98 
152 558 239 81 88 98 
152 559 238 81 89 98 
152 559 239 82 88 98 
153 558 238 79 87 98 
153 558 239 85 92 102 
154 556 236 76 87 100 
154 556 237 78 87 100 
154 556 238 80 87 99 
154 556 239 80 87 98 
154 557 238 79 87 99 
156 552 233 94 100 110 
156 552 234 88 96 107 
145 558 242 105 103 105 
147 556 241 101 101 105 
147 557 242 101 100 105 
146 558 243 103 102 105 
147 558 244 100 101 105 
147 559 245 93 94 99 
148 555 240 95 97 104 
149 554 240 95 97 104 
149 555 241 93 95 101 
151 553 240 81 87 96 
150 554 240 88 92 101 
150 554 241 89 93 100 
150 555 241 90 93 100 
151 554 240 82 87 95 
151 554 241 89 92 100 
151 555 241 91 94 101 
150 555 242 91 94 101 
151 555 242 93 95 101 
148 556 241 98 99 104 
148 556 242 98 100 105 
148 557 243 99 100 105 
149 556 242 95 97 103 
149 556 243 95 97 104 
149 557 243 94 96 103 
150 556 242 91 94 101 
150 556 243 89 92 98 
150 557 243 86 89 97 
151 556 242 91 94 102 
151 556 243 90 93 100 
151 557 243 82 86 93 
151 559 240 89 93 101 
151 559 241 83 88 97 
150 558 243 77 84 94 
150 559 243 75 83 94 
151 558 242 70 79 91 
151 558 243 71 79 90 
151 559 242 75 82 93 
151 559 243 76 84 95 
148 558 244 95 97 103 
148 559 245 91 93 98 
149 558 244 87 91 99 
149 559 244 78 84 93 
149 559 245 84 88 96 
150 557 244 88 92 100 
150 558 244 81 86 96 
150 559 244 75 83 93 
152 553 240 83 89 97 
152 554 240 86 90 98 
152 555 240 93 94 100 
152 555 241 95 96 102 
153 555 240 91 93 100 
152 555 242 99 99 104 
152 556 241 104 104 108 
152 557 241 95 96 103 
153 556 240 94 96 103 
153 556 241 102 102 106 
153 557 240 93 97 105 
153 557 241 98 100 105 
152 556 242 102 102 107 
152 556 243 92 94 100 
152 557 242 86 89 96 
152 557 243 89 92 98 
152 558 240 81 88 97 
152 558 241 80 85 94 
152 559 240 82 88 97 
152 559 241 79 86 95 
153 558 240 86 92 101 
152 558 242 70 77 87 
144 560 231 56 73 91 
144 560 232 55 73 93 
144 560 233 55 72 93 
145 560 233 61 75 94 
144 560 234 68 79 96 
144 560 235 72 81 95 
144 561 234 63 77 96 
144 561 235 73 81 93 
145 560 234 67 79 95 
145 560 235 72 82 95 
146 560 234 69 80 95 
146 560 235 69 80 94 
147 560 235 66 78 94 
144 561 236 75 83 95 
145 560 236 73 82 96 
145 561 236 77 85 97 
145 561 237 83 89 100 
144 562 236 76 83 96 
144 562 237 80 87 99 
144 563 237 78 85 96 
145 562 237 86 92 101 
144 563 238 84 90 100 
144 563 239 94 98 105 
145 562 238 92 96 103 
145 563 238 91 95 103 
145 563 239 101 103 108 
146 560 236 75 84 98 
146 561 236 79 86 99 
146 561 237 86 91 102 
147 560 236 76 85 99 
147 560 237 86 92 103 
147 561 237 89 95 105 
146 561 238 95 99 107 
147 561 238 95 98 106 
146 562 238 96 99 107 
146 562 239 102 103 108 
146 563 239 104 104 108 
147 562 238 97 100 107 
147 562 239 103 104 108 
144 564 239 90 95 103 
148 560 236 79 88 101 
148 560 237 90 96 105 
149 560 236 78 87 100 
149 560 237 87 93 104 
148 561 238 96 99 106 
148 561 239 103 103 107 
149 560 238 95 99 108 
149 561 238 99 101 108 
149 561 239 104 104 109 
148 562 239 104 104 108 
149 562 239 107 105 107 
150 560 237 89 95 105 
150 560 238 97 101 108 
150 560 239 102 104 110 
150 561 238 100 102 108 
150 561 239 105 105 110 
151 560 238 93 97 105 
151 560 239 100 102 109 
145 563 240 104 104 108 
146 563 240 105 104 108 
147 562 240 106 104 106 
147 563 240 106 105 107 
147 563 241 105 104 107 
145 562 247 109 105 104 
146 561 247 105 102 103 
147 560 246 97 96 100 
147 561 246 105 101 102 
147 561 247 109 105 104 
146 562 247 111 105 104 
146 563 247 112 105 103 
147 562 247 112 106 104 
147 563 247 112 106 104 
144 564 240 96 98 104 
144 565 241 96 98 104 
145 564 240 102 103 108 
145 564 241 103 103 108 
145 565 241 103 104 109 
145 565 242 104 104 108 
144 566 241 91 95 102 
144 566 242 80 87 96 
144 567 242 75 81 90 
144 567 243 79 83 91 
145 566 242 89 93 100 
145 566 243 79 85 93 
145 567 242 70 79 90 
145 567 243 76 81 90 
146 564 241 104 104 109 
147 564 241 104 104 108 
146 565 242 105 105 108 
146 565 243 102 102 105 
147 564 242 105 105 108 
147 565 242 106 105 109 
147 565 243 103 102 106 
146 566 243 86 89 96 
145 567 244 85 88 95 
147 565 244 95 95 99 
147 565 245 98 97 100 
147 564 247 112 106 103 
147 565 246 104 101 103 
147 565 247 110 104 102 
146 566 244 78 83 93 
146 567 244 82 86 93 
146 567 245 91 92 98 
147 566 244 84 88 95 
147 566 245 96 96 99 
147 567 245 95 95 99 
146 567 246 98 97 101 
147 566 246 104 102 103 
147 566 247 107 103 104 
147 567 246 101 99 102 
147 567 247 101 99 100 
149 561 240 107 105 108 
149 561 241 109 106 107 
149 561 242 108 105 106 
149 561 243 100 99 101 
148 562 240 107 105 106 
148 562 241 109 106 107 
148 563 240 107 105 106 
148 563 241 107 105 108 
149 562 240 108 105 107 
149 562 241 109 106 107 
148 562 242 109 106 106 
148 563 242 108 105 107 
148 563 243 105 101 102 
149 562 242 110 105 106 
149 562 243 104 101 102 
150 560 240 105 105 111 
150 560 241 102 102 106 
150 561 240 106 106 109 
150 561 241 108 106 108 
151 560 240 100 102 107 
151 560 241 90 93 100 
150 560 242 97 98 104 
150 560 243 88 92 100 
150 561 242 105 104 107 
150 561 243 95 96 102 
151 560 242 84 88 97 
149 560 244 86 90 97 
149 560 245 91 92 97 
149 561 244 94 94 98 
149 561 245 93 92 95 
148 560 246 95 95 99 
148 561 246 103 100 101 
148 562 245 103 100 100 
148 563 244 101 98 99 
148 563 245 105 100 101 
149 562 244 100 98 100 
149 562 245 102 99 100 
149 563 244 101 98 99 
148 562 246 108 103 103 
148 563 246 109 104 103 
150 560 244 86 91 98 
148 564 241 105 104 108 
148 564 242 106 104 107 
148 564 243 104 102 104 
148 565 243 103 102 105 
148 564 244 102 99 101 
148 564 245 104 100 100 
148 565 244 99 97 99 
148 565 245 102 99 100 
148 564 246 108 103 103 
148 564 247 111 106 104 
148 565 246 107 103 103 
144 563 248 109 104 104 
145 563 248 112 106 104 
145 563 249 112 106 104 
146 563 248 113 106 103 
144 564 249 105 102 102 
145 564 248 113 106 103 
145 564 249 112 106 104 
145 565 249 111 105 103 
144 565 250 102 98 98 
145 565 250 109 104 102 
144 566 250 99 96 96 
144 566 251 96 93 95 
144 567 250 98 96 97 
144 567 251 90 90 93 
145 566 250 104 99 99 
145 567 250 98 95 96 
146 564 248 114 106 103 
146 564 249 113 107 104 
146 565 248 114 106 103 
146 565 249 113 106 103 
147 565 248 113 106 103 
146 566 249 111 105 103 
146 567 249 103 99 99 
147 566 248 108 104 104 
147 567 248 103 99 100 
147 567 249 106 101 99 
146 567 250 100 97 98 
144 568 243 84 87 92 
144 568 244 91 92 97 
144 568 245 93 94 100 
144 569 244 93 94 99 
144 569 245 95 96 101 
145 568 244 89 91 97 
145 568 245 91 93 98 
144 569 246 99 99 103 
145 568 246 97 96 100 
145 569 246 99 98 101 
145 569 247 103 101 103 
144 570 246 101 100 103 
144 570 247 101 100 103 
144 571 247 96 96 100 
145 570 247 101 100 102 
146 568 245 91 92 96 
146 568 246 96 95 98 
146 568 247 98 96 98 
146 569 247 103 100 103 
147 568 247 98 96 98 
144 568 251 87 87 91 
144 569 251 87 87 90 
145 568 250 95 93 94 
145 568 251 90 89 92 
145 569 250 93 92 94 
145 569 251 88 88 91 
144 571 248 92 93 98 
145 570 248 98 98 101 
145 570 249 94 94 98 
145 571 248 94 95 99 
145 571 249 90 92 97 
145 570 250 91 90 94 
145 570 251 87 87 91 
145 571 250 87 88 93 
145 571 251 84 85 90 
146 568 248 102 100 100 
146 568 249 100 97 99 
146 569 248 104 101 103 
146 569 249 99 97 100 
146 568 250 97 95 97 
146 569 250 96 94 97 
146 570 248 103 101 103 
146 570 249 97 97 100 
144 568 252 87 86 90 
144 569 252 86 86 90 
144 570 252 85 85 88 
144 570 253 84 84 87 
144 571 252 85 84 88 
144 571 253 84 84 88 
145 570 252 86 86 90 
145 571 252 84 85 90 
144 572 248 88 90 96 
144 572 249 84 87 93 
144 573 249 79 83 91 
144 572 250 81 84 90 
144 572 251 82 85 91 
144 573 250 80 84 91 
144 573 251 82 85 92 
145 572 250 81 84 90 
145 572 251 82 84 90 
144 572 252 84 84 90 
144 572 253 84 84 88 
144 573 252 81 83 89 
144 573 253 82 83 87 
145 572 252 84 85 90 
160 536 224 117 123 137 
160 537 224 108 117 134 
160 537 225 95 107 125 
161 536 224 116 119 131 
161 537 224 109 114 127 
161 537 225 96 106 122 
160 537 226 90 102 120 
161 538 225 84 96 112 
161 539 225 80 91 105 
160 538 226 85 97 115 
160 539 226 90 98 112 
160 539 227 88 98 112 
161 538 226 85 96 112 
161 539 226 87 95 108 
162 537 225 90 101 117 
162 538 225 75 88 107 
162 539 225 78 90 106 
160 540 227 101 107 118 
160 541 227 108 110 118 
161 540 226 95 101 112 
161 540 227 106 109 117 
161 541 226 87 95 107 
161 541 227 92 98 108 
161 543 224 89 97 109 
161 542 227 81 92 105 
161 543 226 80 91 104 
161 543 227 79 90 105 
162 540 225 83 94 108 
162 541 225 82 93 108 
163 540 225 87 97 111 
162 540 226 86 94 107 
162 541 226 82 93 107 
162 542 225 77 89 103 
162 543 225 85 94 105 
162 542 226 73 87 103 
162 543 226 80 90 104 
160 541 228 101 104 111 
160 542 228 87 95 107 
160 542 229 91 100 112 
160 543 228 85 94 106 
160 543 229 80 91 104 
161 543 228 83 92 104 
160 544 224 86 95 106 
160 545 224 81 91 104 
160 545 225 73 86 100 
161 544 224 95 101 111 
161 544 225 90 97 107 
160 544 227 87 96 111 
160 545 226 74 88 105 
160 545 227 75 90 107 
161 544 226 82 94 108 
161 544 227 86 97 110 
161 545 226 77 91 108 
161 545 227 75 89 107 
160 546 225 64 80 98 
160 546 226 67 84 103 
160 546 227 67 84 103 
160 547 227 74 89 105 
162 544 226 89 97 107 
160 544 228 96 102 113 
160 544 229 88 95 106 
160 545 228 82 93 107 
160 545 229 94 98 108 
161 544 228 94 100 111 
161 544 229 95 100 110 
161 545 228 91 98 110 
161 545 229 94 99 109 
160 544 230 84 91 104 
160 545 230 93 98 108 
160 546 228 71 84 100 
160 546 229 83 90 103 
160 547 228 71 86 101 
131 577 244 81 95 116 
131 577 245 82 95 111 
130 579 247 110 115 124 
131 578 246 94 102 113 
131 578 247 89 97 108 
132 576 243 78 93 116 
132 576 244 73 87 104 
132 576 245 65 81 98 
132 577 245 73 87 103 
133 576 244 71 83 98 
133 576 245 62 77 93 
132 577 246 70 83 97 
133 576 246 60 75 91 
133 577 246 61 75 91 
133 577 247 58 72 88 
132 578 247 74 84 96 
134 576 246 62 76 90 
134 576 247 61 74 89 
134 577 247 60 73 87 
135 576 247 67 78 92 
131 579 248 88 95 104 
130 580 249 100 104 112 
130 581 251 76 87 100 
131 580 250 84 89 98 
131 581 251 71 82 94 
129 583 253 83 92 104 
131 581 252 70 82 96 
131 581 253 80 86 96 
130 582 252 69 83 98 
131 582 253 83 89 97 
130 583 254 92 94 100 
130 583 255 89 92 99 
131 582 254 91 93 99 
131 582 255 93 95 100 
131 583 255 89 92 98 
133 577 248 56 70 85 
132 578 248 68 78 91 
132 579 249 74 82 93 
133 578 248 63 74 87 
133 578 249 66 75 87 
133 579 249 66 76 88 
132 579 250 74 82 92 
133 579 250 71 79 90 
133 579 251 72 80 90 
134 577 248 59 71 86 
134 577 249 65 74 86 
135 576 248 66 76 90 
135 577 248 67 76 89 
135 577 249 69 77 89 
135 577 250 70 77 88 
134 578 249 67 76 88 
134 578 250 67 76 87 
134 578 251 67 76 86 
134 579 251 74 80 89 
135 578 250 70 78 88 
135 578 251 68 76 86 
134 579 252 76 82 90 
135 578 252 74 81 89 
135 579 252 80 84 91 
135 579 253 89 90 95 
132 580 250 80 86 94 
132 580 251 73 81 91 
133 580 251 71 79 89 
132 580 252 70 79 90 
132 581 252 72 82 94 
132 581 253 86 90 97 
133 580 252 73 80 90 
133 580 253 86 89 95 
133 581 253 88 91 97 
132 581 254 90 92 97 
133 581 254 92 93 98 
132 582 254 92 93 99 
132 582 255 86 89 96 
133 582 255 83 87 94 
134 580 252 80 83 90 
134 580 253 89 91 96 
135 580 253 92 93 98 
134 580 254 95 95 98 
134 581 254 94 94 98 
134 581 255 84 88 95 
135 580 254 91 92 96 
135 580 255 88 90 95 
135 581 255 83 87 93 
129 584 255 91 95 104 
136 576 248 68 78 91 
136 576 249 70 77 89 
136 577 249 68 76 87 
137 576 249 70 78 88 
136 576 250 73 80 89 
136 577 250 72 79 89 
136 577 251 72 79 88 
137 576 250 74 80 90 
137 577 250 78 83 92 
137 577 251 77 82 90 
136 578 251 71 78 87 
138 576 250 76 81 90 
138 576 251 78 83 90 
138 577 251 78 82 90 
139 576 250 77 82 90 
139 576 251 80 84 91 
137 577 252 82 86 93 
136 578 252 83 86 92 
136 579 253 88 89 94 
137 578 252 85 88 94 
137 578 253 89 91 96 
137 579 253 89 90 94 
136 579 254 89 90 94 
137 579 254 90 91 95 
137 579 255 91 92 97 
138 577 252 87 89 95 
139 576 252 86 88 93 
139 577 252 89 90 95 
139 577 253 96 96 100 
138 578 252 90 92 98 
138 578 253 93 94 98 
139 578 253 98 97 101 
138 578 254 96 96 100 
138 579 254 91 92 97 
138 579 255 91 92 97 
139 578 254 98 99 103 
139 578 255 96 97 101 
139 579 254 94 95 99 
139 579 255 92 93 98 
136 580 254 90 91 95 
136 580 255 88 89 95 
136 581 255 80 84 91 
137 580 255 87 89 95 
138 580 255 86 88 94 
140 576 251 81 85 91 
141 576 251 81 84 90 
140 576 252 87 87 92 
140 577 252 93 93 97 
140 577 253 98 97 99 
141 576 252 86 86 90 
141 576 253 95 94 96 
140 576 254 99 98 100 
140 577 254 101 100 103 
140 577 255 98 97 100 
141 576 254 97 96 98 
141 576 255 97 96 98 
127 589 263 81 84 91 
125 591 265 53 60 74 
125 591 266 55 62 70 
126 590 264 59 66 76 
126 591 265 53 60 73 
127 590 264 62 68 77 
127 590 265 55 61 73 
126 591 266 57 63 71 
126 591 267 59 65 73 
127 590 266 59 65 73 
127 590 267 58 64 73 
127 591 267 60 65 73 
126 591 268 57 65 74 
127 590 268 56 65 75 
127 591 268 58 64 76 
127 591 269 61 67 76 
124 593 267 51 59 71 
125 592 266 55 61 70 
125 592 267 55 63 73 
126 592 267 57 64 73 
125 593 268 56 63 75 
126 592 268 56 64 74 
126 593 269 69 72 80 
127 592 268 57 64 74 
127 592 269 64 69 76 
127 592 270 72 75 81 
127 593 270 76 79 84 
123 599 277 62 70 79 
123 599 278 76 78 84 
127 593 273 59 70 81 
126 595 273 49 59 69 
127 594 272 58 65 73 
127 594 273 49 60 72 
127 595 273 55 64 73 
126 595 274 46 58 71 
126 595 275 59 67 77 
127 594 274 54 66 78 
127 595 274 44 57 71 
124 597 275 59 67 76 
125 596 275 58 66 76 
125 597 275 54 63 74 
126 596 274 41 53 67 
126 596 275 57 66 76 
124 597 276 62 69 77 
125 597 276 66 71 78 
124 598 276 58 67 79 
124 598 277 73 77 83 
123 600 279 67 72 80 
137 575 258 107 102 102 
139 573 256 102 98 99 
139 573 257 105 100 99 
138 574 257 108 102 100 
139 574 257 108 102 99 
139 575 257 109 103 99 
138 575 258 109 103 100 
139 575 258 109 102 98 
140 572 256 97 95 97 
140 573 256 101 97 98 
140 574 256 104 99 98 
140 574 257 106 100 98 
140 575 256 103 99 98 
140 575 257 109 102 98 
141 574 256 98 95 96 
141 575 256 98 95 95 
131 583 256 73 78 87 
132 583 256 71 77 87 
132 583 257 62 72 83 
133 582 256 72 79 88 
133 583 257 72 79 90 
133 583 258 86 90 97 
135 581 256 70 78 88 
134 582 256 70 77 87 
134 582 257 72 79 88 
134 583 257 80 86 95 
135 582 256 69 77 86 
135 582 257 76 82 90 
134 583 258 91 92 97 
134 583 259 101 98 99 
135 582 258 86 88 93 
135 583 258 87 89 93 
135 583 259 100 97 98 
134 581 263 76 81 89 
135 580 262 45 61 75 
135 580 263 55 69 83 
135 581 262 52 59 68 
135 581 263 52 61 72 
134 583 260 103 98 96 
135 582 261 102 97 95 
135 583 260 104 99 97 
135 583 261 105 98 96 
134 582 263 64 68 75 
134 583 263 61 68 77 
135 582 262 81 81 83 
135 582 263 52 60 69 
135 583 262 90 87 89 
135 583 263 72 76 82 
132 583 264 80 83 89 
133 582 264 87 88 93 
133 583 264 78 81 87 
134 582 264 75 78 83 
134 583 264 76 79 84 
129 585 257 51 65 80 
129 586 259 94 95 100 
130 584 256 73 79 88 
131 584 257 56 69 82 
130 585 258 77 83 92 
131 584 258 75 83 93 
131 585 259 97 96 98 
131 585 260 101 96 95 
130 586 260 99 96 96 
130 587 261 97 94 95 
131 586 260 100 96 95 
131 586 261 100 96 95 
131 587 262 97 94 95 
131 587 263 88 87 89 
128 589 263 78 81 87 
129 588 262 90 90 93 
129 588 263 80 82 87 
130 588 263 84 84 88 
132 584 258 82 87 95 
132 584 259 95 93 95 
132 585 259 99 96 96 
133 584 258 86 89 95 
133 584 259 99 96 96 
134 584 259 103 98 98 
132 585 260 102 97 94 
132 585 261 102 96 94 
133 584 260 103 97 95 
133 585 260 102 96 94 
133 585 261 103 97 94 
133 584 263 68 74 82 
133 585 262 98 95 95 
133 585 263 81 82 87 
132 586 261 102 97 94 
132 586 262 99 95 95 
132 586 263 86 85 88 
133 586 262 97 94 94 
133 586 263 85 85 88 
134 584 260 103 97 95 
134 584 261 104 98 95 
134 585 261 103 97 95 
135 584 261 103 97 95 
134 584 262 97 93 93 
134 584 263 75 79 86 
134 585 262 100 96 95 
129 587 266 54 64 76 
129 587 267 54 65 81 
131 585 265 61 69 79 
130 587 265 62 68 76 
131 586 265 63 70 79 
131 587 264 71 74 80 
131 587 265 63 68 76 
130 586 266 54 65 79 
130 587 266 56 66 78 
128 589 264 66 70 77 
128 589 265 57 64 74 
129 588 264 67 72 79 
129 588 265 60 66 75 
129 589 264 67 71 79 
129 589 265 58 65 74 
128 588 266 58 65 75 
128 588 267 56 65 78 
128 589 266 59 65 74 
128 589 267 57 65 75 
129 588 266 58 66 75 
128 590 267 57 64 72 
130 588 264 70 73 78 
130 588 265 63 68 74 
128 589 268 56 66 77 
128 590 268 56 65 76 
128 590 269 58 67 79 
128 591 268 57 63 77 
128 591 269 61 68 77 
128 590 270 56 66 78 
128 591 270 64 69 77 
128 591 271 57 68 78 
132 584 264 71 76 83 
132 584 265 72 77 85 
132 585 264 68 73 82 
132 585 265 68 74 82 
133 584 264 68 74 82 
133 585 264 65 72 80 
132 586 264 66 71 78 
137 576 259 106 101 100 
137 577 259 106 102 102 
139 576 257 107 101 98 
139 577 257 105 100 99 
138 576 258 110 103 99 
138 576 259 109 102 99 
138 577 259 109 103 99 
139 576 258 109 102 98 
139 577 258 109 103 99 
139 577 259 111 103 99 
138 579 256 92 93 97 
139 578 256 97 96 99 
139 578 257 98 96 98 
139 579 256 91 91 95 
139 579 257 90 90 94 
138 578 259 106 102 102 
138 579 258 91 91 94 
138 579 259 92 91 94 
139 578 258 104 101 101 
139 578 259 108 103 101 
139 579 258 95 95 98 
137 577 260 100 97 99 
136 578 260 83 85 90 
136 578 261 72 77 84 
136 579 261 68 77 87 
137 578 260 94 94 98 
137 579 260 87 89 95 
136 581 256 71 77 87 
136 581 257 75 80 89 
137 580 256 78 83 90 
137 581 256 75 80 89 
137 581 257 79 84 92 
137 580 259 86 86 90 
137 581 258 88 89 93 
137 581 259 90 90 93 
136 582 257 79 84 92 
136 582 258 88 89 93 
136 582 259 98 96 98 
137 582 259 97 95 97 
138 580 256 82 85 92 
138 580 257 81 85 92 
138 581 257 78 83 92 
138 580 258 82 84 89 
138 580 259 82 83 88 
138 581 259 87 88 92 
136 580 261 75 80 87 
136 581 260 101 97 97 
136 581 261 88 87 89 
137 580 260 80 82 87 
137 581 260 94 93 95 
136 580 262 55 66 78 
136 581 262 67 70 75 
136 582 260 104 99 98 
136 582 261 102 97 95 
140 576 256 101 97 97 
140 576 257 106 101 99 
140 577 256 99 96 98 
140 577 257 105 100 98 
141 576 256 101 98 98 
128 592 270 74 77 82 
128 592 271 73 77 84 
128 593 271 78 81 87 
128 592 272 54 65 78 
128 593 272 65 73 82 
128 593 273 52 64 76 
128 594 272 67 73 81 
128 594 273 48 60 72 
