ply
format ascii 1.0
comment Created by CloudCompare v2.10.1 (Zephyrus)
comment Created 1/31/20 6:13 PM
obj_info Generated by CloudCompare!
element vertex 1949
property float x
property float y
property float z
property uchar red
property uchar green
property uchar blue
end_header
306 258 249 133 82 93 
306 259 248 160 140 140 
306 259 249 139 83 90 
306 258 250 122 49 62 
306 258 251 100 67 76 
306 259 250 123 50 57 
306 259 251 99 67 77 
305 256 255 95 133 164 
305 257 254 86 121 151 
305 257 255 86 126 159 
305 258 253 81 114 144 
305 259 252 91 119 146 
305 259 253 90 124 155 
304 259 255 80 126 161 
305 258 254 80 121 153 
305 258 255 82 127 162 
305 259 254 86 127 160 
305 259 255 81 127 162 
306 256 252 108 94 101 
306 256 253 103 120 142 
306 257 252 108 110 121 
306 257 253 100 121 144 
306 256 254 103 131 157 
306 256 255 97 131 161 
306 257 254 102 128 153 
306 258 252 84 98 118 
306 258 253 78 107 134 
306 259 252 90 107 130 
305 260 251 90 90 107 
305 261 250 103 71 81 
305 261 251 91 104 124 
305 262 248 136 98 104 
305 262 249 129 83 93 
305 263 248 130 80 90 
305 263 249 123 69 85 
305 262 250 115 101 112 
305 262 251 97 120 144 
305 263 250 112 103 118 
305 263 251 97 125 152 
306 260 248 150 127 127 
306 260 249 133 73 79 
306 261 248 140 116 118 
306 261 249 125 69 78 
306 260 250 114 51 57 
306 260 251 94 76 89 
306 261 250 110 53 61 
306 262 248 141 118 119 
306 262 249 133 85 93 
305 260 252 91 122 151 
305 260 253 91 129 161 
305 261 252 88 126 157 
305 261 253 89 130 162 
304 260 254 77 117 150 
304 260 255 79 121 156 
304 261 254 71 109 143 
304 261 255 72 112 146 
305 260 254 85 124 156 
305 261 254 84 120 153 
304 263 253 85 128 161 
305 262 252 88 131 164 
305 262 253 87 130 164 
305 263 252 87 132 166 
305 263 253 87 131 165 
304 262 254 78 117 150 
304 262 255 76 117 151 
304 263 254 82 119 152 
304 263 255 80 119 153 
305 264 248 122 49 70 
305 264 249 116 51 78 
305 265 249 87 59 86 
304 264 251 87 127 160 
304 265 251 86 125 159 
305 264 250 97 84 106 
305 264 251 92 122 152 
305 265 250 80 91 116 
305 265 251 89 119 148 
304 267 249 85 126 159 
305 266 249 59 91 119 
304 266 250 59 102 135 
304 266 251 76 121 155 
304 267 250 92 130 161 
304 267 251 84 128 163 
305 266 250 53 91 122 
304 264 252 85 131 165 
304 264 253 83 125 160 
304 265 252 83 129 164 
304 265 253 81 125 160 
305 264 252 83 129 164 
304 264 254 71 108 144 
304 264 255 65 108 145 
304 265 254 77 119 154 
304 265 255 78 122 156 
304 266 252 80 128 164 
304 266 253 83 128 163 
304 267 252 77 124 161 
304 267 253 81 128 163 
304 266 254 83 128 162 
304 268 249 84 132 168 
304 269 249 82 131 168 
304 268 250 88 131 166 
304 268 251 74 120 158 
304 269 250 75 124 162 
304 269 251 69 118 157 
304 268 252 71 119 156 
303 259 260 82 128 164 
303 259 261 80 128 165 
303 259 262 81 131 168 
303 260 257 79 124 159 
303 261 257 77 121 156 
303 260 258 86 130 164 
303 260 259 90 131 164 
303 261 258 82 128 163 
303 261 259 88 129 163 
303 262 256 81 122 155 
303 262 257 78 121 156 
303 263 256 81 122 155 
303 263 257 79 124 158 
303 262 258 78 126 162 
303 262 259 84 127 162 
303 263 258 77 127 163 
303 263 259 79 124 160 
303 260 260 82 124 159 
303 260 261 79 125 161 
303 261 260 82 118 153 
303 261 261 78 119 154 
303 260 262 77 125 163 
303 261 262 76 122 158 
302 263 260 85 122 155 
302 263 261 93 128 160 
303 262 260 90 126 159 
303 262 261 95 130 161 
303 263 260 86 124 158 
302 262 262 97 131 163 
302 263 262 88 125 158 
303 262 262 87 125 158 
303 264 256 66 110 147 
303 264 257 76 119 155 
303 265 256 74 120 155 
303 265 257 77 122 157 
302 264 258 80 125 161 
302 264 259 76 118 154 
302 265 258 81 125 159 
302 265 259 80 120 155 
303 264 258 79 125 161 
303 265 258 80 125 160 
303 266 256 76 120 156 
303 266 257 75 121 156 
303 267 256 71 111 147 
303 267 257 69 113 149 
302 266 258 79 124 159 
302 266 259 81 126 160 
302 267 258 75 120 156 
302 267 259 82 127 161 
303 266 258 77 124 159 
303 267 258 75 121 157 
301 265 261 86 127 161 
301 265 262 85 128 163 
301 266 260 88 129 163 
301 266 261 87 130 165 
301 267 260 86 130 165 
301 267 261 85 130 165 
300 267 263 72 116 149 
301 266 262 85 129 163 
301 266 263 80 128 164 
301 267 262 75 118 153 
301 267 263 78 124 159 
302 264 260 71 111 147 
302 264 261 75 117 152 
302 265 260 83 123 157 
302 265 261 86 126 160 
302 264 262 73 118 153 
302 264 263 78 123 157 
302 266 260 86 128 161 
301 268 259 80 125 160 
302 268 257 73 113 147 
303 268 256 69 105 139 
303 268 257 66 105 140 
302 268 258 71 115 150 
302 268 259 76 121 156 
301 268 260 84 129 164 
305 256 256 90 132 167 
305 256 257 89 130 164 
305 257 256 86 129 164 
305 257 257 82 126 162 
304 256 259 93 127 158 
304 257 258 75 114 151 
304 257 259 77 118 153 
305 256 258 82 120 154 
305 256 259 91 125 156 
305 257 258 78 118 153 
304 258 256 82 129 164 
304 258 257 77 123 159 
304 259 256 82 128 164 
304 259 257 79 127 162 
305 258 256 83 128 164 
305 258 257 81 127 163 
304 258 258 75 118 155 
304 258 259 77 121 156 
304 259 258 83 128 162 
304 259 259 87 130 164 
304 256 260 97 129 160 
304 256 261 96 133 165 
304 257 260 78 118 153 
304 257 261 80 123 159 
305 256 260 100 131 161 
304 257 262 86 130 165 
304 258 260 73 120 157 
304 258 261 77 127 164 
304 259 260 80 127 163 
304 259 261 79 129 167 
304 258 262 83 131 167 
304 260 256 79 124 158 
304 260 257 81 126 160 
304 261 256 72 114 149 
304 261 257 76 119 154 
304 260 258 86 130 164 
304 260 259 88 131 164 
304 262 256 76 117 151 
304 263 256 79 120 154 
298 279 265 127 104 100 
298 280 265 135 111 106 
298 281 265 143 122 118 
298 282 265 142 128 128 
298 283 265 136 127 131 
298 283 266 159 156 159 
297 285 266 153 153 159 
297 286 266 149 150 156 
297 287 266 151 149 153 
298 284 265 139 136 141 
298 285 265 145 144 148 
298 284 266 156 154 158 
298 286 265 154 152 155 
298 287 265 161 157 159 
295 301 269 148 143 144 
297 288 265 158 154 156 
297 289 265 159 155 158 
297 288 266 155 152 155 
297 289 266 159 155 158 
297 289 267 162 156 158 
297 290 265 157 153 157 
297 291 265 150 148 153 
296 291 267 153 148 150 
297 290 266 157 152 155 
297 290 267 153 148 149 
297 291 266 143 141 147 
297 291 267 136 133 135 
298 288 265 162 158 159 
298 289 265 161 157 159 
298 290 265 154 151 155 
298 291 265 144 143 148 
297 292 265 145 143 147 
297 293 265 152 147 150 
296 292 267 144 140 143 
296 293 267 142 138 142 
297 292 266 132 133 139 
297 292 267 117 116 122 
297 293 266 131 129 133 
297 293 267 119 118 123 
297 294 265 150 145 147 
297 295 265 140 137 139 
296 294 267 146 142 144 
296 295 267 151 146 148 
297 294 266 129 125 127 
297 294 267 135 132 135 
297 295 266 128 125 128 
297 295 267 140 136 139 
298 295 265 150 146 150 
296 295 268 150 146 148 
297 296 265 146 141 143 
297 297 265 156 149 150 
296 296 267 155 150 152 
296 297 267 157 152 154 
297 296 266 144 140 142 
297 296 267 147 143 147 
297 297 266 154 149 151 
297 297 267 156 151 153 
297 298 265 154 149 150 
297 299 265 151 145 147 
296 298 267 153 149 151 
296 299 267 147 141 143 
297 298 266 147 144 148 
297 299 266 136 132 134 
298 296 265 144 141 145 
298 297 265 150 144 144 
298 298 265 157 150 150 
298 299 265 159 152 154 
296 296 268 152 146 147 
296 297 268 155 149 149 
296 298 268 158 151 151 
296 299 268 157 151 152 
296 299 269 155 149 149 
297 300 265 152 146 147 
297 301 265 159 152 152 
296 300 267 152 145 146 
296 301 267 157 151 152 
297 300 266 134 129 129 
297 300 267 141 134 133 
297 301 266 154 147 147 
297 301 267 156 150 151 
297 302 266 158 152 154 
297 302 267 157 153 157 
297 303 266 147 143 147 
297 303 267 146 144 149 
298 300 265 159 153 153 
298 301 265 160 153 153 
298 302 265 159 152 152 
298 303 265 152 147 148 
296 300 268 155 149 151 
296 300 269 152 146 147 
296 301 268 154 149 151 
296 301 269 144 139 141 
296 302 268 147 144 149 
296 302 269 134 132 135 
296 303 268 140 139 144 
296 303 269 131 130 134 
297 303 268 140 139 144 
297 304 266 125 122 125 
297 304 267 125 123 127 
297 305 266 136 129 128 
297 305 267 140 134 134 
297 306 267 159 151 150 
297 307 267 153 146 145 
298 304 265 151 145 146 
298 305 265 158 151 151 
298 304 266 135 131 133 
298 305 266 152 145 144 
298 306 265 152 148 151 
298 307 265 129 129 135 
298 306 266 157 150 150 
298 307 266 137 134 137 
296 304 268 138 136 141 
296 304 269 141 139 143 
296 305 268 145 141 144 
296 305 269 151 147 149 
297 304 268 135 133 138 
297 305 268 148 143 145 
296 304 270 149 146 149 
296 305 270 151 147 149 
296 306 269 152 146 147 
296 307 269 150 144 143 
297 306 268 155 149 149 
297 306 269 152 146 146 
297 307 268 154 147 146 
297 307 269 150 143 142 
296 306 270 152 146 147 
296 307 270 151 145 145 
297 308 267 147 140 139 
297 309 267 151 143 142 
298 308 265 127 125 130 
298 309 265 159 152 153 
298 308 266 127 125 129 
298 308 267 140 135 137 
298 309 266 152 145 146 
298 309 267 154 146 146 
298 310 265 144 142 148 
298 311 265 122 130 143 
298 310 266 155 150 153 
298 310 267 157 151 152 
298 311 266 136 138 148 
298 311 267 151 148 152 
296 308 269 152 144 143 
297 308 268 150 142 141 
297 308 269 153 145 143 
297 309 268 158 149 148 
297 309 269 158 151 150 
296 308 270 155 148 147 
296 308 271 156 149 150 
296 309 270 158 151 150 
296 309 271 154 149 150 
297 309 270 158 151 151 
297 310 268 160 153 153 
297 310 269 158 152 153 
297 311 268 154 149 152 
297 311 269 149 146 149 
296 310 271 144 140 142 
296 311 271 128 127 131 
297 310 270 153 148 150 
297 311 270 137 135 140 
298 311 268 153 149 152 
298 312 265 119 129 143 
298 313 265 130 138 152 
298 312 266 119 127 140 
298 312 267 131 134 144 
298 313 266 121 130 144 
298 313 267 116 125 138 
298 314 265 124 136 153 
298 315 265 122 133 148 
298 314 266 122 133 150 
298 314 267 123 134 149 
298 315 266 121 131 147 
298 315 267 129 138 152 
297 312 268 137 138 146 
297 312 269 136 137 144 
297 313 268 119 126 137 
297 313 269 113 121 133 
296 312 271 110 111 117 
296 313 271 110 116 127 
297 312 270 121 122 129 
297 313 270 100 109 122 
297 314 269 105 116 131 
297 315 269 129 137 150 
296 314 271 111 122 137 
296 315 271 116 126 141 
297 314 270 97 109 126 
297 315 270 123 132 145 
298 312 268 137 138 145 
298 313 268 110 119 133 
298 314 268 116 127 142 
298 315 268 132 140 154 
298 316 265 132 134 142 
298 316 266 126 129 139 
298 316 267 130 133 142 
297 316 269 140 144 155 
296 316 271 122 129 141 
297 316 270 131 136 148 
298 316 268 139 142 151 
298 316 269 144 146 155 
296 312 272 99 104 114 
296 313 272 104 110 122 
296 314 272 110 120 134 
296 315 272 117 124 137 
296 316 272 127 129 138 
307 245 261 75 117 152 
306 245 263 74 123 160 
307 245 262 74 120 156 
307 245 263 75 124 160 
306 247 261 89 130 164 
307 246 261 83 126 161 
307 247 261 89 131 165 
306 246 262 91 133 167 
306 246 263 81 127 164 
306 247 262 93 133 165 
306 247 263 82 124 159 
307 246 262 88 131 165 
307 246 263 81 129 165 
306 245 264 78 123 159 
307 245 264 77 124 159 
306 246 264 78 122 159 
306 247 264 73 115 152 
306 248 261 88 130 164 
306 248 262 90 130 163 
306 248 263 86 124 157 
306 249 262 87 128 161 
306 249 263 85 119 151 
306 248 264 85 122 155 
306 249 264 82 120 152 
300 268 264 87 110 138 
300 269 264 99 107 132 
300 270 264 106 104 130 
299 272 264 99 94 117 
305 251 263 74 114 149 
306 250 262 86 125 158 
306 250 263 78 112 146 
306 251 262 84 123 156 
306 251 263 75 112 147 
305 252 262 83 125 159 
305 252 263 82 124 159 
305 253 262 87 130 165 
305 253 263 88 132 166 
304 254 263 85 132 168 
304 255 262 89 133 168 
304 255 263 86 133 170 
305 254 262 87 131 167 
305 254 263 87 132 167 
306 252 262 87 127 159 
305 250 264 69 111 147 
305 251 264 76 120 155 
306 250 264 72 107 142 
304 253 264 93 132 165 
305 252 264 84 127 162 
305 253 264 90 132 165 
304 254 264 90 131 165 
304 255 264 82 129 164 
305 254 264 87 132 167 
303 258 263 88 134 169 
303 259 263 82 131 168 
302 261 263 71 122 160 
303 260 263 75 127 165 
303 261 263 70 122 160 
302 262 263 87 128 163 
302 263 263 90 128 161 
303 257 264 75 119 155 
303 258 264 84 128 162 
303 259 264 88 131 166 
301 263 264 85 134 170 
302 261 264 84 131 167 
303 260 264 86 132 167 
302 262 264 87 132 167 
302 263 264 89 134 169 
301 264 263 78 125 161 
301 265 263 80 129 165 
301 264 264 80 130 167 
301 265 264 77 130 167 
300 267 264 83 119 149 
301 266 264 82 129 163 
301 267 264 83 126 158 
304 256 262 91 133 168 
304 256 263 88 134 170 
304 257 263 89 134 169 
304 258 263 89 134 169 
304 256 264 79 125 162 
304 257 264 79 123 159 
306 245 265 84 127 162 
306 245 266 82 129 165 
306 245 267 81 128 164 
306 246 265 80 124 160 
306 247 265 70 117 154 
306 246 266 80 127 163 
306 246 267 79 125 162 
306 247 266 73 120 156 
306 247 267 76 123 160 
305 247 268 88 132 166 
305 247 269 91 126 155 
305 247 270 95 109 132 
305 247 271 93 78 93 
306 245 268 77 122 157 
306 245 269 81 120 150 
306 245 270 91 115 138 
306 245 271 106 91 107 
306 246 268 86 130 164 
306 246 269 91 127 155 
306 247 268 86 130 164 
306 246 270 95 114 136 
306 246 271 103 79 94 
306 247 270 99 107 128 
306 247 271 98 65 79 
305 248 266 83 123 157 
305 248 267 83 126 161 
306 248 265 84 125 159 
306 249 265 86 126 159 
306 248 266 80 122 156 
306 248 267 77 122 158 
305 248 268 88 132 167 
305 248 269 91 125 154 
306 245 272 120 58 68 
307 245 272 118 64 64 
307 245 273 129 99 95 
307 245 274 148 137 133 
307 245 275 168 164 166 
306 246 272 120 65 65 
306 246 273 127 97 92 
306 247 272 117 71 70 
306 247 273 131 112 106 
307 246 273 136 112 109 
306 247 274 156 149 147 
307 246 274 156 146 144 
307 246 275 168 165 169 
307 247 274 160 155 157 
307 247 275 159 159 164 
308 245 275 174 171 175 
308 245 276 171 168 172 
308 245 277 154 151 156 
309 245 277 146 144 150 
309 245 278 139 138 143 
309 245 279 134 132 137 
308 246 276 171 168 172 
308 246 277 156 153 157 
308 247 276 166 164 169 
309 246 278 145 143 147 
309 246 279 143 141 145 
310 245 279 125 123 127 
310 246 279 138 136 141 
310 245 280 120 118 121 
311 245 280 126 125 129 
311 245 281 125 125 128 
310 246 280 124 123 128 
311 246 280 122 121 126 
311 246 281 130 130 134 
312 245 281 124 123 128 
312 245 282 123 121 124 
313 245 282 134 130 130 
312 246 281 119 119 124 
312 246 282 139 136 139 
313 246 282 142 137 138 
314 245 283 143 137 137 
315 245 283 144 141 144 
314 246 283 160 154 154 
299 268 267 122 94 95 
299 269 267 115 84 85 
299 271 265 105 51 51 
299 270 266 106 68 69 
299 270 267 116 92 98 
299 271 266 104 55 60 
299 271 267 118 99 104 
299 268 268 131 116 115 
299 268 269 158 153 155 
299 269 268 131 123 125 
299 269 269 156 153 157 
299 268 270 165 161 165 
299 268 271 163 159 163 
299 269 270 163 161 165 
299 269 271 155 154 159 
299 270 268 135 133 137 
299 270 269 153 153 159 
299 271 268 137 136 143 
299 271 269 156 155 162 
299 270 270 160 159 164 
299 270 271 147 148 156 
299 271 270 157 156 162 
299 271 271 143 145 153 
300 268 265 93 80 96 
300 269 265 103 82 96 
300 268 266 107 48 57 
300 268 267 112 48 48 
300 269 266 110 50 58 
300 269 267 111 59 58 
300 270 265 108 78 89 
300 271 265 104 63 73 
300 270 266 109 58 64 
300 270 267 108 66 66 
300 271 266 107 47 54 
300 268 268 144 131 129 
300 268 269 163 157 158 
300 268 270 169 165 168 
300 268 271 166 163 166 
299 268 272 154 153 158 
299 269 272 147 148 157 
299 270 272 143 147 157 
299 271 272 146 149 159 
300 268 272 161 159 164 
300 268 273 168 166 171 
300 269 272 153 153 160 
300 269 273 161 161 167 
300 268 274 168 165 171 
300 269 274 158 158 164 
301 268 274 166 165 170 
301 268 275 165 164 170 
301 269 274 162 161 167 
301 269 275 157 157 163 
300 270 273 154 156 164 
300 271 273 155 156 164 
300 270 274 154 154 161 
300 270 275 147 148 156 
300 271 274 151 152 160 
300 271 275 146 148 157 
301 270 275 149 150 158 
301 271 275 146 148 157 
302 268 275 166 165 170 
301 269 276 162 161 168 
301 270 276 153 154 162 
301 271 276 150 152 161 
302 268 276 166 164 170 
302 268 277 167 165 170 
302 269 276 163 162 168 
302 269 277 164 163 168 
303 269 278 161 159 164 
302 270 276 160 159 165 
302 270 277 159 158 164 
302 271 277 158 157 164 
302 270 278 158 157 163 
302 271 278 152 153 160 
303 270 278 153 152 159 
303 270 279 153 152 158 
303 271 279 147 147 154 
303 271 280 145 146 152 
299 272 265 106 47 51 
299 273 265 111 50 51 
299 272 266 113 55 56 
299 272 267 137 123 124 
299 273 266 121 59 57 
299 273 267 143 123 121 
299 274 265 109 46 44 
299 275 265 105 49 42 
299 274 266 125 74 67 
299 274 267 151 136 134 
299 275 266 132 97 89 
299 275 267 152 145 146 
299 272 268 153 149 153 
299 272 269 160 158 162 
299 273 268 163 157 159 
299 273 269 165 161 164 
299 272 270 158 156 160 
299 272 271 153 151 157 
299 273 270 162 158 161 
299 273 271 165 161 163 
299 274 268 162 158 160 
299 274 269 165 162 165 
299 275 268 147 147 153 
299 275 269 159 157 161 
298 275 270 160 156 160 
299 274 270 165 161 164 
299 274 271 167 162 165 
299 275 270 164 160 163 
299 275 271 161 157 160 
298 276 265 114 76 78 
298 277 265 132 111 110 
299 276 265 115 79 74 
298 276 267 150 150 157 
298 277 266 156 149 149 
298 277 267 144 145 153 
299 276 266 148 131 127 
299 276 267 149 147 153 
298 278 265 126 105 104 
298 278 266 154 148 149 
298 278 267 141 142 148 
298 279 266 155 149 149 
298 279 267 149 147 152 
298 276 268 134 137 147 
298 276 269 150 148 154 
298 277 268 138 140 149 
298 277 269 148 147 153 
299 276 268 133 137 146 
298 276 270 157 153 156 
298 276 271 149 146 149 
298 277 270 151 148 152 
298 277 271 147 144 147 
299 276 271 151 148 152 
298 278 268 145 145 152 
298 278 269 149 147 152 
298 279 268 153 151 157 
298 279 269 152 149 153 
298 278 270 148 145 150 
298 278 271 141 139 143 
298 279 270 148 145 149 
298 279 271 141 138 142 
297 281 267 165 162 164 
297 282 267 159 156 160 
297 283 267 151 148 152 
298 280 266 160 152 152 
298 280 267 163 159 162 
298 281 266 163 157 157 
298 281 267 167 163 166 
298 282 266 162 158 160 
297 280 268 165 161 164 
297 280 269 162 157 160 
297 281 268 165 161 163 
297 281 269 166 161 164 
297 280 270 155 152 155 
297 281 270 162 158 161 
297 281 271 160 156 159 
297 282 268 159 155 158 
297 282 269 164 159 162 
297 283 268 148 144 148 
297 283 269 158 155 158 
297 282 270 164 160 163 
297 282 271 161 157 161 
297 283 270 159 156 160 
297 283 271 157 154 158 
298 280 268 161 157 161 
298 280 269 159 155 159 
298 281 268 166 161 164 
298 281 269 165 160 163 
298 280 270 149 146 150 
298 280 271 150 147 151 
298 281 270 163 159 162 
298 281 271 159 155 159 
298 282 271 160 157 160 
297 284 266 158 156 160 
297 284 267 144 143 148 
297 285 267 139 138 144 
297 286 267 138 138 145 
297 287 267 150 148 153 
297 284 268 141 138 142 
297 284 269 155 152 156 
297 285 268 145 143 147 
297 285 269 155 152 157 
297 284 270 151 148 153 
297 284 271 150 148 153 
297 285 270 150 148 152 
297 285 271 146 144 149 
296 286 269 151 149 154 
296 287 268 160 157 160 
296 287 269 155 152 156 
297 286 268 154 151 156 
297 286 269 155 152 157 
297 287 268 160 157 161 
296 286 270 146 145 150 
296 286 271 144 143 148 
296 287 270 150 147 152 
296 287 271 149 146 151 
297 286 270 147 146 151 
297 286 271 145 143 148 
299 272 272 156 156 163 
299 272 273 158 158 164 
299 273 272 167 163 166 
299 273 273 166 163 167 
299 273 274 165 163 167 
299 274 272 168 164 168 
299 274 273 168 165 168 
299 275 272 163 160 165 
299 275 273 166 162 166 
299 274 274 167 164 168 
299 274 275 165 163 168 
299 275 274 167 164 167 
299 275 275 166 163 167 
299 275 276 164 162 167 
298 277 272 147 144 148 
299 276 272 154 152 157 
299 276 273 159 157 161 
299 277 272 149 147 152 
299 277 273 153 152 158 
299 276 274 160 158 163 
299 276 275 162 159 164 
299 277 274 153 153 160 
299 277 275 156 155 161 
298 278 272 145 143 147 
298 279 272 146 144 148 
298 279 273 149 147 152 
299 278 273 147 147 154 
299 279 273 147 147 152 
298 279 274 145 146 153 
299 278 274 148 149 157 
299 278 275 147 149 156 
299 279 274 146 146 154 
299 279 275 146 148 156 
299 276 276 162 160 165 
299 277 276 157 156 162 
299 278 276 150 151 157 
299 279 276 149 149 156 
299 279 277 146 147 153 
300 272 273 159 159 166 
300 272 274 153 154 162 
300 272 275 150 153 162 
300 273 274 162 161 166 
300 273 275 161 161 168 
300 274 275 165 163 168 
300 275 275 165 163 168 
300 272 276 151 155 165 
300 273 276 157 159 167 
301 272 276 150 153 163 
301 272 277 156 156 164 
301 273 277 160 159 166 
301 273 278 157 156 162 
300 274 276 164 163 169 
300 274 277 164 164 169 
300 275 276 165 163 168 
300 275 277 166 163 167 
301 274 277 164 162 168 
301 274 278 161 158 163 
301 275 278 164 161 164 
302 272 277 155 155 163 
302 272 278 149 150 158 
302 272 279 142 144 151 
302 273 278 151 151 158 
302 273 279 145 146 153 
303 272 279 142 142 149 
302 274 279 153 152 158 
302 275 279 158 156 160 
300 276 276 162 160 165 
300 276 277 162 160 165 
300 277 276 156 155 160 
300 277 277 153 153 159 
300 276 278 161 159 163 
300 277 278 152 152 158 
301 276 278 163 160 163 
301 277 278 156 154 160 
301 277 279 155 154 159 
300 278 277 146 147 154 
300 279 277 146 147 154 
300 278 278 147 148 155 
300 279 278 144 145 152 
301 278 278 149 149 155 
301 278 279 150 150 156 
301 279 278 147 148 154 
301 279 279 145 146 153 
302 276 279 159 156 159 
302 277 279 154 153 157 
302 278 279 148 149 155 
303 272 280 141 142 149 
303 273 280 138 140 147 
302 274 280 151 150 157 
302 275 280 155 152 157 
303 274 280 145 145 151 
303 275 280 150 149 154 
303 275 281 148 147 152 
301 279 280 134 137 145 
302 276 280 156 152 156 
302 277 280 151 150 155 
303 276 280 153 151 155 
303 276 281 147 146 151 
303 277 281 142 143 149 
303 277 282 132 134 143 
303 277 283 125 130 140 
302 278 280 141 143 152 
302 278 281 128 132 142 
302 279 280 127 131 142 
302 279 281 112 119 132 
302 278 282 114 121 133 
302 278 283 110 119 131 
302 279 282 107 116 130 
302 279 283 106 117 131 
303 278 283 120 127 138 
302 279 284 118 128 143 
303 278 284 119 129 142 
303 279 284 124 135 150 
303 279 285 119 132 147 
297 283 272 155 152 156 
298 280 272 150 147 151 
298 280 273 154 151 155 
298 281 272 157 153 157 
298 281 273 158 154 157 
299 280 273 149 148 153 
298 280 274 154 152 156 
298 280 275 157 155 160 
298 281 274 160 156 159 
298 281 275 160 157 161 
299 280 274 150 148 153 
299 280 275 153 152 158 
298 282 272 159 155 158 
298 282 273 160 155 158 
298 283 272 158 154 158 
298 283 273 158 154 157 
298 282 274 160 156 159 
298 282 275 162 158 162 
298 283 274 160 155 158 
298 283 275 161 157 161 
298 280 276 157 155 160 
298 281 276 161 158 161 
299 280 276 154 153 159 
299 280 277 150 149 155 
299 281 276 159 156 161 
299 281 277 157 155 159 
299 280 278 150 149 155 
299 281 278 154 153 159 
298 282 276 162 158 162 
298 282 277 160 157 160 
298 283 276 162 158 162 
298 283 277 161 157 161 
299 282 277 159 156 159 
299 283 277 159 156 159 
299 282 278 156 154 159 
299 282 279 148 148 155 
299 283 278 155 153 158 
299 283 279 139 142 150 
297 284 272 151 148 152 
297 284 273 153 150 154 
297 285 272 147 145 149 
297 285 273 149 146 150 
296 287 272 147 145 150 
297 286 272 147 145 150 
297 286 273 148 146 150 
297 287 272 147 145 150 
297 287 273 146 144 149 
297 286 274 149 147 151 
297 287 274 148 146 152 
298 284 272 151 148 153 
298 284 273 155 152 155 
298 285 273 151 148 151 
298 284 274 157 153 157 
298 284 275 158 156 160 
298 285 274 153 150 153 
298 285 275 155 153 157 
298 286 274 151 148 152 
298 286 275 154 151 155 
298 287 274 151 149 154 
298 287 275 151 149 154 
298 284 276 159 156 161 
298 284 277 160 157 161 
298 285 276 155 153 158 
299 284 277 156 154 159 
299 285 277 152 151 156 
299 284 278 151 150 156 
299 284 279 139 142 151 
299 285 278 146 147 154 
299 285 279 137 141 151 
298 286 276 148 146 151 
298 286 277 145 145 150 
298 287 276 145 144 150 
298 287 277 139 140 147 
299 286 277 142 142 149 
299 287 277 138 140 148 
299 286 278 139 142 150 
299 286 279 116 126 140 
299 287 278 132 136 147 
299 287 279 105 118 133 
300 280 278 147 147 154 
300 280 279 145 147 153 
300 281 279 148 149 156 
301 280 279 145 146 153 
300 282 279 143 145 153 
300 285 279 123 130 142 
299 287 280 103 120 139 
300 281 280 136 139 147 
300 281 281 127 133 143 
301 280 280 127 131 140 
301 280 281 120 127 139 
301 281 280 131 134 143 
301 281 281 124 130 142 
301 280 282 107 118 133 
301 280 283 105 117 133 
301 281 282 114 125 140 
301 281 283 107 120 137 
300 282 280 133 137 147 
300 282 281 105 116 130 
300 283 280 122 130 142 
300 283 281 94 109 125 
300 282 282 92 107 125 
300 282 283 97 112 130 
300 283 282 78 96 115 
300 283 283 103 116 133 
301 282 282 108 121 138 
301 282 283 104 118 135 
302 280 281 112 120 132 
302 280 283 111 122 138 
301 281 284 99 116 135 
301 282 284 101 118 137 
301 283 284 102 117 134 
302 280 284 113 127 143 
302 281 284 100 119 138 
302 281 285 97 117 137 
303 280 285 111 125 143 
303 281 285 98 116 137 
303 281 286 102 118 138 
302 282 285 94 115 135 
302 283 285 102 121 140 
303 282 286 99 116 136 
303 283 286 100 115 135 
300 284 280 115 125 139 
300 284 281 104 118 135 
300 285 280 106 119 135 
300 285 281 104 119 138 
300 284 282 94 110 128 
300 284 283 100 113 129 
300 285 282 103 116 134 
300 285 283 95 108 126 
300 286 280 100 117 138 
300 286 281 102 117 137 
300 287 280 105 122 143 
300 287 281 101 118 138 
300 286 282 95 111 131 
300 286 283 97 111 128 
300 287 282 90 109 129 
300 287 283 95 111 129 
300 284 284 102 115 131 
300 285 284 87 102 119 
301 284 285 101 115 132 
301 285 285 90 105 121 
300 286 284 88 101 118 
300 287 284 104 115 131 
300 287 285 107 117 130 
301 286 285 98 110 126 
301 287 285 111 119 132 
301 287 286 118 124 134 
302 284 285 105 121 138 
302 285 285 104 118 135 
302 284 286 108 120 135 
302 285 286 113 122 136 
303 284 286 107 115 130 
303 285 286 121 122 132 
302 286 285 112 123 138 
302 286 286 116 125 138 
302 287 286 121 127 138 
303 286 286 127 125 133 
303 287 286 128 128 136 
303 287 287 131 127 134 
304 269 279 156 154 159 
304 270 279 153 152 158 
304 269 280 150 150 155 
305 269 280 150 148 152 
305 269 281 146 146 151 
304 270 280 148 147 153 
304 270 281 146 145 151 
304 271 280 144 144 150 
304 271 281 142 142 149 
305 270 281 145 144 150 
305 271 281 143 143 149 
305 270 282 140 141 148 
305 271 282 139 141 148 
306 270 282 137 140 148 
306 270 283 132 136 146 
306 271 282 135 138 148 
306 271 283 131 136 147 
307 270 283 133 138 149 
307 270 284 128 137 151 
307 270 285 117 131 151 
307 271 284 127 136 150 
307 271 285 124 137 156 
308 271 285 113 130 153 
308 270 286 108 130 154 
308 271 286 106 127 152 
309 271 286 105 128 153 
309 271 287 110 132 156 
310 271 287 113 134 159 
304 272 280 139 140 147 
304 272 281 137 138 145 
304 273 281 135 136 143 
305 272 281 133 135 144 
305 273 281 130 133 142 
305 272 282 133 137 147 
305 273 282 127 132 143 
305 273 283 125 132 144 
304 274 281 139 139 146 
304 275 281 144 143 148 
304 274 282 134 136 144 
304 275 282 136 137 145 
305 274 282 128 132 142 
305 274 283 124 132 145 
305 275 282 130 133 142 
305 275 283 129 135 146 
306 272 283 129 135 147 
306 273 283 125 132 145 
306 274 283 123 131 145 
305 275 284 121 132 147 
306 272 284 128 137 151 
306 273 284 123 134 150 
307 272 284 124 136 153 
307 272 285 117 133 155 
307 273 285 114 132 154 
306 274 284 120 132 149 
306 274 285 116 131 149 
306 275 284 120 132 148 
306 275 285 114 129 146 
307 274 285 112 130 151 
307 275 285 112 128 147 
307 274 286 112 132 155 
307 275 286 114 131 152 
304 276 281 144 143 149 
304 276 282 137 138 146 
304 276 283 129 133 143 
304 277 283 125 130 141 
305 276 283 127 134 146 
304 277 284 121 129 140 
305 276 284 123 132 145 
305 277 284 117 127 140 
305 277 285 118 128 141 
304 278 284 121 130 144 
304 278 285 120 130 144 
304 279 285 122 133 147 
305 278 285 119 130 144 
305 279 285 117 130 146 
305 279 286 124 134 147 
306 276 284 119 130 145 
306 276 285 115 129 146 
306 277 285 118 129 144 
307 276 285 114 129 148 
307 277 285 114 128 145 
307 276 286 119 132 149 
307 277 286 121 132 147 
306 278 285 121 132 147 
306 278 286 124 135 149 
306 279 286 131 138 151 
307 278 286 125 134 148 
307 278 287 135 141 153 
307 279 286 135 141 154 
307 279 287 135 141 154 
308 272 285 107 128 152 
308 272 286 108 130 155 
308 273 286 110 132 156 
308 273 287 118 137 159 
309 272 287 108 131 157 
309 273 287 116 135 158 
308 274 286 115 134 155 
308 274 287 124 141 161 
308 275 286 116 132 152 
308 275 287 130 141 157 
309 274 287 134 146 164 
310 272 287 106 130 155 
308 276 286 121 133 148 
308 276 287 131 138 150 
308 277 287 126 132 144 
308 278 287 134 139 151 
304 280 285 116 127 143 
304 280 286 116 125 140 
304 281 286 114 121 137 
305 280 286 126 132 145 
305 281 286 122 123 137 
305 281 287 118 116 132 
304 282 286 101 106 125 
304 282 287 92 91 112 
304 283 286 104 106 126 
304 283 287 95 90 112 
305 282 287 109 100 120 
305 283 287 101 88 112 
306 280 286 135 138 150 
306 280 287 125 126 139 
306 281 287 116 106 127 
307 280 287 130 134 147 
306 283 287 117 99 125 
304 284 286 111 108 124 
304 284 287 113 102 121 
304 285 287 126 114 127 
305 284 287 115 97 121 
305 285 287 129 108 126 
304 286 287 129 115 125 
304 287 287 131 119 131 
305 286 287 132 111 126 
309 275 288 146 151 161 
310 273 288 125 141 162 
310 274 288 130 137 150 
310 275 288 153 151 155 
308 277 288 136 136 141 
309 276 288 147 145 148 
309 277 288 139 134 134 
308 278 288 143 142 148 
308 279 288 138 139 147 
309 278 288 156 149 148 
309 279 289 171 159 153 
310 277 289 153 140 128 
310 278 289 165 149 134 
305 282 288 119 101 124 
306 281 288 111 96 119 
307 280 288 124 126 137 
307 281 288 115 100 114 
306 282 288 129 105 128 
306 283 288 121 98 123 
307 282 288 130 95 118 
307 282 289 129 82 102 
307 283 288 132 97 119 
307 283 289 133 89 110 
305 284 288 120 103 125 
305 285 288 125 110 130 
305 286 288 131 112 129 
305 287 288 132 110 129 
306 284 288 115 94 117 
306 284 289 121 86 109 
306 285 288 123 104 126 
306 285 289 124 98 123 
307 284 289 124 87 107 
306 286 288 129 109 129 
306 286 289 126 99 122 
306 287 288 130 107 127 
306 287 289 127 98 118 
307 286 290 127 93 120 
307 287 290 127 101 122 
308 280 288 136 135 139 
308 280 289 151 144 144 
308 281 289 129 112 113 
309 280 289 162 154 150 
309 281 289 126 112 116 
308 282 289 122 76 96 
308 283 289 134 91 119 
309 283 290 131 100 132 
310 282 290 124 123 139 
308 285 290 129 102 128 
309 284 290 136 105 134 
308 286 290 126 106 131 
308 287 290 118 113 132 
310 286 291 104 133 165 
295 294 270 143 141 144 
295 294 271 142 139 142 
295 295 270 146 143 147 
295 295 271 142 139 143 
295 297 269 150 143 143 
295 296 270 150 145 148 
295 296 271 145 141 143 
295 297 270 154 147 148 
295 297 271 150 143 144 
295 298 269 156 149 149 
295 299 269 155 148 149 
295 298 270 155 148 148 
295 298 271 152 145 145 
295 299 270 155 148 148 
295 299 271 153 147 147 
295 300 269 151 146 147 
295 300 270 153 148 148 
295 300 271 154 147 148 
295 301 270 152 146 147 
295 301 271 152 146 147 
295 302 270 152 147 148 
295 302 271 148 142 143 
295 303 271 142 137 138 
297 288 267 160 156 159 
296 290 267 159 153 154 
296 288 268 162 157 160 
296 288 269 154 151 154 
296 289 268 162 156 158 
296 289 269 157 153 156 
297 288 268 164 159 163 
297 289 268 164 158 160 
296 288 270 154 151 155 
296 288 271 154 151 155 
296 289 270 156 153 156 
296 289 271 157 153 156 
296 290 268 163 157 158 
296 290 269 158 153 155 
296 291 268 162 156 158 
296 291 269 156 151 153 
296 290 270 157 152 154 
296 290 271 158 153 155 
296 291 270 153 148 151 
296 291 271 157 152 154 
296 292 268 159 154 156 
296 292 269 153 149 151 
296 293 268 155 150 153 
296 293 269 143 140 143 
296 292 270 148 144 146 
296 292 271 155 149 151 
296 293 270 141 138 141 
296 293 271 148 144 147 
296 294 268 151 147 150 
296 294 269 138 136 140 
296 295 269 137 135 138 
296 294 270 140 137 141 
296 295 270 143 140 145 
296 296 269 143 138 140 
296 297 269 150 143 143 
296 298 269 157 149 149 
296 301 270 148 142 144 
296 302 270 147 143 145 
296 303 270 147 144 146 
296 303 271 145 140 142 
295 294 272 139 136 139 
295 295 272 137 134 138 
295 295 273 137 135 139 
295 296 272 139 135 138 
295 296 273 139 136 140 
295 297 272 144 138 139 
295 297 273 140 137 141 
295 297 274 133 133 138 
295 298 272 148 142 141 
295 298 273 145 140 142 
295 299 272 151 144 143 
295 299 273 147 141 141 
295 298 274 137 136 140 
295 298 275 127 128 135 
295 299 274 142 138 141 
295 299 275 129 130 137 
295 300 272 152 145 144 
295 300 273 149 142 142 
295 301 272 149 142 141 
295 301 273 149 142 142 
295 300 274 144 140 142 
295 300 275 127 129 135 
295 301 274 141 137 140 
295 301 275 121 124 131 
295 302 272 143 137 137 
295 302 273 145 139 140 
295 303 272 138 133 135 
295 303 273 140 136 138 
295 302 274 137 134 138 
295 302 275 118 121 128 
295 303 274 138 136 139 
296 288 272 149 147 152 
296 288 273 145 144 149 
296 289 272 151 148 153 
296 289 273 150 147 152 
297 288 273 144 144 149 
297 289 273 149 147 152 
297 288 274 148 147 152 
297 288 275 146 145 151 
297 289 274 147 146 151 
297 289 275 142 142 147 
296 290 272 156 152 154 
296 290 273 155 151 154 
296 291 272 158 153 156 
296 291 273 157 152 155 
296 291 274 155 151 153 
297 290 274 152 148 151 
297 290 275 142 141 146 
297 291 274 154 149 152 
297 291 275 149 146 150 
298 288 275 149 148 153 
297 289 276 134 133 140 
297 290 276 139 138 143 
297 291 276 148 145 150 
298 288 276 139 139 145 
298 288 277 136 138 146 
298 289 276 134 134 140 
298 289 277 135 137 145 
299 288 277 137 140 148 
299 288 278 122 128 140 
299 288 279 105 118 134 
299 289 278 111 120 133 
299 289 279 107 120 137 
298 290 276 140 139 144 
298 290 277 139 139 146 
298 291 276 147 145 150 
298 291 277 142 142 149 
298 291 278 127 132 143 
299 290 278 113 122 135 
299 290 279 107 120 138 
299 291 278 118 126 140 
299 291 279 110 123 140 
296 292 272 157 152 154 
296 292 273 156 152 154 
296 293 272 151 147 149 
296 293 273 152 147 150 
296 292 274 155 150 153 
296 293 274 153 148 151 
297 292 274 155 150 153 
297 292 275 153 149 152 
297 293 275 151 147 150 
296 294 272 144 140 143 
296 294 273 143 140 143 
296 295 273 140 138 143 
296 294 274 150 146 148 
296 294 275 146 143 146 
296 295 274 145 142 145 
296 295 275 142 140 144 
297 294 275 144 142 145 
297 295 275 138 136 141 
297 292 276 149 147 151 
297 293 276 143 141 146 
297 294 276 137 136 142 
297 295 276 134 134 139 
298 292 277 142 142 149 
298 293 277 135 137 145 
298 292 278 126 131 142 
298 293 278 117 124 137 
299 292 278 115 125 140 
299 292 279 111 124 141 
299 293 278 112 122 136 
299 293 279 110 122 138 
298 294 277 128 130 138 
298 295 277 125 127 135 
298 294 278 109 118 131 
298 294 279 120 128 140 
298 295 278 112 120 132 
298 295 279 125 131 142 
299 294 279 117 126 140 
299 295 279 120 127 138 
299 288 280 106 123 142 
299 289 280 98 114 133 
299 289 281 72 91 116 
299 289 282 73 90 114 
299 289 283 91 105 126 
299 290 280 98 113 132 
299 290 281 84 98 118 
299 291 280 102 116 134 
299 291 281 95 108 126 
299 290 282 87 100 119 
299 290 283 95 109 128 
299 291 282 95 108 125 
299 291 283 93 107 126 
299 290 284 91 105 127 
299 291 284 87 102 124 
299 292 280 102 116 137 
299 292 281 100 114 134 
299 293 280 101 116 135 
299 293 281 92 108 130 
299 292 282 91 105 126 
299 292 283 77 95 117 
299 293 282 86 102 124 
299 293 283 84 99 120 
298 295 280 124 129 139 
298 295 281 89 102 116 
299 294 280 109 119 135 
299 294 281 94 107 125 
299 295 280 114 120 132 
299 295 281 91 102 118 
298 294 282 87 100 121 
298 294 283 85 100 122 
298 295 282 87 100 117 
298 295 283 90 104 122 
299 294 282 88 101 123 
299 294 283 86 100 122 
299 292 284 85 100 124 
299 292 285 85 100 127 
299 293 284 88 102 124 
299 293 285 88 102 127 
298 295 284 93 106 122 
299 294 284 85 102 124 
299 294 285 88 105 127 
299 295 284 87 103 125 
299 295 285 89 105 126 
300 288 280 102 119 141 
300 288 281 97 115 136 
300 289 280 100 117 138 
300 289 281 84 103 127 
300 288 282 90 107 129 
300 288 283 92 107 127 
300 289 282 86 101 124 
300 289 283 89 103 125 
300 288 284 101 113 129 
300 288 285 112 121 135 
300 289 284 90 104 124 
300 289 285 99 112 128 
301 288 285 116 124 137 
301 289 285 112 122 136 
301 288 286 119 127 138 
301 289 286 111 122 137 
300 290 284 89 105 126 
300 290 285 90 107 126 
300 291 284 86 103 126 
300 291 285 86 104 126 
301 290 285 94 109 127 
301 290 286 101 115 132 
301 291 286 92 109 128 
302 288 286 123 128 137 
302 289 286 116 126 140 
302 289 287 120 128 142 
303 288 286 126 123 133 
303 288 287 126 125 136 
303 289 287 123 127 141 
302 290 287 110 123 140 
302 291 287 102 116 134 
303 290 287 117 127 144 
303 291 287 113 124 140 
300 292 285 87 101 127 
300 293 285 89 102 127 
300 292 286 87 105 128 
300 293 286 88 105 127 
301 292 286 89 106 128 
301 293 286 88 106 128 
301 293 287 89 106 126 
300 294 285 89 105 126 
300 294 286 88 104 127 
300 295 286 90 108 129 
301 294 286 89 104 126 
301 294 287 91 105 127 
301 295 287 92 108 130 
302 292 287 97 111 131 
302 293 287 92 107 127 
303 292 287 110 118 136 
302 294 287 93 106 127 
302 295 287 96 111 132 
296 296 273 140 138 142 
296 296 274 134 133 139 
296 296 275 128 127 132 
296 297 274 126 127 133 
296 297 275 117 118 125 
297 296 275 129 128 133 
296 298 275 123 124 131 
296 299 275 124 127 135 
296 297 276 120 122 129 
297 296 276 129 129 134 
297 296 277 131 132 139 
297 297 276 122 122 129 
297 297 277 124 127 136 
297 297 278 123 129 140 
297 297 279 126 132 142 
296 298 276 125 127 134 
296 299 276 126 129 137 
296 299 277 124 129 139 
297 298 276 120 123 132 
297 298 277 124 128 138 
296 299 278 116 123 135 
297 298 278 119 127 139 
297 298 279 119 127 139 
297 299 278 117 125 138 
297 299 279 110 119 133 
298 296 277 125 129 137 
298 297 277 128 131 141 
298 296 278 124 129 140 
298 296 279 130 134 144 
298 297 278 127 131 142 
298 297 279 132 136 146 
296 302 275 118 122 130 
296 303 274 128 127 132 
296 303 275 121 123 131 
296 300 276 126 128 136 
296 300 277 124 128 137 
296 301 276 123 126 135 
296 301 277 118 124 134 
296 300 278 116 123 136 
296 300 279 105 116 131 
296 301 278 111 120 134 
296 301 279 102 115 132 
297 300 279 103 114 129 
296 302 276 123 126 136 
296 302 277 115 121 132 
296 303 276 125 128 136 
296 303 277 115 121 133 
296 302 278 106 117 133 
296 302 279 99 113 129 
296 303 278 102 113 128 
296 303 279 102 111 124 
297 297 281 94 106 123 
297 297 282 105 107 116 
297 297 283 138 126 117 
297 298 280 109 119 134 
297 298 281 93 105 121 
297 299 280 99 111 127 
297 299 281 105 110 120 
297 298 282 115 113 116 
297 298 283 146 131 117 
297 299 282 137 124 115 
297 299 283 152 131 106 
298 296 280 129 132 141 
298 296 281 112 119 131 
298 297 280 129 134 144 
298 297 281 109 118 132 
298 296 282 98 107 119 
298 296 283 112 115 122 
298 297 282 97 104 119 
298 297 283 134 124 119 
297 298 284 153 134 115 
297 299 284 148 121 94 
298 296 284 117 119 124 
298 297 284 148 135 122 
298 297 285 141 128 118 
299 296 285 106 111 122 
299 297 285 131 118 114 
299 296 286 105 109 120 
299 297 286 121 115 119 
298 298 284 152 131 109 
298 298 285 141 109 94 
298 299 285 137 86 76 
299 298 286 130 94 95 
299 298 287 129 78 86 
299 299 286 130 43 67 
299 299 287 128 40 71 
296 300 280 98 111 128 
296 301 280 109 117 130 
296 301 281 141 131 124 
297 300 280 102 112 127 
297 300 281 129 123 122 
296 301 282 156 134 107 
297 300 282 150 131 108 
297 300 283 152 125 94 
297 301 282 153 127 96 
297 301 283 144 109 79 
296 302 280 122 124 130 
296 302 281 150 135 120 
296 303 280 138 131 127 
296 303 281 155 135 113 
296 302 282 152 124 93 
296 303 282 140 106 73 
296 303 283 127 52 47 
297 302 282 146 114 81 
297 302 283 134 76 58 
297 303 283 127 43 44 
297 300 284 140 102 73 
297 301 284 132 77 58 
297 302 284 129 50 49 
297 302 285 129 27 51 
297 303 284 129 18 50 
297 303 285 132 9 57 
298 300 285 128 62 53 
298 301 285 126 42 51 
298 300 286 129 21 50 
298 301 286 129 4 54 
299 300 286 132 11 59 
299 300 287 134 15 68 
299 301 286 131 0 58 
299 301 287 134 15 66 
298 302 285 129 17 53 
298 303 285 134 10 59 
298 302 286 132 5 61 
298 303 286 132 5 56 
299 302 286 131 4 58 
299 302 287 132 13 54 
299 303 286 132 14 50 
299 303 287 132 7 44 
300 296 286 100 111 127 
300 296 287 97 112 129 
300 297 286 112 113 122 
300 297 287 110 112 122 
301 296 287 95 111 129 
301 297 287 105 110 123 
300 298 287 124 100 106 
300 299 287 126 54 79 
301 298 287 116 107 120 
300 300 287 134 12 72 
300 301 287 133 16 67 
300 302 287 130 17 56 
300 303 287 131 4 52 
296 304 271 145 141 144 
296 305 271 147 142 144 
296 306 271 147 142 143 
296 307 271 150 144 145 
295 309 274 118 120 128 
295 309 275 108 115 126 
295 310 273 121 121 126 
295 311 273 106 110 119 
295 310 274 111 114 122 
295 310 275 104 112 124 
295 311 274 109 113 121 
295 311 275 115 118 126 
295 309 276 105 113 125 
295 309 277 118 118 122 
295 308 279 152 133 112 
295 309 278 144 131 118 
295 309 279 150 129 105 
295 310 276 107 112 122 
295 310 277 130 122 117 
295 311 276 126 123 125 
295 311 277 143 130 117 
294 311 279 119 45 52 
295 310 278 148 130 110 
295 310 279 142 118 91 
295 311 278 141 119 93 
295 311 279 126 84 64 
295 306 280 153 130 104 
295 306 281 130 89 71 
295 307 280 153 130 102 
295 307 281 121 69 52 
295 306 282 120 23 51 
295 306 283 127 22 60 
295 307 282 119 27 52 
295 307 283 128 32 64 
295 307 284 129 41 66 
295 308 280 146 121 93 
295 308 281 118 39 41 
295 309 280 130 97 67 
295 309 281 116 21 37 
295 308 282 123 21 58 
295 308 283 126 36 63 
295 309 282 123 19 56 
295 309 283 123 27 57 
294 311 280 120 22 52 
294 311 281 121 9 52 
295 310 280 122 67 51 
295 310 281 119 12 44 
295 311 280 119 32 46 
295 311 281 121 14 50 
294 311 282 120 7 48 
294 311 283 121 12 52 
295 310 282 121 7 52 
295 310 283 119 13 47 
295 311 282 119 9 48 
295 311 283 119 14 48 
295 308 284 127 34 61 
295 309 284 123 15 52 
295 309 285 127 23 59 
294 311 284 123 13 54 
295 310 284 121 7 48 
295 310 285 126 15 56 
295 311 284 123 13 52 
295 311 285 125 8 54 
295 311 286 128 10 56 
295 312 273 102 109 121 
295 313 273 107 115 129 
295 312 274 119 121 129 
295 312 275 131 128 130 
295 313 274 125 126 132 
295 313 275 141 134 131 
295 314 273 115 122 135 
295 315 273 121 123 129 
295 314 274 130 127 129 
295 314 275 145 132 122 
295 315 274 134 125 118 
295 315 275 154 134 114 
294 312 277 147 127 104 
294 313 276 154 138 123 
294 313 277 149 127 105 
295 312 276 142 133 128 
295 312 277 148 132 115 
295 313 276 149 137 126 
294 312 278 125 85 59 
294 312 279 119 39 45 
294 313 278 125 73 55 
294 313 279 121 33 49 
295 312 278 138 113 89 
294 314 277 145 118 93 
294 315 277 132 85 67 
295 314 276 154 136 119 
295 315 276 157 135 108 
295 315 277 146 117 88 
294 314 278 124 53 54 
294 314 279 124 39 59 
294 315 278 122 36 58 
294 315 279 123 34 61 
295 316 273 139 132 131 
295 316 274 152 135 120 
295 316 275 166 142 116 
294 316 277 122 41 44 
295 316 276 160 133 100 
295 316 277 136 91 62 
294 316 278 122 30 59 
294 316 279 120 19 57 
293 314 281 121 23 55 
293 315 281 119 21 53 
293 314 282 120 21 54 
293 314 283 120 16 54 
293 315 282 119 21 55 
293 315 283 119 22 55 
294 312 280 123 24 58 
294 312 281 121 12 52 
294 313 280 124 35 62 
294 313 281 120 18 52 
294 312 282 121 18 51 
294 312 283 122 17 55 
294 313 282 120 18 53 
294 313 283 122 19 57 
294 314 280 123 37 59 
294 314 281 120 21 54 
294 315 280 120 27 53 
294 315 281 120 20 52 
293 314 284 123 18 59 
293 314 285 125 24 62 
293 315 284 122 30 60 
293 315 285 123 27 61 
294 312 284 124 11 57 
294 313 284 124 12 59 
294 313 285 127 22 62 
295 312 285 126 16 57 
295 313 285 129 21 60 
295 312 286 129 14 60 
295 313 286 131 15 58 
294 314 284 124 12 58 
294 314 285 127 25 62 
294 315 285 125 27 60 
294 314 286 128 17 57 
294 315 286 127 14 55 
295 314 286 130 12 57 
295 314 287 131 15 58 
295 315 286 129 11 55 
295 315 287 128 34 57 
293 316 280 119 9 48 
293 316 281 119 18 53 
292 316 282 117 17 51 
292 316 283 118 28 55 
293 316 282 118 21 54 
294 316 280 119 6 49 
292 316 284 120 34 60 
293 316 284 121 33 61 
293 316 285 123 30 61 
293 316 286 125 21 56 
294 316 286 127 17 57 
294 316 287 128 20 59 
295 316 287 127 47 56 
296 304 272 134 131 133 
296 304 273 130 127 131 
296 305 272 139 135 137 
296 305 273 126 124 128 
296 304 274 125 125 131 
296 304 275 126 127 133 
296 305 274 121 122 129 
296 305 275 127 128 135 
296 306 272 145 139 141 
296 306 273 135 132 135 
296 307 272 149 143 144 
296 307 273 143 139 142 
296 306 274 131 131 138 
296 306 275 131 132 138 
296 307 274 134 134 139 
296 307 275 128 130 138 
296 304 276 124 127 135 
296 304 277 115 122 134 
296 305 276 124 127 135 
296 305 277 106 114 126 
296 304 278 101 110 123 
296 304 279 110 113 120 
296 305 278 100 107 116 
296 305 279 124 121 121 
296 306 276 123 127 135 
296 306 277 98 107 120 
296 307 276 119 124 133 
296 307 277 104 111 123 
296 306 278 106 109 116 
296 306 279 143 133 126 
296 307 278 126 124 126 
296 307 279 152 135 119 
296 308 272 151 145 146 
296 308 273 142 139 142 
296 309 272 147 142 145 
296 309 273 136 134 137 
296 308 274 131 131 138 
296 308 275 122 126 135 
296 309 274 124 125 132 
296 309 275 114 120 130 
296 310 272 131 129 133 
296 310 273 125 125 130 
296 311 272 118 119 125 
296 311 273 109 112 120 
296 308 276 110 117 128 
296 308 277 111 114 122 
296 308 278 140 130 124 
296 308 279 153 134 115 
296 304 280 148 135 123 
296 304 281 146 121 93 
296 305 280 154 137 120 
296 305 281 137 103 80 
296 304 282 124 63 46 
296 304 283 125 19 50 
296 305 282 120 37 45 
296 305 283 127 13 58 
296 306 280 156 138 117 
296 306 283 127 16 60 
296 304 284 128 18 50 
296 305 284 127 17 54 
297 304 284 129 6 55 
297 304 285 130 2 56 
297 305 284 127 6 52 
297 305 285 129 14 57 
297 305 286 132 27 65 
296 306 284 128 25 60 
296 306 285 130 32 59 
296 307 284 129 37 64 
296 307 285 131 33 64 
297 306 285 129 26 59 
297 307 285 133 32 68 
297 306 286 132 35 69 
297 307 286 130 32 63 
298 304 285 133 6 57 
298 304 286 132 14 55 
298 305 286 135 25 66 
299 304 287 132 9 50 
299 305 287 134 12 63 
298 306 286 132 26 64 
298 306 287 133 20 63 
298 307 286 128 16 52 
298 307 287 128 14 52 
299 306 287 130 23 64 
299 307 287 129 18 60 
296 308 284 128 32 63 
296 308 285 130 30 64 
296 309 285 131 32 64 
296 308 286 133 35 66 
296 309 286 132 28 64 
297 308 286 132 29 63 
297 309 286 133 17 61 
297 309 287 134 20 62 
296 310 285 130 27 63 
296 310 286 130 13 59 
296 311 286 130 0 56 
296 311 287 132 0 59 
297 310 286 133 17 60 
297 310 287 134 17 62 
297 311 287 133 5 59 
298 308 287 130 18 55 
298 309 287 133 16 61 
299 308 287 129 6 59 
298 310 287 133 8 57 
300 304 287 131 1 54 
300 305 287 130 7 58 
296 312 273 95 102 114 
296 313 273 100 107 123 
296 312 286 132 14 59 
296 312 287 133 11 63 
296 313 286 132 14 58 
296 313 287 131 13 58 
297 312 287 132 11 58 
297 313 287 131 16 53 
296 314 287 128 25 50 
296 315 287 130 53 56 
296 316 287 134 78 65 
304 288 287 127 121 134 
304 289 287 122 121 136 
303 290 288 120 132 148 
303 291 288 116 127 144 
302 293 288 107 116 132 
303 292 288 118 122 138 
303 293 288 111 112 130 
303 293 289 113 112 130 
302 294 288 104 114 131 
302 295 288 104 117 135 
303 294 288 115 121 135 
303 294 289 119 125 138 
303 295 289 124 133 147 
303 295 290 125 133 145 
301 297 288 101 109 124 
300 299 288 125 46 77 
301 298 288 117 102 112 
301 299 288 126 72 86 
302 296 288 101 115 134 
302 297 288 105 114 129 
303 296 289 121 131 145 
303 297 288 112 118 132 
303 297 289 120 127 140 
303 296 290 123 133 146 
303 297 291 126 131 142 
302 298 288 112 105 114 
302 299 288 129 102 105 
303 298 288 113 109 117 
303 298 289 131 124 128 
303 299 288 125 105 106 
303 299 289 136 111 111 
303 298 291 127 123 125 
300 300 288 131 19 74 
300 301 288 130 17 66 
301 300 288 127 40 73 
301 301 288 127 19 65 
300 302 288 130 25 66 
301 302 288 124 24 59 
301 303 288 124 22 54 
302 300 288 131 71 81 
302 301 288 133 65 76 
