ply
format ascii 1.0
comment Created by CloudCompare v2.10.1 (Zephyrus)
comment Created 1/31/20 5:40 PM
obj_info Generated by CloudCompare!
element vertex 2070
property float x
property float y
property float z
property uchar red
property uchar green
property uchar blue
end_header
206 139 295 108 87 86 
204 141 288 122 109 99 
204 141 289 121 108 99 
205 140 288 121 106 92 
205 140 289 120 103 90 
205 141 288 123 108 96 
205 141 289 114 99 86 
204 141 290 117 99 88 
204 141 291 126 107 92 
205 140 290 119 101 85 
205 140 291 121 100 86 
205 141 290 119 101 86 
205 141 291 125 108 93 
204 142 288 121 108 100 
204 142 289 120 106 97 
204 143 288 124 109 102 
204 143 289 121 104 96 
204 142 290 121 103 92 
204 142 291 124 106 92 
204 143 290 120 101 91 
204 143 291 123 102 91 
204 141 292 123 102 87 
205 140 292 122 97 84 
205 140 293 126 99 88 
205 141 292 122 99 84 
205 141 293 123 97 84 
205 140 294 124 94 90 
205 140 295 114 92 92 
205 141 294 123 93 82 
205 141 295 115 89 82 
204 142 292 123 101 86 
204 142 293 123 98 86 
204 143 292 121 99 85 
204 143 293 121 97 85 
205 142 293 124 98 87 
204 143 294 120 90 87 
205 142 294 121 92 83 
205 142 295 116 87 80 
205 143 294 119 90 81 
205 143 295 118 90 86 
206 136 296 112 94 86 
206 136 297 111 93 84 
206 137 296 111 91 88 
206 137 297 104 87 88 
206 136 298 109 92 87 
206 136 299 109 97 94 
206 137 298 103 89 95 
206 137 299 101 94 101 
206 138 296 107 88 86 
206 138 297 96 85 90 
206 139 296 100 87 86 
206 139 297 91 88 90 
206 138 298 92 89 100 
206 138 299 91 94 108 
206 139 298 85 89 98 
206 139 299 86 94 105 
205 138 303 67 86 103 
205 139 302 67 82 98 
205 139 303 58 81 100 
206 136 300 109 102 101 
206 136 301 102 95 96 
206 137 300 101 99 103 
206 137 301 92 94 98 
206 136 302 98 93 96 
206 136 303 93 89 95 
206 137 302 86 90 96 
206 137 303 78 85 95 
206 138 300 84 90 102 
206 138 301 82 90 101 
206 139 300 75 87 101 
206 139 301 67 82 97 
206 138 302 74 84 96 
206 138 303 72 86 102 
206 139 302 63 79 94 
205 140 296 93 85 86 
205 140 297 81 84 89 
205 141 296 96 84 84 
205 141 297 83 87 93 
205 140 298 73 84 96 
205 140 299 73 88 102 
205 141 298 69 85 99 
205 141 299 63 83 101 
205 142 296 107 87 88 
205 142 297 82 80 89 
205 143 296 111 89 85 
205 143 297 95 82 88 
205 142 298 67 76 91 
205 142 299 65 83 101 
205 143 298 79 78 91 
205 143 299 73 87 103 
206 140 297 85 87 91 
206 140 298 83 91 100 
206 140 299 83 93 105 
205 140 300 68 85 101 
205 140 301 70 85 100 
205 141 300 58 83 103 
205 141 301 58 82 103 
205 140 302 67 83 98 
205 140 303 58 80 100 
205 141 302 66 84 104 
205 141 303 67 85 104 
204 143 300 72 90 108 
204 143 301 68 91 112 
205 142 300 51 79 101 
205 142 301 50 81 105 
205 143 300 67 88 107 
205 143 301 67 90 110 
204 142 302 33 74 101 
204 142 303 39 74 100 
204 143 302 50 84 108 
204 143 303 43 80 106 
205 142 302 46 79 104 
205 142 303 54 80 101 
206 140 300 72 86 101 
199 158 290 93 85 89 
199 157 292 95 76 84 
199 159 293 106 89 91 
199 158 295 107 72 102 
199 159 294 108 85 93 
199 159 295 116 77 96 
199 158 296 115 73 95 
199 158 297 117 82 84 
199 159 296 126 71 92 
199 159 297 132 71 81 
199 158 298 129 86 82 
199 158 299 139 88 79 
199 159 298 133 67 64 
199 159 299 138 72 56 
199 157 300 131 99 86 
199 157 301 133 103 86 
199 157 302 137 108 93 
199 157 303 137 95 79 
199 158 300 142 92 80 
199 158 301 143 96 79 
199 159 300 142 77 57 
199 159 301 147 86 68 
199 158 302 150 110 92 
199 158 303 145 102 83 
199 159 302 150 98 79 
199 159 303 147 97 79 
203 144 288 122 101 96 
203 144 289 121 102 91 
203 145 288 125 94 92 
203 145 289 123 100 87 
203 144 290 119 101 91 
203 144 291 119 97 89 
203 145 290 124 106 92 
203 145 291 119 99 88 
202 147 288 127 91 91 
202 147 289 124 88 87 
203 146 288 129 91 94 
203 146 289 125 89 84 
203 147 288 130 91 96 
203 147 289 129 87 91 
202 146 291 120 97 83 
202 147 290 116 88 78 
202 147 291 116 92 79 
203 146 290 119 95 80 
203 146 291 117 96 79 
203 144 292 120 96 89 
203 145 292 118 92 86 
203 145 293 118 91 81 
202 146 292 118 90 84 
202 147 292 107 84 76 
202 147 293 108 83 82 
203 146 292 116 89 82 
203 146 293 114 85 76 
203 147 293 109 82 79 
203 146 294 113 84 73 
203 146 295 111 83 73 
203 147 294 107 82 79 
203 147 295 109 82 77 
201 150 288 115 89 86 
201 150 289 115 87 88 
201 151 288 113 84 83 
201 151 289 116 82 88 
201 150 290 114 88 92 
201 150 291 110 85 86 
201 151 290 109 73 82 
201 151 291 109 86 89 
202 148 288 119 87 82 
202 148 289 125 90 90 
202 149 288 117 90 84 
202 149 289 120 91 87 
202 148 290 117 87 82 
202 148 291 116 90 84 
202 149 290 118 85 82 
202 149 291 109 76 77 
202 150 288 115 90 86 
202 150 289 115 88 87 
202 150 290 117 87 89 
202 150 291 113 82 85 
201 150 292 103 90 85 
201 150 293 99 93 89 
201 151 292 103 94 87 
201 151 293 103 98 98 
201 150 294 104 103 103 
201 151 294 108 106 109 
201 151 295 106 107 112 
202 148 292 111 90 88 
202 148 293 108 90 91 
202 149 292 106 85 84 
202 149 293 107 87 91 
202 148 294 106 87 91 
202 149 294 108 91 97 
202 149 295 112 100 108 
203 148 294 107 85 87 
203 148 295 113 94 101 
202 150 292 110 93 91 
202 150 293 106 94 91 
202 150 294 110 104 105 
202 150 295 108 106 108 
202 151 295 106 106 110 
204 144 292 120 96 85 
204 144 293 119 94 82 
204 145 293 119 92 81 
204 144 294 119 91 81 
204 144 295 116 87 79 
204 145 294 116 87 75 
204 145 295 112 82 73 
205 144 294 121 95 85 
205 144 295 119 90 84 
204 146 294 114 86 73 
204 146 295 113 84 75 
203 147 296 114 99 94 
203 147 297 118 108 105 
203 147 298 116 105 104 
203 147 299 106 97 99 
203 145 303 61 86 111 
203 146 301 89 103 117 
203 147 300 110 107 111 
203 147 301 105 110 118 
203 146 302 75 95 114 
203 146 303 66 92 115 
203 147 302 87 101 116 
203 147 303 74 96 116 
201 151 297 109 107 109 
201 151 298 112 109 111 
201 151 299 105 105 110 
202 149 296 117 108 115 
202 149 297 113 108 113 
203 148 296 115 103 108 
203 148 297 117 112 114 
202 149 298 108 105 109 
202 149 299 104 100 101 
203 148 298 108 105 105 
203 148 299 108 102 100 
203 149 299 108 103 103 
202 150 296 111 108 111 
202 150 297 113 109 113 
202 151 296 108 107 111 
202 151 297 107 105 108 
202 150 298 109 106 110 
202 150 299 107 106 110 
202 151 298 107 106 109 
201 150 300 97 99 105 
201 150 301 104 101 103 
201 151 300 97 100 106 
201 151 301 97 98 103 
201 150 302 111 107 108 
201 150 303 110 107 109 
201 151 302 111 107 107 
201 151 303 115 110 111 
202 149 300 106 99 99 
202 149 301 104 96 101 
203 148 300 108 103 104 
203 148 301 101 101 105 
203 149 300 109 102 102 
202 148 303 88 99 112 
202 149 302 97 95 105 
202 149 303 99 104 114 
203 148 302 90 98 108 
203 148 303 82 97 113 
202 150 300 102 100 103 
202 150 301 105 100 101 
202 150 302 102 98 102 
202 150 303 99 98 104 
204 144 296 117 91 86 
204 144 297 114 94 90 
204 145 296 115 89 78 
204 145 297 113 91 81 
205 144 296 114 89 80 
205 144 297 96 83 84 
204 144 298 103 93 94 
204 144 299 69 79 91 
204 145 298 112 98 93 
204 145 299 99 97 101 
205 144 298 78 77 88 
204 146 296 117 94 85 
204 146 297 118 95 88 
204 147 297 119 101 95 
204 146 298 111 90 86 
204 146 299 101 91 90 
204 147 298 115 99 101 
204 147 299 111 101 102 
204 144 300 55 77 95 
204 144 301 54 80 101 
204 145 300 80 90 102 
204 145 301 70 89 108 
204 144 302 54 80 105 
204 144 303 49 79 105 
204 145 302 58 83 106 
204 145 303 49 78 104 
204 146 300 94 96 102 
204 146 301 90 101 114 
204 146 302 79 98 116 
201 152 288 116 81 84 
201 152 289 113 71 82 
201 153 288 116 81 85 
201 153 289 111 77 85 
200 153 291 95 80 85 
201 152 290 107 76 85 
201 152 291 107 91 94 
201 153 290 104 80 86 
201 153 291 105 87 94 
200 155 289 108 90 95 
201 154 288 111 78 83 
201 154 289 109 86 92 
201 155 288 110 84 91 
201 155 289 112 93 97 
200 154 290 104 89 93 
200 154 291 99 86 90 
200 155 290 104 87 94 
200 155 291 102 86 93 
201 154 290 103 86 90 
200 153 292 94 83 85 
200 153 293 97 95 101 
201 152 292 102 94 95 
201 152 293 104 101 104 
201 153 292 93 83 85 
201 153 293 103 101 103 
201 152 294 111 110 114 
201 152 295 106 106 111 
201 153 294 108 107 109 
201 153 295 111 110 113 
200 154 292 98 87 89 
200 154 293 107 97 101 
200 155 292 96 84 89 
200 155 293 101 89 93 
201 154 294 115 109 111 
201 154 295 115 111 113 
201 155 294 111 100 102 
201 155 295 115 108 107 
202 152 293 104 98 98 
200 156 288 103 93 96 
200 156 289 101 88 93 
200 157 288 102 97 99 
200 157 289 101 97 99 
200 156 290 99 84 92 
200 156 291 100 82 95 
200 157 290 94 86 88 
200 157 291 93 80 86 
200 158 288 100 89 93 
200 158 289 103 94 99 
200 159 288 100 89 92 
200 159 289 100 87 92 
201 158 288 100 89 92 
200 158 290 103 94 100 
200 158 291 94 81 88 
200 159 290 103 87 97 
200 159 291 98 83 94 
200 156 292 98 80 92 
200 156 293 99 84 93 
200 157 292 97 78 89 
200 157 293 100 85 93 
200 156 294 101 86 92 
200 157 294 103 87 96 
200 157 295 102 87 93 
201 156 294 106 93 96 
201 156 295 112 103 101 
200 158 292 100 80 91 
200 158 293 104 86 99 
200 159 292 93 73 85 
200 159 293 100 83 90 
200 158 294 106 88 103 
200 158 295 99 71 97 
200 159 294 112 95 103 
201 152 296 107 107 111 
201 152 297 113 109 110 
201 153 296 110 109 111 
201 153 297 111 107 107 
201 152 298 113 107 109 
201 152 299 113 108 113 
201 153 298 112 105 105 
201 153 299 111 104 104 
201 154 296 112 111 113 
201 154 297 114 112 113 
201 155 296 113 111 113 
201 155 297 108 108 111 
200 154 299 115 112 111 
200 155 298 108 107 109 
200 155 299 117 114 114 
201 154 298 115 111 111 
201 154 299 114 109 108 
201 155 298 115 113 114 
200 153 300 100 95 93 
200 153 301 105 99 100 
201 152 300 107 104 111 
201 152 301 101 101 106 
201 153 300 108 101 103 
201 153 301 110 107 109 
200 153 302 108 104 108 
200 153 303 109 105 110 
201 152 302 100 100 103 
201 152 303 102 100 103 
201 153 303 97 97 102 
200 154 300 105 101 100 
200 154 301 100 92 91 
200 155 300 107 104 103 
200 155 301 110 101 101 
200 154 302 97 87 87 
200 154 303 104 94 95 
200 155 302 116 99 99 
200 155 303 115 95 94 
200 156 296 115 108 107 
200 156 297 104 101 102 
200 157 296 108 91 95 
200 157 297 112 96 96 
201 156 296 114 110 109 
201 156 297 103 101 103 
200 156 298 103 98 101 
200 156 299 102 94 96 
200 157 298 117 98 99 
200 157 299 119 97 94 
200 158 296 106 72 96 
200 156 300 107 97 96 
200 156 301 113 100 95 
200 157 300 114 93 86 
200 157 301 114 93 82 
200 156 302 123 103 96 
200 156 303 129 100 92 
200 157 302 128 104 92 
200 157 303 134 95 83 
209 128 288 132 64 78 
209 128 289 133 61 80 
209 129 288 131 63 75 
209 129 289 132 66 77 
208 129 291 133 75 81 
209 128 290 134 59 78 
209 128 291 133 56 71 
209 129 290 136 75 84 
209 129 291 134 66 77 
208 130 288 134 73 78 
208 130 289 130 70 72 
208 131 288 132 67 75 
208 131 289 135 75 76 
209 130 288 129 65 72 
208 130 290 128 73 72 
208 130 291 131 80 79 
208 131 290 133 79 77 
208 131 291 131 82 75 
210 128 288 134 66 80 
208 129 292 134 74 79 
208 129 293 133 76 74 
209 128 292 132 64 72 
209 128 293 133 82 79 
209 129 292 131 60 71 
209 129 293 130 70 70 
208 128 295 124 99 79 
208 129 294 131 81 72 
208 129 295 129 92 76 
209 128 294 130 92 80 
209 128 295 129 105 88 
208 130 292 130 80 74 
208 130 293 129 78 68 
208 131 292 129 86 74 
208 131 293 130 87 72 
208 130 294 130 82 71 
208 130 295 130 91 76 
208 131 294 129 84 71 
208 132 288 135 78 71 
208 132 289 131 71 66 
208 133 288 140 89 85 
208 132 290 132 76 72 
208 132 291 136 84 77 
208 128 296 126 110 94 
208 128 297 129 119 111 
208 129 296 128 102 81 
208 129 297 125 106 89 
209 128 296 129 115 102 
208 128 298 126 120 119 
208 128 299 116 114 117 
208 129 298 130 116 105 
208 129 299 127 117 112 
208 130 296 127 95 78 
208 130 297 127 102 85 
208 128 300 107 109 113 
208 128 301 101 104 109 
207 169 271 130 76 87 
207 170 271 127 73 84 
207 171 271 126 73 85 
207 172 271 129 83 89 
207 173 271 136 99 99 
199 166 278 55 87 114 
199 166 279 64 94 119 
199 167 278 47 82 111 
199 167 279 49 85 113 
199 160 283 93 100 109 
199 161 283 75 92 109 
199 162 282 60 91 116 
199 162 283 68 93 115 
199 163 282 59 89 113 
199 163 283 53 85 110 
199 160 284 99 99 104 
199 160 285 100 96 98 
199 161 284 84 94 107 
199 161 285 92 96 103 
199 160 286 102 97 99 
199 160 287 105 99 102 
199 161 286 93 92 97 
199 161 287 101 92 99 
198 162 285 70 91 109 
198 163 284 53 82 107 
198 163 285 53 81 105 
199 162 284 75 95 114 
199 162 285 82 95 108 
199 163 284 47 79 105 
199 163 285 52 79 103 
198 162 286 92 94 105 
198 162 287 93 93 103 
198 163 287 86 89 99 
199 162 286 85 92 103 
199 162 287 95 87 97 
199 163 286 70 85 102 
199 163 287 85 86 98 
198 165 281 57 79 108 
199 164 281 73 93 114 
199 165 280 61 87 109 
199 165 281 56 82 107 
198 164 282 73 95 116 
198 164 283 71 95 116 
198 165 282 55 82 108 
199 164 282 72 94 116 
199 164 283 72 97 118 
199 165 282 48 75 103 
199 165 283 61 89 111 
198 167 281 69 84 101 
199 166 280 66 95 119 
199 166 281 64 89 113 
199 167 280 49 86 114 
199 167 281 56 84 107 
198 166 282 72 87 107 
198 166 283 76 83 101 
198 167 282 84 86 97 
198 167 283 92 82 89 
199 166 282 68 88 111 
199 166 283 61 85 107 
197 165 287 103 87 82 
197 166 285 103 84 91 
197 167 284 111 91 92 
197 167 285 110 82 85 
196 167 286 117 78 79 
196 167 287 113 79 73 
197 166 286 105 80 88 
197 166 287 112 85 87 
197 167 286 108 71 75 
197 167 287 108 72 76 
198 164 285 71 94 114 
198 165 284 56 82 102 
198 165 285 71 87 104 
199 164 284 64 91 114 
199 164 285 61 88 111 
199 165 284 62 89 111 
198 164 286 72 89 105 
198 164 287 78 84 93 
198 165 286 83 86 92 
198 165 287 90 84 82 
199 164 286 61 81 102 
199 164 287 70 81 97 
198 166 284 74 84 99 
198 166 285 95 92 101 
198 167 284 101 82 90 
198 166 286 100 89 99 
197 171 279 114 101 105 
198 169 279 82 84 96 
199 168 278 73 94 115 
199 168 279 63 86 108 
199 169 278 81 97 114 
199 169 279 80 87 100 
199 170 277 87 105 121 
199 171 277 94 106 119 
198 170 278 108 109 116 
198 170 279 102 93 102 
198 171 278 111 111 116 
198 171 279 109 104 109 
199 170 278 100 108 119 
199 171 278 105 111 120 
197 172 279 113 108 110 
197 173 279 105 105 110 
199 172 277 97 101 109 
199 173 276 96 97 103 
199 173 277 98 96 99 
198 172 278 108 108 112 
198 172 279 106 104 109 
198 173 278 101 98 99 
198 173 279 103 102 106 
199 173 278 99 93 93 
195 171 282 117 95 87 
195 171 283 120 84 79 
195 168 287 124 87 80 
195 169 286 116 85 77 
195 169 287 120 79 73 
195 170 284 114 80 77 
195 170 285 116 82 80 
195 171 284 124 88 85 
195 171 285 121 81 86 
194 170 287 116 79 67 
194 171 286 120 78 82 
194 171 287 117 76 71 
195 170 286 114 82 80 
195 170 287 113 81 73 
195 171 286 119 81 88 
195 172 281 113 97 95 
195 173 281 111 108 107 
195 172 282 113 96 90 
195 172 283 113 86 83 
195 173 282 110 100 100 
195 173 283 109 88 91 
194 172 285 125 84 89 
194 173 285 110 73 69 
195 172 284 122 82 79 
195 172 285 121 78 81 
195 173 284 112 82 88 
195 173 285 112 63 63 
194 172 286 123 78 76 
194 172 287 119 68 70 
194 173 286 114 73 69 
194 173 287 113 68 72 
197 169 280 103 80 90 
197 169 281 112 86 87 
196 169 282 124 89 86 
196 169 283 124 90 86 
197 168 282 107 85 84 
197 168 283 114 92 85 
197 169 282 115 87 84 
197 169 283 117 88 80 
196 170 281 114 72 73 
196 171 281 114 90 90 
197 170 280 107 78 81 
197 170 281 112 75 76 
197 171 280 111 89 91 
196 170 282 120 75 74 
196 170 283 119 79 74 
196 171 282 119 89 86 
198 168 280 75 92 113 
198 168 281 85 90 102 
198 169 280 95 90 103 
198 169 281 100 87 93 
199 168 280 63 88 111 
198 168 282 104 95 97 
198 170 280 104 81 90 
196 168 285 121 87 70 
196 169 284 118 91 83 
196 169 285 116 86 74 
197 168 284 115 89 75 
197 168 285 118 88 72 
196 168 286 124 87 76 
196 168 287 124 87 82 
196 169 286 116 83 66 
196 170 284 118 87 80 
196 170 285 114 85 78 
196 172 280 112 99 102 
196 172 281 112 97 97 
196 173 280 114 112 117 
196 173 281 110 104 105 
197 172 280 111 103 106 
197 173 280 107 106 112 
198 173 280 106 107 113 
203 163 275 110 106 108 
201 161 279 70 86 104 
201 162 279 69 88 107 
201 163 278 72 89 106 
201 163 279 72 92 111 
202 160 277 103 105 115 
202 161 277 101 102 108 
203 160 277 89 100 115 
203 161 276 96 97 107 
203 161 277 107 107 115 
202 160 278 89 92 105 
202 160 279 78 82 98 
202 161 278 86 88 97 
202 161 279 69 81 99 
202 162 277 93 94 100 
202 163 277 80 89 101 
203 162 276 101 97 103 
203 162 277 105 100 107 
203 163 276 105 101 104 
203 163 277 94 94 101 
202 162 278 76 85 97 
202 163 278 73 87 103 
203 164 275 113 113 120 
203 165 275 109 113 123 
202 166 275 84 106 127 
202 167 275 77 108 133 
203 166 274 102 110 121 
203 166 275 92 106 122 
203 167 274 101 115 130 
203 167 275 84 108 129 
201 165 277 65 92 116 
200 164 279 79 97 116 
200 165 279 68 92 113 
201 164 278 68 90 109 
201 164 279 73 93 112 
201 165 278 67 93 115 
200 167 277 58 87 112 
201 166 276 58 90 114 
201 166 277 68 94 116 
201 167 276 63 94 119 
201 167 277 60 88 111 
200 166 278 70 96 119 
200 166 279 60 89 112 
200 167 278 46 80 108 
200 167 279 50 85 113 
201 166 278 67 94 117 
202 164 276 88 96 107 
202 164 277 67 87 104 
202 165 276 77 93 110 
202 165 277 69 91 112 
203 165 276 94 105 119 
202 166 276 75 99 121 
202 167 276 68 100 126 
204 161 275 84 101 119 
205 160 275 83 103 124 
205 161 275 81 101 121 
204 162 275 84 92 104 
204 163 275 96 95 101 
205 162 274 77 93 111 
205 162 275 79 96 114 
205 163 274 79 85 100 
207 161 273 66 94 119 
206 160 275 77 102 124 
206 161 274 71 99 122 
206 161 275 78 103 125 
207 160 274 70 98 122 
207 161 274 66 96 121 
206 163 273 85 100 116 
207 162 273 73 98 119 
207 163 273 79 98 117 
206 162 274 76 98 119 
206 163 274 82 98 114 
207 162 274 68 94 117 
204 160 276 81 97 115 
204 161 276 79 89 104 
205 160 276 84 102 121 
204 162 276 93 94 101 
204 163 276 97 96 100 
205 165 273 97 90 102 
204 164 274 97 93 98 
204 164 275 110 106 111 
204 165 274 110 104 104 
204 165 275 113 108 111 
205 164 274 90 89 98 
205 165 274 98 92 95 
205 166 273 112 99 106 
205 167 273 118 106 105 
204 166 274 116 112 112 
204 167 274 119 117 119 
205 166 274 116 106 106 
206 164 273 91 99 112 
206 165 273 89 90 104 
207 164 273 85 101 118 
207 165 272 86 93 103 
207 165 273 81 92 105 
206 164 274 94 102 115 
206 166 272 104 93 97 
206 166 273 97 91 100 
206 167 272 115 95 94 
206 167 273 110 92 91 
207 166 272 100 97 101 
207 167 272 116 94 95 
200 161 281 67 90 112 
201 160 280 78 89 101 
201 160 281 74 86 100 
201 161 280 75 91 108 
201 161 281 73 92 111 
200 160 282 78 94 110 
200 160 283 89 97 108 
200 161 282 68 90 110 
200 161 283 73 91 108 
201 160 282 74 89 104 
200 162 281 65 91 113 
200 163 280 64 89 110 
200 163 281 67 91 112 
201 162 280 72 94 114 
201 162 281 64 89 111 
201 163 280 68 92 113 
200 162 282 66 93 116 
200 162 283 66 92 115 
200 163 282 61 90 113 
202 160 280 79 84 97 
200 160 286 99 94 96 
200 160 287 101 95 96 
200 164 280 74 94 113 
200 164 281 75 95 114 
200 165 280 64 88 109 
201 168 275 73 107 133 
201 170 275 81 109 134 
201 171 275 81 109 133 
202 168 275 79 111 137 
202 169 274 79 111 137 
202 169 275 76 108 134 
203 168 274 95 113 131 
203 169 274 88 111 130 
203 171 273 79 107 130 
202 170 274 80 111 137 
202 170 275 80 111 137 
202 171 274 78 110 137 
203 170 274 82 109 131 
203 171 274 80 109 133 
200 168 277 71 99 122 
200 169 277 81 106 128 
201 168 276 68 99 124 
201 168 277 60 90 113 
201 169 276 71 102 127 
200 168 278 60 90 115 
200 168 279 60 88 114 
200 169 278 81 105 125 
200 170 276 78 104 127 
200 170 277 85 107 127 
200 171 276 84 106 127 
200 171 277 89 106 124 
201 170 276 76 104 128 
201 171 276 82 107 129 
201 172 275 80 106 129 
201 173 275 81 102 122 
203 172 273 78 107 132 
203 173 273 77 107 133 
202 172 274 76 109 135 
202 173 274 79 108 134 
203 172 274 77 108 134 
203 173 274 78 108 134 
200 172 276 88 106 124 
200 172 277 97 107 121 
200 173 276 92 102 115 
204 168 273 122 118 119 
204 169 273 107 113 122 
205 168 273 122 106 103 
205 169 272 126 99 96 
205 169 273 124 111 111 
204 168 274 106 112 120 
204 170 273 100 112 125 
204 171 273 90 110 127 
205 170 272 130 105 105 
205 170 273 124 115 117 
205 171 272 126 110 112 
205 171 273 110 116 126 
206 168 272 123 90 90 
206 169 272 130 87 89 
207 168 272 121 82 87 
207 169 272 131 80 88 
206 170 272 130 86 92 
206 171 272 131 87 93 
207 170 272 131 79 86 
207 171 272 128 75 85 
204 172 273 87 109 129 
204 173 273 83 108 129 
205 172 272 121 111 111 
205 172 273 106 114 126 
205 173 272 113 113 117 
206 172 272 128 94 95 
206 173 272 128 105 102 
211 160 271 74 87 102 
211 161 271 69 91 111 
210 163 271 78 94 114 
211 162 271 67 89 109 
211 163 271 72 88 106 
209 165 271 100 104 114 
208 166 271 105 101 106 
208 167 271 110 94 98 
209 166 271 104 102 108 
209 167 271 105 93 98 
210 164 271 90 98 112 
210 165 271 99 103 112 
211 164 270 100 97 106 
211 164 271 92 96 109 
211 165 270 100 96 103 
211 165 271 101 99 107 
210 166 271 105 100 106 
210 167 271 106 98 103 
211 166 270 104 96 103 
211 166 271 104 99 104 
211 167 270 102 94 100 
212 160 270 98 82 88 
212 160 271 87 84 93 
212 161 270 81 75 86 
212 161 271 74 84 100 
213 160 270 104 79 82 
213 161 270 90 74 80 
212 162 270 72 78 92 
212 162 271 67 80 96 
212 163 270 81 85 98 
212 163 271 72 83 99 
213 162 270 87 80 88 
213 163 270 93 87 95 
214 160 269 114 82 76 
214 161 269 105 78 73 
215 160 268 115 74 63 
215 160 269 116 79 69 
215 161 268 121 75 70 
215 161 269 115 78 71 
214 162 269 106 83 82 
214 163 269 108 87 90 
215 162 268 123 75 75 
215 162 269 116 79 74 
215 163 268 121 77 81 
213 164 269 97 88 95 
213 165 269 98 87 95 
212 164 270 96 92 102 
212 165 270 101 93 100 
213 164 270 96 88 98 
213 165 270 102 92 100 
213 166 269 98 85 95 
213 167 269 99 85 95 
212 166 270 101 91 99 
212 167 270 101 91 98 
214 164 269 102 86 92 
214 165 268 98 84 93 
214 165 269 99 86 95 
215 164 268 111 81 88 
215 165 268 104 83 90 
214 166 268 98 84 94 
214 166 269 96 81 92 
214 167 268 100 88 96 
214 167 269 102 86 96 
215 166 268 100 88 95 
215 167 268 98 87 95 
208 168 271 119 80 93 
208 169 271 124 74 89 
209 168 271 113 84 95 
209 169 271 117 80 93 
208 170 271 122 71 84 
208 171 271 123 72 86 
209 170 270 116 80 89 
209 170 271 119 75 87 
209 171 270 118 75 87 
209 171 271 120 74 87 
210 168 270 108 93 100 
210 168 271 109 94 100 
210 169 270 107 86 94 
211 168 270 104 95 101 
211 169 270 104 90 97 
210 170 270 112 85 93 
210 171 270 115 75 87 
211 170 270 108 89 95 
211 171 270 112 80 92 
208 172 271 125 75 87 
208 173 271 128 83 88 
209 172 270 122 71 86 
209 172 271 122 72 86 
209 173 270 124 73 86 
209 173 271 123 72 84 
210 172 270 116 66 82 
210 173 270 123 75 88 
211 172 270 113 72 87 
211 173 270 120 78 90 
212 168 269 101 91 98 
212 169 269 101 94 100 
213 168 269 99 87 95 
213 169 269 97 89 96 
212 168 270 102 93 99 
212 169 270 102 93 100 
212 170 269 102 93 99 
212 171 269 109 91 99 
213 170 269 99 91 98 
213 171 269 104 91 98 
212 170 270 105 93 99 
212 171 270 109 88 97 
214 168 268 98 86 94 
214 168 269 97 84 93 
214 169 268 98 87 95 
214 169 269 97 86 95 
215 168 268 97 86 95 
215 169 268 97 84 94 
214 170 268 100 88 97 
214 170 269 97 87 95 
214 171 268 101 86 96 
214 171 269 104 90 99 
215 170 268 101 86 97 
215 171 268 100 83 95 
212 172 269 108 87 96 
212 173 269 110 85 94 
213 172 269 107 87 97 
213 173 269 107 85 93 
212 172 270 110 80 91 
212 173 270 116 84 93 
214 172 269 103 86 95 
214 173 269 102 85 94 
215 172 268 100 85 95 
215 173 268 100 85 93 
216 160 267 118 74 64 
216 161 267 128 79 72 
217 160 267 128 82 75 
217 161 267 133 82 76 
216 162 267 128 73 71 
216 163 267 130 76 78 
217 162 267 131 75 71 
217 163 267 133 76 75 
218 160 267 129 82 75 
218 161 267 134 80 77 
219 160 266 129 84 78 
219 160 267 129 84 79 
219 161 266 131 76 73 
218 162 266 133 75 71 
218 162 267 134 74 71 
218 163 266 131 71 67 
218 163 267 132 71 69 
219 162 266 132 76 73 
219 163 266 130 72 69 
216 160 268 116 73 63 
216 161 268 125 75 71 
216 162 268 127 75 73 
216 164 267 125 78 80 
216 165 267 115 78 83 
217 164 267 133 80 78 
217 165 267 124 77 78 
216 166 267 107 87 94 
216 167 267 100 84 93 
217 166 267 119 81 86 
217 167 267 109 77 86 
218 164 266 132 74 72 
218 165 266 127 70 69 
219 164 266 131 74 72 
219 165 266 130 69 69 
218 166 266 126 72 71 
218 166 267 125 76 75 
218 167 266 121 76 77 
218 167 267 118 76 79 
219 166 266 129 71 70 
219 167 266 124 75 74 
216 164 268 119 77 82 
216 165 268 110 82 88 
216 166 268 107 88 94 
220 160 266 128 77 72 
220 161 266 130 70 67 
221 160 266 131 78 71 
221 161 266 131 70 67 
220 162 266 134 77 74 
220 163 266 134 79 78 
221 162 266 134 75 73 
221 163 266 135 78 76 
223 160 265 130 69 68 
223 161 265 130 67 66 
222 160 266 132 76 70 
222 161 266 132 72 69 
223 160 266 131 73 70 
223 161 266 132 72 69 
223 162 265 131 69 66 
223 163 265 132 71 66 
222 162 266 134 76 72 
222 163 266 135 78 72 
223 162 266 131 70 67 
223 163 266 133 73 67 
220 164 266 135 79 78 
220 165 266 133 74 72 
221 164 266 134 74 74 
221 165 266 135 74 74 
220 166 266 132 71 67 
220 167 266 131 76 72 
221 166 266 132 69 67 
221 167 266 131 71 67 
223 164 265 130 71 66 
223 165 265 132 74 73 
222 164 266 132 70 67 
222 165 266 135 76 76 
223 164 266 130 69 66 
223 165 266 132 73 73 
222 167 265 131 71 67 
223 166 265 131 74 72 
223 167 265 131 73 70 
222 166 266 133 74 73 
222 167 266 131 73 67 
216 168 267 95 79 91 
216 169 267 99 80 94 
217 168 267 102 75 87 
217 169 267 100 80 90 
216 170 267 102 82 97 
216 171 267 101 83 96 
217 170 267 99 83 95 
217 171 267 99 86 97 
218 168 266 112 78 81 
218 168 267 109 79 85 
218 169 266 104 81 87 
218 169 267 100 83 89 
219 168 266 116 77 79 
219 169 266 107 83 87 
218 170 266 97 85 92 
218 170 267 97 85 93 
218 171 267 98 88 96 
219 170 266 99 82 89 
219 171 266 96 81 91 
216 168 268 96 81 92 
216 169 268 96 81 92 
216 171 268 103 83 98 
216 172 267 99 84 95 
216 173 267 100 85 93 
217 172 267 99 85 95 
217 173 267 99 83 93 
218 172 267 96 86 95 
218 173 267 98 85 96 
219 172 266 95 83 94 
219 173 266 102 91 101 
219 173 267 101 90 100 
216 172 268 100 84 94 
216 173 268 99 83 92 
220 168 266 125 76 78 
220 169 266 118 81 87 
221 168 266 128 70 69 
221 169 266 125 72 76 
220 170 266 107 77 86 
220 171 266 98 74 86 
221 170 266 115 72 81 
221 171 266 103 74 83 
222 168 265 130 71 65 
222 169 265 125 65 64 
223 168 265 133 76 71 
223 169 265 128 68 67 
222 168 266 127 66 63 
222 170 265 120 71 74 
222 171 265 115 74 77 
223 170 265 127 71 72 
223 171 265 119 69 69 
222 170 266 124 74 77 
222 171 266 106 77 82 
220 172 266 96 81 92 
220 173 266 100 89 98 
221 172 266 100 83 90 
221 173 266 97 85 92 
222 173 265 116 98 95 
223 172 265 120 85 82 
223 173 265 116 93 86 
222 172 266 110 87 88 
222 173 266 107 93 95 
223 173 266 109 94 89 
208 160 273 63 94 120 
208 161 273 67 96 121 
209 160 272 56 88 114 
209 160 273 60 90 116 
209 161 272 65 96 121 
209 161 273 66 97 122 
208 160 274 62 93 118 
208 162 273 71 96 118 
208 163 273 77 98 117 
209 162 272 65 93 116 
209 162 273 71 96 119 
209 163 272 73 94 115 
209 163 273 76 98 118 
210 160 272 67 91 112 
210 161 272 68 96 120 
211 160 272 74 91 108 
211 161 272 69 93 114 
210 162 272 68 95 117 
210 163 272 72 93 114 
208 164 272 76 95 114 
208 164 273 79 98 116 
208 165 272 89 100 113 
208 165 273 78 95 113 
209 164 272 73 92 110 
209 165 272 92 101 113 
208 166 272 101 101 107 
208 167 272 113 99 102 
210 164 272 78 94 112 
208 168 272 120 86 94 
195 167 289 119 75 73 
195 166 290 135 74 81 
195 166 291 139 72 79 
195 167 290 128 81 84 
195 167 291 138 84 87 
195 166 292 141 75 75 
195 166 293 144 82 85 
195 167 292 140 84 89 
195 167 293 139 70 81 
195 166 294 141 70 75 
195 166 295 147 79 84 
195 167 294 144 69 77 
195 167 295 148 74 83 
199 160 288 104 90 96 
199 160 289 101 83 92 
199 161 288 106 90 100 
199 161 289 104 79 92 
199 160 290 109 84 94 
199 160 291 106 85 95 
199 161 290 109 84 93 
199 161 291 107 81 90 
198 163 288 104 89 95 
198 163 289 111 86 90 
199 162 288 98 83 95 
199 162 289 101 81 93 
199 163 288 97 87 96 
199 163 289 110 88 96 
198 162 291 111 58 70 
198 163 290 118 76 79 
198 163 291 118 69 75 
199 162 290 97 73 84 
199 162 291 107 70 81 
199 163 290 110 85 94 
197 162 293 141 73 67 
197 163 292 146 83 84 
197 163 293 144 73 69 
197 162 294 143 73 71 
197 162 295 142 72 72 
197 163 294 144 72 70 
197 163 295 142 71 70 
198 161 293 138 85 89 
199 160 292 101 72 88 
199 160 293 112 80 91 
199 161 292 119 73 89 
199 161 293 131 87 95 
198 160 295 140 79 83 
198 161 294 136 80 83 
198 161 295 141 69 69 
199 160 294 123 82 86 
199 160 295 135 81 89 
198 162 292 135 78 81 
198 162 293 140 82 80 
198 163 292 133 69 73 
198 163 293 142 79 78 
199 162 292 121 70 83 
198 162 294 143 80 80 
198 162 295 144 75 77 
197 165 288 112 81 79 
197 165 289 121 70 79 
196 165 291 138 77 80 
197 164 290 125 66 72 
197 164 291 131 72 73 
197 165 290 126 64 74 
197 165 291 132 69 69 
196 166 288 119 70 69 
196 166 289 122 72 72 
196 167 288 113 75 70 
196 167 289 121 74 73 
197 166 288 116 82 77 
196 166 290 128 74 75 
196 166 291 143 74 80 
198 164 288 97 84 90 
198 164 289 117 79 84 
198 165 288 95 82 81 
198 165 289 117 72 83 
198 164 290 120 70 74 
198 164 291 129 73 74 
196 164 293 144 79 77 
196 165 292 143 65 67 
196 165 293 146 83 80 
197 164 292 140 69 70 
197 164 293 144 73 72 
197 165 292 139 67 65 
196 164 294 145 81 79 
196 164 295 146 83 82 
196 165 294 141 80 78 
196 165 295 144 81 80 
196 166 292 145 73 75 
196 166 293 147 87 84 
196 166 294 143 81 82 
196 166 295 147 85 85 
198 164 292 138 80 78 
195 166 296 148 82 86 
195 167 296 148 75 82 
195 167 297 144 66 75 
197 162 296 142 75 72 
197 162 297 144 73 75 
197 163 296 140 69 70 
197 163 297 143 69 75 
197 162 298 146 76 78 
197 162 299 144 73 73 
197 163 298 149 84 89 
197 163 299 147 79 83 
198 160 296 143 72 79 
198 160 297 143 68 76 
198 161 296 142 66 66 
198 161 297 141 62 64 
198 160 298 142 69 71 
198 160 299 142 70 62 
198 161 298 144 65 68 
198 161 299 144 68 67 
198 162 298 142 66 65 
198 162 299 140 62 59 
197 162 300 142 70 69 
197 162 301 134 60 61 
197 163 300 146 78 81 
197 163 301 136 62 65 
197 162 302 125 49 51 
197 162 303 125 54 53 
197 163 302 127 52 54 
197 163 303 125 51 53 
198 160 300 140 71 57 
198 160 301 144 88 75 
198 161 300 142 71 68 
198 161 301 141 79 73 
198 160 302 152 101 89 
198 160 303 143 88 69 
198 161 302 143 87 79 
198 161 303 138 80 72 
198 162 300 138 62 59 
198 162 301 135 64 61 
198 162 302 131 64 62 
198 162 303 130 66 62 
196 164 296 145 77 80 
196 165 296 143 74 76 
196 165 297 142 67 74 
197 164 296 149 84 87 
197 164 297 145 71 78 
197 165 297 147 75 86 
196 165 298 147 74 84 
197 164 298 145 72 82 
197 164 299 142 65 74 
197 165 298 149 78 88 
197 165 299 141 61 72 
196 166 296 145 79 81 
196 166 297 142 68 74 
196 167 297 142 67 74 
196 166 298 140 62 71 
196 166 299 136 55 64 
196 167 298 141 70 75 
196 167 299 136 61 64 
197 164 300 143 70 76 
197 164 301 136 61 67 
197 165 300 138 56 64 
197 165 301 131 51 58 
197 164 302 128 52 58 
197 164 303 129 57 60 
197 165 302 125 41 50 
197 165 303 127 44 53 
196 166 300 133 53 59 
196 166 301 134 63 66 
196 167 300 132 55 57 
196 167 301 132 56 61 
197 166 300 136 55 61 
197 166 301 132 55 61 
196 166 302 137 67 72 
196 166 303 138 65 72 
196 167 302 135 59 66 
196 167 303 138 64 72 
197 166 302 132 57 64 
197 166 303 133 56 64 
195 168 288 115 80 76 
195 168 289 113 72 73 
195 169 288 119 73 75 
195 169 289 117 71 73 
194 169 290 122 69 72 
194 169 291 126 77 77 
195 168 290 122 76 78 
195 168 291 130 85 85 
195 169 290 121 70 73 
194 170 288 115 79 65 
194 170 289 118 76 72 
194 171 288 117 80 72 
194 171 289 115 78 64 
195 170 288 117 78 68 
195 170 289 118 77 76 
194 170 290 125 78 79 
194 170 291 131 80 82 
194 171 290 121 79 68 
194 171 291 122 77 77 
194 168 293 141 79 87 
194 169 292 128 71 69 
194 169 293 137 76 77 
195 168 292 136 85 89 
195 168 293 141 75 85 
194 168 294 148 82 89 
194 169 294 141 74 76 
194 169 295 144 76 75 
195 168 294 147 76 84 
195 168 295 149 76 86 
195 169 295 148 78 83 
194 170 292 133 80 79 
194 170 293 132 73 71 
194 171 292 126 68 74 
194 171 293 123 51 65 
194 170 294 133 71 65 
194 170 295 137 72 72 
194 171 294 130 60 71 
194 171 295 128 58 69 
194 172 288 122 78 81 
194 172 289 116 74 70 
194 173 288 117 69 78 
194 173 289 116 68 74 
194 172 290 124 80 71 
194 172 291 121 70 67 
194 173 290 121 67 72 
194 173 291 121 69 74 
193 172 293 119 55 67 
193 173 292 116 63 69 
193 173 293 116 62 70 
193 172 294 118 46 64 
193 172 295 115 30 54 
193 173 294 113 49 63 
193 173 295 113 44 61 
194 172 292 121 66 72 
194 172 293 116 40 58 
194 173 292 117 68 70 
196 168 288 115 82 77 
195 168 296 147 68 80 
195 168 297 140 60 69 
195 169 296 148 77 85 
195 169 297 138 55 70 
195 168 298 140 68 73 
195 168 299 135 64 66 
195 169 298 131 52 61 
195 169 299 128 49 56 
194 170 296 139 70 75 
194 170 297 129 41 62 
194 171 296 125 50 64 
194 171 297 123 41 62 
195 170 297 133 38 64 
194 170 298 130 44 68 
194 170 299 130 38 65 
194 171 298 127 51 69 
194 171 299 128 50 66 
195 170 298 132 39 66 
195 170 299 129 38 61 
195 169 300 128 47 57 
195 169 301 130 45 57 
194 171 300 126 43 60 
194 171 301 125 35 57 
195 170 300 128 40 59 
195 170 301 129 42 57 
195 171 301 126 35 58 
195 170 302 129 44 60 
195 170 303 127 37 59 
195 171 302 126 42 58 
195 171 303 127 43 63 
193 172 296 116 30 55 
193 172 297 118 27 60 
193 173 296 116 43 64 
193 173 297 118 35 64 
193 172 298 124 43 67 
193 172 299 129 58 74 
193 173 298 124 42 70 
193 173 299 129 53 74 
194 172 297 120 32 61 
194 172 298 126 51 69 
194 172 299 129 58 72 
193 173 300 126 44 67 
193 173 301 128 41 68 
194 172 300 127 48 66 
194 172 301 127 42 62 
194 173 301 128 38 64 
194 172 302 126 46 58 
194 172 303 126 50 57 
194 173 302 127 37 59 
194 173 303 127 43 59 
195 172 303 126 52 59 
196 168 298 143 76 79 
196 168 299 138 69 69 
196 168 300 132 58 63 
196 168 301 132 53 61 
196 169 301 131 48 59 
196 168 302 133 52 63 
196 168 303 134 53 64 
196 169 302 130 46 59 
196 169 303 132 49 63 
196 170 303 127 36 56 
200 160 288 96 86 89 
200 160 289 101 80 90 
200 161 289 109 83 95 
200 160 290 106 81 93 
200 160 291 101 80 93 
224 128 267 110 90 72 
224 129 267 84 61 45 
225 128 267 110 93 76 
225 129 267 99 82 69 
224 130 267 101 79 73 
224 131 266 100 78 56 
224 131 267 110 91 77 
225 130 266 100 79 68 
225 130 267 97 79 70 
225 131 266 108 84 71 
226 128 266 105 89 79 
226 128 267 112 97 84 
226 129 266 92 74 58 
227 128 266 102 82 74 
227 129 266 102 82 64 
227 131 265 116 98 84 
226 130 266 100 80 63 
226 131 266 123 104 91 
227 130 266 105 85 65 
227 131 266 118 98 82 
224 128 268 116 99 83 
224 129 268 83 58 42 
224 130 268 89 67 61 
225 132 265 97 81 66 
225 133 265 93 81 71 
224 132 266 92 70 54 
224 132 267 99 75 62 
224 133 266 100 86 74 
225 132 266 96 74 58 
225 133 266 95 84 76 
224 135 265 76 83 92 
225 134 265 91 86 83 
225 135 265 66 74 84 
224 134 266 105 96 89 
224 135 266 87 87 90 
225 134 266 99 91 85 
226 132 265 102 85 68 
226 133 265 88 77 68 
227 132 265 100 82 63 
227 133 265 81 70 67 
226 132 266 116 96 81 
227 132 266 114 94 76 
226 134 265 78 74 78 
226 135 265 71 75 84 
227 134 265 77 77 82 
227 135 265 66 75 87 
228 128 265 108 82 69 
228 129 265 110 87 66 
229 128 265 99 72 51 
229 129 265 93 67 44 
228 128 266 104 76 67 
228 129 266 110 89 67 
228 130 265 103 81 63 
228 131 265 103 88 75 
229 130 265 88 68 51 
229 131 265 103 85 73 
230 128 265 91 68 46 
230 129 265 84 60 38 
230 130 265 85 63 50 
230 131 265 96 76 62 
228 132 265 97 80 66 
228 133 265 80 71 68 
229 132 265 108 91 80 
229 133 265 79 74 74 
228 134 265 63 70 81 
228 135 265 59 75 93 
229 134 265 60 73 86 
229 135 265 68 87 105 
230 132 265 108 90 77 
230 133 265 86 78 73 
231 133 265 89 82 77 
230 134 265 61 72 84 
230 135 265 78 94 111 
231 134 265 69 77 86 
231 135 265 77 92 108 
224 136 265 61 75 90 
224 137 265 54 75 94 
225 136 265 58 71 87 
225 137 265 58 77 96 
224 136 266 68 82 97 
224 137 266 61 80 98 
224 138 265 61 79 96 
224 139 265 69 85 101 
225 138 265 58 78 98 
225 139 265 61 80 99 
224 138 266 62 80 97 
224 139 266 74 86 101 
226 136 265 53 68 85 
226 137 265 52 74 94 
227 136 265 40 63 86 
227 137 265 50 74 94 
226 138 265 51 75 96 
226 139 265 45 68 91 
227 138 265 58 81 103 
227 139 265 41 65 90 
224 140 265 74 88 103 
224 141 265 67 77 91 
225 140 265 69 87 106 
225 141 265 62 80 97 
224 140 266 78 90 104 
224 142 265 82 84 94 
224 143 265 92 91 97 
225 142 265 77 83 96 
225 143 265 92 94 101 
224 142 266 82 82 93 
224 143 266 91 87 95 
226 140 265 56 77 97 
226 141 265 63 83 101 
227 140 265 53 74 94 
227 141 265 64 82 100 
226 142 265 64 78 94 
226 143 265 90 97 106 
227 142 265 59 76 93 
227 143 265 79 90 103 
228 136 265 39 62 85 
228 137 265 54 75 95 
229 136 265 56 79 100 
229 137 265 60 81 101 
228 138 265 67 89 109 
228 139 265 48 74 97 
229 138 265 71 91 110 
229 139 265 48 72 94 
230 136 265 63 84 104 
230 137 265 55 78 99 
231 136 265 65 83 103 
231 137 265 47 68 90 
230 138 265 71 91 110 
230 139 265 55 78 100 
231 138 265 67 86 105 
231 139 265 52 74 97 
228 140 265 52 73 94 
228 141 265 63 81 98 
229 140 265 48 69 90 
228 142 265 49 71 89 
230 140 265 51 72 92 
230 141 265 66 83 100 
231 140 265 48 69 90 
231 141 265 71 88 105 
232 135 265 78 92 107 
232 136 265 75 91 107 
232 137 265 52 72 91 
233 137 265 56 75 92 
232 138 265 67 85 103 
232 139 265 54 76 98 
233 138 265 61 80 98 
233 139 265 64 83 101 
234 137 265 58 74 91 
235 137 265 58 74 90 
234 138 265 49 66 86 
234 139 265 61 79 96 
235 139 265 52 71 88 
232 140 265 49 69 90 
232 141 265 70 86 103 
233 140 265 49 70 90 
233 141 265 61 77 95 
234 140 265 45 66 85 
234 141 265 58 76 94 
235 140 265 40 60 82 
235 141 265 46 66 86 
234 142 265 68 86 103 
224 144 265 93 85 90 
224 145 265 93 80 86 
225 144 265 92 87 92 
225 145 265 94 84 87 
224 144 266 95 87 92 
224 146 265 99 88 91 
224 147 265 99 81 84 
225 146 265 94 82 85 
225 147 265 94 66 71 
226 144 265 90 92 98 
226 145 265 86 82 86 
227 144 265 80 86 96 
227 145 265 79 78 85 
226 146 265 91 79 82 
226 147 265 97 66 72 
227 147 265 100 65 72 
224 148 265 104 76 78 
224 149 265 104 72 73 
225 148 265 96 55 64 
225 149 265 98 59 62 
224 148 266 109 81 84 
224 149 266 107 75 77 
224 150 265 100 55 61 
224 151 265 103 53 63 
225 150 265 101 56 62 
225 151 265 103 57 65 
224 150 266 101 57 63 
224 151 266 103 52 61 
226 148 265 99 50 61 
226 149 265 101 56 61 
227 148 265 100 51 63 
227 149 265 102 55 60 
226 150 265 102 56 62 
226 151 265 102 56 62 
227 150 265 106 62 65 
227 151 265 104 58 63 
224 152 265 103 54 64 
224 153 265 102 54 61 
225 152 265 103 59 66 
225 153 265 103 58 64 
224 152 266 104 55 63 
224 153 266 104 58 65 
224 154 265 106 62 66 
224 155 265 102 52 60 
225 154 265 105 61 65 
225 155 265 105 59 64 
224 154 266 106 61 67 
226 152 265 103 59 65 
226 153 265 104 57 64 
227 152 265 104 60 65 
227 153 265 103 52 60 
226 154 265 105 55 63 
226 155 265 106 55 64 
227 154 265 104 48 59 
227 155 265 106 52 63 
224 156 265 104 52 63 
224 157 265 108 52 62 
225 156 265 107 58 65 
225 157 265 107 50 60 
224 158 265 115 55 62 
224 159 265 120 58 62 
225 158 265 110 44 56 
225 159 265 117 49 58 
226 156 265 108 54 65 
226 157 265 110 50 62 
227 156 265 108 52 64 
227 157 265 114 56 66 
226 158 265 112 44 56 
226 159 265 117 49 58 
227 158 265 118 54 64 
227 159 265 122 58 67 
228 152 265 102 58 63 
228 153 265 100 49 57 
229 153 265 97 45 54 
228 154 265 103 50 60 
228 155 265 106 54 65 
229 154 265 100 50 58 
229 155 265 108 61 68 
230 153 265 100 53 61 
230 154 265 102 55 59 
228 156 265 110 56 66 
228 157 265 115 61 69 
229 156 265 110 62 70 
229 157 265 113 57 64 
228 158 265 120 59 67 
228 159 265 122 58 66 
229 158 265 118 55 65 
229 159 265 120 54 63 
230 157 265 109 51 57 
231 157 265 110 50 56 
230 158 265 117 53 62 
230 159 265 121 55 65 
231 158 265 116 52 61 
231 159 265 120 54 64 
232 159 265 123 61 69 
245 149 265 46 47 53 
245 150 265 42 42 48 
245 152 265 46 41 48 
224 160 265 126 62 64 
224 161 265 130 68 65 
225 160 265 127 64 67 
225 161 265 131 73 69 
224 162 265 130 70 66 
224 163 265 132 73 68 
225 162 265 130 71 66 
225 163 265 131 74 68 
226 160 265 122 57 62 
226 161 265 128 65 66 
227 160 265 124 57 66 
227 161 265 123 54 64 
226 162 265 129 65 65 
226 163 265 134 73 70 
227 162 265 124 55 61 
227 163 265 128 64 62 
224 164 265 130 70 66 
224 165 265 132 72 70 
225 164 265 130 71 65 
225 165 265 130 70 65 
224 166 265 133 77 74 
224 167 265 131 75 71 
225 166 265 132 75 70 
225 167 265 130 73 68 
226 164 265 133 74 69 
226 165 265 133 75 69 
227 164 265 130 69 63 
227 165 265 132 72 66 
226 166 265 136 82 76 
226 167 265 129 71 66 
227 166 265 132 76 70 
227 167 265 127 69 63 
228 160 265 121 53 62 
228 161 265 121 49 60 
229 160 265 120 51 60 
229 161 265 119 48 58 
228 162 265 122 51 58 
228 163 265 125 60 60 
229 162 265 120 48 56 
229 163 265 123 56 58 
230 160 265 120 51 61 
230 161 265 119 47 58 
231 160 265 120 52 62 
231 161 265 119 50 61 
230 162 265 120 48 57 
230 163 265 122 54 60 
231 162 265 120 52 63 
231 163 265 121 53 62 
228 164 265 129 66 64 
228 165 265 130 70 66 
229 164 265 123 58 59 
228 166 265 133 76 72 
228 167 265 127 69 66 
230 164 265 121 55 59 
224 168 265 132 78 73 
224 169 265 126 65 63 
225 168 265 132 75 73 
225 169 265 126 63 61 
224 170 265 126 65 65 
224 171 265 120 60 60 
225 170 265 125 63 60 
225 171 265 124 67 62 
226 168 265 129 69 68 
226 169 265 124 60 59 
227 168 265 127 66 64 
227 169 265 126 66 64 
226 170 265 123 64 57 
226 171 265 127 74 63 
227 170 265 124 66 58 
227 171 265 130 81 68 
224 172 265 120 73 68 
224 173 265 117 86 76 
225 172 265 123 73 65 
225 173 265 119 83 69 
226 172 265 128 84 70 
226 173 265 123 86 67 
227 172 265 129 87 68 
227 173 265 123 86 61 
228 168 265 122 60 58 
228 169 265 126 67 64 
228 170 265 123 67 59 
228 171 265 125 73 59 
229 170 265 125 70 59 
229 171 265 125 76 58 
230 170 265 127 78 63 
230 171 265 128 84 65 
231 171 265 127 84 63 
228 172 265 127 84 62 
228 173 265 125 87 60 
229 172 265 126 83 57 
229 173 265 125 87 57 
230 172 265 128 87 63 
230 173 265 128 92 66 
231 172 265 126 85 62 
231 173 265 126 87 64 
232 160 265 118 51 61 
232 161 265 119 50 61 
233 161 265 118 48 60 
232 162 265 120 53 62 
233 162 265 118 50 61 
234 162 265 116 46 56 
234 163 265 116 44 59 
235 162 265 116 45 55 
239 166 265 113 40 53 
239 167 265 114 46 56 
232 170 265 127 81 61 
232 171 265 127 84 60 
233 170 265 129 86 65 
233 171 265 128 87 63 
234 170 265 126 84 62 
234 171 265 126 85 61 
235 171 265 125 83 59 
232 172 265 125 83 57 
232 173 265 123 82 57 
233 172 265 127 86 60 
233 173 265 123 82 56 
234 172 265 126 85 62 
234 173 265 123 79 55 
235 172 265 128 86 65 
235 173 265 124 79 55 
236 171 265 126 81 61 
237 171 265 119 71 50 
238 169 265 116 58 52 
239 168 265 116 55 59 
239 169 265 116 57 54 
238 170 265 120 68 56 
238 171 265 118 67 51 
239 170 265 118 65 52 
239 171 265 120 70 56 
236 172 265 126 83 62 
236 173 265 121 77 51 
237 172 265 120 72 52 
237 173 265 123 77 55 
238 172 265 116 61 48 
238 173 265 122 75 58 
239 172 265 114 61 48 
239 173 265 121 73 58 
240 165 265 115 47 56 
241 165 265 113 42 51 
240 166 265 113 44 52 
240 167 265 113 46 53 
241 166 265 112 43 48 
241 167 265 113 48 49 
242 165 265 113 42 51 
243 165 265 112 38 52 
242 166 265 114 43 50 
242 167 265 113 47 47 
243 166 265 114 44 53 
243 167 265 112 43 44 
245 161 265 110 48 50 
245 162 265 113 44 53 
245 163 265 112 41 53 
244 165 265 112 42 54 
245 164 265 112 40 53 
245 165 265 112 41 52 
244 166 265 115 49 55 
244 167 265 112 47 45 
245 166 265 115 53 54 
245 167 265 116 61 54 
240 168 265 119 64 64 
240 169 265 118 65 58 
241 168 265 119 66 61 
241 169 265 122 73 62 
240 170 265 118 64 50 
240 171 265 122 74 61 
241 170 265 116 62 46 
241 171 265 119 68 58 
242 168 265 118 62 55 
242 169 265 122 73 62 
243 168 265 117 58 51 
243 169 265 122 71 60 
242 170 265 113 56 42 
242 171 265 116 62 57 
243 170 265 113 55 46 
243 171 265 113 57 56 
243 171 266 115 64 64 
240 172 265 113 60 49 
240 173 265 117 67 55 
241 172 265 111 57 50 
241 173 265 114 60 51 
242 172 265 113 60 58 
242 173 265 112 59 52 
243 172 265 112 62 62 
243 173 265 111 58 53 
243 172 266 116 67 67 
243 173 266 112 59 55 
244 168 265 114 54 45 
244 169 265 120 69 58 
245 168 265 112 53 42 
244 169 266 119 68 58 
245 168 266 114 59 48 
245 169 266 118 66 55 
244 170 265 113 54 50 
244 170 266 112 55 47 
244 171 266 111 56 53 
245 170 266 114 61 51 
245 171 266 112 55 46 
244 172 265 114 66 65 
244 173 265 112 58 51 
245 173 265 112 55 51 
244 172 266 115 65 64 
244 173 266 113 60 58 
245 172 266 116 67 62 
245 173 266 111 58 53 
196 119 305 118 99 76 
197 118 304 111 97 85 
197 118 305 109 90 71 
197 119 305 117 95 67 
197 119 306 118 89 47 
198 116 304 100 88 78 
198 117 304 101 88 76 
198 117 305 105 88 69 
199 116 304 105 90 79 
199 116 305 108 91 73 
199 117 305 110 88 61 
198 118 305 107 83 57 
199 118 305 109 81 47 
198 118 306 108 77 36 
198 119 306 117 81 22 
199 118 306 112 78 32 
199 119 306 120 78 11 
193 123 306 111 72 12 
194 121 306 113 85 47 
195 120 306 119 94 62 
195 121 306 119 87 38 
194 122 306 113 75 15 
194 123 306 119 73 8 
194 123 307 124 70 8 
195 122 306 120 79 9 
195 122 307 122 75 9 
195 123 307 126 70 8 
193 124 306 119 62 3 
193 124 307 121 56 0 
193 125 306 122 61 5 
193 125 307 122 57 2 
193 126 307 125 64 6 
194 124 307 124 64 5 
194 125 307 123 61 4 
195 124 307 126 68 7 
193 126 308 123 62 4 
193 127 308 126 62 5 
194 125 308 124 64 5 
195 124 308 127 68 8 
195 125 308 126 68 6 
194 126 308 124 66 5 
194 127 308 125 63 5 
194 127 309 128 65 6 
195 126 308 126 69 6 
195 126 309 128 70 7 
195 127 309 129 68 6 
196 120 305 119 98 74 
196 120 306 120 90 48 
196 121 306 122 83 15 
196 121 307 124 80 9 
197 120 306 122 84 20 
197 121 307 125 79 10 
196 122 307 126 74 7 
196 123 307 128 71 8 
197 122 307 127 68 6 
197 123 307 127 66 6 
198 120 306 126 75 7 
198 120 307 129 73 7 
198 121 307 130 69 7 
199 120 306 129 70 7 
199 120 307 131 69 7 
199 121 307 133 68 6 
198 122 307 130 66 6 
198 123 307 130 65 6 
199 122 307 132 69 7 
199 123 307 132 68 7 
197 123 308 127 66 6 
198 123 308 131 67 6 
199 123 308 133 71 7 
196 124 308 128 69 6 
196 125 308 129 70 7 
197 124 308 129 67 6 
197 125 308 129 70 7 
197 125 309 130 72 7 
196 126 309 131 71 7 
196 127 309 133 72 7 
197 126 309 132 73 7 
197 127 309 133 73 7 
198 124 308 131 69 7 
198 125 309 131 71 7 
199 124 308 134 71 7 
199 125 308 134 71 7 
199 125 309 134 72 8 
198 126 309 132 72 8 
198 127 309 135 72 7 
199 126 309 135 72 9 
199 127 309 135 71 7 
200 115 304 113 95 79 
201 115 304 116 97 77 
202 114 304 113 96 79 
202 115 304 117 95 72 
203 114 304 119 94 69 
203 115 304 120 91 61 
200 116 304 113 94 79 
200 116 305 117 97 75 
200 117 305 117 90 58 
201 116 304 120 98 74 
201 116 305 123 97 66 
201 117 305 125 90 43 
200 118 306 118 82 30 
200 119 306 126 74 11 
201 118 306 125 79 14 
201 119 306 131 71 7 
202 116 305 124 92 55 
202 117 305 127 86 24 
203 116 305 123 86 41 
203 117 305 129 76 9 
202 118 305 129 74 7 
203 118 305 133 70 7 
203 119 305 135 70 7 
202 118 306 129 74 7 
202 119 306 134 72 7 
203 119 306 135 71 7 
204 114 304 118 93 67 
204 115 304 120 88 57 
205 114 304 119 89 59 
205 115 304 120 85 48 
206 115 304 124 85 30 
204 116 305 124 81 26 
204 117 305 133 69 7 
205 116 304 124 77 10 
205 116 305 127 76 9 
205 117 304 135 71 7 
205 117 305 135 67 7 
204 118 305 137 69 7 
204 119 305 137 70 7 
205 118 304 136 72 7 
205 118 305 138 69 7 
205 119 305 137 71 7 
206 116 304 130 78 7 
206 117 304 136 75 7 
207 116 304 135 77 7 
207 117 304 137 76 7 
206 118 304 137 74 7 
206 119 304 137 73 6 
207 118 304 137 76 7 
207 119 304 137 74 6 
200 120 306 133 69 8 
200 120 307 135 68 7 
200 121 307 135 70 7 
201 120 306 134 71 7 
201 121 306 135 73 7 
201 121 307 136 73 7 
200 122 307 134 73 7 
200 123 307 134 75 7 
201 122 307 137 76 7 
201 123 307 138 77 7 
202 120 306 135 72 7 
202 121 306 136 74 7 
203 120 306 135 71 7 
203 121 306 137 73 7 
202 122 306 139 75 7 
