ply
format ascii 1.0
comment Created by CloudCompare v2.10.1 (Zephyrus)
comment Created 2/3/20 11:47 AM
obj_info Generated by CloudCompare!
element vertex 2010
property float x
property float y
property float z
property uchar red
property uchar green
property uchar blue
end_header
216 609 360 180 167 165 
217 608 360 187 176 173 
216 617 355 100 33 52 
217 616 355 104 32 50 
217 617 355 96 49 70 
216 618 355 83 59 75 
216 619 355 78 91 107 
217 618 355 82 86 104 
217 619 355 68 99 121 
218 616 355 94 51 73 
218 617 355 85 85 105 
219 616 355 79 86 109 
219 617 355 79 110 134 
218 618 355 78 107 131 
218 619 355 65 104 132 
219 618 355 73 113 144 
219 619 355 59 100 133 
216 616 356 106 47 56 
216 617 356 104 32 50 
216 619 356 88 99 114 
216 620 355 87 109 129 
217 620 355 71 104 131 
218 620 355 50 90 122 
218 621 355 52 90 121 
219 620 355 48 87 120 
216 620 356 91 113 133 
216 621 356 72 105 133 
217 621 356 74 108 135 
216 622 356 57 96 129 
216 623 357 65 103 134 
217 622 356 61 96 126 
217 623 357 61 95 125 
218 621 356 60 96 126 
219 621 356 49 86 118 
218 622 356 55 90 120 
218 623 357 54 90 120 
219 622 356 51 88 119 
219 622 357 62 97 128 
219 623 357 65 100 132 
220 616 354 79 113 139 
220 616 355 79 103 126 
220 617 354 77 115 145 
221 616 354 76 105 129 
221 617 354 70 110 140 
220 618 354 69 112 145 
220 618 355 63 105 138 
220 619 355 54 96 130 
221 618 354 62 105 138 
221 618 355 58 100 133 
221 619 355 58 99 132 
222 616 354 76 95 113 
222 617 354 67 102 131 
223 616 354 94 95 106 
223 617 354 74 99 122 
222 618 354 69 110 142 
222 619 354 77 117 148 
222 619 355 71 112 144 
223 618 354 76 112 140 
223 619 354 77 115 146 
223 619 355 75 113 143 
220 620 355 53 92 124 
221 620 355 65 103 135 
222 620 355 81 117 148 
223 620 355 77 111 140 
220 621 356 56 92 123 
221 621 356 72 106 136 
220 622 356 63 97 127 
220 622 357 77 111 139 
220 623 357 85 121 151 
221 622 356 77 108 137 
221 622 357 91 122 150 
221 623 357 97 130 159 
221 623 358 97 129 158 
222 621 356 87 118 145 
223 621 356 73 102 128 
222 622 356 85 116 143 
222 622 357 73 102 129 
222 623 357 72 100 126 
223 622 356 59 85 111 
223 622 357 53 76 99 
223 623 357 54 69 88 
222 623 358 74 100 125 
223 623 358 62 70 82 
208 624 359 92 57 78 
208 625 359 92 92 109 
209 624 358 86 89 110 
209 624 359 82 84 106 
209 625 359 86 113 136 
208 626 359 90 118 142 
209 626 359 87 125 154 
209 627 359 78 121 155 
210 624 358 84 114 140 
210 625 358 82 123 154 
210 625 359 86 123 152 
211 624 358 79 121 153 
211 625 358 78 122 156 
210 626 359 80 122 155 
210 627 359 72 117 151 
211 626 358 78 119 152 
211 626 359 72 114 147 
211 627 359 67 109 142 
210 628 359 74 116 149 
210 629 359 74 113 143 
211 628 359 68 109 140 
211 629 359 66 103 133 
211 630 359 60 94 123 
213 624 357 76 121 155 
212 624 358 76 122 156 
212 625 358 74 118 151 
213 624 358 75 120 155 
213 625 358 70 111 145 
212 626 358 81 117 147 
212 627 359 69 105 134 
213 626 358 78 110 137 
213 627 358 77 105 130 
213 627 359 68 94 120 
214 624 357 74 116 149 
215 624 357 71 110 141 
215 625 357 67 104 134 
214 625 358 68 106 139 
215 625 358 62 97 126 
214 626 358 61 92 120 
214 627 358 62 85 109 
214 627 359 59 78 100 
215 626 358 49 78 105 
215 627 358 44 69 92 
215 627 359 43 62 83 
212 628 359 57 94 123 
212 629 359 54 87 114 
213 628 359 53 79 104 
213 629 359 42 66 91 
212 630 359 49 79 105 
213 630 359 48 68 89 
214 628 359 49 63 83 
214 629 359 49 61 77 
215 628 359 49 54 72 
215 629 359 57 51 68 
214 630 359 52 67 83 
208 626 360 89 122 148 
208 627 360 78 119 151 
209 627 360 74 118 152 
208 628 360 66 109 143 
208 629 360 72 113 146 
209 628 360 75 117 151 
209 629 360 81 120 153 
208 630 360 82 121 153 
208 630 361 85 124 155 
208 631 360 79 119 152 
208 631 361 78 118 151 
209 630 360 79 119 151 
209 631 360 69 106 137 
210 628 360 79 120 152 
210 629 360 78 116 147 
210 630 360 69 106 136 
210 631 360 57 89 116 
211 630 360 56 88 116 
211 631 360 49 76 102 
212 630 360 47 75 99 
212 631 360 57 77 98 
213 630 360 58 76 94 
213 631 360 89 101 114 
215 629 360 75 59 70 
214 630 360 83 89 99 
214 631 360 121 125 134 
214 631 361 142 144 150 
215 630 360 101 94 99 
215 630 361 113 103 108 
215 631 361 129 126 130 
208 632 361 71 108 141 
208 633 361 62 95 125 
209 632 360 65 90 114 
209 632 361 65 95 123 
209 633 361 59 81 105 
208 634 361 57 86 112 
208 635 361 59 81 103 
209 634 361 59 77 98 
209 635 361 65 80 97 
208 635 362 63 82 101 
209 635 362 82 87 98 
210 632 360 55 76 99 
210 633 361 62 78 96 
211 632 360 59 76 96 
211 633 361 88 97 108 
210 634 361 78 87 99 
210 635 361 83 87 100 
211 634 361 103 103 112 
210 635 362 100 94 101 
211 634 362 113 105 113 
211 635 362 110 94 102 
211 635 363 107 80 90 
208 636 362 71 82 99 
208 637 362 84 83 98 
208 637 363 92 81 94 
209 636 362 91 84 92 
209 637 362 98 84 94 
209 637 363 96 68 80 
208 638 363 91 85 97 
208 639 363 114 120 131 
209 638 363 88 69 82 
210 636 362 98 75 83 
210 636 363 96 57 71 
210 637 363 98 52 69 
211 636 363 95 60 70 
211 637 363 93 55 63 
210 638 363 97 59 77 
208 639 364 129 138 153 
209 638 364 88 75 87 
209 639 364 105 113 128 
209 639 365 103 115 132 
211 637 364 89 62 65 
210 638 364 92 68 81 
210 639 364 92 90 103 
210 639 365 88 86 100 
211 638 364 86 67 74 
211 638 365 81 68 77 
211 639 365 79 69 84 
212 632 360 84 95 110 
212 632 361 103 110 120 
212 633 361 121 121 127 
213 632 361 130 133 139 
213 633 361 138 133 135 
213 633 362 129 119 119 
212 634 361 120 115 121 
212 634 362 121 109 113 
212 635 362 109 84 92 
212 635 363 105 73 82 
213 634 362 110 88 91 
213 635 363 99 66 69 
214 632 361 144 144 149 
214 633 361 141 137 138 
214 632 362 125 123 123 
214 633 362 111 96 97 
215 632 362 106 100 99 
215 633 362 92 71 73 
215 633 363 93 58 63 
214 634 362 100 72 76 
214 634 363 95 53 62 
214 635 363 96 54 62 
215 634 363 95 52 63 
214 635 364 94 54 64 
214 635 365 87 50 61 
215 634 364 98 58 65 
215 635 364 96 57 65 
215 635 365 90 56 63 
212 636 363 102 74 79 
213 636 363 94 69 68 
212 636 364 91 69 69 
212 637 364 88 69 70 
212 637 365 88 71 74 
213 636 364 90 67 70 
213 637 365 89 70 75 
212 638 365 82 67 74 
212 639 365 72 56 72 
213 638 365 86 69 75 
212 639 366 74 56 72 
213 638 366 85 70 76 
213 639 366 78 63 71 
214 636 364 91 59 67 
214 636 365 86 57 68 
214 637 365 87 66 74 
215 636 365 84 55 63 
214 637 366 82 60 68 
215 636 366 85 63 66 
215 637 366 82 64 67 
215 637 367 75 60 60 
214 638 366 78 57 63 
214 638 367 77 53 55 
214 639 366 79 62 66 
214 639 367 77 57 60 
215 638 367 75 52 58 
215 639 367 73 47 53 
216 624 357 65 101 131 
216 625 357 58 92 121 
217 624 357 57 91 120 
216 625 358 54 85 113 
217 625 358 50 83 112 
216 626 358 46 71 98 
216 627 359 49 64 85 
217 626 358 52 82 110 
217 626 359 59 87 112 
217 627 359 64 84 102 
218 624 357 54 91 123 
219 624 357 73 109 142 
218 624 358 57 94 127 
218 625 358 63 100 132 
219 624 358 75 114 147 
219 625 358 78 118 151 
218 626 358 64 99 129 
218 626 359 75 109 139 
218 627 359 88 117 142 
219 626 359 82 122 154 
219 627 359 87 122 150 
216 628 359 66 55 72 
220 624 358 90 130 163 
220 625 358 92 131 163 
220 625 359 89 126 158 
221 624 358 91 127 156 
221 625 358 89 124 153 
221 625 359 76 102 126 
220 626 359 79 114 142 
221 626 359 72 92 114 
222 624 358 71 91 112 
222 625 359 75 78 86 
223 624 358 74 71 73 
223 624 359 95 81 68 
223 625 359 104 86 69 
222 626 359 80 74 78 
218 627 360 95 114 133 
219 627 360 84 109 130 
216 628 360 78 56 69 
216 629 360 89 56 70 
217 628 360 77 73 82 
217 629 360 85 56 68 
217 629 361 86 55 66 
216 630 360 99 75 85 
216 630 361 93 72 79 
216 631 361 103 94 96 
217 630 361 87 60 66 
216 631 362 98 87 87 
217 630 362 88 67 69 
217 631 362 95 73 74 
217 631 363 96 66 70 
218 628 360 88 92 102 
218 628 361 83 84 90 
218 629 361 79 65 68 
219 628 361 84 89 95 
219 629 361 76 69 71 
218 629 362 81 67 69 
219 629 362 74 61 62 
218 630 362 84 66 66 
218 630 363 85 69 65 
218 631 362 94 71 70 
218 631 363 91 68 67 
219 630 362 78 60 61 
219 630 363 83 65 65 
219 631 363 91 71 72 
218 631 364 89 64 69 
219 631 364 79 57 70 
220 627 360 69 88 107 
220 627 361 72 74 82 
221 626 360 68 71 90 
221 627 360 63 56 70 
221 627 361 79 64 59 
222 626 360 81 67 69 
222 627 360 76 54 51 
222 627 361 94 72 60 
223 626 360 124 99 76 
223 627 360 124 98 76 
223 627 361 109 86 69 
220 628 361 83 79 79 
221 628 361 91 76 68 
220 628 362 86 73 69 
220 629 362 77 63 63 
220 629 363 76 59 63 
221 628 362 97 81 72 
221 629 362 89 71 66 
221 629 363 76 54 58 
220 630 363 77 57 66 
221 630 363 72 46 61 
222 628 361 100 79 67 
222 628 362 98 76 68 
222 629 363 78 58 63 
223 628 362 89 70 62 
223 628 363 76 59 65 
223 629 363 71 54 65 
220 630 364 77 53 69 
220 631 364 79 54 72 
220 631 365 79 50 73 
221 630 364 75 51 73 
221 631 365 75 54 76 
221 631 366 77 63 81 
222 629 364 71 56 63 
223 629 364 67 49 62 
222 630 364 73 54 69 
222 630 365 72 53 74 
222 631 365 72 56 81 
223 630 364 68 48 60 
223 630 365 72 52 71 
222 631 366 78 72 92 
223 630 366 61 42 74 
223 631 366 62 52 88 
223 631 367 64 60 99 
216 632 362 94 84 84 
216 632 363 89 67 70 
216 633 363 89 61 62 
217 632 363 91 59 66 
216 633 364 92 61 61 
217 632 364 89 53 61 
217 633 364 89 57 63 
217 633 365 93 62 69 
216 634 364 97 62 65 
216 634 365 95 62 67 
216 635 365 91 60 65 
217 634 365 89 58 70 
216 635 366 85 56 61 
217 635 366 80 47 66 
217 635 367 68 38 66 
218 632 364 85 56 64 
218 632 365 72 46 64 
218 633 364 89 57 64 
218 633 365 79 54 67 
219 632 364 78 53 69 
219 632 365 78 41 66 
218 633 366 76 52 72 
219 633 366 77 49 75 
218 634 365 76 50 69 
218 634 366 75 51 74 
218 635 366 79 45 76 
218 635 367 74 53 80 
219 634 366 74 55 80 
219 634 367 70 58 87 
219 635 367 67 61 88 
216 636 366 81 62 65 
216 636 367 79 67 68 
216 637 367 77 67 69 
217 636 367 70 61 73 
217 637 367 81 80 87 
216 638 367 75 66 69 
218 636 367 70 58 82 
220 632 365 79 47 72 
220 632 366 78 51 75 
220 633 366 81 57 80 
220 633 367 74 64 90 
221 632 366 76 61 79 
221 632 367 88 86 97 
221 633 367 85 83 101 
220 634 367 61 60 97 
222 632 367 95 95 111 
222 633 367 95 94 112 
223 632 367 64 64 100 
215 639 368 76 54 60 
219 635 368 70 66 94 
217 637 368 84 87 96 
216 638 368 72 64 69 
216 639 368 69 51 59 
217 638 368 89 91 97 
217 639 368 80 76 85 
217 639 369 88 87 96 
218 636 368 73 68 88 
218 637 368 82 79 92 
218 637 369 88 78 90 
219 636 368 66 58 87 
219 636 369 54 39 76 
219 637 369 69 47 69 
218 638 369 101 100 108 
218 639 369 99 100 110 
219 638 369 86 72 81 
218 639 370 79 83 95 
219 638 370 74 60 66 
219 639 370 72 68 70 
221 633 368 74 73 102 
220 634 368 52 57 100 
220 635 368 52 55 99 
221 634 368 66 69 106 
221 635 368 62 66 106 
221 635 369 64 65 103 
221 635 370 59 54 92 
222 633 368 88 91 112 
222 633 369 89 91 113 
223 632 368 61 62 100 
223 633 368 66 68 102 
223 633 369 80 82 110 
222 634 368 89 93 116 
222 634 369 103 103 124 
222 635 369 105 103 125 
223 634 369 87 87 114 
222 635 370 79 73 92 
223 634 370 95 93 117 
223 635 370 103 96 108 
223 635 371 104 95 99 
220 636 368 62 62 97 
220 636 369 52 49 86 
220 637 369 53 36 68 
221 636 369 51 48 88 
220 637 370 65 52 69 
221 636 370 57 53 80 
221 637 370 95 88 91 
221 637 371 137 127 119 
220 638 370 80 61 60 
220 639 370 80 58 46 
220 639 371 109 87 63 
221 638 370 113 100 93 
221 638 371 139 123 109 
221 639 371 123 100 72 
222 636 370 60 46 53 
222 636 371 84 66 52 
222 637 371 117 102 88 
223 636 371 96 78 68 
223 637 371 109 89 67 
222 638 371 135 120 105 
222 639 371 121 100 76 
223 638 371 111 93 74 
222 639 372 107 88 77 
223 638 372 101 84 76 
223 639 372 97 81 98 
143 693 266 76 91 129 
143 693 267 67 84 127 
143 694 266 67 82 131 
143 694 267 66 82 132 
143 695 267 58 79 135 
143 692 268 43 69 118 
143 692 269 39 68 117 
143 693 268 51 74 122 
143 693 269 50 75 120 
142 693 271 71 94 125 
143 692 270 40 69 116 
143 692 271 44 74 114 
143 693 270 53 80 118 
143 693 271 50 79 118 
142 695 269 58 79 131 
143 694 268 55 76 128 
143 694 269 62 82 128 
143 695 268 56 76 133 
143 695 269 59 77 133 
142 694 270 79 99 132 
142 694 271 88 108 135 
142 695 270 61 84 131 
142 695 271 70 94 134 
143 696 268 48 77 132 
143 696 269 51 76 134 
143 697 269 56 83 140 
142 696 270 55 79 135 
142 696 271 54 80 138 
142 697 271 61 86 144 
143 696 270 55 81 137 
143 697 270 61 88 143 
143 697 271 62 90 146 
143 698 270 87 110 149 
143 698 271 84 108 151 
143 699 270 114 132 157 
143 699 271 113 130 156 
143 700 271 94 110 142 
142 693 272 58 85 119 
142 693 273 70 92 122 
143 692 272 55 83 115 
143 692 273 59 84 112 
143 693 272 57 84 121 
143 693 273 67 90 119 
142 693 274 76 96 123 
142 693 275 71 92 119 
143 692 274 56 79 108 
143 692 275 60 81 109 
143 693 274 62 85 114 
142 694 272 80 103 129 
142 694 273 68 91 122 
142 695 272 87 108 140 
142 695 273 94 114 140 
142 694 274 74 94 123 
142 694 275 87 106 129 
142 695 274 84 105 130 
142 695 275 85 105 127 
141 695 276 87 107 128 
141 695 277 94 113 133 
142 693 276 70 91 117 
142 693 277 73 93 117 
143 692 276 62 82 110 
143 692 277 55 77 107 
142 693 278 64 86 113 
142 693 279 59 82 110 
143 692 278 56 76 108 
143 692 279 59 79 106 
142 694 276 87 106 128 
142 694 277 77 100 124 
142 695 277 89 110 132 
142 694 278 80 102 124 
142 694 279 87 104 125 
142 695 278 88 109 130 
142 695 279 87 105 127 
142 693 280 64 84 110 
142 693 281 68 85 109 
143 692 280 63 79 104 
143 692 281 70 83 104 
143 693 280 67 85 111 
142 693 282 68 84 109 
142 693 283 63 80 105 
143 692 282 71 84 104 
143 692 283 66 81 99 
142 694 280 79 96 119 
142 694 281 73 91 115 
142 695 280 79 98 122 
142 695 281 76 97 123 
142 694 282 71 89 114 
142 694 283 68 86 113 
142 695 282 77 98 123 
142 695 283 77 97 125 
141 695 284 75 95 127 
141 695 285 74 92 124 
141 695 286 64 85 120 
141 695 287 58 79 116 
142 693 284 64 81 105 
142 693 285 61 78 104 
143 692 284 67 82 101 
143 692 285 77 90 107 
143 693 285 71 87 106 
142 693 286 67 81 102 
143 692 286 62 78 98 
143 692 287 63 65 88 
143 693 286 78 91 107 
143 693 287 66 73 93 
142 694 284 63 83 110 
142 694 285 60 80 108 
142 695 284 74 93 121 
142 695 285 67 86 117 
142 694 286 62 79 105 
142 694 287 65 80 102 
142 695 286 63 84 115 
142 695 287 64 81 110 
142 696 272 55 81 139 
142 696 273 75 98 142 
142 697 272 57 83 145 
142 697 273 56 81 144 
143 697 272 63 90 149 
142 696 274 92 113 146 
142 696 275 96 116 144 
142 697 274 58 82 142 
142 697 275 58 82 140 
143 698 272 80 102 152 
143 698 273 72 95 150 
143 699 272 102 119 151 
143 699 273 90 108 147 
142 698 274 61 86 145 
142 698 275 61 83 143 
143 698 274 68 90 146 
143 698 275 65 88 144 
143 699 274 84 103 145 
143 699 275 83 101 145 
141 696 279 95 113 137 
142 696 276 94 116 140 
142 696 277 90 110 130 
142 697 276 65 88 139 
142 697 277 74 97 141 
142 696 278 92 109 129 
142 696 279 95 111 133 
142 697 278 82 103 142 
142 697 279 87 107 145 
142 698 276 54 78 140 
142 698 277 51 76 140 
142 699 276 76 97 142 
142 699 277 74 92 141 
143 699 276 88 106 145 
142 698 278 49 72 139 
142 698 279 50 71 137 
142 699 278 70 87 141 
142 699 279 64 83 140 
143 700 272 102 116 146 
143 700 273 102 116 144 
143 701 272 93 108 137 
143 701 273 90 106 133 
143 700 274 104 118 144 
143 700 275 104 118 147 
143 701 274 85 101 128 
143 701 275 88 104 135 
143 702 273 108 119 141 
142 703 275 110 119 139 
143 702 274 104 115 137 
143 702 275 91 106 131 
142 700 277 91 107 139 
143 700 276 97 113 143 
143 700 277 98 113 140 
143 701 276 96 111 142 
143 701 277 102 116 141 
142 700 278 87 105 139 
142 700 279 80 98 140 
142 701 278 107 122 142 
142 701 279 105 119 143 
143 701 278 105 120 140 
142 702 276 86 103 128 
142 702 277 85 103 129 
142 703 276 113 123 141 
142 703 277 110 121 140 
143 702 276 80 99 128 
143 702 277 78 98 128 
142 702 278 87 106 131 
142 702 279 91 108 133 
142 703 278 101 116 137 
142 703 279 96 112 135 
141 696 280 94 113 137 
141 697 280 93 114 143 
141 696 283 81 105 133 
141 697 283 78 104 132 
141 698 283 75 103 143 
142 696 280 93 113 138 
142 696 281 91 111 136 
142 697 280 86 106 143 
142 697 281 89 110 141 
142 696 282 85 107 133 
142 696 283 64 93 126 
142 697 282 90 112 141 
142 697 283 91 114 143 
142 698 280 51 74 138 
142 698 281 57 80 139 
142 699 280 58 77 140 
142 699 281 55 77 141 
142 698 282 65 90 141 
142 698 283 69 96 142 
142 699 282 49 76 139 
142 699 283 59 92 139 
141 696 284 76 101 131 
141 696 285 68 94 128 
141 697 284 72 102 132 
141 697 285 58 95 129 
141 696 286 53 85 123 
141 696 287 43 78 119 
141 697 286 48 88 128 
141 697 287 43 81 129 
141 698 284 81 110 146 
141 698 285 75 107 143 
141 699 284 74 107 145 
141 699 285 73 108 143 
141 698 286 69 99 141 
141 698 287 55 84 136 
141 699 286 59 96 137 
141 699 287 55 85 136 
142 699 284 86 114 148 
142 700 280 72 89 139 
142 700 281 67 86 139 
142 701 280 96 109 142 
142 701 281 93 109 140 
142 700 282 70 93 138 
142 700 283 92 115 145 
142 701 282 97 116 140 
142 701 283 108 125 145 
142 702 280 92 108 135 
142 702 281 98 115 139 
142 703 280 91 108 131 
142 703 281 96 114 136 
142 702 282 106 123 143 
142 702 283 102 120 140 
142 703 282 97 118 140 
142 703 283 90 113 135 
141 700 285 111 131 153 
141 701 285 108 125 146 
141 700 286 87 114 142 
141 700 287 64 96 137 
141 701 286 110 129 154 
141 701 287 110 128 154 
141 702 286 127 141 166 
141 702 287 116 132 155 
141 703 286 118 133 154 
141 703 287 119 134 154 
142 700 284 114 132 154 
142 701 284 116 131 149 
142 701 285 112 128 149 
142 702 284 109 125 145 
142 702 285 124 136 156 
142 703 284 104 121 141 
142 703 285 118 130 147 
142 702 286 126 140 164 
142 703 286 120 133 152 
147 687 257 57 80 133 
147 687 258 59 82 134 
147 687 259 70 90 134 
147 687 260 93 108 137 
147 687 261 118 127 144 
147 687 262 124 132 145 
147 687 263 115 126 140 
148 686 260 97 113 140 
148 686 261 109 124 142 
148 686 262 94 112 136 
148 686 263 79 100 131 
147 687 264 105 119 137 
147 687 265 94 111 131 
147 687 266 96 111 131 
147 687 267 96 109 129 
149 685 265 38 72 123 
149 685 266 50 79 122 
149 685 267 85 104 131 
148 686 264 68 94 129 
148 686 265 65 90 126 
148 686 266 79 98 128 
148 686 267 95 109 131 
148 687 266 85 103 127 
148 687 267 98 111 131 
149 685 268 101 117 138 
149 685 269 99 115 139 
149 685 270 89 108 135 
149 685 271 71 94 130 
148 686 268 102 115 133 
148 686 269 104 117 134 
148 687 268 102 113 130 
148 687 269 102 112 132 
149 686 268 107 121 137 
149 686 269 108 121 139 
148 686 270 104 116 135 
148 686 271 100 111 135 
148 687 270 95 105 129 
148 687 271 84 94 126 
149 686 270 106 120 138 
149 686 271 96 110 136 
147 687 276 60 78 117 
147 687 277 47 68 114 
147 687 278 45 65 116 
147 687 279 46 64 118 
149 685 272 64 85 128 
149 685 273 68 85 130 
149 685 274 68 83 129 
149 685 275 62 75 126 
148 686 272 81 94 130 
148 686 273 71 85 128 
148 687 272 69 81 122 
148 687 273 58 72 119 
149 686 272 79 94 132 
148 686 274 63 78 125 
148 686 275 54 71 122 
148 687 274 54 70 117 
148 687 275 57 73 117 
149 685 276 59 72 125 
148 686 276 49 66 121 
148 686 277 46 63 119 
148 687 276 54 72 117 
148 686 278 52 66 121 
148 686 279 61 72 124 
147 687 280 46 62 120 
147 687 281 55 67 124 
147 687 282 63 74 126 
147 687 283 77 87 131 
148 686 280 65 74 127 
146 688 259 66 88 135 
146 689 259 67 88 134 
147 688 258 68 88 136 
147 688 259 67 88 135 
145 690 263 76 95 129 
145 691 262 59 82 124 
145 691 263 87 103 132 
146 688 260 58 81 130 
146 688 261 62 80 126 
146 689 260 55 80 131 
146 689 261 54 76 127 
147 688 260 68 88 129 
147 688 261 86 99 130 
146 688 262 82 95 126 
146 688 263 99 110 131 
146 689 262 57 76 124 
146 689 263 76 91 126 
147 688 262 112 121 137 
147 688 263 115 124 138 
146 690 260 52 80 129 
146 690 261 39 70 123 
146 691 261 38 70 120 
146 690 262 48 74 123 
146 690 263 76 93 129 
145 692 263 88 103 133 
145 689 265 100 113 131 
145 690 264 98 112 134 
145 690 265 98 112 131 
145 691 264 100 114 135 
145 691 265 102 116 135 
144 691 266 100 114 136 
144 691 267 86 101 130 
145 690 266 96 110 132 
145 690 267 89 102 131 
145 691 266 97 111 133 
145 691 267 86 101 129 
146 688 264 111 121 136 
146 688 265 105 117 132 
146 689 264 92 106 127 
146 689 265 110 121 136 
147 688 264 112 123 137 
147 688 265 103 117 133 
146 688 266 98 111 129 
146 688 267 85 98 125 
146 689 266 104 116 135 
146 689 267 88 101 129 
147 688 266 99 113 131 
147 688 267 101 112 132 
144 691 268 58 77 120 
144 691 269 43 66 116 
145 690 268 69 84 123 
145 690 269 53 69 117 
145 691 268 71 88 123 
144 691 270 36 62 112 
144 691 271 38 68 109 
145 690 270 45 64 111 
145 690 271 44 61 107 
145 691 270 43 64 110 
145 691 271 39 60 104 
146 688 268 85 96 126 
146 689 268 72 85 123 
146 689 269 63 77 120 
147 688 268 92 102 127 
147 688 269 82 94 125 
146 689 270 56 72 116 
146 689 271 49 65 111 
147 688 270 74 87 122 
147 688 271 59 72 115 
144 692 264 94 107 134 
144 692 265 99 112 136 
144 693 265 70 87 126 
145 692 264 104 116 139 
144 692 266 92 106 133 
144 692 267 74 92 127 
144 693 266 78 94 128 
144 693 267 75 91 129 
144 694 265 64 79 129 
144 692 268 49 72 119 
144 692 269 37 65 116 
144 692 270 37 65 115 
144 692 271 41 70 113 
144 691 272 35 66 101 
144 691 273 46 73 104 
145 690 272 30 55 100 
145 690 273 40 63 102 
145 691 272 26 54 97 
144 691 274 51 74 105 
144 691 275 53 75 106 
145 690 274 50 71 106 
145 690 275 58 78 109 
146 689 272 43 60 107 
146 689 273 45 66 106 
147 688 272 48 64 113 
147 688 273 45 64 111 
146 689 274 45 68 107 
146 689 275 46 70 107 
147 688 274 40 62 109 
147 688 275 44 65 108 
145 689 277 63 81 106 
145 689 278 63 81 102 
145 689 279 64 81 101 
144 691 276 55 76 105 
144 691 277 61 78 107 
145 690 276 57 78 107 
145 690 277 60 76 104 
144 691 278 63 79 106 
144 691 279 63 81 105 
145 690 278 65 81 102 
145 690 279 65 80 101 
146 688 277 68 87 111 
146 689 276 54 76 107 
146 689 277 58 79 103 
147 688 276 71 87 116 
147 688 277 70 87 117 
146 688 278 70 88 110 
146 688 279 64 80 112 
147 688 278 64 80 115 
146 690 277 59 78 105 
145 689 280 59 80 100 
145 689 281 64 82 103 
145 689 282 69 84 109 
145 689 283 55 70 109 
144 691 280 65 81 103 
144 691 281 70 83 101 
145 690 280 67 84 104 
145 690 281 68 84 101 
144 691 282 76 87 101 
144 691 283 76 88 102 
145 690 282 69 84 101 
145 690 283 67 84 101 
146 688 280 57 71 110 
146 688 281 47 64 113 
146 689 280 68 84 106 
146 689 281 66 83 108 
146 688 282 45 59 115 
146 688 283 45 56 118 
146 689 282 55 72 111 
145 689 284 48 64 111 
145 689 285 49 59 115 
145 689 286 55 53 103 
145 689 287 58 42 91 
144 691 284 72 87 102 
144 691 285 66 82 103 
145 690 284 63 83 108 
145 690 285 54 75 108 
144 691 286 70 78 106 
144 691 287 63 61 91 
145 690 286 49 60 101 
145 690 287 51 41 88 
146 688 284 55 63 121 
146 688 285 72 75 124 
146 688 286 72 58 103 
146 688 287 66 50 90 
144 692 284 81 93 107 
144 692 285 70 85 102 
144 692 286 63 76 98 
144 692 287 70 69 94 
141 695 288 56 68 102 
141 695 289 42 43 83 
141 695 290 40 42 76 
141 695 291 45 39 77 
143 692 288 71 59 89 
143 693 288 59 54 83 
143 693 289 55 45 78 
143 693 290 51 33 69 
143 693 291 47 25 64 
142 694 288 58 67 92 
142 694 289 47 48 82 
142 695 288 59 74 103 
142 695 289 40 46 83 
143 694 289 53 46 79 
142 694 290 49 43 76 
142 694 291 48 34 67 
142 695 290 33 41 77 
142 695 291 49 39 75 
143 694 291 43 25 60 
141 695 292 54 41 78 
141 695 293 57 69 91 
141 695 294 63 82 101 
143 693 292 49 34 66 
143 693 293 56 28 66 
142 694 292 46 27 62 
142 694 293 43 27 65 
142 695 292 50 34 70 
142 695 293 43 44 75 
143 694 292 46 30 62 
143 694 293 51 28 65 
142 695 294 42 50 75 
142 695 295 50 65 84 
143 694 294 43 24 54 
143 694 295 42 26 51 
143 695 295 34 34 54 
142 695 296 59 75 93 
143 694 296 42 31 53 
143 695 296 44 46 68 
143 695 297 54 54 76 
143 695 298 40 45 66 
143 695 299 35 44 64 
139 699 293 119 133 150 
139 698 295 96 119 142 
139 699 294 104 126 149 
139 699 295 94 119 144 
139 700 293 122 138 156 
139 700 294 116 135 156 
140 697 288 59 74 131 
140 697 289 63 62 121 
141 696 288 54 73 114 
141 696 289 56 51 98 
141 697 288 50 76 129 
140 696 290 68 47 91 
140 696 291 74 52 90 
140 697 290 59 46 102 
140 697 291 76 54 97 
141 696 290 59 47 86 
141 696 291 64 51 84 
140 698 288 53 74 134 
140 698 289 62 70 129 
140 699 288 57 79 136 
140 699 289 61 79 133 
141 698 288 47 74 134 
141 699 288 54 79 137 
140 698 290 61 63 116 
140 698 291 84 77 115 
140 699 290 74 88 130 
140 699 291 104 112 137 
140 696 292 85 66 96 
140 696 293 88 99 118 
140 697 292 89 69 97 
140 697 293 98 113 130 
141 696 292 74 60 91 
141 696 293 79 93 111 
140 696 294 92 115 136 
140 696 295 108 126 146 
140 697 294 101 124 146 
140 697 295 110 129 150 
141 696 294 74 96 115 
141 696 295 89 109 127 
140 698 292 97 91 110 
140 698 293 111 124 139 
140 699 292 122 128 140 
140 699 293 127 135 146 
140 698 294 101 124 147 
140 698 295 99 122 145 
140 699 295 98 124 148 
140 700 289 87 107 143 
141 700 288 68 96 138 
141 700 289 92 114 144 
141 701 288 111 128 152 
141 701 289 110 127 149 
140 700 290 101 118 146 
140 700 291 116 130 150 
140 701 290 85 107 133 
140 701 291 106 123 143 
141 701 290 100 119 140 
141 702 288 114 129 148 
141 702 289 125 138 155 
141 703 288 130 143 160 
141 703 289 127 140 156 
140 702 291 125 137 154 
141 702 290 124 137 154 
141 702 291 131 141 157 
141 703 290 131 141 156 
141 703 291 132 142 157 
140 700 292 132 142 157 
140 700 293 129 141 158 
140 701 292 128 141 158 
140 701 293 125 140 159 
140 700 294 123 141 162 
140 700 295 112 135 160 
140 701 294 116 137 161 
140 701 295 105 136 165 
140 702 292 128 140 157 
140 702 293 120 136 156 
140 703 292 127 138 154 
140 703 293 124 138 156 
141 703 292 128 138 153 
140 702 294 120 141 165 
140 702 295 111 139 168 
140 703 294 129 146 166 
140 703 295 124 144 168 
141 703 294 129 144 163 
141 703 295 126 143 164 
139 700 298 132 147 167 
139 700 299 136 150 168 
139 701 298 139 152 170 
139 701 299 146 156 173 
139 700 300 139 151 167 
139 701 300 146 156 172 
139 701 301 138 145 160 
140 697 296 115 129 147 
140 697 297 116 128 144 
141 696 296 101 116 134 
141 696 297 103 116 132 
141 697 297 111 122 137 
141 697 298 107 118 133 
141 697 299 109 121 136 
140 698 296 111 128 148 
140 698 297 110 125 143 
140 699 296 102 125 148 
140 699 297 109 128 150 
140 698 298 115 129 148 
140 698 299 142 151 167 
140 699 298 118 134 156 
140 699 299 127 141 160 
141 698 299 137 148 164 
142 696 296 77 94 112 
142 696 297 77 92 110 
142 696 298 83 95 110 
142 696 299 79 90 105 
142 697 299 90 103 117 
143 696 298 57 65 83 
143 696 299 50 60 78 
141 697 300 91 106 123 
141 697 301 93 107 123 
140 698 300 128 141 158 
140 699 300 122 136 155 
140 699 301 123 133 148 
141 698 300 108 123 140 
141 698 301 107 118 132 
140 699 302 126 132 144 
140 699 303 115 125 139 
141 698 302 115 123 136 
141 698 303 116 125 139 
141 699 302 125 131 143 
141 699 303 117 125 139 
142 696 300 74 88 103 
142 697 300 79 93 109 
142 697 301 73 88 104 
143 696 300 45 56 77 
143 696 301 35 48 72 
143 697 301 44 62 82 
142 697 302 91 102 117 
142 697 303 95 108 123 
143 696 302 46 63 81 
143 696 303 65 78 94 
143 697 302 62 78 95 
143 697 303 78 92 108 
142 698 303 107 118 132 
140 700 296 110 135 161 
140 700 297 118 138 161 
140 701 296 115 144 173 
140 701 297 124 145 168 
140 700 298 125 142 163 
140 700 299 129 144 164 
140 701 298 136 150 169 
140 701 299 142 154 173 
140 702 296 120 145 171 
140 702 297 124 143 165 
140 703 296 121 142 166 
140 703 297 116 137 160 
141 703 296 121 141 164 
140 702 298 119 139 162 
140 702 299 119 141 165 
140 703 298 101 130 157 
140 703 299 109 137 166 
140 700 300 130 143 161 
140 700 301 130 139 153 
140 701 301 134 142 156 
140 700 302 126 135 147 
140 700 303 124 134 149 
140 701 302 134 141 155 
140 701 303 138 148 163 
140 702 300 129 147 170 
140 702 301 134 147 166 
140 703 300 125 147 172 
140 703 301 135 151 172 
140 702 302 139 150 166 
140 702 303 141 153 170 
140 703 302 130 147 170 
140 703 303 126 145 169 
141 698 304 110 121 136 
141 698 305 108 121 138 
141 699 304 112 124 141 
141 699 305 115 128 146 
141 699 306 114 128 144 
141 699 307 113 126 143 
142 697 304 95 108 124 
143 696 304 67 80 96 
143 697 304 78 93 110 
143 697 305 71 89 108 
143 697 306 74 95 114 
143 697 307 92 107 123 
142 698 304 106 117 132 
142 698 305 93 109 127 
142 698 306 97 113 130 
142 698 307 103 116 133 
143 698 306 85 103 121 
143 698 307 98 112 128 
141 699 308 110 125 142 
142 698 308 107 119 135 
142 699 308 111 124 140 
142 699 309 108 121 136 
143 698 308 100 113 129 
143 698 309 100 113 129 
143 699 309 98 112 128 
142 699 310 101 114 130 
142 699 311 103 115 130 
143 698 310 87 103 121 
143 699 310 86 103 120 
143 699 311 99 112 127 
140 700 304 143 152 167 
140 700 305 132 143 160 
140 701 304 137 148 165 
140 701 305 132 144 161 
140 700 306 121 134 151 
140 700 307 117 131 149 
140 701 306 127 140 157 
140 701 307 118 134 152 
141 700 306 118 132 148 
141 700 307 113 129 147 
140 702 304 128 145 165 
140 702 305 134 151 171 
140 703 304 118 141 167 
140 703 305 132 153 177 
140 702 306 132 147 166 
140 702 307 125 141 161 
140 703 306 132 151 172 
140 703 307 131 149 170 
141 703 307 134 151 173 
140 701 308 109 128 151 
140 701 309 133 147 169 
141 700 308 100 121 142 
141 700 309 108 125 146 
141 701 308 105 126 149 
141 701 309 129 144 165 
141 700 310 119 129 143 
141 700 311 118 127 140 
141 701 310 124 137 155 
141 701 311 127 137 152 
140 702 308 121 139 160 
140 702 309 128 143 164 
140 703 308 134 150 170 
140 703 309 139 153 172 
140 702 310 136 149 168 
140 703 310 141 154 171 
141 702 310 133 147 167 
141 702 311 124 139 159 
141 703 310 141 154 172 
141 703 311 127 144 165 
142 700 310 110 120 134 
142 700 311 114 123 138 
143 699 312 104 115 130 
143 699 313 101 113 129 
143 699 314 97 113 131 
141 701 312 120 132 149 
141 701 313 119 133 150 
141 702 312 110 129 152 
141 702 313 122 137 156 
141 703 312 131 148 170 
141 703 313 142 154 171 
141 702 314 124 138 155 
141 703 314 150 157 170 
141 703 315 166 171 185 
142 700 312 114 123 137 
142 701 312 118 129 143 
142 701 313 115 127 143 
143 700 312 107 117 130 
143 700 313 104 116 132 
142 701 314 110 124 141 
142 701 315 116 128 144 
143 700 314 99 115 133 
143 700 315 104 119 136 
143 701 314 104 119 136 
143 701 315 109 123 139 
142 702 314 125 137 153 
142 702 315 131 142 158 
142 703 315 146 158 176 
142 701 316 119 133 149 
143 700 316 108 123 140 
143 701 316 113 127 144 
143 701 317 113 127 145 
143 701 318 101 122 145 
143 701 319 97 120 144 
142 702 316 124 140 159 
142 702 317 116 135 155 
142 703 316 105 134 162 
142 703 317 109 138 165 
142 702 318 111 132 154 
142 703 318 118 139 162 
142 703 319 116 137 159 
143 702 318 108 128 150 
143 702 319 107 128 151 
143 703 319 112 133 155 
147 687 307 76 96 135 
147 687 314 102 124 157 
147 687 315 105 129 156 
147 687 316 118 141 165 
147 687 317 116 141 167 
147 687 318 118 140 165 
147 687 319 119 139 164 
145 689 288 56 43 92 
145 689 289 62 41 88 
145 689 290 67 36 84 
145 689 291 57 43 90 
144 691 288 53 43 77 
144 691 289 54 37 72 
144 691 290 54 32 77 
144 691 291 58 40 82 
145 689 292 49 42 97 
145 689 293 56 50 105 
145 689 294 53 52 102 
145 689 295 40 42 98 
144 691 292 56 41 87 
144 691 293 61 41 82 
145 690 292 51 41 92 
145 690 293 56 49 99 
145 691 293 60 47 92 
145 690 294 53 52 102 
145 690 295 46 47 101 
145 691 294 60 44 89 
145 691 295 53 40 91 
144 692 288 65 54 85 
144 692 289 56 39 73 
144 692 290 52 27 70 
144 692 291 55 32 75 
144 693 291 50 31 68 
144 692 292 55 38 75 
144 692 293 58 31 68 
144 693 292 55 41 71 
144 693 293 55 30 62 
144 692 294 64 35 74 
144 692 295 63 38 74 
144 693 294 57 22 63 
144 693 295 61 33 66 
145 692 294 65 38 80 
145 692 295 59 36 80 
144 694 295 54 31 61 
145 689 296 32 41 99 
145 689 297 35 46 99 
145 690 296 32 42 99 
145 690 297 42 53 95 
145 691 296 45 43 94 
145 691 297 47 52 90 
145 691 298 45 53 88 
146 688 297 30 43 99 
146 689 297 37 51 96 
146 688 298 32 46 101 
146 688 299 42 51 104 
146 689 298 38 53 95 
146 689 299 37 50 98 
146 690 298 44 56 91 
146 690 299 38 53 94 
146 691 298 41 51 89 
146 691 299 34 45 88 
146 688 300 40 49 104 
146 688 301 59 66 107 
146 689 300 30 45 98 
146 689 301 57 66 105 
146 688 302 69 74 110 
146 688 303 78 87 117 
146 689 302 87 93 115 
146 689 303 99 103 120 
147 689 303 112 113 128 
146 690 300 36 52 98 
146 690 301 46 55 103 
146 691 300 34 50 94 
146 691 301 40 47 102 
146 690 302 66 67 106 
146 690 303 83 80 111 
146 691 302 61 56 108 
146 691 303 76 70 112 
147 690 303 95 93 117 
147 691 303 80 77 112 
144 693 296 52 31 65 
144 693 297 45 30 66 
145 692 296 48 37 82 
145 692 297 44 51 83 
145 693 296 51 29 71 
145 693 297 41 40 74 
145 692 298 39 49 85 
145 692 299 34 44 86 
145 693 298 36 41 74 
145 693 299 39 46 78 
144 694 296 52 36 60 
144 694 297 43 30 55 
144 695 297 41 32 56 
144 694 298 40 38 61 
144 694 299 40 45 62 
144 695 298 36 37 57 
144 695 299 38 44 59 
145 694 299 41 46 67 
146 692 299 30 42 87 
145 693 300 43 51 82 
145 693 301 49 51 84 
144 694 300 41 47 65 
144 695 300 39 44 62 
144 695 301 44 45 66 
145 694 300 42 47 70 
145 694 301 48 47 76 
145 695 301 47 46 72 
144 695 302 48 51 72 
144 695 303 60 63 79 
145 694 302 52 54 84 
145 694 303 58 64 90 
145 695 302 54 53 76 
145 695 303 65 68 84 
146 692 300 35 47 90 
146 692 301 38 43 95 
146 693 301 45 48 89 
146 692 302 44 42 99 
146 692 303 75 70 112 
146 693 302 46 47 93 
146 693 303 64 64 103 
146 694 303 64 68 98 
144 696 300 38 40 63 
144 696 301 33 35 63 
144 696 302 42 50 69 
144 696 303 58 70 84 
146 688 304 82 92 124 
146 688 305 92 100 135 
147 688 304 72 79 115 
147 688 305 89 100 130 
147 689 304 102 109 126 
147 689 305 104 117 135 
147 688 306 93 108 138 
147 688 307 90 107 143 
147 689 306 120 133 153 
147 689 307 119 136 160 
147 690 304 107 112 128 
147 690 305 110 123 140 
147 691 304 96 103 126 
147 691 305 109 124 142 
147 690 306 131 141 160 
147 690 307 139 149 168 
147 691 306 126 135 152 
147 691 307 142 148 162 
146 688 309 58 78 138 
147 688 308 75 95 143 
147 688 309 66 85 138 
147 689 308 98 119 148 
147 689 309 82 101 140 
147 688 310 59 79 138 
147 688 311 74 91 144 
147 689 310 68 85 140 
147 690 308 131 146 163 
145 694 304 68 72 96 
145 695 304 70 76 91 
145 695 305 80 89 104 
146 692 304 94 103 127 
146 693 304 79 89 117 
146 693 305 95 115 135 
147 692 304 100 113 133 
147 692 305 110 127 145 
147 693 305 101 121 140 
147 692 306 128 138 152 
147 692 307 140 143 154 
147 693 306 110 124 140 
147 693 307 124 130 142 
146 694 304 74 80 106 
146 694 305 87 104 124 
146 695 305 87 100 117 
146 694 306 84 106 126 
146 695 306 76 96 116 
146 695 307 78 98 117 
147 694 306 92 109 128 
147 694 307 96 111 128 
147 695 307 89 105 123 
147 693 308 128 131 141 
147 694 308 111 121 134 
147 695 308 108 117 133 
147 695 309 115 122 136 
148 689 309 77 102 141 
148 689 310 65 82 140 
148 689 311 78 88 141 
148 690 308 127 142 161 
148 690 309 91 115 150 
148 691 308 133 145 162 
148 691 309 106 127 156 
148 690 310 58 78 139 
148 690 311 79 84 142 
148 691 310 74 101 147 
149 690 310 68 80 141 
149 690 311 100 105 145 
149 691 310 87 113 148 
149 691 311 115 126 151 
148 692 308 173 171 182 
148 692 309 148 155 171 
148 693 308 143 141 150 
148 693 309 128 132 144 
149 692 310 121 139 159 
149 692 311 132 143 159 
149 693 310 121 134 151 
149 693 311 113 129 151 
148 694 308 116 123 135 
148 694 309 111 120 133 
148 695 309 108 117 130 
148 694 310 111 121 134 
148 695 310 115 120 131 
148 695 311 114 119 130 
149 694 310 105 119 136 
149 694 311 99 118 139 
149 695 311 106 117 131 
150 692 311 130 141 159 
147 688 312 83 98 144 
147 688 313 109 123 156 
147 688 314 98 123 152 
147 688 315 120 140 162 
147 688 316 121 142 165 
147 688 317 116 139 166 
147 688 318 117 138 162 
147 688 319 117 136 160 
148 688 313 116 128 156 
148 689 312 103 110 147 
148 689 313 128 139 160 
149 689 312 120 127 151 
149 689 313 135 146 163 
148 688 314 110 132 157 
148 688 315 125 143 165 
148 689 314 117 138 161 
148 689 315 122 141 164 
149 689 314 124 143 166 
149 689 315 112 138 163 
149 690 312 132 139 156 
149 690 313 135 147 163 
149 691 312 146 151 163 
149 691 313 143 151 163 
149 690 314 109 137 164 
149 690 315 99 132 162 
150 691 312 148 153 164 
150 691 313 136 148 163 
150 690 315 93 130 161 
150 691 314 110 136 163 
150 691 315 106 137 165 
148 688 316 120 141 164 
148 688 317 116 138 164 
148 689 316 115 137 161 
148 689 317 117 136 161 
149 689 316 107 134 161 
149 689 317 123 141 165 
148 688 318 127 145 169 
148 688 319 132 146 168 
149 688 318 143 155 174 
149 688 319 141 153 171 
149 689 318 148 158 176 
149 689 319 149 158 174 
149 690 316 103 133 160 
150 689 319 153 162 178 
150 690 316 104 134 162 
150 690 317 119 140 164 
150 691 316 110 137 164 
150 691 317 111 138 165 
150 690 318 132 148 168 
150 690 319 138 151 169 
150 691 318 110 138 166 
150 691 319 116 140 165 
151 691 319 125 145 168 
149 693 312 116 132 153 
149 694 312 106 123 143 
149 694 313 108 121 138 
149 695 312 101 115 132 
149 695 313 101 115 131 
149 695 314 98 114 132 
149 695 315 95 113 133 
150 692 312 140 149 162 
150 692 313 137 147 162 
150 693 312 121 135 153 
150 693 313 123 135 151 
150 692 314 126 141 161 
150 692 315 121 140 161 
150 693 314 119 131 147 
150 693 315 113 128 147 
150 694 313 114 127 144 
150 694 314 104 120 138 
150 694 315 94 116 139 
150 695 314 93 113 133 
150 695 315 91 112 134 
150 692 316 120 140 162 
150 692 317 115 137 161 
150 693 316 113 130 150 
150 693 317 119 133 151 
150 692 318 112 136 161 
150 693 318 120 134 151 
151 692 318 117 137 159 
151 692 319 132 145 163 
151 693 318 121 135 152 
151 693 319 127 135 150 
150 694 316 102 122 144 
150 694 317 113 128 145 
150 695 316 96 116 138 
150 695 317 105 122 141 
150 694 318 117 129 146 
150 695 318 106 121 138 
150 695 319 96 114 133 
151 694 318 118 131 147 
151 694 319 114 129 146 
151 695 319 101 119 139 
144 696 304 69 79 93 
144 696 305 70 83 100 
145 696 305 71 82 98 
144 696 306 74 89 107 
144 697 306 70 88 107 
144 697 307 84 100 116 
145 696 306 76 93 111 
145 696 307 74 93 111 
145 697 307 79 97 115 
146 696 307 75 95 113 
144 697 308 84 100 118 
144 697 309 83 101 118 
145 696 308 75 93 111 
145 697 308 79 96 113 
145 697 309 81 97 113 
145 697 310 84 100 118 
144 698 308 90 106 123 
144 698 309 84 102 119 
144 698 310 85 102 120 
144 698 311 93 107 123 
145 698 310 84 100 118 
145 698 311 89 104 122 
146 696 308 87 99 115 
146 697 308 87 96 111 
146 697 309 94 104 119 
147 696 308 117 122 134 
147 696 309 114 118 131 
146 697 310 87 103 121 
146 697 311 86 101 119 
147 696 310 96 106 121 
147 696 311 94 105 117 
147 697 310 91 104 120 
147 697 311 88 102 117 
146 698 311 88 103 120 
148 696 310 108 113 124 
148 696 311 111 118 129 
144 698 312 98 111 126 
144 699 312 97 110 125 
144 699 313 98 112 127 
145 698 312 94 108 123 
145 698 313 92 107 122 
145 699 313 96 109 124 
144 699 314 90 108 126 
144 699 315 93 110 128 
145 698 314 94 110 127 
145 699 314 95 111 128 
145 699 315 92 109 127 
147 697 312 96 107 122 
147 697 313 105 116 132 
147 697 314 100 113 131 
147 697 315 91 107 125 
146 698 312 96 110 127 
146 698 313 88 105 122 
147 698 313 94 105 119 
146 698 314 93 108 124 
146 698 315 87 104 122 
146 699 315 90 107 124 
147 698 314 93 105 121 
147 698 315 86 102 119 
144 699 316 103 118 136 
145 699 316 96 113 131 
145 699 317 93 111 130 
145 699 318 101 118 136 
145 699 319 101 118 136 
146 698 316 90 107 125 
146 699 316 89 107 126 
146 699 317 87 107 128 
147 698 316 85 104 122 
147 698 317 86 105 125 
146 699 318 96 114 133 
146 699 319 98 114 132 
147 698 318 93 109 127 
147 698 319 96 111 129 
147 699 318 93 111 130 
147 699 319 96 112 129 
144 700 315 100 116 133 
144 700 316 102 118 135 
144 700 317 103 118 135 
144 700 318 102 119 137 
144 700 319 100 118 137 
144 701 318 97 117 138 
144 701 319 95 117 138 
145 700 318 101 117 136 
145 700 319 102 119 138 
148 696 312 112 125 142 
148 696 313 106 121 141 
149 696 312 99 113 132 
149 696 313 96 112 131 
148 696 314 102 116 133 
148 696 315 105 117 133 
148 697 314 100 114 132 
148 697 315 99 112 129 
149 696 314 101 115 132 
149 696 315 101 115 133 
148 697 316 89 107 125 
148 697 317 89 108 128 
149 696 316 95 113 132 
149 696 317 91 111 132 
149 697 317 87 109 130 
148 697 318 94 112 131 
148 697 319 95 111 130 
149 697 318 93 111 131 
149 697 319 95 112 131 
148 698 317 90 107 126 
148 698 318 95 111 129 
148 698 319 96 112 130 
150 696 317 100 117 137 
150 696 318 96 113 132 
150 696 319 95 112 131 
150 697 319 98 114 132 
143 701 320 107 126 147 
143 702 320 115 132 152 
143 702 321 124 136 153 
143 703 320 117 136 157 
143 703 321 127 141 158 
143 703 322 128 142 160 
143 703 323 120 139 160 
147 687 320 134 149 173 
147 687 321 126 139 161 
147 687 322 145 155 173 
147 687 323 138 151 170 
147 687 324 142 155 173 
148 687 321 133 144 164 
148 687 322 138 149 171 
148 687 323 137 149 168 
149 687 323 145 157 174 
148 686 325 149 167 189 
148 687 324 140 154 172 
148 687 325 147 163 184 
149 687 324 142 156 175 
149 687 325 143 159 180 
148 686 326 128 152 178 
148 686 327 124 149 176 
149 686 326 128 150 177 
149 686 327 127 149 177 
149 687 326 134 154 180 
150 687 325 139 156 177 
150 686 327 133 153 177 
150 687 326 133 153 179 
150 687 327 133 153 179 
151 687 326 136 155 178 
151 687 327 141 158 179 
151 683 334 162 180 204 
151 683 335 154 177 204 
149 685 328 132 152 175 
149 685 329 140 158 180 
149 685 330 149 165 187 
149 686 328 127 148 172 
150 685 329 139 157 179 
150 684 331 156 173 195 
150 685 330 143 161 184 
150 685 331 149 167 190 
151 685 330 145 162 184 
151 685 331 147 164 185 
150 686 328 139 156 178 
150 686 329 140 158 179 
151 686 329 143 159 181 
151 687 328 141 158 179 
151 687 329 143 159 180 
150 686 330 138 157 180 
151 686 330 144 160 181 
150 684 332 156 175 198 
150 684 333 152 173 198 
151 684 332 126 152 179 
151 684 333 137 160 186 
151 685 332 138 158 182 
151 684 334 154 173 197 
152 682 335 152 177 205 
152 683 334 153 175 201 
152 683 335 144 171 200 
153 683 335 127 159 191 
152 687 329 139 154 174 
152 686 330 141 156 176 
152 686 331 141 155 175 
152 687 330 135 151 171 
152 687 331 139 154 173 
153 687 331 139 155 176 
152 684 333 145 164 188 
152 685 332 152 167 188 
152 685 333 152 169 191 
153 685 333 151 167 189 
152 684 334 152 172 197 
152 684 335 146 169 196 
152 685 334 154 173 196 
153 684 335 130 158 187 
153 685 334 145 166 190 
152 686 332 149 163 182 
153 686 332 135 154 177 
153 686 333 137 157 182 
153 687 332 131 153 180 
154 684 335 130 156 184 
154 685 334 141 162 186 
154 685 335 140 160 184 
154 686 333 122 150 179 
154 687 332 128 153 182 
154 687 333 113 147 179 
154 686 334 134 157 182 
154 686 335 142 160 182 
154 687 334 125 153 181 
155 686 335 139 157 180 
155 687 334 127 152 178 
155 687 335 130 151 176 
154 679 340 167 184 206 
154 679 341 160 178 200 
154 679 342 157 175 198 
155 678 342 164 180 202 
155 678 343 160 177 200 
155 679 342 159 177 200 
155 679 343 158 176 199 
156 679 343 155 175 198 
159 673 345 131 149 171 
159 673 346 138 155 175 
159 673 347 140 157 177 
158 675 346 138 156 178 
158 675 347 138 155 176 
159 674 347 140 156 177 
159 675 347 138 154 175 
159 674 348 134 151 173 
159 675 348 125 146 170 
156 677 344 154 173 196 
156 677 345 144 165 190 
157 676 345 146 165 188 
157 677 345 135 158 182 
157 676 346 141 161 183 
157 677 346 128 152 178 
156 678 344 152 172 197 
156 678 345 139 164 191 
156 679 344 153 172 197 
156 679 345 151 172 197 
157 678 345 144 168 195 
157 679 345 151 173 199 
157 678 346 142 164 190 
157 678 347 140 160 183 
157 679 346 150 171 195 
157 679 347 141 161 184 
158 676 346 139 157 179 
158 676 347 141 159 180 
158 677 347 142 160 183 
158 678 347 144 162 184 
158 679 347 144 163 185 
158 676 348 147 162 183 
158 677 348 147 162 183 
159 676 348 144 161 181 
159 676 349 142 160 181 
159 677 348 148 163 183 
159 677 349 148 162 182 
158 678 348 148 163 184 
158 679 348 145 162 183 
159 678 349 150 164 183 
159 679 349 138 157 179 
159 679 350 133 153 175 
152 681 337 147 172 200 
152 681 338 146 172 201 
153 680 338 143 171 201 
153 680 339 133 164 195 
153 681 338 138 167 197 
153 681 339 127 160 193 
152 682 336 149 174 203 
152 682 337 147 172 200 
152 683 336 144 171 201 
153 682 337 148 172 199 
153 683 336 130 160 191 
153 683 337 145 169 197 
153 682 338 146 171 198 
154 680 339 133 164 194 
154 681 339 141 167 195 
154 683 337 143 166 193 
154 682 338 151 172 197 
154 682 339 154 173 197 
154 683 338 153 171 194 
154 683 339 157 173 195 
155 682 339 156 173 196 
155 683 339 157 173 194 
153 680 340 154 176 203 
154 680 340 153 177 203 
154 680 341 154 175 200 
154 681 340 150 173 200 
155 680 341 152 172 197 
155 681 340 149 171 196 
155 681 341 143 163 188 
155 680 342 155 173 197 
155 681 342 147 166 189 
155 682 340 147 165 189 
155 682 341 141 157 184 
155 683 340 159 172 192 
154 684 336 128 155 183 
154 684 337 139 162 188 
154 685 336 138 159 182 
155 684 337 140 161 185 
155 685 336 138 158 180 
155 685 337 137 157 180 
154 684 338 147 167 190 
155 684 338 141 161 185 
155 684 339 143 163 187 
155 685 338 134 155 179 
155 686 336 137 155 176 
155 686 337 134 152 174 
155 687 336 127 149 173 
156 680 342 152 171 195 
156 680 343 151 171 196 
156 681 342 144 163 187 
156 681 343 143 164 189 
157 681 343 147 167 189 
156 682 341 153 166 191 
156 683 340 157 170 190 
156 683 341 154 168 189 
156 682 342 155 171 196 
156 682 343 145 165 190 
156 683 342 144 162 185 
157 682 343 135 156 181 
157 683 343 138 157 179 
156 684 339 132 157 185 
156 685 338 131 152 177 
156 685 339 126 152 180 
156 686 337 135 151 172 
156 687 336 124 147 172 
156 687 337 131 149 172 
156 686 338 135 153 174 
156 686 339 134 153 176 
156 687 338 135 151 171 
156 687 339 134 151 173 
156 684 340 142 164 189 
156 684 341 137 158 182 
156 685 340 129 154 180 
156 685 341 134 154 176 
157 685 341 136 153 174 
156 684 342 136 156 180 
157 684 342 137 156 179 
157 684 343 141 158 179 
157 685 342 132 151 172 
157 685 343 132 150 173 
156 686 340 137 154 176 
156 686 341 142 156 177 
156 687 340 136 151 171 
157 686 341 142 156 176 
157 687 341 142 156 174 
157 686 342 132 149 169 
157 686 343 124 144 166 
157 687 342 132 148 167 
157 687 343 125 143 165 
156 680 344 150 170 194 
157 680 344 148 168 192 
157 680 345 148 168 192 
157 681 344 147 167 192 
157 681 345 147 167 191 
157 680 346 147 167 190 
157 681 346 147 166 190 
157 682 344 139 160 184 
157 682 345 143 163 186 
157 683 344 136 155 178 
157 683 345 137 157 180 
158 680 346 147 166 189 
158 680 347 144 163 186 
158 681 346 147 166 188 
158 681 347 145 163 185 
158 683 345 137 157 180 
158 682 346 142 160 183 
158 682 347 140 158 179 
158 683 346 132 151 175 
158 683 347 132 151 173 
158 680 348 142 161 185 
158 681 348 142 162 184 
159 680 349 133 155 180 
159 681 349 141 161 184 
159 680 350 132 154 180 
159 681 350 142 161 184 
158 682 348 141 158 180 
158 683 348 138 156 177 
159 682 349 141 158 180 
159 683 349 139 156 177 
159 682 350 137 155 177 
159 683 350 134 154 176 
157 684 344 136 154 176 
157 685 344 129 149 172 
157 686 344 120 141 165 
157 687 344 131 148 169 
158 684 344 135 154 176 
158 684 345 132 152 175 
158 685 344 128 149 173 
158 685 345 129 151 175 
158 684 346 131 151 174 
158 684 347 139 158 182 
158 685 346 130 152 176 
158 685 347 133 153 175 
158 686 344 130 150 173 
158 686 345 135 156 180 
158 687 344 129 148 170 
158 687 345 129 150 174 
158 686 346 126 149 174 
158 686 347 128 149 172 
158 687 346 125 148 173 
158 687 347 122 146 171 
158 684 348 136 154 176 
158 685 348 136 154 175 
159 684 348 137 153 174 
159 684 349 136 153 174 
159 685 348 138 154 175 
159 685 349 136 152 172 
159 684 350 132 150 172 
159 684 351 123 144 167 
159 685 350 128 146 167 
159 685 351 129 148 171 
158 686 348 132 151 173 
158 687 348 128 147 170 
159 686 348 137 154 174 
159 686 349 139 154 174 
159 687 349 136 152 171 
