ply
format ascii 1.0
comment Created by CloudCompare v2.10.1 (Zephyrus)
comment Created 1/31/20 10:02 AM
obj_info Generated by CloudCompare!
element vertex 1978
property float x
property float y
property float z
property uchar red
property uchar green
property uchar blue
end_header
105 603 292 106 123 146 
105 603 293 97 119 143 
105 602 294 89 116 149 
105 602 295 107 125 151 
105 603 294 73 104 138 
105 603 295 57 89 136 
106 602 292 104 122 146 
106 603 292 104 119 141 
106 604 291 87 99 127 
107 604 290 65 76 118 
107 604 291 72 84 119 
107 605 291 73 85 121 
107 606 291 82 94 128 
105 604 293 106 122 145 
105 605 293 94 107 138 
105 604 294 101 121 148 
105 604 295 74 97 140 
105 605 294 97 113 145 
105 605 295 102 119 152 
105 606 294 83 101 138 
105 606 295 89 106 144 
105 607 295 79 100 139 
106 604 292 95 108 133 
106 604 293 103 118 140 
106 605 292 86 100 129 
106 605 293 94 107 135 
107 605 292 75 90 121 
106 606 292 75 89 124 
106 606 293 87 102 132 
106 607 293 79 94 129 
107 606 292 77 92 127 
107 607 292 85 102 136 
107 607 293 80 94 131 
106 606 294 86 104 137 
106 607 294 90 106 137 
106 607 295 86 104 139 
108 601 288 52 63 109 
108 602 288 62 74 115 
108 602 289 55 69 114 
108 603 289 71 84 119 
109 602 288 79 91 122 
109 603 288 84 98 122 
108 603 290 67 79 117 
108 604 289 87 100 129 
109 604 288 85 101 121 
109 604 289 87 102 127 
109 605 289 94 107 126 
108 604 290 80 90 126 
108 605 290 87 98 128 
109 606 289 115 122 133 
108 606 290 94 108 131 
108 606 291 93 108 134 
108 607 291 89 109 134 
109 606 290 112 122 136 
109 607 290 123 129 139 
109 607 291 118 127 141 
110 604 288 93 105 120 
110 605 288 108 115 126 
110 605 289 111 117 128 
111 605 288 113 117 125 
110 606 289 123 126 135 
111 606 288 105 108 116 
111 606 289 111 114 122 
111 607 289 97 101 108 
110 606 290 125 129 138 
110 607 290 121 124 131 
111 607 290 111 112 117 
108 607 292 74 98 128 
104 600 296 164 164 171 
104 600 297 161 159 165 
104 601 296 163 163 172 
104 601 297 167 165 170 
104 601 298 163 160 164 
104 602 296 157 160 170 
104 602 297 164 164 172 
105 602 296 145 153 168 
105 602 297 148 155 168 
105 603 296 95 116 149 
105 603 297 107 127 154 
104 602 298 157 161 171 
104 602 299 140 148 164 
104 603 298 107 127 152 
104 603 299 67 97 142 
105 603 298 88 115 149 
104 602 300 111 124 150 
104 603 300 47 75 135 
105 604 296 57 83 136 
105 604 297 59 93 144 
105 605 296 89 109 148 
105 605 297 78 104 149 
104 604 299 24 66 137 
104 605 299 47 73 143 
105 604 298 46 88 145 
105 604 299 26 73 142 
105 605 298 72 100 150 
105 605 299 62 91 146 
105 606 296 106 122 153 
105 606 297 122 138 158 
105 607 296 85 104 144 
105 607 297 113 130 156 
105 606 298 135 146 163 
105 606 299 126 140 161 
105 607 298 143 152 167 
105 607 299 152 158 168 
106 607 296 80 98 140 
104 604 300 27 57 139 
104 604 301 34 64 141 
104 605 300 53 83 145 
104 605 301 63 86 142 
104 606 300 104 123 152 
104 606 301 119 132 156 
104 607 301 154 159 169 
105 606 300 125 138 159 
105 607 300 154 159 169 
105 607 301 155 159 169 
104 606 302 138 145 162 
104 607 302 152 158 169 
104 607 303 133 145 161 
97 592 304 141 150 162 
97 592 305 132 144 162 
97 592 306 122 132 160 
97 592 307 116 124 158 
98 592 304 141 150 163 
98 593 304 135 147 163 
98 593 305 128 141 160 
98 593 306 117 130 156 
98 593 307 115 126 156 
98 594 304 110 123 150 
98 594 305 119 132 157 
98 595 304 107 114 150 
98 595 305 115 123 157 
98 594 306 117 129 156 
98 594 307 117 126 156 
98 595 306 120 129 158 
98 595 307 120 127 156 
97 592 308 113 122 157 
97 592 309 106 118 158 
97 593 309 98 111 155 
97 592 310 95 109 156 
97 592 311 89 105 155 
97 593 310 95 109 155 
97 593 311 92 107 155 
98 593 308 111 121 154 
98 593 309 104 116 156 
98 593 310 99 112 156 
98 594 308 114 122 155 
98 594 309 111 121 157 
98 595 308 115 122 155 
98 595 309 105 117 154 
98 594 310 101 116 156 
98 594 311 83 102 151 
98 595 310 96 113 155 
98 595 311 86 106 152 
98 596 304 115 122 152 
98 596 305 117 126 154 
99 596 304 118 125 151 
99 597 304 126 133 150 
99 597 305 130 138 156 
98 596 306 115 125 157 
98 596 307 112 121 155 
99 597 306 120 130 156 
99 597 307 109 119 155 
99 598 304 128 136 153 
99 598 305 142 148 161 
99 599 304 123 132 152 
99 599 305 136 141 157 
99 598 306 141 146 164 
99 598 307 127 135 160 
99 599 306 157 159 169 
99 599 307 151 157 170 
98 596 308 106 116 154 
98 596 309 108 121 158 
98 597 309 123 139 167 
99 597 308 106 118 157 
99 597 309 123 137 166 
98 596 310 94 115 157 
98 596 311 79 101 153 
98 597 310 97 121 160 
98 597 311 67 94 150 
99 597 310 91 119 158 
99 597 311 57 90 146 
99 598 308 112 125 157 
99 598 309 112 131 161 
99 599 308 130 142 163 
99 599 309 106 125 157 
99 598 310 84 115 153 
99 598 311 80 109 152 
99 599 310 97 120 156 
99 599 311 115 133 164 
100 599 304 113 122 147 
96 592 313 92 107 156 
97 592 312 88 104 156 
97 592 313 89 105 156 
97 593 312 89 103 154 
97 593 313 90 106 156 
96 592 314 98 111 160 
96 592 315 78 91 155 
96 593 314 98 110 159 
96 593 315 99 110 159 
97 593 314 100 113 159 
97 593 315 111 121 163 
97 594 312 81 97 150 
97 594 313 89 105 154 
97 594 314 102 116 156 
97 594 315 116 126 164 
97 595 314 107 118 159 
97 595 315 115 124 166 
98 594 312 79 96 148 
98 594 313 89 105 153 
98 595 312 94 110 154 
98 595 313 99 112 155 
98 595 314 107 118 159 
98 595 315 110 119 163 
96 592 316 72 90 153 
96 592 317 86 104 157 
96 593 316 106 119 160 
96 593 317 79 97 145 
97 593 316 125 136 168 
96 593 318 66 90 148 
96 593 319 51 82 148 
96 594 317 90 108 147 
97 594 316 126 138 166 
97 594 317 113 129 159 
97 595 316 115 128 166 
97 595 317 94 113 158 
96 594 318 76 103 149 
96 594 319 50 84 143 
96 595 319 63 94 143 
97 595 318 83 109 154 
97 595 319 71 101 147 
98 596 312 97 111 157 
98 596 313 107 118 157 
98 597 312 91 107 153 
98 597 313 110 121 156 
99 597 312 81 101 150 
98 596 314 111 121 160 
98 596 315 103 115 160 
98 597 314 111 123 159 
98 597 315 96 113 156 
99 598 312 119 134 166 
99 598 313 113 124 157 
99 599 312 128 141 168 
99 599 313 115 126 158 
98 598 314 110 122 158 
98 598 315 100 116 157 
99 598 314 111 122 156 
99 598 315 109 122 161 
99 599 314 114 124 158 
99 599 315 115 127 164 
97 596 316 90 108 158 
97 596 317 81 102 154 
97 596 318 100 121 161 
97 596 319 83 108 147 
97 597 318 109 126 162 
97 597 319 101 120 156 
98 596 316 87 105 157 
98 596 317 67 88 149 
98 597 316 70 93 151 
98 597 317 72 96 151 
98 597 318 103 122 159 
98 598 316 89 109 157 
98 598 317 77 101 156 
99 598 316 101 118 162 
99 599 316 106 121 163 
99 599 317 72 94 156 
98 598 318 87 109 159 
98 598 319 96 115 164 
98 599 318 73 96 163 
98 599 319 75 98 167 
99 599 318 68 94 166 
99 600 305 140 144 158 
99 600 306 156 159 168 
99 600 307 161 165 175 
99 601 306 150 156 170 
99 601 307 155 162 177 
99 600 308 141 151 168 
99 600 309 107 125 156 
99 601 308 148 157 173 
99 601 309 122 134 163 
99 600 310 106 122 160 
99 600 311 118 131 165 
99 601 310 109 119 161 
99 601 311 107 117 163 
99 602 308 142 153 175 
99 602 309 135 146 172 
100 600 304 95 104 139 
100 600 305 116 121 147 
100 601 304 91 103 138 
100 601 305 121 130 151 
100 601 306 141 148 165 
100 601 307 145 154 173 
100 602 304 95 114 144 
100 602 305 115 129 155 
100 603 305 110 128 158 
101 602 304 95 114 145 
101 603 304 98 117 149 
101 603 305 107 127 156 
100 602 306 109 126 161 
100 602 307 123 136 172 
100 603 306 97 119 162 
100 603 307 106 126 169 
100 602 308 136 148 175 
100 602 309 131 140 170 
100 603 308 116 133 170 
100 603 309 116 128 167 
100 602 310 130 138 170 
100 602 311 130 140 173 
100 603 310 138 145 176 
100 603 311 160 168 187 
101 604 304 82 107 147 
101 604 305 99 121 156 
101 605 304 74 102 146 
101 605 305 75 101 147 
100 604 306 87 111 160 
100 604 307 70 99 158 
100 605 306 74 98 159 
100 605 307 75 101 164 
101 604 306 89 112 156 
101 605 306 80 103 156 
101 605 307 100 123 172 
101 606 306 91 118 159 
101 606 307 110 134 171 
101 607 306 98 125 161 
101 607 307 116 139 168 
102 605 304 55 86 140 
102 605 305 65 95 144 
102 606 304 58 83 137 
102 606 305 74 102 145 
102 607 304 70 85 141 
102 607 305 88 109 151 
103 606 304 54 71 128 
103 607 304 62 68 133 
102 607 306 101 125 161 
100 604 308 69 98 159 
100 604 309 90 108 167 
100 605 308 75 101 167 
100 605 309 80 100 170 
100 604 310 120 128 175 
100 604 311 151 160 185 
100 605 310 93 107 169 
100 605 311 138 149 182 
100 606 308 110 127 179 
100 606 309 106 126 176 
101 606 308 107 131 172 
101 606 309 121 144 179 
101 607 308 108 136 172 
101 607 309 125 149 182 
100 606 310 98 120 168 
100 606 311 120 137 176 
101 606 310 106 133 171 
101 606 311 79 103 162 
101 607 310 109 135 176 
101 607 311 65 89 163 
99 600 312 121 133 166 
99 600 313 112 123 162 
99 601 312 104 116 162 
99 601 313 103 115 162 
99 600 314 117 126 165 
99 600 315 121 132 168 
99 601 314 119 129 171 
99 601 315 126 137 175 
99 602 312 113 125 167 
99 602 313 111 124 167 
99 600 316 115 130 168 
99 600 317 92 113 167 
99 601 316 128 142 177 
99 601 317 125 143 182 
99 600 318 70 96 169 
99 600 319 66 92 169 
99 601 318 91 115 175 
99 601 319 78 101 173 
99 602 316 135 150 182 
99 602 317 142 159 188 
99 602 318 136 155 191 
99 602 319 96 120 174 
100 602 312 133 144 176 
100 602 313 133 146 178 
100 603 312 171 179 195 
100 603 313 169 178 197 
100 602 314 130 141 179 
100 602 315 132 143 183 
100 603 314 149 161 188 
100 603 315 134 145 186 
100 602 316 136 149 186 
100 602 317 154 170 196 
100 603 316 129 141 188 
100 603 317 147 163 197 
100 602 318 157 173 200 
100 602 319 129 149 187 
100 603 318 159 175 200 
100 603 319 149 166 196 
100 604 312 175 183 198 
100 604 313 186 193 206 
100 605 312 164 174 191 
100 605 313 169 177 196 
100 604 314 172 182 202 
100 604 315 145 158 192 
100 605 314 173 181 201 
100 605 315 162 172 199 
100 606 312 132 145 180 
100 606 313 142 151 183 
101 606 312 83 99 166 
101 606 313 119 126 175 
101 607 312 71 85 168 
101 607 313 114 119 178 
100 606 314 165 172 196 
100 606 315 165 172 199 
101 606 314 151 157 189 
101 606 315 151 157 192 
101 607 314 134 141 185 
101 607 315 117 129 180 
100 604 316 124 137 187 
100 604 317 115 132 183 
100 605 316 139 149 192 
100 605 317 118 128 182 
100 604 318 149 165 195 
100 604 319 156 172 198 
100 605 318 130 141 188 
100 605 319 145 156 195 
100 606 316 153 160 197 
100 606 317 134 140 188 
101 606 316 149 155 192 
101 606 317 142 146 189 
101 607 316 126 135 183 
101 607 317 138 144 186 
101 606 318 133 138 187 
101 606 319 126 133 186 
101 607 318 138 145 187 
101 607 319 137 144 189 
112 606 288 87 92 101 
112 607 288 76 83 92 
112 607 289 79 84 92 
113 606 288 74 82 92 
113 607 288 65 74 84 
114 607 288 51 63 75 
114 608 287 51 60 68 
115 608 287 53 59 67 
107 608 293 91 103 137 
107 609 293 101 115 144 
106 608 294 79 95 129 
106 608 295 87 103 137 
106 609 295 79 94 131 
107 609 294 85 101 135 
107 609 295 67 83 128 
107 610 294 88 108 141 
107 610 295 72 93 136 
109 608 291 112 123 138 
111 608 289 83 86 92 
110 608 290 116 117 123 
110 608 291 116 120 128 
110 609 291 93 101 113 
111 608 290 94 96 102 
111 609 290 68 75 84 
111 609 291 92 97 106 
110 610 291 57 73 88 
111 610 290 44 59 72 
111 610 291 31 54 72 
111 611 291 50 60 73 
108 608 292 66 92 125 
108 608 293 94 108 140 
108 609 292 63 91 120 
108 609 293 91 109 137 
109 608 292 94 112 132 
109 609 292 90 107 127 
108 610 293 84 107 135 
109 610 292 79 97 116 
109 610 293 70 92 118 
109 611 293 49 71 103 
108 610 294 90 111 142 
108 610 295 85 109 144 
108 611 294 74 99 132 
108 611 295 78 103 137 
109 611 294 62 84 116 
110 609 292 99 110 124 
110 610 292 57 75 94 
110 610 293 59 77 100 
110 611 292 53 68 83 
110 611 293 44 63 85 
111 610 292 37 57 75 
111 611 292 59 68 79 
111 612 291 63 71 82 
108 612 295 75 100 129 
109 612 294 48 70 97 
109 612 295 72 92 120 
109 613 294 42 64 84 
109 613 295 55 76 98 
109 614 295 61 75 89 
109 615 295 56 66 80 
110 612 292 62 73 84 
110 612 293 49 63 79 
110 613 293 62 74 86 
111 612 292 64 73 84 
110 612 294 33 57 80 
110 613 294 48 67 84 
110 614 294 65 79 93 
105 608 297 82 105 144 
105 608 298 102 121 151 
105 608 299 131 144 162 
105 609 298 64 92 139 
105 609 299 89 112 146 
106 608 296 85 100 142 
106 608 297 78 99 142 
106 609 296 91 103 142 
106 609 297 86 104 145 
106 609 298 73 97 142 
106 609 299 74 98 143 
106 610 296 78 95 137 
106 610 297 90 107 144 
106 611 297 90 106 141 
107 610 296 63 86 133 
107 610 297 77 97 137 
107 611 296 82 106 142 
107 611 297 86 106 142 
106 610 298 89 106 146 
106 610 299 77 99 145 
106 611 298 94 110 145 
106 611 299 94 111 151 
107 611 298 87 105 142 
107 611 299 90 108 147 
105 608 300 152 158 169 
105 608 301 163 164 172 
105 609 300 124 138 160 
105 609 301 152 158 172 
104 608 302 156 162 172 
104 608 303 113 125 154 
104 609 302 155 163 175 
104 609 303 96 112 152 
105 608 302 163 166 173 
105 609 302 159 164 175 
105 610 300 85 106 146 
105 610 301 114 130 158 
105 611 301 81 108 149 
104 610 303 81 93 152 
105 610 302 135 148 171 
105 610 303 114 132 165 
105 611 302 79 106 151 
105 611 303 67 89 149 
106 610 300 75 98 145 
106 611 300 83 105 151 
106 611 301 67 96 146 
106 611 302 46 82 139 
107 612 296 94 115 146 
107 612 297 104 122 151 
107 612 298 99 118 150 
107 612 299 88 110 148 
107 613 298 123 138 159 
107 613 299 110 128 153 
107 614 299 130 144 160 
105 612 303 33 69 139 
106 612 300 95 117 158 
106 612 301 88 111 157 
106 613 301 82 108 158 
107 612 300 91 115 153 
107 613 300 85 110 149 
107 613 301 76 105 154 
106 612 302 67 95 152 
106 612 303 52 84 147 
106 613 302 75 103 157 
106 613 303 65 95 153 
107 613 302 71 101 155 
107 614 300 106 127 153 
107 614 301 64 100 145 
107 615 301 92 118 152 
106 614 303 71 98 155 
107 614 302 61 95 150 
107 614 303 64 92 153 
107 615 302 49 81 144 
107 615 303 47 73 146 
108 611 296 88 112 143 
108 612 296 87 109 137 
108 612 297 102 122 147 
108 613 296 81 99 123 
108 613 297 103 120 143 
109 613 296 74 90 110 
108 613 298 129 142 159 
108 614 296 86 102 121 
108 614 297 98 113 130 
108 615 297 74 87 103 
109 614 296 74 87 104 
109 615 296 61 71 84 
109 615 297 69 80 94 
108 614 298 132 142 156 
108 614 299 142 151 165 
108 615 298 101 113 127 
108 615 299 132 140 154 
108 615 300 129 142 159 
108 615 301 106 126 155 
108 615 302 68 90 148 
107 616 303 39 59 139 
107 619 301 68 82 99 
107 620 303 78 80 108 
108 616 297 43 54 76 
109 616 297 43 57 75 
108 616 298 54 62 88 
108 616 299 72 83 105 
108 617 298 41 52 84 
108 617 299 44 55 87 
108 616 300 90 107 127 
108 616 301 80 103 134 
108 617 300 50 65 97 
108 617 301 75 95 123 
108 616 302 66 92 141 
108 616 303 39 64 135 
108 617 302 99 118 146 
108 617 303 68 96 137 
108 618 300 47 62 91 
108 618 301 50 69 100 
108 618 302 73 92 118 
108 618 303 94 115 137 
108 619 302 47 63 92 
108 619 303 67 84 107 
108 620 303 70 79 102 
101 608 307 120 140 169 
102 608 305 100 117 156 
103 608 304 73 65 138 
103 608 305 83 96 146 
103 609 304 79 70 140 
103 609 305 76 85 140 
102 608 306 108 128 161 
102 608 307 109 131 164 
102 609 306 97 118 159 
102 609 307 89 114 160 
103 609 306 88 110 150 
103 610 305 71 86 141 
102 610 307 73 98 159 
103 610 306 62 90 145 
103 610 307 66 89 156 
103 611 306 50 82 139 
103 611 307 67 91 152 
101 608 308 104 130 172 
101 608 309 104 131 177 
101 609 309 76 107 170 
101 608 310 92 118 174 
101 608 311 71 96 172 
101 609 310 64 95 167 
101 609 311 87 113 175 
102 609 308 83 111 167 
102 609 309 61 95 167 
102 609 310 74 103 170 
102 609 311 118 141 185 
102 610 308 69 95 163 
102 610 309 80 104 171 
102 611 309 105 124 177 
103 610 308 68 89 160 
103 611 308 79 96 160 
103 611 309 94 111 171 
102 610 310 121 143 186 
102 610 311 134 158 191 
102 611 310 125 148 187 
102 611 311 99 127 180 
103 611 310 111 133 181 
103 612 307 62 87 148 
103 612 308 78 95 158 
103 612 309 82 101 166 
103 613 309 69 92 162 
102 612 311 74 103 176 
103 612 310 85 112 175 
103 612 311 67 94 175 
103 613 310 60 90 169 
103 613 311 73 100 175 
103 614 310 80 107 173 
103 614 311 97 124 179 
101 608 312 93 109 178 
101 608 313 126 135 185 
101 609 312 108 129 180 
101 609 313 126 140 184 
101 608 314 123 134 182 
101 608 315 78 99 165 
101 609 314 121 135 180 
101 609 315 74 95 162 
102 609 312 109 131 179 
102 609 313 123 140 182 
102 609 314 122 136 179 
102 609 315 83 106 163 
102 610 312 101 127 177 
102 610 313 117 134 177 
102 611 312 71 100 172 
102 611 313 101 117 171 
102 610 314 125 142 179 
102 610 315 107 129 175 
102 611 314 122 139 181 
102 611 315 108 134 184 
101 608 316 92 110 171 
101 608 317 122 132 182 
101 609 316 87 105 169 
101 609 317 103 118 180 
101 608 318 132 137 185 
101 608 319 138 142 188 
101 609 319 132 135 188 
102 609 316 90 112 173 
102 609 317 96 110 182 
102 609 318 111 118 186 
102 609 319 125 129 187 
102 610 316 87 115 177 
102 610 317 72 99 181 
102 611 316 80 109 181 
102 611 317 60 94 179 
103 611 317 57 89 176 
102 610 318 92 111 182 
102 610 319 139 147 193 
102 611 318 97 119 182 
103 611 318 105 123 183 
103 611 319 160 172 201 
102 612 312 69 94 172 
102 612 313 82 99 161 
103 612 312 75 98 172 
103 612 313 70 89 156 
103 613 312 95 119 176 
103 613 313 71 100 159 
102 612 314 105 123 172 
103 612 314 105 124 177 
103 612 315 94 119 182 
103 613 314 88 110 171 
103 613 315 73 98 175 
103 614 312 119 146 186 
103 614 313 85 121 171 
103 614 314 77 108 174 
103 614 315 50 78 167 
103 612 316 62 87 175 
103 612 317 62 85 174 
103 613 316 49 71 164 
103 613 317 68 81 169 
103 612 318 117 133 186 
103 612 319 170 183 205 
103 613 318 113 130 183 
103 614 316 40 67 158 
104 609 304 81 74 143 
104 610 304 79 85 147 
104 610 305 78 97 145 
104 611 304 70 81 144 
104 611 305 65 87 140 
105 611 304 56 67 142 
104 611 306 57 85 140 
104 612 305 48 68 134 
105 612 304 31 61 138 
105 612 305 30 55 130 
105 613 304 44 74 146 
105 613 305 42 71 142 
104 612 306 75 88 146 
104 612 307 65 83 146 
104 613 306 88 92 157 
104 613 307 70 80 150 
105 613 306 60 73 147 
105 614 305 46 72 146 
105 614 306 40 64 145 
105 614 307 37 61 142 
105 615 307 39 68 143 
106 613 304 54 84 151 
106 613 305 46 77 146 
106 614 304 66 93 156 
106 614 305 53 82 149 
106 615 305 64 90 153 
107 615 304 46 77 149 
107 615 305 51 80 150 
106 614 306 46 71 147 
106 615 306 55 77 149 
106 615 307 57 80 150 
107 615 306 60 81 151 
104 612 308 61 82 150 
104 613 308 54 76 150 
104 613 309 69 92 161 
104 613 310 61 91 166 
104 614 308 36 66 145 
104 614 309 62 87 157 
105 614 308 45 72 146 
105 614 309 69 92 157 
105 615 308 61 85 151 
105 615 309 80 100 161 
104 614 310 83 108 169 
104 614 311 117 143 185 
104 615 310 96 118 173 
104 615 311 105 131 180 
105 615 310 81 106 166 
105 615 311 87 115 174 
106 615 308 71 93 154 
104 614 312 119 148 186 
104 614 313 87 122 178 
104 615 312 86 119 176 
104 615 313 63 98 173 
104 614 314 63 97 173 
104 614 315 43 71 159 
104 615 314 41 74 167 
104 615 315 66 82 158 
104 613 317 82 96 173 
104 613 318 126 142 190 
104 613 319 155 170 204 
104 614 316 72 89 161 
104 614 317 96 109 174 
104 615 316 111 126 171 
104 615 317 121 139 179 
105 615 316 131 150 179 
105 615 317 120 140 184 
104 614 318 107 125 185 
104 614 319 131 149 196 
105 614 319 127 145 194 
105 615 318 113 134 187 
105 615 319 141 157 198 
106 615 319 163 175 204 
107 616 304 29 57 140 
107 616 305 34 63 143 
106 616 307 77 95 158 
107 616 306 53 73 148 
107 616 307 69 87 152 
107 617 306 43 59 142 
107 617 307 50 70 141 
105 616 309 69 98 159 
105 616 310 60 93 163 
105 616 311 59 94 168 
105 617 311 61 92 167 
106 616 308 82 101 158 
106 616 309 72 98 155 
106 617 309 73 97 154 
107 616 308 73 93 153 
107 617 308 71 88 149 
107 617 309 76 97 153 
106 616 310 60 94 160 
106 617 310 62 92 158 
106 617 311 64 91 164 
107 618 308 58 79 143 
107 618 309 67 87 150 
107 619 309 58 77 145 
106 618 310 66 92 155 
106 618 311 63 82 158 
107 618 310 67 90 152 
107 618 311 59 79 154 
107 619 310 59 80 149 
107 619 311 55 73 151 
107 621 304 81 87 110 
107 621 305 99 104 120 
106 622 305 92 101 114 
106 623 307 101 115 134 
107 622 306 97 105 119 
107 622 307 96 105 120 
107 623 308 69 89 119 
108 616 304 29 52 134 
108 617 304 35 62 126 
108 617 305 41 56 134 
108 617 306 49 57 142 
108 618 304 95 114 139 
108 618 305 67 82 130 
108 619 304 110 121 136 
108 619 305 133 143 156 
108 618 306 58 69 138 
108 618 307 39 58 139 
108 619 306 115 129 156 
108 619 307 78 89 147 
108 618 308 46 73 142 
108 619 308 64 86 148 
108 619 309 57 82 145 
108 619 310 46 70 143 
108 619 311 44 63 144 
108 620 304 93 100 117 
108 620 305 116 122 134 
108 621 305 107 112 125 
108 620 306 132 140 152 
108 620 307 119 125 156 
108 621 306 113 118 129 
108 621 307 118 125 143 
108 622 307 97 108 125 
108 620 308 94 107 151 
108 620 309 64 90 146 
108 621 308 104 117 147 
108 621 309 82 100 146 
108 620 310 41 67 140 
108 620 311 43 57 140 
108 621 310 52 71 136 
108 621 311 59 65 138 
108 622 308 93 105 131 
108 622 309 80 95 134 
108 623 309 75 92 127 
108 622 310 60 69 125 
108 622 311 58 66 125 
108 623 310 66 86 124 
108 623 311 59 83 121 
109 622 311 55 62 117 
109 623 311 54 72 117 
104 616 313 25 67 168 
105 616 312 42 83 168 
105 616 313 37 62 166 
105 617 312 56 80 166 
105 617 313 45 61 163 
104 616 314 25 54 161 
104 616 315 61 74 151 
105 616 314 29 50 159 
105 616 315 102 117 165 
105 617 314 45 57 158 
105 617 315 115 131 171 
105 618 314 66 73 162 
105 618 315 131 144 178 
106 617 312 68 90 167 
106 618 312 56 73 159 
106 618 313 51 68 158 
106 619 313 72 86 157 
107 618 312 45 71 153 
107 619 312 59 78 155 
107 619 313 79 93 160 
106 618 314 88 94 168 
106 618 315 145 157 185 
106 619 314 109 116 175 
106 619 315 152 164 188 
107 619 314 115 119 177 
105 616 316 145 163 185 
105 616 317 117 140 184 
105 617 316 154 172 192 
105 617 317 113 137 182 
105 616 318 108 126 185 
106 617 317 85 113 177 
106 616 318 97 112 181 
106 616 319 147 151 195 
106 617 318 75 88 175 
106 617 319 122 124 183 
106 618 316 159 174 192 
106 618 317 107 130 176 
106 619 316 169 180 195 
106 619 317 144 161 187 
106 618 318 69 90 170 
106 618 319 82 85 172 
106 619 318 102 127 177 
107 618 318 62 79 166 
107 618 319 98 102 174 
107 619 318 94 117 174 
107 619 319 76 86 168 
107 620 312 80 90 155 
107 620 313 102 111 167 
107 621 313 121 131 176 
107 620 314 126 132 182 
107 620 315 160 173 193 
107 621 314 125 134 181 
107 621 315 153 165 192 
106 620 316 177 186 199 
107 620 316 176 186 199 
107 620 317 163 177 195 
107 621 316 170 180 198 
107 621 317 171 182 197 
107 620 318 126 146 182 
107 620 319 94 110 171 
107 621 318 154 170 192 
107 622 316 159 170 194 
108 620 312 69 77 149 
108 621 312 78 80 150 
108 621 313 95 104 161 
108 621 314 118 127 175 
108 622 312 77 82 138 
108 622 313 87 88 151 
109 622 312 62 73 123 
109 623 312 55 68 118 
109 623 313 68 75 129 
108 622 314 105 112 169 
108 622 315 127 139 183 
108 623 314 81 80 148 
108 623 315 105 116 172 
109 623 314 79 81 148 
109 623 315 89 99 160 
108 620 319 96 113 171 
108 621 318 148 165 191 
108 621 319 119 137 180 
108 622 316 140 153 189 
108 622 317 153 167 193 
108 623 316 117 133 182 
108 623 317 120 139 184 
108 622 318 160 175 197 
108 622 319 143 163 191 
108 623 318 131 148 187 
109 622 319 140 162 190 
109 623 318 133 152 188 
109 623 319 138 158 190 
108 624 310 64 93 130 
108 624 311 59 90 129 
108 625 312 89 119 150 
109 624 312 56 84 123 
109 624 313 51 69 121 
109 625 313 55 87 129 
109 624 314 61 74 133 
109 624 315 80 100 151 
109 625 314 45 62 121 
109 625 315 76 90 139 
109 626 315 56 70 125 
109 624 316 104 124 172 
109 624 317 115 135 183 
109 625 316 101 120 159 
109 625 317 113 134 173 
109 624 318 110 132 181 
109 624 319 117 138 181 
109 625 318 111 130 178 
109 625 319 106 125 178 
110 625 318 117 132 179 
110 625 319 111 127 180 
110 626 316 80 94 142 
110 626 317 111 124 166 
110 627 317 81 95 149 
110 626 318 121 135 179 
110 626 319 116 131 181 
111 626 319 121 137 182 
111 627 318 133 146 181 
111 627 319 130 145 184 
112 608 289 75 78 86 
112 609 289 63 68 77 
113 608 288 61 68 78 
113 608 289 65 69 77 
113 609 288 51 57 65 
113 609 289 54 60 69 
112 610 289 37 50 66 
113 610 289 36 49 62 
112 610 290 38 52 67 
112 611 290 39 53 68 
112 611 291 49 58 70 
114 608 288 51 60 70 
114 609 288 51 58 67 
92 588 320 77 101 152 
92 588 321 83 107 156 
93 588 320 80 103 153 
93 589 320 96 116 157 
93 589 321 95 115 158 
92 589 322 99 120 157 
92 589 323 101 122 161 
93 589 322 104 124 159 
93 590 320 117 131 165 
93 590 321 121 134 167 
92 590 323 110 130 162 
93 590 322 118 134 162 
93 590 323 110 128 160 
93 591 322 111 129 160 
93 591 323 97 116 155 
94 589 320 117 132 164 
94 590 320 121 133 165 
94 590 321 127 139 169 
94 591 320 114 127 162 
94 591 321 120 133 163 
95 591 320 105 118 160 
94 591 322 111 127 160 
92 590 324 110 132 164 
92 590 325 111 132 164 
93 590 324 109 128 161 
93 591 324 113 130 161 
93 591 325 126 141 169 
92 591 326 116 134 163 
92 591 327 113 131 167 
93 591 326 120 134 162 
94 592 321 106 123 161 
95 592 320 89 104 157 
95 592 321 95 112 158 
95 593 320 65 89 152 
95 593 321 84 102 158 
94 592 322 96 113 156 
94 592 323 77 98 148 
94 593 322 75 91 149 
94 593 323 80 95 150 
95 593 322 85 98 155 
95 594 320 52 84 151 
95 594 321 74 96 156 
95 594 322 85 97 156 
95 594 323 77 90 153 
95 595 322 89 104 159 
95 595 323 89 105 158 
93 592 324 117 135 162 
93 592 325 142 154 174 
92 592 327 130 141 175 
93 592 326 132 142 164 
93 592 327 146 153 180 
93 593 326 136 143 165 
93 593 327 149 153 180 
93 594 327 141 146 183 
94 592 324 123 140 163 
94 593 324 129 142 166 
94 593 325 146 156 176 
94 593 326 139 147 167 
94 594 324 117 130 165 
94 594 325 125 137 170 
95 594 324 93 109 158 
95 594 325 116 128 166 
95 595 324 112 124 164 
95 595 325 135 143 173 
94 594 326 133 141 174 
94 594 327 134 141 179 
94 595 327 134 140 176 
95 595 326 143 148 176 
95 595 327 138 143 177 
95 596 324 141 145 170 
95 596 325 156 158 180 
95 596 326 160 162 184 
95 596 327 132 138 176 
95 597 326 157 161 183 
95 597 327 135 144 180 
92 592 328 116 129 176 
92 593 329 140 153 193 
93 592 328 138 146 180 
93 593 328 150 157 187 
93 593 329 151 161 192 
92 593 330 115 132 189 
93 593 330 140 151 192 
93 593 331 119 132 192 
93 594 328 148 155 189 
93 594 329 168 174 196 
93 594 330 174 179 198 
93 594 331 172 178 200 
94 594 328 147 156 185 
94 594 329 176 181 198 
94 595 328 143 152 179 
94 595 329 184 186 200 
94 594 330 190 192 205 
94 594 331 187 190 204 
94 595 330 205 205 212 
94 595 331 202 202 212 
93 594 332 176 183 206 
94 594 332 192 196 210 
94 594 333 200 204 216 
94 595 332 190 191 203 
94 595 333 196 199 210 
95 595 333 187 191 205 
95 595 334 194 196 214 
95 595 335 186 188 208 
94 596 329 197 196 206 
95 596 328 132 143 177 
95 596 329 181 183 199 
95 597 328 125 138 175 
95 597 329 177 181 200 
94 596 330 211 209 215 
94 596 331 212 210 218 
95 596 330 212 209 215 
95 596 331 214 211 218 
95 597 330 212 209 215 
95 597 331 214 211 218 
95 598 330 213 211 217 
95 596 332 202 203 214 
95 596 333 176 182 204 
95 597 332 209 210 221 
95 597 333 173 180 206 
95 596 334 170 174 205 
96 594 320 47 83 147 
96 594 321 70 96 156 
96 595 320 72 99 151 
96 595 321 71 97 155 
96 595 322 85 103 157 
96 595 323 90 106 160 
96 596 320 84 108 154 
96 596 321 71 95 153 
97 596 320 86 108 151 
97 596 321 74 99 154 
97 597 320 86 108 155 
97 597 321 65 88 155 
96 596 322 82 101 157 
96 596 323 97 113 157 
96 597 322 83 101 158 
96 597 323 99 116 155 
97 597 322 71 89 156 
97 597 323 91 106 155 
97 598 320 81 103 158 
97 598 321 53 79 155 
97 598 322 58 77 150 
97 598 323 96 110 155 
97 599 323 107 123 168 
98 598 320 69 92 159 
98 598 321 47 77 155 
98 599 320 58 83 161 
98 599 321 58 85 159 
98 598 322 38 70 151 
98 599 322 85 106 164 
98 599 323 123 139 179 
96 596 324 133 140 167 
96 596 325 159 161 180 
96 597 324 138 146 168 
96 597 325 161 165 180 
96 597 326 163 166 183 
96 597 327 134 145 180 
96 598 324 145 151 171 
96 598 325 160 165 181 
97 598 324 128 140 165 
97 598 325 147 156 178 
97 599 324 125 139 175 
97 599 325 130 144 178 
96 598 326 159 167 186 
96 598 327 143 154 187 
97 598 326 150 159 183 
97 599 326 126 140 180 
97 599 327 134 148 193 
98 599 324 126 141 179 
96 595 335 193 195 211 
96 597 331 212 211 218 
96 598 328 125 139 183 
96 598 329 162 169 199 
96 599 328 138 151 196 
96 599 329 155 165 201 
97 599 328 136 150 198 
97 599 329 146 159 198 
96 598 330 205 205 214 
96 598 331 209 210 219 
96 599 330 198 201 213 
96 599 331 205 208 220 
97 599 330 193 197 213 
97 599 331 199 204 217 
96 597 332 206 209 222 
96 597 333 168 176 208 
96 596 334 166 170 203 
96 596 335 195 197 212 
96 597 334 142 147 195 
96 597 335 187 188 210 
97 597 334 155 156 199 
97 597 335 193 195 214 
96 598 332 200 206 220 
96 598 333 167 178 210 
96 599 332 196 203 218 
97 598 333 153 166 204 
97 599 332 182 193 211 
97 599 333 173 184 209 
96 598 334 129 137 191 
97 598 334 147 150 195 
97 598 335 182 184 209 
97 599 334 164 170 206 
98 598 335 188 195 215 
98 599 334 161 171 204 
98 599 335 172 184 212 
99 599 335 168 184 215 
98 600 320 63 87 165 
98 600 321 87 106 171 
99 600 320 77 97 170 
99 601 320 99 115 180 
99 601 321 109 124 184 
98 600 322 122 138 185 
98 600 323 135 150 191 
98 601 322 125 141 192 
98 601 323 116 132 188 
99 601 322 112 131 187 
99 601 323 110 129 187 
99 602 320 82 109 170 
99 602 321 99 122 180 
99 603 321 100 123 180 
99 602 322 121 144 195 
99 602 323 125 144 195 
99 603 322 110 136 189 
99 603 323 120 142 191 
97 600 325 112 127 177 
97 600 326 113 130 184 
97 600 327 124 143 193 
98 600 324 125 137 185 
98 600 325 116 128 184 
98 601 324 110 123 185 
98 601 325 115 131 186 
98 600 326 108 125 183 
98 601 326 118 137 189 
98 601 327 133 154 200 
98 602 325 122 142 190 
99 602 324 119 135 190 
99 602 325 122 138 190 
99 603 324 137 152 195 
99 603 325 122 137 188 
98 602 326 111 135 189 
98 602 327 121 144 199 
99 602 326 102 128 188 
99 602 327 116 140 196 
99 603 326 120 141 188 
99 603 327 141 159 200 
99 604 326 153 168 198 
99 604 327 175 188 211 
100 603 320 110 132 180 
100 603 321 83 106 169 
100 603 322 94 124 180 
100 603 323 115 138 187 
100 604 320 142 158 193 
100 604 321 119 133 182 
100 605 320 143 153 192 
100 605 321 140 148 191 
100 604 322 115 136 183 
100 604 323 139 158 193 
100 605 322 144 154 193 
100 605 323 160 172 198 
100 606 321 138 145 191 
101 606 320 124 131 185 
101 606 321 130 139 190 
101 607 320 129 137 188 
101 607 321 122 133 187 
100 606 322 141 148 192 
100 606 323 149 160 192 
101 606 322 138 147 193 
101 606 323 140 151 191 
101 607 322 129 139 190 
101 607 323 134 144 191 
100 604 324 147 163 194 
100 604 325 137 151 190 
100 605 324 159 171 198 
100 605 325 140 152 191 
100 604 326 146 162 193 
100 604 327 187 197 214 
100 605 326 151 164 195 
100 605 327 185 194 210 
100 606 324 151 162 196 
100 606 325 135 145 190 
101 606 324 142 153 193 
101 606 325 131 141 188 
101 607 324 135 145 192 
101 607 325 133 142 189 
100 606 326 141 153 190 
100 606 327 179 188 205 
101 606 326 135 144 189 
101 606 327 167 177 200 
101 607 326 129 139 187 
101 607 327 153 164 196 
97 600 328 136 155 199 
97 600 329 139 154 198 
97 601 328 147 167 206 
97 601 329 133 147 198 
97 600 330 176 183 208 
97 600 331 184 192 211 
97 601 330 150 157 199 
97 601 331 165 176 206 
98 601 328 146 164 209 
98 601 329 135 145 200 
98 601 330 142 149 198 
98 601 331 153 165 203 
98 602 328 137 156 206 
98 602 329 128 139 199 
99 602 328 130 150 202 
99 602 329 124 140 198 
99 603 328 153 169 207 
99 603 329 145 161 204 
98 602 330 132 140 195 
98 602 331 142 153 199 
99 602 330 128 140 195 
99 602 331 143 154 202 
99 603 330 129 144 195 
99 603 331 146 159 203 
97 600 332 176 188 208 
97 600 333 184 194 211 
98 600 333 190 200 217 
98 601 332 163 177 207 
98 601 333 172 185 213 
99 601 333 147 164 207 
98 600 334 180 194 218 
98 601 334 168 184 216 
99 600 334 169 186 220 
99 600 335 152 172 214 
99 601 334 135 155 207 
99 601 335 137 158 214 
98 602 332 142 156 201 
99 602 332 141 152 200 
99 602 333 135 151 201 
99 603 332 155 167 205 
99 604 328 183 196 217 
99 604 329 173 187 212 
99 604 330 138 154 197 
100 601 334 93 117 193 
100 601 335 102 127 200 
100 602 333 147 161 202 
100 603 332 168 178 209 
100 603 333 180 189 212 
100 602 334 126 143 196 
100 602 335 123 141 199 
100 603 334 187 195 215 
101 602 335 162 176 212 
101 603 334 199 203 218 
101 603 335 203 208 222 
102 603 335 215 216 225 
100 604 328 192 201 216 
100 604 329 184 195 214 
100 605 328 196 201 214 
100 605 329 192 200 215 
100 604 330 146 162 199 
100 604 331 157 169 204 
100 605 330 152 167 199 
100 605 331 152 167 199 
101 605 331 168 181 206 
100 606 328 196 202 213 
100 606 329 195 201 215 
101 606 328 193 199 213 
101 606 329 194 201 215 
101 607 328 186 195 212 
101 607 329 195 203 217 
100 606 330 178 189 210 
101 606 330 152 165 197 
101 606 331 136 149 190 
101 607 330 162 172 201 
102 607 329 188 196 214 
102 607 330 157 167 200 
102 607 331 132 144 193 
100 604 332 183 192 213 
100 604 333 198 203 216 
100 605 332 186 196 214 
101 604 333 202 204 215 
101 605 332 191 198 214 
101 605 333 198 201 214 
101 604 334 209 209 219 
101 605 334 204 206 217 
101 606 332 181 189 210 
101 606 333 195 200 214 
102 604 335 210 210 220 
102 605 334 204 206 219 
102 605 335 203 205 218 
103 605 335 206 208 220 
102 606 332 168 176 205 
102 606 333 195 200 215 
102 607 332 151 164 203 
102 607 333 179 188 211 
103 607 333 179 187 210 
102 606 334 204 206 218 
103 606 334 207 210 221 
103 606 335 201 206 219 
103 607 334 197 203 217 
104 606 335 186 197 218 
104 607 334 190 200 220 
104 607 335 173 187 215 
105 607 335 127 149 200 
96 596 336 209 210 218 
97 596 336 208 210 219 
97 596 337 203 208 222 
97 597 336 202 207 220 
98 596 337 184 196 220 
98 597 336 194 202 220 
98 597 337 157 173 211 
98 596 338 130 151 202 
98 597 338 104 129 198 
99 596 338 60 92 186 
99 597 338 83 111 196 
99 597 339 74 104 192 
98 598 336 186 198 220 
98 598 337 145 162 204 
99 598 336 174 189 219 
99 598 337 117 140 199 
99 599 336 177 194 228 
99 599 337 153 173 219 
99 598 338 90 118 198 
100 597 338 95 128 200 
100 597 339 80 111 190 
100 599 337 132 157 215 
100 598 338 92 128 199 
100 598 339 101 133 202 
100 599 338 95 127 201 
101 598 339 90 123 196 
101 599 338 77 112 194 
101 599 339 79 111 192 
102 599 339 104 129 198 
100 597 340 82 106 186 
101 597 340 91 114 187 
101 598 340 90 121 194 
102 597 341 98 126 188 
102 598 340 87 122 190 
102 598 341 106 136 193 
102 599 340 100 130 195 
102 599 341 102 132 194 
103 598 341 113 137 192 
103 599 340 108 138 197 
103 599 341 113 137 195 
99 600 336 148 169 216 
100 600 336 121 146 210 
100 600 337 104 132 206 
100 601 336 87 119 201 
101 600 337 76 107 198 
101 601 336 104 132 202 
101 601 337 84 116 198 
101 600 338 78 105 195 
101 601 338 70 97 192 
101 602 336 167 184 218 
102 601 337 115 139 202 
102 600 338 82 104 188 
102 600 339 106 131 197 
102 601 338 80 104 188 
102 601 339 68 96 177 
103 601 338 89 110 189 
103 601 339 84 112 190 
102 602 336 192 205 227 
102 602 337 163 182 216 
102 603 336 213 218 230 
102 603 337 201 211 228 
103 603 337 196 209 228 
102 602 338 128 151 204 
103 602 338 128 153 207 
103 602 339 111 140 206 
103 603 338 157 178 216 
102 600 340 109 139 199 
103 600 340 104 134 197 
103 600 341 114 140 200 
103 601 340 98 130 197 
102 604 336 216 218 227 
103 604 336 213 216 227 
103 604 337 197 209 228 
103 605 336 208 213 225 
104 602 339 111 141 208 
104 603 338 123 149 207 
104 603 339 117 146 209 
105 603 339 112 139 203 
104 601 340 99 129 198 
104 602 340 96 125 201 
104 604 337 151 172 211 
104 605 336 195 206 226 
104 605 337 139 159 205 
104 604 338 112 138 197 
104 605 338 106 129 193 
105 604 338 121 146 207 
105 604 339 136 158 207 
105 605 338 136 158 209 
104 606 336 166 181 215 
104 606 337 119 139 197 
105 606 336 107 129 198 
105 606 337 128 148 206 
105 607 336 110 134 200 
105 607 337 126 147 208 
105 606 338 149 168 215 
106 605 338 163 181 217 
106 607 337 139 159 211 
106 606 338 167 183 218 
106 607 338 169 183 217 
101 608 320 139 144 189 
101 608 321 132 139 188 
101 609 320 139 141 187 
101 609 321 137 141 188 
101 608 322 121 130 185 
101 608 323 122 131 187 
101 609 322 129 136 188 
101 609 323 120 130 186 
102 609 320 138 141 188 
102 609 321 140 144 189 
102 609 322 131 138 188 
102 609 323 126 135 188 
102 610 320 151 156 196 
102 610 321 138 145 190 
103 611 320 177 188 209 
103 611 321 155 169 203 
102 610 322 132 139 190 
102 610 323 135 141 194 
103 611 322 122 134 194 
103 611 323 119 125 193 
101 608 324 130 138 191 
101 608 325 131 139 191 
101 609 324 128 136 191 
101 609 325 132 139 193 
101 608 326 132 140 192 
101 608 327 141 152 193 
102 609 324 126 134 191 
102 609 325 132 139 195 
102 608 327 143 155 195 
102 609 326 132 138 193 
102 609 327 138 147 195 
102 610 324 133 139 195 
102 610 325 128 135 195 
103 610 324 142 145 200 
103 610 325 135 139 197 
103 611 324 135 139 197 
103 611 325 138 141 197 
102 610 326 130 138 194 
102 610 327 138 147 196 
103 610 326 120 128 191 
103 610 327 131 142 196 
103 611 326 125 131 193 
103 611 327 125 137 195 
103 612 320 188 200 216 
103 612 321 144 163 207 
101 608 328 176 188 211 
101 608 329 192 201 217 
102 608 328 164 176 206 
102 608 329 189 197 216 
102 609 328 151 162 200 
102 609 329 172 182 210 
103 609 329 164 177 210 
102 608 330 163 174 206 
102 608 331 135 151 201 
102 609 330 168 180 209 
103 608 331 125 144 199 
103 609 330 150 166 205 
103 609 331 137 156 206 
102 610 328 142 153 198 
103 610 328 138 151 199 
103 610 329 135 148 198 
103 611 328 132 145 199 
103 610 330 124 141 195 
103 610 331 133 152 204 
102 608 332 130 145 199 
103 608 332 126 141 199 
103 608 333 136 151 193 
103 609 332 113 132 198 
103 608 334 149 163 192 
104 611 326 130 134 193 
104 611 327 124 136 193 
104 612 320 176 192 216 
104 612 321 130 150 205 
104 613 320 155 171 211 
104 613 321 120 140 203 
105 613 321 109 130 199 
104 612 322 77 91 187 
104 612 323 69 79 183 
104 613 322 66 79 185 
104 613 323 51 65 179 
105 613 322 85 101 189 
105 613 323 55 74 178 
105 614 320 145 163 206 
105 614 321 155 172 211 
105 615 320 179 191 214 
105 615 321 191 203 221 
105 614 322 119 134 197 
105 614 323 71 87 181 
106 615 320 193 199 215 
106 615 321 197 204 218 
106 614 323 90 100 182 
106 615 322 178 188 213 
106 615 323 140 151 199 
107 615 323 144 158 201 
104 612 324 105 112 190 
104 612 325 139 148 196 
105 613 324 99 113 186 
105 613 325 155 168 204 
104 612 326 133 142 193 
104 612 327 128 138 194 
105 612 327 130 141 194 
105 613 326 153 166 202 
105 613 327 135 146 194 
105 614 324 94 111 182 
105 614 325 145 156 199 
106 614 324 94 106 181 
106 614 325 158 168 204 
106 615 324 101 118 183 
106 615 325 130 146 193 
107 615 324 120 135 191 
107 615 325 130 146 194 
106 614 326 179 189 213 
106 614 327 154 167 201 
106 615 326 181 191 214 
106 615 327 177 189 213 
107 615 326 178 187 212 
107 615 327 186 195 215 
104 610 329 126 138 197 
104 611 328 124 137 195 
104 611 329 125 137 198 
104 610 330 122 135 194 
104 610 331 142 160 208 
104 611 330 126 137 196 
104 611 331 136 150 200 
105 611 330 125 135 196 
105 611 331 142 155 207 
104 608 333 116 134 184 
104 609 332 107 129 196 
104 609 333 102 122 192 
105 609 333 90 117 190 
104 608 334 131 150 192 
104 609 334 73 100 177 
105 608 334 112 135 190 
105 608 335 111 134 196 
105 609 334 89 115 188 
105 609 335 99 123 194 
104 610 332 141 162 211 
105 610 332 139 163 211 
105 610 333 108 137 198 
105 611 332 141 161 213 
105 611 333 125 151 207 
105 610 334 107 134 198 
106 609 335 108 132 202 
106 611 333 124 151 208 
106 610 334 105 135 200 
106 610 335 108 134 203 
106 611 334 109 138 203 
107 610 335 112 138 207 
107 611 334 99 128 201 
107 611 335 112 139 207 
104 612 328 122 135 194 
104 612 329 112 127 194 
105 612 328 125 136 195 
105 612 329 108 121 192 
105 613 328 127 139 194 
105 613 329 111 123 191 
105 612 330 105 116 192 
105 612 331 106 116 193 
105 613 330 99 111 188 
106 613 329 118 129 193 
106 612 331 100 113 192 
106 613 330 100 110 187 
106 613 331 99 112 189 
106 614 328 134 147 194 
106 614 329 123 133 193 
107 615 328 165 177 207 
107 615 329 125 143 194 
106 614 330 113 123 191 
106 614 331 102 116 188 
107 614 330 116 126 191 
107 614 331 109 125 190 
107 615 330 109 123 189 
107 615 331 102 116 185 
105 612 332 122 140 203 
106 612 332 115 135 201 
106 612 333 123 148 209 
106 613 332 124 143 205 
107 612 333 112 138 205 
107 613 332 122 145 206 
107 613 333 111 138 202 
106 612 334 108 136 203 
107 612 334 93 124 198 
107 613 334 98 127 197 
107 614 332 125 144 199 
107 614 333 120 145 201 
108 611 335 108 138 206 
108 615 330 93 112 187 
108 615 331 107 121 183 
108 612 335 99 136 202 
108 613 334 127 155 206 
108 613 335 125 158 207 
108 614 332 148 166 206 
108 614 333 153 173 208 
108 615 332 165 177 208 
108 615 333 193 204 220 
109 615 333 200 206 220 
108 614 334 175 190 215 
109 614 334 192 202 218 
109 615 334 198 203 216 
106 616 320 185 187 205 
106 616 321 200 202 213 
106 617 320 175 176 198 
107 616 321 204 206 215 
107 617 320 168 168 194 
107 617 321 198 198 210 
106 616 322 204 208 219 
107 616 322 202 207 221 
107 616 323 184 194 217 
107 617 322 204 207 217 
107 617 323 202 208 222 
107 618 320 151 151 188 
107 618 321 187 188 203 
107 619 320 124 126 178 
107 616 324 150 163 204 
107 616 325 127 141 192 
107 616 326 173 183 209 
107 616 327 190 198 216 
108 617 322 205 208 219 
108 617 323 199 205 220 
108 618 321 193 195 207 
108 619 320 135 137 182 
108 619 321 179 180 199 
108 618 322 201 203 213 
108 618 323 203 206 217 
108 619 322 198 199 210 
109 619 322 198 200 211 
109 619 323 203 204 214 
108 616 325 125 141 191 
108 617 324 179 188 214 
108 617 325 142 154 199 
108 616 326 167 179 207 
108 616 327 186 196 214 
108 617 326 158 173 202 
108 617 327 186 196 216 
109 617 327 185 196 215 
108 618 324 194 200 218 
108 618 325 174 184 210 
109 618 324 200 206 220 
109 618 325 167 178 207 
109 619 324 202 206 218 
109 619 325 189 197 217 
109 618 326 146 162 195 
109 618 327 176 189 211 
109 619 326 139 153 192 
109 619 327 151 166 199 
110 619 324 201 205 220 
110 619 325 184 192 216 
110 619 326 132 142 192 
110 619 327 146 159 202 
108 620 320 109 119 174 
108 620 321 152 157 189 
108 621 320 98 116 172 
109 620 321 161 165 193 
109 621 320 93 111 169 
109 621 321 133 143 182 
109 620 322 191 194 208 
109 621 322 169 175 198 
109 622 320 111 134 178 
109 622 321 100 121 172 
109 623 320 125 149 185 
110 620 322 195 199 212 
110 620 323 196 200 214 
110 621 322 169 178 201 
110 621 323 171 180 207 
111 621 323 150 164 200 
110 622 321 96 118 170 
110 623 320 119 145 182 
110 623 321 99 124 174 
110 622 322 124 140 182 
110 623 322 86 108 168 
111 622 322 103 122 177 
111 622 323 126 142 188 
111 623 322 85 107 167 
111 623 323 105 125 175 
110 620 324 187 195 216 
110 620 325 169 181 212 
111 620 325 148 163 207 
111 621 324 151 166 202 
111 621 325 149 164 205 
110 620 326 125 135 195 
110 620 327 112 124 193 
111 620 326 122 135 198 
111 620 327 113 125 195 
111 621 326 144 159 204 
111 621 327 134 149 199 
111 622 324 146 162 199 
111 622 325 168 180 210 
108 616 328 175 188 211 
108 616 329 137 159 201 
108 617 328 177 191 212 
108 617 329 134 158 199 
109 617 328 177 191 212 
109 617 329 134 159 198 
108 616 330 79 102 182 
108 616 331 86 99 172 
108 617 330 81 112 181 
109 616 331 104 115 172 
109 617 330 58 86 169 
109 617 331 79 83 162 
109 618 328 178 192 214 
109 618 329 141 166 201 
109 618 330 77 106 173 
110 619 328 160 175 212 
110 619 329 132 158 202 
110 618 330 108 134 188 
110 618 331 111 121 182 
110 619 330 117 142 197 
111 619 330 111 138 198 
111 619 331 115 136 194 
108 616 332 154 165 196 
109 616 332 174 182 205 
109 616 333 200 205 219 
109 617 332 157 164 197 
109 616 334 200 204 217 
110 616 333 202 206 220 
110 617 332 172 179 207 
110 617 333 197 203 219 
110 618 332 136 144 188 
111 618 332 130 145 191 
111 619 332 117 137 190 
111 620 328 126 143 200 
111 620 329 122 147 201 
111 621 328 149 166 207 
111 621 329 157 178 212 
111 620 330 107 137 198 
111 620 331 108 132 196 
111 621 330 140 166 205 
105 608 336 108 132 200 
106 608 336 122 145 207 
106 608 337 142 163 212 
106 609 336 120 144 206 
107 608 337 160 177 216 
107 609 336 126 149 208 
107 609 337 163 180 217 
107 610 336 117 140 205 
108 610 336 92 119 192 
109 624 320 127 149 187 
110 624 320 119 142 184 
110 624 321 108 132 180 
110 625 320 106 127 179 
110 625 321 110 131 181 
111 625 321 110 129 180 
111 624 322 97 118 173 
111 625 322 106 123 177 
110 626 320 104 122 179 
111 626 320 112 128 181 
111 626 321 107 123 178 
111 627 320 121 136 183 
111 627 321 119 132 183 
111 626 322 104 121 174 
112 623 323 131 147 185 
112 622 324 165 178 203 
112 622 325 182 192 211 
112 623 324 160 172 196 
112 623 325 188 195 210 
112 622 326 186 195 216 
112 622 327 174 186 210 
112 623 326 200 205 219 
113 623 326 200 205 217 
113 623 327 198 203 218 
112 621 328 172 187 214 
112 621 329 179 195 218 
112 620 331 104 130 196 
112 621 330 129 156 201 
112 621 331 89 119 190 
112 622 328 181 193 215 
112 622 329 192 202 220 
113 623 328 184 192 212 
113 623 329 194 201 218 
112 622 330 163 181 210 
112 622 331 102 131 190 
113 622 330 174 188 213 
113 623 330 193 202 218 
112 624 323 113 132 177 
112 625 322 108 123 176 
112 625 323 112 127 176 
112 627 320 119 133 182 
112 627 321 120 132 180 
112 626 322 110 124 173 
112 626 323 118 129 177 
112 627 322 122 134 178 
113 626 323 120 130 175 
113 627 322 126 137 177 
113 627 323 127 137 174 
112 624 324 146 161 190 
112 624 325 172 181 201 
112 625 324 122 139 179 
113 624 325 175 184 203 
113 625 324 127 140 181 
113 625 325 147 157 190 
113 624 326 195 201 215 
113 624 327 202 206 219 
113 625 326 174 182 205 
113 626 324 125 132 178 
113 626 325 133 141 183 
113 627 324 124 132 172 
114 624 327 201 206 219 
114 625 326 174 181 204 
114 625 327 195 200 216 
114 626 324 126 132 176 
114 626 325 134 141 182 
114 627 324 127 134 172 
114 627 325 126 132 177 
115 627 325 122 128 175 
114 626 326 148 154 190 
114 626 327 174 180 205 
114 627 326 130 134 182 
115 626 326 147 152 190 
115 626 327 169 175 203 
115 627 326 121 125 179 
115 627 327 141 147 190 
112 628 321 118 129 177 
113 628 321 115 128 175 
112 628 322 121 132 178 
113 628 322 120 131 175 
113 628 323 127 136 176 
114 628 323 130 137 175 
114 628 324 132 138 173 
114 629 324 122 131 170 
115 628 325 131 138 176 
115 629 325 126 133 172 
115 628 326 117 125 174 
115 629 326 126 132 174 
116 627 327 123 130 184 
116 628 326 111 120 173 
116 629 326 119 125 171 
113 624 328 190 197 213 
114 624 328 187 194 211 
114 624 329 186 193 212 
114 625 328 191 198 215 
115 625 328 190 198 214 
128 570 256 73 85 104 
128 571 256 80 90 106 
128 571 257 84 92 108 
129 570 256 77 87 104 
129 571 256 83 91 105 
129 571 257 86 92 105 
130 570 256 75 85 99 
130 571 256 83 90 102 
130 571 257 87 92 102 
131 571 256 88 93 102 
128 572 257 85 91 106 
129 572 257 86 91 104 
128 572 258 80 87 106 
128 573 258 71 82 101 
128 573 259 68 81 97 
129 572 258 82 88 104 
129 573 258 76 85 102 
129 573 259 78 85 97 
128 574 259 74 83 98 
129 574 259 90 94 103 
130 572 257 85 91 102 
131 572 257 88 93 102 
130 572 258 83 89 102 
130 573 258 86 92 102 
130 573 259 98 100 105 
131 573 258 93 96 103 
131 573 259 105 104 108 
130 574 259 106 106 110 
131 574 259 111 108 110 
128 574 260 86 93 104 
128 575 260 98 101 107 
128 575 261 101 101 104 
129 574 260 100 102 108 
129 575 260 106 105 108 
129 575 261 107 104 105 
130 574 260 110 109 112 
130 575 260 114 110 111 
130 575 261 113 109 109 
131 574 260 115 111 112 
131 575 260 117 112 111 
131 575 261 116 111 110 
132 571 256 93 96 104 
132 571 257 90 94 102 
133 571 256 95 98 105 
134 571 256 95 97 103 
135 571 256 93 94 99 
132 572 257 87 91 98 
133 572 257 86 90 96 
