ply
format ascii 1.0
comment Created by CloudCompare v2.10.1 (Zephyrus)
comment Created 1/31/20 6:09 PM
obj_info Generated by CloudCompare!
element vertex 2039
property float x
property float y
property float z
property uchar red
property uchar green
property uchar blue
end_header
173 977 285 106 85 67 
173 976 286 101 78 57 
173 977 286 99 74 54 
172 978 285 121 101 82 
172 979 285 125 105 87 
172 979 286 114 95 78 
173 978 286 103 82 65 
173 979 286 104 84 68 
173 979 287 96 73 56 
174 976 286 100 75 55 
174 976 287 102 79 60 
174 977 286 99 74 54 
174 977 287 102 78 59 
175 976 287 103 82 64 
175 977 287 107 86 68 
174 978 287 101 76 58 
174 979 287 95 69 52 
172 980 285 130 109 91 
172 981 285 123 100 82 
172 980 286 126 107 91 
172 981 286 131 111 94 
173 980 286 119 100 84 
173 980 287 105 85 69 
173 981 286 132 114 98 
173 981 287 121 104 89 
172 982 284 100 64 51 
172 982 285 114 85 69 
172 983 284 95 63 51 
172 983 285 102 72 55 
173 983 285 101 73 55 
173 982 286 127 107 90 
173 982 287 125 107 92 
173 983 286 111 87 69 
173 983 287 114 92 77 
174 980 287 92 66 52 
174 983 287 111 90 74 
168 987 272 139 113 86 
168 987 273 143 118 96 
168 987 274 160 137 116 
168 987 275 146 119 97 
168 985 279 139 109 86 
168 987 276 130 96 70 
168 987 277 123 89 66 
168 986 278 150 119 94 
168 986 279 145 116 91 
168 987 278 141 110 90 
168 987 279 144 117 94 
169 987 278 142 113 95 
169 987 279 137 110 88 
170 987 279 131 106 83 
168 988 272 187 159 133 
168 988 273 174 145 126 
169 988 272 193 157 135 
169 988 273 180 143 128 
169 989 272 177 132 116 
169 989 273 160 114 100 
168 988 274 169 144 122 
168 988 275 150 123 99 
169 988 274 167 139 116 
169 988 275 159 132 109 
169 989 274 150 113 87 
169 989 275 158 130 104 
170 989 272 158 117 104 
170 989 273 146 103 86 
170 989 274 140 103 75 
170 989 275 153 124 97 
170 990 272 152 119 104 
170 990 273 141 106 86 
171 990 272 141 110 92 
171 990 273 136 99 78 
170 990 274 140 106 79 
170 990 275 146 115 88 
171 990 274 136 98 73 
171 990 275 140 105 76 
171 991 275 143 109 79 
168 988 276 130 98 71 
168 988 277 116 79 58 
169 988 276 136 107 83 
169 988 277 118 86 61 
169 989 276 149 123 99 
169 988 278 134 103 82 
170 988 277 119 91 64 
170 989 276 149 124 99 
170 989 277 129 103 77 
171 989 277 140 115 90 
170 988 278 131 102 81 
170 988 279 135 109 86 
171 988 278 132 107 86 
171 988 279 136 112 91 
171 989 278 132 109 84 
171 989 279 135 113 92 
171 990 276 148 121 93 
171 990 277 149 124 100 
172 990 272 142 111 90 
172 991 272 142 110 82 
172 991 273 139 101 75 
173 991 272 155 123 91 
173 991 273 151 118 88 
172 991 274 139 101 72 
172 991 275 143 110 80 
173 991 274 150 119 91 
173 991 275 146 117 88 
174 991 275 152 125 98 
172 989 278 139 117 95 
172 989 279 137 115 93 
173 989 279 138 115 93 
172 990 276 145 118 90 
172 990 277 148 122 95 
172 991 276 144 115 85 
173 990 277 151 124 97 
173 991 276 144 115 85 
173 991 277 149 120 92 
172 990 278 144 120 95 
173 990 278 151 125 102 
173 990 279 144 120 99 
174 991 276 148 119 91 
174 991 277 150 119 92 
175 991 277 148 118 90 
174 990 278 151 122 101 
174 990 279 150 122 102 
174 991 278 152 120 97 
175 991 278 151 121 95 
175 991 279 151 122 100 
168 984 280 127 101 78 
168 984 281 114 88 63 
168 985 280 132 104 83 
169 984 281 106 81 55 
169 985 280 124 95 76 
169 985 281 113 87 66 
169 984 282 106 84 60 
169 985 282 110 88 67 
168 986 280 133 103 81 
169 986 280 123 95 76 
169 986 281 118 92 75 
169 987 280 128 101 79 
170 985 281 114 90 69 
170 984 282 104 83 62 
170 984 283 100 79 60 
170 985 282 112 91 71 
171 984 283 94 72 53 
171 985 282 112 90 72 
171 985 283 103 82 64 
170 986 281 118 93 75 
170 987 280 127 101 81 
171 986 281 116 92 72 
171 987 280 128 104 85 
171 987 281 120 97 76 
170 986 282 114 91 70 
171 986 282 109 85 62 
171 987 282 111 88 65 
171 984 284 91 65 48 
171 988 280 131 107 88 
172 985 283 101 78 60 
172 987 281 125 102 82 
172 986 282 108 85 63 
172 986 283 106 84 62 
172 987 282 117 94 73 
173 986 283 110 88 66 
173 987 282 122 99 78 
173 987 283 118 95 73 
174 987 282 123 99 77 
174 987 283 120 96 74 
172 984 284 94 68 54 
172 984 285 96 69 52 
172 985 284 94 71 55 
173 984 285 97 71 54 
173 985 284 98 76 60 
173 985 285 100 77 63 
173 984 286 102 77 60 
173 984 287 100 76 59 
173 985 286 98 72 58 
173 986 284 108 86 67 
174 985 285 99 75 65 
174 984 287 89 62 48 
174 985 286 92 67 57 
174 985 287 79 52 42 
174 986 284 110 89 67 
174 986 285 107 87 69 
174 987 284 119 96 73 
174 987 285 115 94 72 
174 986 286 94 74 60 
174 986 287 82 61 44 
174 987 286 116 96 75 
174 987 287 98 79 56 
175 987 287 112 92 69 
172 988 280 131 106 86 
172 988 281 127 103 82 
172 989 280 133 109 88 
173 988 281 128 103 81 
173 989 280 132 108 87 
173 989 281 129 103 82 
173 988 282 128 104 81 
174 989 280 133 108 86 
174 989 281 127 101 79 
175 989 281 125 100 77 
174 988 282 125 99 76 
174 988 283 124 99 76 
174 989 282 121 93 69 
175 988 283 124 98 74 
175 989 282 124 97 75 
175 989 283 124 97 74 
174 990 280 146 122 102 
175 990 280 153 130 112 
175 990 281 145 121 101 
175 991 280 151 125 104 
175 991 281 145 117 95 
175 990 282 136 111 89 
175 990 283 135 109 84 
174 988 284 124 99 75 
174 988 285 125 102 80 
175 988 284 125 97 74 
175 988 285 131 103 82 
175 989 284 126 95 71 
175 989 285 130 96 72 
175 988 286 136 110 88 
175 988 287 143 112 89 
175 989 286 137 100 72 
175 989 287 147 110 81 
175 990 284 137 109 85 
175 990 285 139 107 80 
175 991 284 150 121 94 
175 991 285 147 116 86 
175 990 286 143 110 78 
175 990 287 151 118 87 
175 991 286 153 120 89 
175 991 287 158 125 94 
177 963 259 108 81 46 
178 962 259 104 75 34 
178 963 259 108 81 43 
179 962 259 108 81 45 
179 963 259 112 86 51 
176 961 261 116 89 56 
177 960 261 112 86 53 
177 961 260 113 86 54 
177 961 261 113 86 52 
176 960 262 114 90 61 
176 961 262 105 79 48 
177 960 262 112 87 61 
176 962 260 113 86 55 
176 962 261 111 85 54 
176 963 260 112 86 52 
177 962 260 111 84 54 
177 963 260 109 82 49 
178 960 261 103 78 48 
178 961 260 105 76 41 
178 961 261 103 76 42 
179 960 261 98 75 44 
179 961 260 103 76 36 
179 961 261 101 75 36 
178 962 260 105 76 40 
179 962 260 107 79 41 
176 964 259 114 88 54 
176 965 259 118 92 61 
177 964 259 108 81 44 
177 965 259 110 84 51 
176 966 258 121 96 67 
176 966 259 122 97 68 
176 967 258 125 100 71 
177 966 258 113 86 52 
177 966 259 116 89 55 
177 967 258 118 91 59 
178 964 259 111 85 50 
178 965 258 116 90 56 
178 965 259 114 88 54 
179 964 258 114 89 57 
179 964 259 114 89 57 
179 965 258 116 91 58 
178 967 257 130 103 74 
179 966 257 124 97 64 
179 967 257 125 97 62 
178 966 258 120 94 61 
178 967 258 126 98 68 
179 966 258 118 91 56 
180 962 259 112 87 52 
180 963 259 114 88 52 
181 962 259 109 84 50 
181 963 258 110 83 45 
181 963 259 110 83 46 
182 961 259 105 81 49 
183 961 259 101 78 51 
182 962 259 106 82 50 
182 963 258 110 84 49 
182 963 259 109 83 49 
183 962 258 103 79 46 
183 962 259 103 79 48 
183 963 258 107 81 45 
180 960 261 93 70 40 
180 961 260 103 78 40 
181 960 261 95 74 48 
181 961 260 105 81 49 
180 962 260 112 85 48 
182 960 260 98 78 54 
182 960 261 98 78 55 
182 961 260 103 80 52 
183 960 260 96 76 52 
183 960 261 97 77 57 
183 961 260 100 78 51 
181 965 257 117 93 64 
180 964 258 113 87 51 
180 964 259 114 88 51 
180 965 258 113 88 55 
181 964 258 112 85 48 
181 965 258 115 88 54 
180 966 257 110 82 42 
180 967 257 112 83 41 
181 966 257 117 91 61 
181 967 257 112 85 48 
180 966 258 112 85 48 
182 965 257 112 86 52 
183 964 257 107 82 51 
183 965 257 110 85 56 
182 964 258 110 83 46 
183 964 258 108 82 47 
182 966 257 117 93 66 
182 967 257 117 92 65 
183 966 257 110 86 59 
183 967 257 110 86 59 
176 969 257 130 103 71 
177 968 257 123 96 62 
177 969 257 125 96 60 
176 968 258 129 102 72 
177 968 258 122 96 64 
176 970 257 130 102 69 
176 971 257 132 102 67 
177 970 257 129 99 64 
177 971 257 136 108 77 
178 968 257 132 105 75 
178 969 257 132 104 70 
179 968 257 133 106 73 
179 969 257 136 109 77 
178 970 257 129 99 60 
178 971 257 128 98 60 
179 970 257 135 108 76 
179 971 257 132 103 66 
176 972 257 133 103 66 
176 973 257 135 103 63 
177 972 257 139 110 80 
177 973 257 141 109 76 
176 974 257 138 105 70 
176 975 257 141 108 80 
177 974 257 145 113 80 
177 975 257 151 117 86 
178 972 257 136 105 69 
178 973 257 147 113 75 
179 972 257 130 96 53 
179 973 257 134 100 52 
178 974 257 157 120 81 
178 975 257 163 125 89 
179 974 257 144 109 67 
179 975 257 152 115 76 
180 968 257 120 91 51 
180 969 257 125 97 60 
181 968 257 117 89 53 
181 969 257 123 95 62 
180 970 257 130 102 68 
180 971 257 132 102 67 
181 970 257 128 99 65 
181 971 257 134 105 71 
182 968 257 117 91 60 
182 969 257 119 92 58 
183 968 257 111 85 53 
183 969 257 116 88 53 
182 970 257 122 93 55 
182 971 257 128 96 56 
183 970 257 123 94 59 
183 971 257 130 100 64 
180 972 257 138 108 74 
180 973 257 146 115 82 
181 972 257 139 108 72 
181 973 257 140 106 66 
180 974 257 149 117 82 
180 975 257 149 114 75 
181 974 257 144 110 68 
181 975 257 151 117 80 
182 972 257 139 106 66 
182 973 257 149 114 77 
183 972 257 141 108 71 
183 973 256 146 112 75 
183 973 257 151 118 83 
182 974 257 154 118 80 
182 975 257 157 118 80 
183 974 256 149 114 79 
183 974 257 160 124 90 
183 975 256 152 117 81 
183 975 257 160 124 90 
185 961 257 96 76 54 
184 960 259 96 75 49 
184 961 258 97 76 50 
184 961 259 98 76 49 
185 960 258 93 74 52 
185 960 259 92 74 53 
185 961 258 95 76 53 
185 961 259 93 74 49 
184 962 257 97 75 46 
184 963 257 100 78 49 
185 962 256 96 75 51 
185 962 257 97 75 47 
185 963 256 96 75 47 
185 963 257 98 75 46 
184 962 258 98 76 45 
184 963 258 103 79 48 
186 960 257 93 74 53 
186 961 256 96 76 54 
186 961 257 95 76 55 
187 960 256 95 77 56 
187 960 257 93 75 53 
187 961 256 95 76 56 
186 960 258 92 74 52 
186 962 256 96 75 50 
184 960 260 93 74 53 
185 960 260 93 75 57 
184 964 256 101 78 51 
184 964 257 105 81 54 
184 965 256 100 77 48 
184 965 257 105 81 53 
185 964 256 96 74 45 
185 965 256 98 75 46 
184 966 256 101 77 49 
184 967 256 100 76 45 
185 966 256 98 75 46 
185 967 256 96 74 46 
184 968 256 104 80 47 
184 969 256 113 87 55 
184 969 257 118 91 59 
185 968 256 98 75 47 
185 969 256 102 78 47 
184 970 256 122 96 67 
184 970 257 124 97 66 
184 971 256 126 98 68 
184 971 257 131 103 71 
185 970 256 109 83 52 
185 971 256 114 87 56 
184 972 256 127 95 59 
184 972 257 133 102 67 
184 973 256 128 93 53 
185 972 256 119 89 58 
185 973 256 121 88 57 
184 974 256 130 94 56 
184 975 256 132 97 59 
185 974 256 125 93 63 
176 969 287 112 89 62 
176 970 286 122 98 68 
176 970 287 127 101 73 
176 971 286 132 105 77 
176 971 287 136 109 82 
177 971 287 132 103 77 
176 972 286 121 92 67 
176 972 287 119 90 66 
176 973 287 108 82 60 
177 972 287 119 88 65 
176 974 287 102 79 60 
176 976 257 133 99 74 
176 977 257 120 87 57 
177 976 257 150 111 82 
177 977 257 139 98 62 
176 978 257 122 88 57 
176 979 257 130 97 67 
177 978 257 133 90 53 
177 979 257 135 89 52 
178 976 257 162 123 87 
178 977 257 162 122 80 
179 976 257 155 114 75 
179 977 257 155 113 73 
179 977 258 150 107 65 
178 978 257 152 115 78 
178 979 257 157 116 76 
179 978 257 159 122 86 
179 979 257 155 117 83 
179 978 258 152 111 73 
179 979 258 151 113 79 
176 980 257 139 105 73 
176 981 257 141 107 76 
177 980 257 132 87 53 
177 981 257 135 97 64 
176 981 258 143 109 78 
177 982 257 138 103 75 
177 983 257 139 109 80 
176 982 258 151 117 88 
176 983 258 146 113 86 
177 982 258 149 117 88 
177 983 258 143 113 85 
178 980 257 148 106 65 
178 981 257 140 102 68 
179 981 257 135 96 61 
179 980 258 147 106 72 
179 981 258 137 97 66 
178 982 257 134 101 72 
178 983 257 133 100 75 
179 982 257 132 93 67 
179 983 257 126 88 66 
180 976 257 152 113 73 
181 976 257 152 116 79 
181 977 257 150 112 72 
180 976 258 152 114 76 
180 977 258 150 109 69 
181 977 258 151 114 76 
181 978 257 149 110 74 
181 979 257 143 101 67 
180 978 258 148 109 67 
180 979 258 146 107 69 
181 978 258 150 112 74 
181 979 258 142 101 64 
182 976 257 153 113 74 
182 977 257 147 105 69 
183 976 256 148 111 77 
183 976 257 158 121 85 
183 977 256 140 100 69 
182 978 257 144 102 71 
182 979 257 141 100 71 
183 978 256 135 96 67 
183 978 257 143 102 76 
183 979 256 134 97 69 
183 979 257 140 100 72 
180 981 257 137 98 66 
181 980 257 138 99 65 
181 981 257 137 100 68 
180 980 258 143 105 74 
180 981 258 140 102 72 
181 980 258 140 102 69 
181 981 258 142 106 76 
180 982 257 132 93 63 
180 983 257 125 92 66 
181 982 257 127 90 56 
181 983 256 125 88 61 
181 983 257 121 84 58 
182 980 257 138 97 69 
182 981 256 137 101 72 
182 981 257 138 100 69 
183 980 256 134 98 67 
183 980 257 138 98 68 
183 981 256 133 94 62 
182 982 256 140 106 76 
182 982 257 136 101 72 
182 983 256 141 107 75 
177 984 257 140 108 76 
176 984 258 139 104 74 
176 984 259 139 103 76 
176 985 259 145 110 87 
177 984 258 143 109 78 
177 985 258 149 114 90 
177 985 259 147 111 88 
176 986 259 147 113 85 
176 987 259 149 114 83 
177 986 258 144 105 78 
177 986 259 147 110 78 
177 987 259 164 127 90 
178 984 257 132 98 70 
178 985 257 133 96 66 
179 984 257 122 88 61 
179 985 257 123 87 60 
178 985 258 142 107 82 
178 986 258 141 104 72 
178 987 259 160 124 87 
179 986 258 128 90 54 
179 987 258 127 92 52 
179 987 259 148 112 71 
176 986 260 145 111 83 
176 987 260 150 116 87 
177 987 260 156 122 90 
177 988 259 171 132 94 
178 988 259 177 139 101 
179 988 259 151 113 77 
176 988 260 151 117 83 
176 989 261 159 128 97 
177 988 260 163 126 91 
177 989 260 171 135 101 
177 989 261 175 141 108 
176 990 261 179 150 122 
177 990 261 185 153 122 
176 990 262 202 175 151 
176 991 262 204 176 152 
176 991 263 200 173 149 
177 990 262 197 168 144 
177 991 262 198 169 143 
177 991 263 191 163 138 
178 988 260 172 136 100 
178 989 260 172 136 100 
179 988 260 160 121 86 
179 989 260 161 125 93 
179 989 261 164 128 97 
178 990 261 187 151 118 
179 990 261 176 141 110 
178 990 262 195 162 133 
178 991 262 189 156 125 
178 991 263 192 160 133 
179 990 262 181 148 117 
179 991 262 184 149 118 
179 991 263 190 154 123 
180 984 257 128 97 70 
180 985 257 125 90 68 
181 984 256 120 82 59 
181 984 257 127 96 69 
181 985 256 114 73 52 
181 985 257 121 84 61 
180 986 257 123 89 61 
181 986 257 115 78 56 
180 986 258 122 86 51 
180 987 258 123 87 51 
180 987 259 125 88 53 
181 986 258 123 90 58 
181 987 258 125 93 62 
181 987 259 128 98 73 
182 984 256 132 94 65 
182 985 256 124 84 62 
182 986 256 133 95 71 
182 986 257 117 78 53 
182 987 257 119 81 52 
183 986 256 150 117 92 
183 987 256 144 110 81 
183 987 257 130 94 63 
182 987 258 119 86 59 
182 987 259 125 96 70 
183 987 258 126 91 62 
180 988 259 118 76 45 
181 988 259 128 96 72 
182 988 259 129 99 72 
183 988 258 127 93 58 
183 988 259 135 104 74 
180 988 260 114 72 44 
180 989 260 127 93 66 
180 989 261 140 107 79 
181 988 260 112 72 50 
181 989 260 107 68 46 
181 989 261 109 77 53 
180 990 261 145 114 85 
180 990 262 163 133 103 
180 991 262 179 147 116 
180 991 263 168 137 107 
181 990 262 109 78 46 
181 990 263 106 75 44 
181 991 263 123 94 60 
182 988 260 120 87 58 
182 989 260 112 78 46 
182 989 261 114 82 61 
183 988 260 127 97 69 
183 989 260 123 93 67 
183 989 261 111 77 54 
183 990 261 94 55 33 
182 990 262 101 62 48 
182 990 263 97 58 50 
182 991 263 105 72 50 
183 990 262 92 51 36 
183 990 263 96 58 48 
183 991 263 97 63 42 
176 991 264 192 166 143 
181 991 264 120 92 62 
182 991 264 110 77 52 
182 991 265 113 80 51 
183 991 264 103 72 46 
183 991 265 107 75 50 
184 976 256 133 98 64 
184 986 256 162 132 107 
184 987 256 158 128 105 
184 987 257 139 103 73 
185 987 256 149 120 95 
184 988 257 145 112 83 
185 988 256 138 109 81 
185 988 257 159 132 107 
185 989 257 160 133 105 
184 988 258 143 111 80 
184 989 258 150 120 90 
184 989 259 140 109 79 
185 989 258 162 132 103 
185 989 259 147 114 82 
185 990 258 166 135 104 
185 990 259 159 124 93 
185 991 259 168 135 102 
186 988 256 121 88 54 
186 989 256 126 96 58 
186 989 257 144 115 82 
186 990 256 139 110 76 
186 990 257 157 127 95 
186 991 257 150 114 71 
187 990 256 131 100 67 
187 991 256 124 88 56 
187 991 257 122 82 46 
186 990 258 168 137 102 
186 991 258 158 124 84 
186 991 259 157 123 90 
187 991 258 121 82 48 
184 989 260 126 97 72 
184 990 260 113 78 48 
184 990 261 101 64 41 
184 991 261 117 82 61 
185 990 260 136 98 67 
185 991 260 154 120 93 
185 991 261 135 100 80 
184 990 262 90 53 35 
184 991 262 104 70 47 
184 991 263 108 78 45 
185 991 262 119 84 64 
186 991 260 141 105 75 
188 991 256 107 78 58 
189 991 256 124 105 86 
191 991 256 88 67 54 
184 991 264 105 76 41 
176 991 279 147 119 95 
176 991 280 140 111 86 
176 991 281 142 113 89 
176 991 282 144 117 91 
176 991 283 150 123 96 
176 991 284 152 125 97 
176 991 285 154 124 95 
176 990 287 156 123 92 
176 991 286 159 127 97 
176 991 287 159 126 94 
164 961 288 85 63 48 
164 961 289 89 65 48 
165 962 288 84 60 41 
165 962 289 90 65 44 
165 962 290 94 68 47 
165 962 291 96 70 51 
166 962 288 86 60 41 
166 962 289 93 67 47 
167 963 288 89 62 44 
167 963 289 94 67 48 
166 962 290 96 69 50 
166 962 291 92 66 45 
167 962 290 93 67 47 
167 962 291 86 60 37 
167 963 290 93 67 48 
167 963 291 87 59 36 
166 962 292 89 65 45 
167 962 292 86 62 43 
167 963 293 82 60 41 
167 963 294 82 60 43 
167 963 295 85 66 52 
167 963 296 81 62 49 
168 963 288 89 60 44 
168 963 289 91 63 45 
168 963 290 87 59 38 
168 963 291 84 59 39 
168 963 292 84 60 44 
168 963 293 82 59 44 
168 963 294 82 62 49 
168 963 295 78 59 46 
169 964 288 88 59 46 
169 964 289 86 57 43 
169 964 290 81 55 37 
169 964 291 82 58 42 
170 964 288 84 57 42 
170 964 289 80 51 35 
170 965 288 79 53 34 
170 965 289 77 52 34 
171 965 288 75 49 31 
171 965 289 76 52 37 
170 964 290 79 53 35 
170 965 290 78 55 38 
170 965 291 78 56 42 
171 965 290 75 51 40 
171 966 289 72 48 35 
171 966 290 70 45 32 
171 966 291 68 43 31 
169 964 292 82 60 45 
169 964 293 77 55 44 
169 964 294 71 50 38 
169 964 295 68 47 37 
170 965 292 74 51 38 
170 965 293 67 45 32 
170 965 294 67 46 38 
170 965 295 72 52 46 
171 966 292 65 42 27 
171 966 293 65 46 33 
171 966 294 69 51 41 
171 966 295 72 54 43 
172 966 288 68 43 33 
172 966 289 67 44 32 
172 967 289 57 39 30 
173 966 288 62 40 35 
173 967 288 57 40 33 
173 967 289 52 38 26 
172 966 290 64 36 28 
172 966 291 64 41 31 
172 967 290 58 40 33 
172 967 291 60 42 34 
173 967 290 57 45 32 
172 966 292 65 44 34 
172 966 293 67 48 36 
172 967 292 62 44 37 
172 967 293 64 45 34 
172 966 294 68 49 36 
172 966 295 72 51 36 
172 967 294 67 47 30 
172 967 295 74 51 30 
173 967 295 76 51 27 
168 963 296 76 57 44 
168 964 296 70 48 40 
168 964 297 72 51 43 
169 964 296 68 46 41 
169 964 297 77 58 54 
169 965 296 73 53 49 
169 965 297 78 60 55 
168 964 298 79 59 51 
168 964 299 84 65 55 
169 964 298 83 63 56 
169 964 299 88 68 56 
169 965 298 84 63 54 
169 965 299 90 69 56 
170 965 296 75 57 51 
170 965 297 79 58 47 
170 965 298 86 63 47 
170 965 299 92 69 52 
171 966 296 75 54 40 
171 966 297 82 58 40 
171 966 298 91 66 47 
171 966 299 97 72 53 
169 965 300 96 73 56 
169 965 301 100 77 59 
169 965 302 101 77 57 
170 965 300 97 73 54 
170 965 301 100 75 54 
171 965 301 105 78 54 
170 965 302 104 78 56 
171 965 302 109 83 59 
171 966 300 100 73 52 
171 966 301 104 78 53 
171 966 302 114 87 64 
172 966 296 77 53 34 
172 966 297 87 61 41 
172 967 296 81 56 33 
172 967 297 92 65 44 
173 967 296 87 60 36 
173 967 297 95 67 43 
172 966 298 96 70 50 
172 966 299 100 74 53 
172 967 298 97 70 49 
172 967 299 105 76 51 
173 967 298 106 76 48 
173 967 299 115 85 58 
172 966 300 107 79 53 
172 966 301 115 87 62 
172 967 300 115 86 59 
172 967 301 122 94 68 
173 967 300 122 93 67 
173 967 301 122 92 63 
172 966 302 120 92 68 
172 966 303 116 87 62 
173 966 303 123 96 69 
173 967 302 121 92 62 
173 967 303 129 103 76 
174 967 300 124 94 66 
174 967 301 122 91 61 
174 967 302 126 96 68 
174 967 303 125 95 63 
175 967 302 122 88 55 
175 967 303 125 91 58 
173 968 288 59 45 32 
173 968 289 64 50 35 
173 968 290 68 56 41 
173 968 291 63 49 35 
174 968 288 82 66 50 
174 968 289 87 72 55 
175 969 288 107 86 63 
175 969 289 108 86 62 
174 968 290 84 69 53 
174 968 291 83 67 50 
174 969 290 99 82 63 
174 969 291 99 81 61 
175 969 290 110 87 62 
175 969 291 111 89 65 
173 968 292 64 47 30 
173 968 293 66 45 27 
173 968 294 71 47 26 
173 968 295 79 53 30 
174 968 292 80 63 42 
174 968 293 78 60 38 
174 969 292 94 75 54 
174 969 293 92 74 54 
175 969 292 110 90 68 
175 969 293 106 86 65 
174 968 294 81 58 36 
174 968 295 85 59 34 
174 969 294 86 65 42 
174 969 295 84 60 33 
175 969 294 97 76 52 
175 969 295 89 62 32 
173 968 296 89 61 36 
173 968 297 99 69 44 
174 968 296 91 61 36 
174 968 297 103 72 47 
175 968 297 105 72 44 
175 969 296 91 60 29 
175 969 297 99 67 37 
174 968 298 114 83 56 
174 968 299 121 90 64 
175 968 298 113 79 50 
175 968 299 118 84 56 
174 968 300 123 92 63 
174 968 301 122 91 60 
175 968 300 121 88 61 
175 968 301 123 91 62 
175 968 302 121 88 56 
175 968 303 124 90 57 
172 966 304 115 88 62 
172 966 305 124 99 75 
173 966 304 128 103 78 
173 966 305 130 105 78 
173 966 306 132 105 78 
174 966 305 131 102 72 
174 967 304 127 96 63 
174 967 305 131 101 70 
175 967 304 129 97 65 
175 967 305 134 102 69 
174 966 306 133 103 72 
175 966 306 140 107 76 
175 967 306 141 108 76 
175 967 307 150 118 84 
175 976 288 105 85 68 
175 977 288 109 88 71 
174 979 288 93 65 48 
175 978 288 104 79 60 
175 979 288 97 73 52 
175 979 289 94 70 47 
174 980 288 94 68 53 
174 981 288 97 74 62 
174 981 289 87 61 52 
175 980 288 93 65 47 
175 980 289 97 70 52 
175 981 289 93 64 53 
175 980 290 102 78 60 
175 981 290 94 67 54 
175 981 291 94 68 52 
174 982 288 105 86 73 
174 982 289 83 58 48 
174 983 288 97 75 64 
174 983 289 77 52 44 
175 982 289 77 51 39 
175 982 290 79 51 38 
175 982 291 84 56 40 
175 983 290 71 44 37 
175 983 291 77 48 37 
175 981 292 92 66 49 
175 982 292 88 61 43 
175 982 293 96 71 50 
175 983 292 85 56 41 
175 983 293 100 75 56 
175 982 294 109 84 65 
175 983 294 117 91 70 
174 984 288 84 56 45 
174 984 289 73 45 40 
174 985 288 70 43 36 
174 985 289 63 38 33 
175 984 289 67 38 36 
175 985 289 63 38 31 
175 984 290 69 39 39 
175 984 291 76 46 40 
175 985 290 68 45 31 
175 985 291 92 70 47 
174 986 288 72 52 36 
175 986 288 82 64 43 
175 986 289 86 67 47 
175 987 288 123 102 81 
175 987 289 140 118 95 
175 986 290 109 88 63 
175 986 291 137 113 89 
175 987 290 155 129 103 
175 987 291 165 137 110 
175 984 292 93 67 48 
175 984 293 118 94 70 
175 985 292 122 98 71 
175 985 293 137 113 85 
175 984 294 127 103 77 
175 986 292 156 130 103 
175 986 293 158 132 105 
175 987 292 168 141 113 
175 988 288 153 122 95 
175 988 289 161 129 97 
175 989 288 155 119 87 
175 989 289 161 124 92 
175 988 290 165 133 99 
175 988 291 168 136 103 
176 970 288 125 98 73 
176 970 289 124 95 71 
177 970 288 130 100 75 
177 970 289 128 95 74 
177 971 288 126 94 70 
177 971 289 120 85 64 
176 970 290 124 94 72 
176 970 291 124 95 73 
176 971 291 121 89 69 
177 970 290 124 91 72 
177 970 291 123 92 74 
177 971 290 118 87 67 
177 971 291 118 88 70 
178 971 289 114 81 60 
178 971 290 114 83 63 
176 969 295 96 68 38 
176 970 292 118 93 69 
176 970 293 112 89 64 
176 971 292 118 88 66 
176 971 293 112 86 60 
177 971 292 115 83 62 
177 971 293 112 83 57 
176 970 294 108 85 58 
176 970 295 103 78 47 
176 971 294 111 86 58 
177 970 295 108 82 51 
177 971 294 113 86 55 
177 971 295 113 85 53 
176 973 288 105 81 61 
177 972 288 118 88 67 
177 973 288 109 84 62 
177 973 289 108 83 63 
176 974 288 101 79 59 
176 975 288 99 77 58 
176 975 289 96 71 53 
177 974 288 102 79 61 
177 974 289 99 75 56 
177 975 289 96 71 53 
177 975 290 98 71 51 
178 972 289 117 90 70 
178 973 288 113 88 66 
178 973 289 113 88 66 
178 972 290 117 89 69 
178 972 291 115 88 66 
178 973 290 116 90 65 
178 973 291 113 86 58 
179 973 290 116 91 65 
179 973 291 115 89 62 
178 974 289 104 79 58 
178 974 290 108 81 58 
178 974 291 112 84 61 
178 975 290 102 73 51 
178 975 291 104 76 53 
177 972 292 115 84 64 
177 972 293 112 80 55 
177 972 294 114 84 52 
178 972 292 113 83 60 
178 972 293 111 80 51 
178 973 292 112 84 53 
178 973 293 113 84 53 
178 972 294 114 83 51 
178 972 295 117 87 55 
178 973 294 119 90 59 
178 973 295 120 90 58 
179 973 295 123 93 63 
178 974 292 116 88 66 
178 975 292 110 83 59 
179 974 292 116 88 63 
179 974 293 117 88 64 
179 975 293 113 84 59 
179 974 294 122 92 66 
179 974 295 123 94 65 
179 975 294 118 87 60 
179 975 295 119 90 61 
176 969 296 93 63 29 
176 969 297 97 65 37 
176 968 299 115 80 55 
176 969 298 103 68 43 
176 969 299 108 73 50 
177 969 298 96 62 36 
177 969 299 100 63 38 
176 970 296 97 70 39 
176 970 297 95 64 35 
177 970 296 106 79 49 
177 970 297 96 66 38 
177 971 296 111 83 51 
177 970 298 96 62 35 
178 969 299 100 64 35 
178 970 297 96 67 37 
178 971 296 113 86 53 
178 971 297 111 85 53 
178 970 298 96 65 35 
178 970 299 99 65 37 
178 971 298 105 79 47 
179 970 299 100 68 38 
179 971 298 107 80 48 
179 971 299 102 72 44 
176 968 300 117 82 56 
176 968 301 119 84 55 
176 969 300 111 75 50 
176 969 301 115 78 51 
177 969 300 108 71 42 
177 969 301 118 82 53 
176 968 302 123 88 55 
176 968 303 130 94 60 
177 968 302 124 88 56 
177 968 303 133 99 64 
177 969 302 125 89 58 
178 969 300 109 71 42 
178 969 301 119 82 53 
179 969 301 116 80 51 
178 969 302 125 91 60 
178 969 303 131 97 65 
179 969 302 121 85 54 
179 969 303 124 86 55 
178 970 300 103 67 38 
179 970 300 104 68 38 
179 970 301 112 75 46 
178 972 296 118 88 55 
178 972 297 119 90 57 
178 973 296 120 90 57 
179 972 297 119 90 58 
179 973 296 122 91 59 
179 973 297 122 92 59 
179 972 298 114 87 55 
179 973 298 122 93 61 
179 974 296 123 93 62 
179 974 297 122 93 61 
179 975 296 122 94 66 
179 975 297 124 96 68 
180 971 299 103 73 46 
180 969 302 116 79 47 
180 969 303 115 77 46 
180 970 300 101 66 34 
180 970 301 107 71 41 
180 971 300 99 67 39 
180 971 301 100 67 38 
181 971 301 102 69 41 
180 970 302 112 76 46 
180 970 303 111 74 44 
181 970 302 102 68 40 
181 970 303 104 69 39 
181 971 302 102 68 41 
182 970 303 103 71 38 
182 971 302 103 70 40 
182 971 303 104 72 41 
183 971 303 110 81 54 
180 972 298 113 86 55 
180 972 299 107 79 49 
180 973 298 123 94 62 
180 973 299 118 90 59 
181 973 299 119 91 61 
180 974 298 124 95 63 
180 974 299 126 97 67 
180 975 298 122 94 64 
180 975 299 127 99 69 
181 974 299 125 97 67 
181 975 299 130 102 73 
180 972 300 102 73 45 
181 972 300 101 71 40 
181 972 301 99 68 39 
181 973 300 113 85 55 
181 973 301 105 76 46 
181 974 300 122 95 66 
181 975 300 129 102 73 
182 972 301 102 71 43 
182 973 301 109 80 52 
182 972 302 106 75 48 
182 973 302 107 78 52 
183 972 303 109 79 53 
183 973 302 107 77 52 
183 973 303 106 76 53 
182 974 301 113 85 56 
182 975 301 116 89 61 
182 974 302 109 80 53 
182 975 302 110 81 53 
183 974 302 109 79 55 
183 974 303 106 75 51 
183 975 302 110 81 55 
183 975 303 110 81 56 
176 967 304 134 100 65 
176 967 305 145 112 77 
176 967 306 154 123 88 
176 967 307 159 128 94 
177 967 306 156 124 92 
177 967 307 150 118 85 
178 967 307 127 92 57 
176 967 308 160 129 97 
177 967 308 143 111 77 
177 967 309 132 98 66 
178 967 308 118 81 47 
178 967 309 110 72 44 
179 967 309 106 72 46 
176 968 304 137 103 67 
176 968 305 146 113 78 
177 968 304 143 109 75 
177 968 305 150 117 86 
177 968 306 150 117 86 
178 968 304 139 106 75 
178 968 305 138 103 72 
178 969 304 134 99 68 
179 968 305 122 85 50 
179 969 304 125 87 53 
179 969 305 119 81 48 
178 968 306 132 96 63 
178 968 307 123 86 51 
179 968 306 114 75 41 
179 968 307 110 71 41 
178 968 308 114 76 42 
179 968 308 109 73 45 
179 968 309 109 76 52 
180 969 304 114 75 44 
180 969 305 113 76 47 
181 969 305 112 81 55 
180 968 306 111 73 45 
180 968 307 110 74 49 
180 969 306 112 78 52 
180 969 307 111 76 51 
181 969 306 110 81 57 
181 969 307 111 81 56 
180 970 304 108 71 41 
181 970 304 106 71 41 
181 970 305 110 77 50 
182 969 306 107 79 54 
182 969 307 101 75 50 
182 970 304 105 73 42 
182 970 305 107 77 48 
182 971 304 107 76 44 
183 970 305 103 73 45 
183 971 304 110 80 51 
183 971 305 108 78 50 
182 970 306 102 73 48 
182 970 307 96 68 43 
183 970 306 98 67 40 
183 970 307 93 62 37 
180 968 308 112 80 56 
180 968 309 111 82 60 
181 968 308 113 83 58 
181 968 309 103 76 53 
181 969 308 108 80 55 
181 969 309 100 74 54 
180 968 310 104 75 55 
181 968 310 92 66 47 
181 968 311 88 62 46 
182 969 308 94 67 47 
182 969 309 86 60 41 
183 969 308 83 54 34 
183 969 309 81 54 33 
182 968 310 84 61 49 
182 968 311 80 57 47 
182 969 310 81 56 41 
182 969 311 78 54 43 
183 969 310 80 55 37 
183 969 311 84 61 44 
183 970 308 88 59 35 
183 970 309 86 59 34 
183 972 304 108 77 52 
183 972 305 109 78 54 
183 973 304 104 73 51 
183 974 304 102 70 47 
183 975 304 106 76 49 
181 968 312 83 58 48 
181 968 313 82 59 51 
182 968 312 79 58 47 
182 968 313 82 61 51 
183 968 312 82 61 45 
183 968 313 90 68 49 
183 969 312 89 68 50 
183 969 313 95 73 53 
184 971 305 110 78 52 
184 970 307 108 76 51 
184 971 306 109 75 51 
184 971 307 113 78 53 
185 971 307 110 71 48 
184 969 310 104 80 55 
184 969 311 115 91 67 
184 970 308 112 83 57 
184 970 309 111 86 60 
184 971 308 117 84 58 
185 970 309 129 101 77 
185 971 308 116 79 56 
185 971 309 121 84 62 
184 970 310 125 100 74 
184 970 311 128 103 79 
185 970 310 138 110 84 
185 970 311 142 115 89 
185 971 310 127 90 64 
185 971 311 134 100 72 
186 971 310 117 75 53 
186 971 311 115 72 48 
184 972 304 99 68 41 
184 972 305 100 68 43 
184 973 304 102 71 49 
184 973 305 99 69 46 
184 972 306 101 68 43 
184 973 306 96 67 43 
185 972 306 99 67 43 
185 972 307 102 66 42 
185 973 306 95 66 42 
185 973 307 96 67 44 
184 974 304 100 69 45 
184 974 305 103 71 51 
184 975 304 100 69 43 
184 975 305 104 73 48 
184 974 306 103 73 51 
184 975 306 110 82 57 
185 974 306 102 73 49 
185 974 307 103 74 48 
185 975 306 109 81 56 
185 975 307 110 83 55 
185 972 308 102 66 44 
185 973 308 96 67 43 
185 974 308 103 75 47 
185 975 308 108 81 51 
186 972 309 104 68 46 
186 973 308 98 69 46 
186 973 309 100 72 48 
186 972 310 106 72 50 
186 972 311 105 70 48 
186 973 310 103 77 55 
186 973 311 106 80 58 
187 973 310 107 82 60 
187 973 311 109 83 61 
186 974 308 105 77 50 
186 974 309 106 79 54 
186 975 308 109 81 52 
186 975 309 111 84 57 
186 974 310 105 78 53 
186 975 310 111 86 59 
187 974 310 109 81 56 
187 974 311 117 90 66 
187 975 310 116 90 64 
187 975 311 124 97 70 
184 969 312 122 99 76 
184 969 313 128 105 82 
184 969 314 133 109 84 
184 969 315 138 112 86 
185 969 314 136 105 76 
185 969 315 142 108 76 
185 970 312 139 110 82 
185 970 313 134 103 72 
185 970 314 133 98 68 
186 970 313 131 97 68 
186 971 312 123 87 59 
186 971 313 129 95 67 
187 971 313 128 99 74 
186 970 314 127 88 60 
186 970 315 135 95 64 
186 971 314 127 94 68 
187 970 315 124 84 55 
187 971 314 127 99 75 
187 971 315 118 91 66 
185 969 316 145 112 81 
186 969 316 149 114 84 
186 970 316 139 99 65 
187 970 316 127 89 60 
187 970 317 137 99 71 
187 971 316 111 80 58 
186 972 312 107 69 45 
187 972 312 104 73 52 
187 972 313 117 84 60 
187 973 312 115 89 68 
187 973 313 122 92 71 
187 972 314 134 111 87 
187 972 315 132 111 90 
187 974 312 126 99 76 
187 975 312 133 107 81 
188 970 317 115 75 53 
188 971 316 107 82 63 
188 971 317 100 71 55 
189 971 317 97 72 56 
188 970 318 114 72 47 
188 970 319 115 73 44 
188 971 318 98 61 43 
189 970 318 92 57 34 
189 970 319 100 63 39 
189 971 318 93 64 45 
190 970 319 110 78 60 
190 971 318 101 73 58 
190 971 319 108 79 64 
191 971 319 93 65 47 
188 973 313 132 102 77 
188 972 314 145 122 99 
188 972 315 137 117 97 
188 973 314 148 124 100 
188 973 315 144 121 98 
189 973 315 129 107 83 
188 974 312 131 106 82 
188 974 313 135 107 83 
188 975 312 136 111 85 
188 975 313 145 118 93 
188 974 314 148 123 97 
189 974 315 128 104 80 
189 975 314 150 124 97 
189 975 315 132 106 82 
190 974 315 103 80 60 
190 975 315 109 84 61 
191 975 315 96 71 51 
188 972 316 112 93 75 
189 972 316 103 81 58 
189 972 317 91 65 43 
189 973 316 106 84 60 
190 972 317 96 72 51 
190 973 316 99 77 58 
190 973 317 101 79 61 
191 972 317 89 65 45 
191 973 316 83 60 33 
191 973 317 80 57 37 
190 972 318 98 72 55 
191 972 318 85 59 44 
191 972 319 85 58 41 
190 974 316 98 75 55 
191 974 316 88 65 43 
176 976 288 102 83 65 
176 976 289 99 78 60 
176 977 288 107 87 70 
176 977 289 101 80 62 
177 976 289 97 73 57 
177 976 290 96 71 52 
177 976 291 96 70 48 
177 977 290 97 73 55 
177 977 291 98 72 50 
176 978 288 99 74 53 
176 978 289 97 73 51 
176 979 289 97 74 51 
176 978 290 98 75 54 
176 979 290 99 76 56 
176 979 291 98 76 55 
177 978 290 97 74 55 
177 978 291 97 73 51 
177 979 291 99 77 56 
178 976 291 102 76 55 
178 977 291 103 78 56 
177 978 292 112 88 65 
177 978 293 125 100 76 
177 979 292 109 85 61 
177 979 293 122 97 73 
177 979 294 129 103 79 
177 979 295 133 107 82 
178 976 292 108 82 58 
178 976 293 113 85 56 
178 977 292 115 90 66 
178 977 293 124 99 74 
179 976 293 115 86 57 
178 977 294 133 108 83 
178 977 295 133 108 83 
179 976 294 120 91 60 
179 976 295 121 93 64 
179 977 294 127 101 75 
179 977 295 129 103 78 
178 978 292 118 94 70 
178 978 293 126 101 77 
178 978 294 133 107 83 
178 978 295 134 109 84 
176 980 289 96 72 50 
176 980 290 99 75 55 
176 980 291 98 76 56 
176 980 292 100 76 54 
176 980 293 111 85 61 
176 981 292 99 73 56 
176 981 293 102 75 56 
176 980 294 124 96 72 
176 980 295 130 102 77 
176 981 294 121 94 72 
176 981 295 131 103 78 
177 980 294 123 96 71 
177 980 295 131 104 78 
176 982 294 120 94 73 
176 982 295 134 107 81 
176 983 294 128 102 80 
176 983 295 139 113 87 
177 979 296 133 106 80 
177 979 297 136 111 85 
178 977 296 131 105 80 
179 976 296 125 97 71 
179 976 297 128 103 79 
179 977 296 131 104 79 
179 977 297 133 109 85 
179 977 298 129 104 78 
178 978 296 132 106 81 
178 978 297 136 112 87 
178 979 296 134 108 82 
178 979 297 138 113 88 
179 978 297 135 110 87 
178 979 298 138 113 89 
178 979 299 134 110 86 
179 978 298 132 108 83 
179 978 299 130 105 79 
179 979 299 130 106 81 
179 979 300 128 102 76 
176 980 296 133 106 78 
176 981 296 136 109 81 
177 980 296 133 106 80 
177 980 297 141 115 89 
177 981 296 138 111 83 
177 981 297 147 121 95 
177 980 298 146 121 96 
177 981 298 148 123 99 
176 982 296 143 117 88 
176 983 296 151 125 98 
177 982 297 153 127 101 
177 983 297 151 125 99 
177 982 298 145 119 94 
177 983 298 137 112 85 
178 980 298 142 118 93 
178 980 299 135 110 85 
178 981 298 142 117 92 
178 981 299 130 104 78 
179 980 299 131 107 82 
178 982 298 135 109 83 
178 982 299 125 97 72 
178 983 298 130 102 76 
178 983 299 120 89 63 
178 981 300 124 96 72 
179 980 300 125 99 74 
179 980 301 122 95 72 
179 981 300 122 94 70 
179 981 301 116 89 63 
178 982 300 120 90 66 
178 983 300 116 83 56 
179 982 300 117 87 62 
179 982 301 115 86 57 
179 983 300 117 86 57 
179 983 301 122 95 68 
179 983 302 125 99 74 
180 976 297 124 100 74 
180 976 298 124 99 72 
180 976 299 131 105 77 
180 977 298 127 102 75 
180 977 299 130 105 77 
181 976 299 133 105 78 
180 978 299 130 104 77 
180 977 300 131 106 78 
181 976 300 133 107 81 
181 976 301 125 100 73 
181 977 300 131 106 81 
181 977 301 120 94 68 
180 978 300 127 102 74 
180 978 301 123 95 71 
180 979 300 125 99 74 
180 979 301 119 92 70 
181 978 301 120 92 67 
181 979 301 112 82 61 
181 978 302 111 80 56 
181 979 302 107 75 52 
182 976 301 116 90 63 
182 976 302 112 84 57 
182 977 302 112 84 59 
182 977 303 113 84 59 
183 976 302 111 82 54 
183 976 303 112 85 59 
183 977 303 112 83 55 
182 978 302 110 79 55 
182 978 303 110 81 53 
182 979 302 107 75 49 
182 979 303 109 77 51 
180 980 300 124 98 74 
180 980 301 115 86 64 
180 981 301 115 87 62 
180 980 302 107 74 49 
180 981 302 112 83 57 
181 980 302 104 71 48 
181 980 303 109 78 55 
181 981 302 110 80 55 
181 981 303 113 84 59 
180 982 302 119 91 65 
180 982 303 118 90 65 
180 983 302 125 99 73 
180 983 303 127 100 74 
181 982 303 120 92 67 
182 980 303 110 79 55 
176 985 293 153 126 99 
176 984 294 139 113 87 
176 984 295 152 125 98 
176 985 294 155 128 102 
176 985 295 154 126 98 
176 986 293 164 136 109 
176 987 292 169 140 110 
176 987 293 164 133 102 
176 986 294 156 128 99 
176 986 295 151 122 94 
176 987 294 150 118 90 
177 986 295 141 108 80 
177 987 294 147 114 86 
177 987 295 140 106 77 
176 989 288 152 116 83 
176 989 289 154 117 84 
176 988 290 167 132 98 
176 988 291 168 135 102 
176 989 290 159 122 88 
176 989 291 163 127 94 
176 990 288 154 122 89 
176 990 289 158 126 95 
176 991 288 158 127 96 
176 991 289 162 132 101 
176 990 290 166 132 100 
176 990 291 169 136 104 
176 991 290 170 138 106 
176 991 291 173 142 111 
177 990 291 174 142 111 
177 991 291 177 146 115 
176 988 292 167 135 102 
176 988 293 162 130 98 
176 989 292 165 130 98 
176 989 293 164 131 100 
177 988 293 161 129 99 
177 989 292 166 132 100 
177 989 293 163 130 100 
177 988 294 157 125 97 
177 988 295 153 122 92 
177 989 294 162 130 101 
177 989 295 164 133 103 
177 990 292 174 142 113 
177 990 293 173 141 115 
177 991 292 179 149 122 
177 991 293 177 147 121 
177 990 294 171 139 114 
177 990 295 175 143 119 
177 991 294 173 142 117 
177 991 295 173 142 117 
178 991 295 176 146 120 
176 984 296 156 128 101 
177 984 296 155 127 101 
177 984 297 145 118 91 
177 985 296 144 114 84 
177 985 297 128 95 64 
177 984 298 131 102 74 
177 985 298 125 91 60 
177 986 296 130 95 64 
177 986 297 131 97 69 
177 987 296 140 107 78 
177 987 297 142 109 80 
178 984 298 122 90 62 
178 984 299 120 89 61 
178 985 298 129 99 70 
178 985 299 133 105 77 
178 987 297 144 112 78 
178 986 298 141 110 82 
178 986 299 145 116 86 
178 987 298 146 114 79 
178 987 299 152 122 88 
178 984 300 124 95 68 
178 985 300 136 108 79 
179 984 300 127 100 73 
179 984 301 130 104 78 
179 985 300 137 109 80 
179 985 301 140 112 82 
179 984 302 134 108 80 
179 985 302 146 119 90 
179 985 303 156 128 99 
178 986 300 147 118 88 
178 987 300 159 130 99 
179 986 300 148 119 88 
179 986 301 153 125 95 
179 987 300 169 140 111 
179 987 301 173 145 118 
179 986 302 163 135 107 
179 986 303 170 141 113 
179 987 302 185 156 129 
179 987 303 192 162 136 
177 988 296 153 122 88 
177 988 297 150 119 84 
177 989 296 167 136 105 
178 988 297 156 125 90 
178 989 296 174 143 113 
178 989 297 175 145 115 
178 988 298 159 127 94 
178 988 299 175 146 117 
178 989 298 183 154 126 
178 989 299 191 161 134 
178 990 296 183 152 127 
178 990 297 189 160 133 
178 991 296 181 151 123 
178 991 297 184 155 130 
178 990 298 195 166 139 
178 990 299 192 163 137 
178 991 298 189 162 139 
178 991 299 188 161 138 
179 991 299 187 159 136 
178 988 300 184 155 128 
178 989 300 192 162 135 
179 988 301 192 163 135 
179 989 300 191 162 134 
179 989 301 192 162 135 
179 988 302 197 167 139 
179 988 303 198 168 140 
179 989 302 193 163 133 
178 990 300 188 159 132 
179 990 300 188 159 132 
179 990 301 187 158 130 
179 991 300 191 163 139 
179 991 301 190 162 136 
179 990 302 193 163 135 
180 984 302 134 108 82 
180 984 303 139 113 84 
180 985 303 154 126 97 
180 986 303 175 147 120 
180 987 303 193 165 139 
180 988 303 199 169 142 
180 989 303 203 173 145 
180 991 301 196 167 141 
180 990 302 199 169 141 
180 990 303 206 176 149 
180 991 302 195 166 138 
180 991 303 194 164 136 
181 991 303 174 144 116 
182 991 303 165 138 113 
183 991 303 161 133 105 
184 991 303 155 125 95 
183 976 304 111 85 57 
183 976 305 111 83 54 
183 977 304 113 86 58 
183 977 305 113 86 59 
182 978 304 111 82 53 
182 979 304 112 83 55 
182 979 305 115 87 58 
183 978 304 113 86 58 
183 978 305 115 87 59 
183 979 305 115 89 60 
183 978 306 111 80 48 
183 979 306 113 85 52 
181 980 304 113 83 58 
181 981 304 117 89 63 
181 981 305 119 91 63 
180 983 304 132 105 77 
181 982 304 122 95 68 
181 982 305 127 100 73 
181 983 304 129 103 76 
181 983 305 143 117 91 
182 980 304 113 84 58 
182 980 305 117 90 61 
182 981 305 122 94 64 
183 980 305 117 91 61 
182 981 306 132 107 80 
183 980 306 122 96 67 
183 980 307 127 101 73 
183 981 306 140 115 89 
183 981 307 143 118 93 
182 982 305 132 105 77 
182 983 305 147 121 96 
182 982 306 147 122 96 
182 983 306 162 137 112 
182 983 307 174 149 125 
183 982 306 149 124 99 
183 982 307 159 135 111 
183 983 307 169 144 121 
183 983 308 167 142 119 
180 984 304 145 118 89 
180 984 305 163 136 108 
180 985 304 164 136 108 
180 985 305 175 147 120 
181 984 305 164 137 110 
181 985 305 183 154 128 
181 984 306 180 153 127 
181 985 306 191 164 139 
180 986 304 181 153 127 
180 986 305 189 161 135 
180 987 304 194 165 139 
180 987 305 200 171 145 
181 986 305 199 170 145 
181 987 305 209 180 155 
181 986 306 201 173 148 
181 987 306 210 181 156 
182 984 306 180 152 127 
182 984 307 183 156 132 
182 985 306 194 167 142 
182 985 307 190 163 138 
183 984 307 181 154 129 
183 985 307 178 149 123 
182 986 306 198 170 146 
182 986 307 190 162 137 
182 987 306 195 166 142 
182 987 307 186 158 132 
183 986 307 170 139 112 
183 987 307 162 131 102 
183 984 308 174 147 121 
183 985 308 175 145 118 
180 988 304 205 176 149 
180 988 305 207 178 153 
180 989 304 211 181 155 
181 988 305 209 180 156 
181 989 304 199 169 142 
181 989 305 192 162 135 
181 988 306 204 174 149 
180 990 304 204 174 147 
181 990 304 185 155 126 
181 991 304 172 142 113 
182 989 305 166 136 109 
183 989 305 163 136 112 
182 988 306 181 151 126 
183 988 306 157 127 97 
183 988 307 154 123 92 
183 989 306 161 133 108 
182 990 304 162 133 105 
182 990 305 163 133 105 
182 991 304 163 136 109 
183 990 304 163 137 111 
183 990 305 162 135 110 
183 991 304 165 138 111 
184 976 305 108 78 48 
184 977 305 110 80 49 
184 976 306 113 83 55 
184 977 306 112 80 50 
184 977 307 115 84 51 
185 976 306 114 86 60 
185 976 307 116 89 61 
185 977 307 121 91 60 
184 978 306 112 80 47 
184 978 307 117 86 53 
184 979 307 120 91 59 
185 978 307 122 92 58 
185 976 308 119 92 63 
185 977 308 130 103 72 
184 979 308 129 102 70 
185 978 308 132 104 72 
185 978 309 139 113 85 
185 979 308 133 106 74 
185 979 309 139 113 85 
186 976 308 118 91 62 
186 976 309 116 91 63 
186 977 308 127 100 71 
186 977 309 131 105 78 
186 976 310 119 94 68 
186 977 310 130 104 79 
187 976 310 123 97 71 
187 976 311 125 97 67 
187 977 310 127 101 74 
187 977 311 128 99 70 
186 978 309 139 113 88 
186 978 310 133 106 81 
186 979 310 135 106 80 
186 979 311 135 105 78 
187 978 311 132 103 74 
187 979 311 134 105 77 
184 980 307 126 100 70 
184 981 307 137 112 85 
184 980 308 134 107 79 
184 981 308 145 121 96 
185 980 308 136 109 79 
185 980 309 139 112 85 
185 981 309 142 114 87 
185 980 310 137 109 85 
184 982 308 158 133 111 
184 982 309 149 120 95 
184 983 308 163 136 112 
184 983 309 154 122 93 
185 982 309 146 114 82 
185 983 309 156 125 95 
185 982 310 150 120 89 
185 983 310 158 126 99 
186 980 310 135 105 79 
186 980 311 138 109 80 
186 981 310 143 112 84 
186 981 311 147 118 89 
187 980 311 138 109 80 
187 981 311 136 101 72 
186 982 310 154 123 96 
186 982 311 144 112 84 
186 983 310 140 102 74 
187 982 311 131 93 65 
187 983 311 128 89 62 
188 983 311 146 110 79 
189 983 311 153 119 86 
190 983 311 138 102 69 
191 983 311 122 82 53 
187 976 312 133 103 73 
187 977 312 135 104 72 
187 978 312 138 107 76 
187 979 312 138 107 75 
187 980 312 140 108 76 
187 980 313 141 107 73 
187 981 312 139 102 73 
187 982 312 130 89 61 
188 976 312 140 111 83 
188 976 313 155 126 100 
188 977 312 142 110 80 
188 977 313 161 129 100 
189 976 313 167 138 108 
189 977 313 172 140 109 
189 976 314 154 127 100 
189 977 314 161 133 105 
188 978 312 141 109 77 
188 978 313 162 129 97 
188 979 312 146 113 80 
188 979 313 164 130 97 
189 978 313 176 145 114 
189 979 313 171 139 109 
189 978 314 167 138 111 
190 976 314 125 97 70 
190 976 315 112 85 63 
190 977 314 131 104 77 
191 976 314 105 80 58 
191 976 315 102 77 55 
191 977 314 109 86 62 
190 979 313 143 111 78 
191 979 313 128 99 67 
190 978 314 140 113 86 
190 979 314 133 104 75 
191 978 314 114 88 62 
191 979 314 120 91 61 
188 980 313 162 127 95 
188 981 312 156 119 92 
188 981 313 169 134 106 
189 980 313 168 133 102 
189 981 313 158 120 85 
188 982 312 149 113 86 
188 983 312 145 109 80 
189 982 312 152 115 78 
189 983 312 152 117 84 
190 980 313 140 108 73 
190 981 312 142 108 74 
190 981 313 142 108 73 
191 980 313 135 105 74 
191 981 312 135 102 69 
191 981 313 137 106 75 
190 982 312 145 110 75 
190 983 312 144 109 75 
191 982 312 130 94 58 
191 983 312 126 87 54 
184 986 307 159 126 99 
184 987 307 145 111 83 
185 987 307 132 97 65 
184 984 308 164 134 104 
184 984 309 161 129 99 
184 985 308 164 132 102 
184 985 309 165 132 103 
185 984 309 156 121 94 
185 985 308 139 98 68 
185 985 309 136 91 61 
185 984 310 155 121 95 
184 986 308 151 116 87 
184 987 308 136 99 68 
185 986 308 120 73 38 
185 987 308 128 92 62 
186 985 309 121 77 47 
187 985 309 144 111 77 
186 984 310 128 82 53 
186 985 310 121 73 45 
187 984 310 132 95 64 
187 985 310 143 110 74 
186 986 308 133 99 71 
186 986 309 126 87 57 
186 987 308 149 120 92 
187 986 308 153 121 88 
187 986 309 155 123 90 
187 987 308 164 132 99 
184 989 305 156 127 98 
184 988 306 150 120 90 
184 988 307 144 113 81 
184 989 306 153 122 91 
185 988 306 159 129 99 
185 988 307 154 124 95 
185 989 306 161 129 98 
184 990 305 153 123 93 
184 991 304 149 117 86 
185 990 305 149 113 84 
185 991 304 131 98 75 
185 991 305 135 100 75 
186 988 307 167 138 108 
186 989 306 156 120 88 
186 989 307 170 139 107 
187 988 307 157 124 93 
187 989 306 132 92 62 
187 989 307 145 107 76 
186 990 305 136 97 71 
186 991 304 132 101 82 
186 991 305 133 100 80 
187 990 305 140 111 89 
187 991 304 140 113 92 
187 991 305 142 115 93 
186 990 306 134 92 64 
187 990 306 134 101 78 
188 985 309 163 129 95 
189 985 309 139 100 64 
188 984 310 150 115 79 
188 984 311 148 113 80 
188 985 310 163 130 96 
189 984 310 148 112 79 
189 984 311 154 120 88 
189 985 310 143 105 69 
188 986 309 158 122 89 
188 987 308 148 109 78 
189 986 309 134 95 63 
189 987 308 133 99 70 
190 984 310 124 84 56 
190 984 311 130 91 59 
190 985 310 124 87 60 
191 984 310 122 88 66 
191 984 311 120 83 58 
191 985 310 123 91 67 
190 986 309 127 94 65 
190 987 308 131 98 70 
191 986 309 124 91 65 
191 987 308 121 86 57 
191 987 309 126 93 66 
188 988 307 135 101 73 
188 989 306 140 112 87 
188 989 307 139 108 82 
189 988 307 141 112 84 
189 989 306 136 106 79 
189 989 307 139 109 83 
188 990 305 142 114 90 
188 991 305 135 105 80 
189 991 305 121 89 65 
188 990 306 145 117 93 
189 990 306 128 96 68 
190 988 307 126 93 69 
190 989 306 125 92 65 
190 989 307 124 91 67 
191 988 307 120 87 60 
191 989 307 127 97 72 
190 991 305 126 96 71 
191 991 305 124 95 69 
190 990 306 126 95 66 
191 990 306 130 101 76 
191 991 306 127 99 73 
188 988 308 138 100 69 
189 988 308 138 108 81 
190 988 308 131 98 72 
191 988 308 121 86 58 
175 992 265 197 172 150 
174 992 266 193 164 135 
174 992 267 190 157 122 
175 992 266 194 167 142 
175 992 267 196 167 140 
175 993 266 188 161 137 
175 993 267 190 162 134 
173 992 271 161 131 104 
174 992 268 188 155 118 
174 992 269 184 151 119 
175 992 268 205 174 144 
175 993 268 203 171 140 
175 993 269 208 177 148 
174 992 270 180 150 120 
174 992 271 179 150 122 
175 993 270 209 179 151 
175 993 271 205 175 147 
173 992 272 165 134 104 
173 992 273 159 129 97 
174 992 272 179 149 121 
174 992 273 172 144 115 
175 992 272 191 162 134 
175 993 272 199 170 143 
175 993 273 187 160 137 
174 992 274 161 134 106 
174 992 275 156 130 104 
175 992 274 170 145 121 
175 992 275 160 134 110 
175 993 274 176 150 126 
174 992 276 154 127 101 
175 992 276 150 124 97 
175 992 277 147 119 91 
175 992 286 160 129 99 
177 992 263 187 158 134 
178 992 263 190 158 132 
179 992 263 188 155 127 
176 992 264 181 157 136 
176 992 265 187 162 140 
177 992 264 184 157 135 
177 992 265 183 157 136 
177 993 265 184 154 132 
176 993 266 182 156 133 
176 993 267 189 162 138 
177 993 266 183 155 131 
177 993 267 186 158 133 
177 994 267 181 153 128 
178 992 264 191 160 135 
178 992 265 189 159 136 
