ply
format ascii 1.0
comment Created by CloudCompare v2.10.1 (Zephyrus)
comment Created 1/31/20 10:55 AM
obj_info Generated by CloudCompare!
element vertex 2000
property float x
property float y
property float z
property uchar red
property uchar green
property uchar blue
end_header
299 265 326 105 95 95 
299 265 327 114 112 114 
300 264 320 73 97 120 
300 264 321 69 84 106 
300 265 320 66 95 120 
300 265 321 69 91 114 
300 264 322 71 74 96 
300 264 323 78 66 84 
300 265 322 71 85 108 
300 265 323 78 72 94 
300 264 324 91 77 84 
300 265 324 79 61 81 
298 264 328 130 132 138 
298 264 329 128 130 138 
299 264 328 131 132 140 
298 264 330 120 122 130 
298 264 331 123 124 131 
298 264 332 128 128 135 
298 264 333 129 128 133 
299 256 336 106 105 110 
299 256 337 90 84 83 
299 257 336 112 119 130 
299 257 337 110 111 114 
299 258 336 100 113 129 
299 258 337 103 108 117 
299 259 336 95 112 131 
299 259 337 102 110 122 
299 258 338 99 98 101 
299 259 338 101 102 108 
299 260 336 89 109 130 
299 260 337 104 117 133 
299 261 336 92 110 129 
299 261 337 92 111 132 
299 260 338 111 115 122 
299 261 338 101 114 130 
299 262 336 102 116 133 
299 262 337 97 114 133 
299 263 337 108 121 138 
299 262 338 100 116 134 
299 263 338 99 117 137 
300 256 337 88 82 81 
300 256 338 88 87 89 
300 256 339 98 104 113 
300 257 338 104 101 100 
300 257 339 104 107 112 
301 256 339 102 110 121 
300 258 338 101 97 96 
300 258 339 99 99 103 
300 259 338 100 97 97 
300 259 339 97 96 96 
301 256 340 115 123 135 
301 257 340 110 118 130 
300 259 340 99 100 105 
301 258 340 105 114 125 
301 259 340 104 114 126 
302 256 340 116 122 131 
302 256 341 110 116 126 
302 257 340 120 129 142 
302 257 341 119 127 140 
303 256 340 112 111 114 
303 256 341 108 105 108 
303 257 341 108 109 114 
302 258 340 116 128 143 
302 258 341 119 130 145 
302 259 341 116 129 145 
303 258 341 122 125 133 
303 259 341 127 131 138 
300 260 339 109 107 107 
300 261 339 110 111 116 
300 262 339 115 118 123 
300 263 339 118 123 132 
300 260 340 105 103 104 
300 261 340 113 110 109 
301 260 340 104 110 119 
301 260 341 110 118 129 
301 261 340 114 113 115 
301 261 341 114 121 132 
300 262 340 117 114 115 
300 263 340 121 122 125 
300 263 341 126 122 122 
301 262 341 119 121 127 
301 263 341 118 119 125 
301 263 342 110 117 128 
302 260 341 113 127 144 
302 261 341 113 127 143 
303 260 341 126 134 146 
302 261 342 116 130 147 
303 260 342 127 135 145 
303 261 342 123 134 148 
302 262 341 114 127 142 
302 262 342 114 128 146 
302 263 342 110 125 144 
303 262 342 121 132 147 
303 263 342 118 131 148 
299 264 338 104 120 139 
300 264 340 124 126 133 
300 264 341 122 118 119 
300 265 340 120 128 139 
300 265 341 122 124 129 
301 264 341 120 118 118 
300 265 342 122 121 124 
301 264 342 112 115 121 
301 265 342 117 118 124 
302 264 342 109 123 140 
302 265 342 108 121 138 
303 264 342 116 131 149 
313 256 335 102 99 103 
313 257 335 102 103 110 
313 258 334 101 103 110 
313 258 335 100 102 109 
313 259 334 98 100 105 
313 259 335 103 104 109 
314 256 334 99 99 105 
314 256 335 101 98 103 
314 257 334 101 102 108 
315 256 334 105 105 112 
315 257 334 106 108 114 
314 258 334 102 104 110 
314 259 334 101 103 109 
315 258 334 105 108 116 
315 259 334 103 108 117 
313 260 335 101 101 105 
313 261 335 107 106 109 
313 262 335 106 107 111 
313 263 335 99 101 107 
314 260 334 99 101 107 
314 260 335 100 100 104 
314 261 334 99 102 108 
314 261 335 100 102 108 
315 260 334 102 107 116 
315 261 334 103 108 117 
315 261 335 99 104 112 
314 262 335 100 103 110 
314 263 335 100 104 111 
315 262 335 103 108 116 
315 263 335 107 110 118 
316 261 335 118 122 130 
316 262 335 115 118 126 
316 263 335 113 116 124 
314 264 335 96 103 114 
314 265 335 92 102 115 
315 264 335 105 109 117 
315 265 335 100 106 116 
315 266 335 101 108 119 
316 264 335 115 118 126 
316 265 335 115 118 126 
316 266 335 112 116 125 
304 256 341 117 106 97 
304 257 341 114 103 96 
305 256 340 130 115 102 
305 256 341 130 114 99 
305 257 341 130 113 98 
304 258 341 124 115 109 
304 259 341 131 123 120 
305 258 341 133 117 102 
305 259 341 135 120 108 
304 259 342 135 126 121 
306 256 340 131 115 102 
306 256 341 137 120 106 
306 257 341 137 119 104 
307 256 340 138 121 107 
307 256 341 140 124 109 
307 257 341 138 122 108 
306 258 341 135 118 102 
306 259 341 138 121 107 
307 258 341 136 120 107 
307 259 341 141 125 110 
304 260 342 136 131 131 
304 261 342 132 131 133 
305 260 342 139 126 118 
305 261 342 135 126 120 
304 262 342 127 127 131 
304 263 342 122 126 135 
305 262 342 130 124 122 
305 263 342 123 121 123 
306 260 341 140 124 110 
307 260 341 142 125 110 
307 261 341 131 116 101 
306 260 342 141 126 114 
306 261 342 134 121 111 
307 260 342 139 124 110 
307 261 342 132 117 104 
307 262 341 128 115 106 
306 262 342 130 120 114 
306 263 342 129 122 119 
307 262 342 130 118 109 
307 263 342 130 124 122 
309 256 339 128 114 102 
311 256 337 118 107 102 
311 257 337 108 100 95 
310 256 338 133 121 113 
310 256 339 130 117 106 
310 257 339 130 117 107 
311 256 338 127 116 109 
311 257 338 120 112 108 
311 257 339 128 118 112 
310 258 339 132 123 117 
310 259 339 138 130 127 
311 258 338 122 117 115 
311 258 339 130 124 121 
311 259 338 125 123 126 
311 259 339 134 129 130 
308 256 340 134 119 107 
308 257 340 137 121 109 
308 257 341 137 122 110 
309 256 340 131 116 104 
309 257 340 133 118 106 
308 258 340 137 121 108 
308 258 341 137 122 109 
308 259 340 141 126 111 
308 259 341 141 125 111 
309 258 340 134 120 108 
309 259 340 140 126 115 
310 258 340 131 119 110 
310 259 340 137 127 120 
310 260 339 134 131 132 
311 260 338 123 125 131 
311 260 339 130 131 136 
311 261 338 119 120 125 
311 261 339 128 129 135 
311 262 338 124 124 128 
311 262 339 126 128 136 
311 263 338 123 123 129 
311 263 339 124 126 134 
308 260 341 138 122 109 
308 261 341 130 117 106 
309 260 340 138 126 116 
309 260 341 138 126 115 
309 261 340 133 127 125 
309 261 341 133 123 116 
308 262 341 130 122 118 
308 263 341 133 131 134 
309 262 341 130 127 130 
309 263 341 131 134 142 
308 263 342 130 129 133 
310 260 340 135 130 129 
310 261 340 131 130 134 
310 262 340 128 130 138 
310 263 340 131 134 142 
304 264 342 123 129 139 
305 264 342 122 121 125 
306 264 342 123 118 118 
306 265 342 121 118 121 
307 264 342 127 125 128 
307 265 342 122 124 132 
307 266 342 128 135 146 
307 267 342 130 140 154 
311 264 338 102 104 112 
311 264 339 110 113 119 
311 265 339 112 115 121 
311 266 339 117 120 127 
311 267 339 121 126 135 
308 264 341 132 135 143 
309 264 341 132 137 148 
309 265 341 125 133 145 
308 264 342 127 130 138 
308 265 342 123 130 143 
309 266 341 122 128 139 
309 267 341 128 131 139 
308 266 342 124 133 146 
308 267 342 127 136 150 
309 266 342 124 133 145 
309 267 342 129 136 146 
310 264 340 127 132 140 
310 264 341 129 135 146 
310 265 340 124 128 135 
310 265 341 126 133 144 
311 264 340 123 126 134 
311 265 340 120 123 130 
310 266 340 121 124 132 
310 266 341 121 127 136 
310 267 340 128 130 137 
310 267 341 131 132 138 
311 266 340 121 123 130 
311 267 340 126 129 136 
311 268 339 117 126 138 
311 269 339 111 124 141 
309 268 341 134 137 144 
308 268 342 127 136 150 
309 268 342 131 136 145 
310 268 340 135 139 148 
310 268 341 135 137 145 
310 269 340 117 131 148 
310 269 341 124 135 149 
311 268 340 131 137 147 
311 269 340 115 128 144 
312 256 336 104 98 98 
312 256 337 108 100 99 
312 257 336 101 99 103 
312 257 337 105 100 100 
313 256 336 103 98 100 
313 257 336 100 100 106 
312 258 336 106 106 112 
312 258 337 111 109 112 
312 259 336 107 107 113 
312 259 337 109 110 116 
313 258 336 101 102 108 
312 258 338 118 115 116 
312 259 338 118 117 121 
312 260 336 108 106 111 
312 260 337 113 113 118 
312 261 336 115 112 113 
312 261 337 120 117 120 
313 260 336 108 107 111 
313 261 336 111 109 111 
312 262 336 112 109 111 
312 262 337 119 116 117 
312 263 336 111 108 111 
312 263 337 112 109 114 
313 262 336 107 107 109 
313 263 336 101 102 109 
312 263 338 120 120 124 
312 264 337 98 99 109 
312 265 337 103 109 119 
313 264 336 96 100 111 
313 264 337 96 99 109 
313 265 336 95 105 118 
313 265 337 98 104 114 
312 264 338 97 98 106 
312 265 338 104 109 118 
312 266 337 101 111 124 
312 267 337 97 109 123 
313 266 336 93 105 119 
313 266 337 95 106 120 
313 267 336 96 107 121 
313 267 337 96 107 122 
312 266 338 110 117 128 
312 267 338 105 115 128 
314 265 336 94 105 120 
314 266 336 93 103 117 
314 267 336 95 105 118 
315 266 336 99 106 119 
315 267 336 100 108 120 
312 268 337 103 114 128 
312 269 337 112 119 131 
313 268 336 101 110 123 
313 268 337 105 114 128 
313 269 336 110 117 128 
313 269 337 112 120 132 
312 268 338 104 115 129 
312 269 338 107 119 134 
313 270 336 107 116 128 
313 270 337 116 121 132 
314 268 336 95 104 116 
314 269 336 97 107 119 
315 268 336 98 106 119 
315 269 336 92 104 118 
314 270 336 95 107 122 
315 270 336 94 107 123 
315 271 336 93 107 123 
316 266 336 122 125 133 
316 267 336 117 121 130 
316 268 336 118 123 133 
316 269 336 113 121 133 
316 270 336 107 118 132 
316 271 336 97 113 131 
302 266 343 107 123 141 
302 267 343 102 117 134 
303 267 343 110 129 149 
301 270 343 120 132 149 
301 271 343 117 132 150 
302 268 343 107 120 136 
302 269 343 119 131 146 
303 268 343 110 129 150 
303 269 343 116 134 155 
302 270 343 119 132 149 
302 271 343 116 132 151 
303 270 343 115 134 156 
303 271 343 113 134 157 
301 272 343 117 133 152 
301 273 343 117 134 155 
301 274 343 113 132 154 
301 275 343 108 129 152 
302 272 343 115 133 154 
302 273 343 113 133 156 
303 272 343 113 135 159 
303 273 343 110 133 158 
302 274 343 111 132 155 
302 275 343 107 129 153 
301 276 343 104 127 151 
301 277 343 104 128 152 
302 276 343 105 129 153 
303 273 344 112 135 160 
302 274 344 108 132 156 
302 275 344 106 130 154 
303 274 344 109 133 158 
303 275 344 109 134 159 
301 277 344 102 127 152 
301 278 344 97 125 151 
301 279 344 95 123 150 
302 276 344 104 130 155 
302 277 344 102 128 155 
303 276 344 110 134 159 
303 277 344 110 134 159 
302 278 344 97 125 152 
302 279 344 96 125 152 
303 278 344 113 137 161 
303 279 344 113 137 161 
301 280 344 94 121 148 
301 281 344 91 119 145 
301 282 344 89 117 144 
301 283 344 90 117 143 
302 280 344 97 125 152 
302 281 344 99 126 152 
303 280 344 114 137 161 
303 281 344 116 138 162 
303 281 345 116 138 161 
302 282 344 97 125 151 
302 282 345 107 131 156 
302 283 345 106 130 155 
303 282 345 117 138 161 
303 283 345 120 139 162 
301 284 344 89 115 142 
301 284 345 98 122 147 
301 285 345 103 125 148 
301 286 345 110 130 152 
301 287 345 119 135 154 
302 284 345 113 134 157 
302 285 345 122 139 159 
303 284 345 125 142 163 
303 285 345 131 145 164 
302 286 345 130 143 161 
302 287 345 139 149 164 
303 286 345 137 148 165 
303 287 345 145 154 168 
304 267 343 125 137 153 
304 268 343 127 141 158 
304 269 343 126 142 160 
305 268 343 135 143 157 
305 269 343 133 145 162 
304 270 343 125 142 163 
304 271 343 122 142 164 
305 270 343 130 146 166 
305 271 343 126 145 166 
306 268 343 134 143 157 
306 269 343 131 144 162 
307 268 343 130 141 157 
307 269 343 126 140 157 
306 270 343 126 143 163 
306 271 343 124 142 163 
307 270 343 125 140 158 
307 271 343 121 138 158 
308 271 343 120 134 152 
304 272 343 120 141 164 
305 272 343 121 142 164 
305 273 343 119 140 164 
306 272 343 123 142 163 
306 273 343 121 141 163 
307 272 343 119 136 157 
307 273 343 124 141 161 
306 274 343 119 140 163 
306 275 343 120 140 163 
307 274 343 125 143 164 
307 275 343 120 141 164 
307 276 343 117 139 163 
307 277 343 113 136 161 
307 278 343 116 137 161 
307 279 343 116 138 163 
308 272 343 123 138 156 
308 273 343 125 140 159 
308 274 343 123 141 162 
308 275 343 118 138 161 
308 276 343 116 136 159 
308 277 343 119 138 160 
308 278 343 120 139 161 
308 279 343 121 139 161 
304 273 344 119 141 164 
305 273 344 119 141 165 
304 274 344 119 140 164 
304 275 344 120 141 165 
305 274 344 121 142 166 
305 275 344 121 143 166 
306 274 344 120 141 164 
306 275 344 118 140 163 
304 276 344 121 141 165 
304 277 344 122 142 165 
305 276 344 122 142 166 
305 277 344 121 142 165 
304 278 344 123 143 166 
304 279 344 121 142 165 
305 278 344 118 140 164 
305 279 344 115 138 163 
306 276 344 115 138 162 
306 277 344 112 136 161 
307 277 344 111 136 161 
306 278 344 108 134 160 
306 279 344 104 131 158 
307 278 344 107 133 160 
307 279 344 111 136 162 
308 280 343 123 141 162 
308 281 343 123 141 161 
309 280 343 142 152 167 
309 281 343 144 152 166 
308 282 343 119 138 159 
308 283 343 122 139 158 
309 282 343 138 147 161 
309 283 343 134 143 157 
309 284 343 142 150 164 
309 285 343 146 153 167 
309 286 343 136 141 154 
309 287 343 119 118 134 
310 285 343 147 152 164 
310 286 343 128 130 144 
310 287 343 108 103 120 
304 280 344 119 141 165 
304 281 344 116 139 163 
305 280 344 111 136 162 
305 281 344 108 134 161 
304 282 344 112 136 161 
304 282 345 116 138 162 
304 283 345 116 138 162 
305 282 344 106 133 160 
305 283 344 104 132 159 
305 283 345 106 133 160 
306 280 344 104 131 158 
306 281 344 108 134 160 
307 280 344 113 137 163 
307 281 344 109 134 160 
306 282 344 109 134 160 
306 283 344 109 134 160 
307 282 344 107 132 158 
307 283 344 108 133 158 
304 284 345 117 139 162 
304 285 345 123 141 164 
305 284 344 103 131 159 
305 284 345 105 132 159 
305 285 345 107 133 159 
304 286 345 126 143 163 
304 287 345 133 147 165 
305 286 345 110 134 160 
305 287 345 116 138 162 
306 284 344 108 134 160 
306 285 344 110 134 159 
306 285 345 108 133 159 
307 284 344 111 135 160 
307 285 344 115 137 160 
306 286 345 107 133 158 
306 287 345 107 132 158 
307 286 344 117 136 158 
307 286 345 108 129 152 
307 287 344 112 126 148 
307 287 345 107 127 150 
308 282 344 113 135 159 
308 283 344 114 135 158 
308 284 344 124 141 161 
308 285 344 132 146 165 
309 285 344 141 151 166 
308 286 344 128 141 159 
308 287 344 116 125 142 
309 286 344 136 143 159 
309 287 344 122 124 140 
301 288 345 124 137 154 
301 289 345 112 124 139 
301 290 345 93 104 122 
301 291 345 87 97 118 
301 291 346 87 88 110 
302 288 345 146 153 165 
302 289 345 138 144 154 
303 288 345 148 155 168 
303 289 345 144 150 162 
302 289 346 133 136 145 
303 289 346 135 140 152 
302 290 346 115 115 124 
302 291 346 98 87 104 
303 290 346 115 117 129 
303 291 346 99 90 103 
301 292 345 74 90 113 
301 293 345 71 95 120 
301 292 346 75 86 111 
301 293 346 76 98 125 
301 294 346 68 106 136 
301 295 346 74 116 148 
302 292 346 88 72 96 
302 293 346 81 83 110 
303 292 346 91 76 95 
303 293 346 79 84 107 
302 294 346 59 94 124 
302 295 346 69 111 144 
303 294 346 70 104 132 
303 295 346 79 120 152 
301 296 346 81 122 155 
301 297 346 74 115 150 
301 298 346 74 116 150 
301 298 347 80 120 154 
301 299 347 84 125 158 
302 296 346 84 124 157 
302 297 346 78 120 154 
302 297 347 77 119 154 
303 296 346 83 126 160 
303 297 346 78 123 158 
303 297 347 78 122 158 
302 298 347 81 123 157 
302 299 347 86 128 162 
303 298 347 83 127 162 
303 299 347 88 131 166 
301 300 347 81 123 157 
301 301 347 76 117 152 
302 300 347 85 128 162 
302 301 347 80 122 156 
303 300 347 87 130 164 
303 301 347 82 123 157 
309 288 343 101 87 108 
309 289 343 96 81 106 
309 290 343 79 90 115 
309 291 343 71 104 132 
310 288 343 96 86 106 
310 289 343 95 86 108 
310 290 343 75 93 116 
310 291 343 77 107 132 
309 292 343 79 117 148 
310 292 343 77 113 142 
310 293 343 74 112 142 
310 294 343 76 112 142 
310 295 343 78 115 145 
304 288 345 138 150 167 
304 289 345 128 144 163 
305 288 345 120 141 164 
305 289 345 116 137 160 
304 289 346 124 137 154 
305 290 345 106 127 150 
305 291 345 101 122 146 
304 290 346 112 126 144 
304 291 346 102 107 126 
305 290 346 105 124 146 
305 291 346 103 120 144 
306 288 345 106 130 155 
306 289 345 106 130 155 
307 288 345 109 121 144 
307 289 345 105 118 141 
306 290 345 99 125 151 
306 291 345 95 120 147 
307 290 345 99 120 146 
307 291 345 93 121 147 
304 292 346 99 102 122 
304 293 346 92 108 130 
305 292 346 108 122 146 
305 293 346 108 127 151 
304 294 346 88 121 148 
304 295 346 90 127 157 
305 294 346 101 128 155 
305 295 346 103 133 160 
306 292 345 96 119 147 
306 293 345 96 122 149 
307 292 345 90 120 148 
307 293 345 90 121 149 
306 292 346 100 120 147 
306 293 346 103 126 152 
306 294 345 95 124 151 
307 294 345 95 125 153 
307 295 345 101 131 159 
306 294 346 102 130 157 
306 295 346 105 134 161 
308 288 344 105 106 126 
308 289 344 98 97 120 
309 288 344 103 95 114 
309 289 344 96 83 108 
308 290 344 94 102 128 
308 290 345 99 115 140 
308 291 344 84 110 137 
308 291 345 97 121 147 
309 290 344 87 91 117 
309 291 344 72 104 133 
308 292 344 86 121 150 
308 292 345 94 124 152 
308 293 344 88 124 155 
308 293 345 94 125 154 
309 292 344 79 117 149 
309 293 344 83 121 152 
308 294 345 94 127 157 
308 295 345 97 129 159 
309 294 344 87 123 154 
309 295 344 89 125 156 
310 296 343 81 116 145 
310 297 343 82 110 136 
310 298 343 81 105 128 
310 299 343 79 103 127 
311 299 343 81 100 120 
310 300 343 77 103 128 
310 301 343 72 102 128 
311 300 343 78 102 124 
311 301 343 74 103 128 
304 296 346 88 129 162 
304 297 346 79 124 159 
305 296 346 97 131 161 
305 297 346 82 122 155 
304 298 347 81 127 163 
304 299 347 88 132 167 
305 298 346 80 123 158 
305 298 347 83 127 163 
305 299 346 86 128 161 
305 299 347 86 129 164 
307 296 345 101 132 160 
307 297 345 102 132 161 
306 296 346 106 135 163 
306 297 346 97 129 158 
307 296 346 103 133 161 
307 297 346 103 133 161 
307 298 345 107 135 163 
306 298 346 91 126 157 
306 299 346 92 130 161 
307 298 346 103 133 162 
307 299 346 102 134 162 
304 300 347 88 130 164 
304 301 347 81 120 153 
305 300 347 87 129 163 
305 301 347 79 120 154 
306 300 346 88 128 161 
306 301 346 86 127 161 
306 301 347 82 125 159 
307 300 346 99 132 163 
307 301 346 93 131 163 
308 296 345 96 129 159 
308 297 345 97 130 159 
309 296 344 89 126 157 
309 296 345 94 130 160 
309 297 344 85 120 150 
309 297 345 92 127 158 
308 298 345 98 128 158 
308 299 345 99 129 157 
309 298 344 80 112 142 
309 298 345 91 124 154 
309 299 344 84 115 143 
309 299 345 93 125 153 
308 300 345 100 131 160 
308 301 345 103 134 162 
309 300 344 87 117 143 
309 300 345 94 125 154 
309 301 344 87 116 143 
309 301 345 96 126 154 
308 301 346 103 136 166 
310 301 344 79 107 134 
302 265 343 108 124 142 
303 264 343 118 133 151 
303 265 343 114 130 150 
303 266 343 112 130 150 
304 264 343 122 129 141 
304 265 343 118 127 140 
305 265 343 122 123 129 
304 266 343 120 131 146 
305 266 343 122 124 133 
305 267 343 132 138 150 
306 265 343 122 120 124 
306 266 343 127 130 139 
306 267 343 130 136 148 
307 267 343 132 141 155 
317 283 339 101 128 154 
317 284 339 98 126 154 
317 285 339 100 127 153 
317 286 340 101 127 152 
317 287 340 106 129 153 
317 288 340 111 130 151 
317 289 340 122 136 154 
317 290 340 130 140 155 
317 291 340 141 148 161 
317 292 341 143 149 160 
317 293 341 147 151 160 
317 294 341 150 154 162 
317 295 341 147 152 162 
317 296 341 137 145 158 
317 297 341 124 136 152 
317 297 342 113 128 146 
316 299 341 111 128 147 
317 298 342 107 124 144 
317 299 342 100 121 144 
316 301 342 100 121 143 
317 300 342 101 123 147 
317 301 342 103 126 149 
296 185 296 69 36 64 
296 185 297 67 36 63 
296 185 298 69 38 60 
296 185 299 69 35 56 
297 185 298 70 35 59 
297 185 299 69 36 56 
296 186 296 73 41 67 
296 186 297 71 35 64 
296 187 296 70 34 60 
296 187 297 72 31 58 
296 186 298 70 29 56 
296 186 299 72 27 50 
296 187 298 77 31 55 
296 187 299 83 33 52 
297 186 298 69 28 54 
296 185 300 68 36 57 
296 185 301 69 31 53 
297 185 300 73 37 55 
297 185 301 74 36 54 
296 185 302 74 25 50 
296 185 303 80 28 47 
296 186 300 75 27 46 
296 186 301 82 27 45 
296 187 300 91 33 47 
296 187 301 89 27 41 
297 186 300 74 31 50 
297 186 301 80 30 48 
297 187 300 88 29 45 
297 187 301 99 31 43 
296 186 302 83 24 44 
296 186 303 82 23 42 
296 187 302 94 32 44 
297 186 302 86 29 46 
297 186 303 92 29 39 
297 187 302 99 31 42 
297 187 303 105 32 39 
296 188 296 70 31 54 
296 188 297 75 30 53 
296 189 296 75 37 51 
296 189 297 83 31 45 
296 188 298 82 28 50 
296 188 299 94 29 47 
296 189 298 91 25 40 
296 189 299 96 25 42 
297 188 298 88 23 45 
297 188 299 91 32 52 
297 189 298 99 28 39 
297 189 299 102 25 37 
296 190 296 78 24 41 
296 190 297 91 27 38 
296 191 297 101 32 37 
296 190 298 99 32 39 
296 191 298 110 31 33 
296 191 299 115 29 29 
297 190 298 108 32 36 
297 190 299 112 29 33 
297 191 298 114 31 32 
297 191 299 116 29 28 
296 188 300 101 37 49 
297 188 300 104 34 46 
297 188 301 106 34 41 
297 189 300 108 26 34 
297 189 301 112 27 30 
297 188 302 107 29 34 
297 188 303 111 30 32 
297 189 302 114 28 25 
297 189 303 115 29 25 
297 190 300 115 23 26 
297 190 301 116 25 24 
297 191 300 117 22 20 
297 191 301 118 27 20 
297 190 302 117 25 19 
297 190 303 118 29 20 
297 191 302 118 27 18 
297 191 303 117 25 19 
298 191 303 117 26 22 
296 185 304 89 30 44 
296 185 305 99 28 40 
297 185 305 102 27 37 
296 185 306 105 26 39 
297 185 306 110 27 36 
297 185 307 115 27 30 
297 186 304 100 31 40 
297 186 305 109 29 34 
297 187 304 107 30 36 
297 187 305 114 30 28 
297 186 306 116 27 24 
297 186 307 118 24 16 
297 187 306 118 29 20 
297 187 307 118 24 15 
297 185 308 118 27 28 
297 185 309 117 29 31 
297 185 310 109 31 41 
297 186 308 120 26 21 
297 186 309 120 23 22 
297 187 308 118 21 14 
297 187 309 118 20 17 
298 185 309 117 29 30 
298 185 310 108 28 34 
298 185 311 95 27 37 
298 186 309 118 23 26 
298 187 309 118 25 19 
298 186 310 115 24 27 
298 186 311 105 25 36 
298 187 310 115 28 24 
298 187 311 110 27 28 
297 188 304 114 26 26 
297 188 305 117 24 21 
297 189 304 117 27 23 
297 189 305 118 24 21 
297 188 306 119 24 19 
297 188 307 120 28 20 
297 189 306 118 22 20 
297 189 307 118 21 20 
297 190 304 117 26 20 
297 190 305 118 23 21 
297 191 304 117 27 23 
297 191 305 117 25 22 
297 190 306 118 23 22 
297 191 306 117 21 21 
298 189 307 119 25 22 
298 191 304 116 28 25 
298 191 305 117 26 27 
298 190 306 117 22 20 
298 190 307 117 20 20 
298 191 306 116 22 21 
298 191 307 116 19 23 
297 188 308 118 23 16 
298 188 308 118 25 16 
298 188 309 119 29 18 
298 189 308 119 25 21 
298 189 309 119 20 18 
298 188 310 117 31 25 
298 188 311 113 31 30 
298 189 310 119 25 23 
298 189 311 118 26 25 
298 190 308 117 19 22 
298 190 309 118 18 21 
298 191 308 116 16 23 
298 191 309 117 18 23 
298 190 310 120 20 23 
298 190 311 121 20 24 
298 191 310 120 17 25 
298 191 311 120 16 22 
299 191 310 121 19 26 
299 191 311 122 20 24 
298 185 312 89 31 41 
298 185 313 81 34 48 
298 186 312 98 29 45 
298 186 313 92 30 49 
298 187 312 103 29 38 
298 187 313 95 29 43 
298 188 312 107 30 31 
298 188 313 100 31 38 
298 189 312 113 24 29 
298 189 313 106 26 35 
298 190 312 119 22 26 
298 190 313 113 25 30 
298 191 312 119 20 21 
298 191 313 116 24 27 
299 191 312 120 21 19 
299 191 313 117 20 22 
296 192 297 109 33 34 
296 193 297 114 27 26 
296 192 298 114 32 30 
296 193 298 115 30 28 
297 192 298 116 31 27 
297 192 299 116 27 23 
297 193 298 116 27 23 
297 193 299 116 27 21 
296 194 297 117 23 21 
296 195 297 118 26 19 
297 194 297 117 21 17 
297 195 297 118 25 18 
297 194 298 116 20 19 
297 194 299 115 20 20 
297 195 298 117 26 18 
297 195 299 118 28 21 
297 192 300 117 30 23 
297 192 301 118 31 22 
297 193 300 117 28 22 
297 193 301 117 32 22 
297 192 302 119 30 24 
297 193 302 119 31 24 
297 194 300 116 24 18 
297 194 301 117 24 18 
297 195 300 118 28 21 
297 195 301 118 26 22 
297 194 302 117 20 19 
298 192 302 119 30 26 
298 192 303 118 26 24 
298 193 302 118 23 23 
298 193 303 117 15 21 
298 195 300 119 30 23 
298 195 301 119 25 24 
298 194 302 119 20 22 
298 194 303 119 23 22 
298 195 302 120 22 26 
298 195 303 120 26 27 
299 195 303 120 24 24 
297 196 296 121 25 20 
297 196 297 120 28 19 
297 197 296 121 24 19 
297 197 297 119 22 17 
297 196 298 119 25 20 
297 196 299 118 21 20 
297 197 298 118 22 16 
297 198 296 121 25 18 
297 198 297 119 23 16 
297 199 296 122 30 17 
297 199 297 118 26 16 
297 198 298 118 23 17 
298 196 299 117 22 18 
298 197 298 118 24 17 
298 197 299 117 19 17 
298 198 298 119 27 21 
298 198 299 119 29 26 
298 199 298 118 24 19 
298 199 299 119 26 25 
298 196 300 118 25 21 
298 196 301 119 21 22 
298 197 300 117 20 19 
298 197 301 119 23 21 
298 196 302 120 20 21 
298 197 302 120 24 20 
299 196 303 119 22 21 
299 197 302 121 26 21 
299 197 303 120 25 22 
298 198 300 119 28 25 
298 198 301 120 30 27 
298 199 300 119 25 23 
299 198 301 120 27 22 
299 199 300 119 25 22 
299 199 301 119 24 18 
299 198 302 120 25 20 
299 198 303 120 24 19 
299 199 302 119 22 17 
299 199 303 119 27 18 
297 200 296 120 31 15 
297 200 297 120 29 17 
297 201 297 121 33 19 
298 200 297 120 29 18 
298 201 297 121 31 22 
298 200 298 119 26 19 
298 200 299 119 26 19 
298 201 298 120 28 22 
298 201 299 119 25 18 
299 201 299 118 24 17 
298 202 297 121 29 22 
298 203 296 122 30 21 
298 203 297 122 25 24 
298 202 298 120 24 23 
298 202 299 119 24 22 
298 203 298 121 25 26 
298 203 299 121 28 27 
299 203 299 120 26 24 
299 200 300 119 27 21 
299 200 301 119 27 19 
299 201 300 118 20 16 
299 201 301 117 22 18 
299 200 302 119 27 21 
299 200 303 118 29 22 
299 201 302 116 23 21 
299 201 303 115 24 21 
299 202 300 118 23 21 
299 202 301 118 23 23 
299 203 300 120 24 24 
299 203 301 118 20 23 
299 202 302 116 26 24 
299 202 303 116 29 24 
299 203 302 115 25 25 
299 203 303 115 28 26 
298 204 296 123 27 19 
298 204 297 121 21 20 
298 205 296 123 27 19 
298 205 297 122 27 19 
298 204 298 121 24 22 
298 205 298 121 25 22 
299 204 299 120 24 19 
299 205 298 121 28 25 
299 205 299 122 29 23 
298 206 296 122 31 20 
298 206 297 120 33 22 
298 207 296 114 31 29 
298 207 297 112 30 31 
298 207 298 112 32 31 
299 206 298 120 34 22 
299 206 299 120 34 24 
299 207 298 110 33 30 
299 207 299 109 33 30 
299 204 300 119 24 19 
299 204 301 117 25 23 
299 205 300 120 31 23 
299 205 301 117 34 28 
299 204 302 113 21 21 
299 204 303 111 28 24 
299 205 302 110 36 31 
299 205 303 106 35 29 
299 206 300 117 34 26 
299 206 301 113 36 30 
299 207 300 104 28 28 
299 207 301 96 29 27 
299 206 302 106 36 31 
299 206 303 100 37 33 
299 207 302 90 29 25 
299 207 303 85 29 34 
298 192 304 118 27 25 
298 192 305 116 25 25 
298 193 304 116 18 18 
298 193 305 116 17 21 
298 192 306 116 23 21 
298 192 307 115 19 19 
298 193 306 116 18 20 
298 193 307 116 19 19 
298 194 304 118 25 22 
298 194 305 118 24 23 
298 195 304 119 28 23 
299 194 305 120 28 25 
299 195 304 119 24 20 
299 195 305 119 25 19 
298 194 306 118 22 22 
298 194 307 118 22 21 
299 194 306 120 22 23 
299 194 307 120 23 21 
299 195 306 120 23 19 
299 195 307 121 22 21 
298 192 308 115 15 20 
298 192 309 116 17 20 
298 193 308 117 18 20 
298 193 309 118 22 22 
299 192 309 118 20 22 
299 193 309 119 23 23 
299 192 310 120 20 25 
299 192 311 122 20 24 
299 193 310 120 21 23 
299 193 311 121 20 24 
298 194 308 119 20 22 
299 194 308 120 21 23 
299 194 309 120 23 23 
299 195 308 121 21 23 
299 195 309 121 19 20 
299 194 310 121 23 22 
299 194 311 121 21 22 
299 195 310 120 19 18 
299 195 311 120 22 21 
299 196 304 119 23 19 
299 196 305 119 27 17 
299 197 304 120 27 20 
299 197 305 120 25 19 
299 196 306 119 24 17 
299 196 307 120 19 20 
299 197 306 119 25 20 
299 197 307 120 19 22 
299 198 304 119 26 19 
299 198 305 119 23 20 
299 199 304 119 26 20 
299 199 305 119 26 21 
299 198 306 118 23 21 
299 198 307 118 24 22 
299 199 306 118 23 20 
299 199 307 118 27 20 
299 196 308 121 19 24 
299 196 309 121 19 23 
299 197 308 121 20 25 
299 197 309 121 20 24 
299 196 310 120 20 21 
299 196 311 120 23 24 
299 197 310 120 20 20 
299 197 311 119 22 22 
299 198 308 118 24 20 
299 198 309 118 24 18 
299 199 308 117 28 19 
299 199 309 117 29 16 
299 198 310 118 23 16 
299 198 311 118 25 18 
299 199 310 117 30 20 
299 199 311 116 32 19 
299 192 312 120 21 20 
299 192 313 118 20 26 
299 193 312 120 20 23 
299 193 313 119 20 27 
299 194 312 120 20 25 
299 194 313 120 20 29 
299 195 312 120 21 25 
299 195 313 118 22 26 
299 196 312 119 23 25 
299 196 313 116 21 19 
299 197 312 117 22 22 
299 197 313 116 21 21 
299 198 312 116 24 19 
299 198 313 116 21 21 
299 199 312 116 29 21 
300 197 313 115 21 19 
300 198 313 115 20 19 
300 199 312 114 29 21 
300 199 313 113 26 22 
299 200 304 118 26 20 
299 200 305 118 24 20 
299 201 304 115 23 21 
299 201 305 116 22 21 
299 200 306 118 21 19 
299 200 307 118 26 20 
299 201 306 117 22 21 
299 201 307 117 26 20 
299 202 304 116 31 27 
299 202 305 117 29 26 
299 203 304 114 33 28 
299 202 306 117 27 26 
299 202 307 117 27 25 
299 200 308 117 24 19 
299 200 309 116 29 20 
299 201 308 115 28 20 
299 201 309 114 29 19 
299 200 310 114 30 22 
299 200 311 113 32 24 
299 201 310 112 32 23 
299 204 304 108 31 25 
299 205 304 97 29 24 
299 205 305 93 26 25 
299 206 304 91 33 31 
299 206 305 86 32 35 
299 207 304 80 29 38 
299 207 305 74 28 37 
299 206 306 83 36 41 
299 207 306 68 32 35 
300 203 304 112 31 26 
300 203 305 113 35 27 
300 202 306 116 30 31 
300 202 307 114 27 28 
300 203 306 110 37 32 
300 203 307 106 36 33 
300 201 309 110 30 20 
300 200 311 110 32 25 
300 201 310 108 31 24 
300 201 311 100 27 25 
300 202 308 112 29 27 
300 202 309 107 31 26 
300 203 308 103 37 34 
300 203 309 99 39 35 
300 202 310 101 27 24 
300 202 311 90 18 25 
300 203 310 90 36 33 
300 203 311 85 33 33 
300 204 304 108 32 28 
300 204 305 101 33 27 
300 205 305 88 25 29 
300 204 306 95 33 26 
300 204 307 90 28 26 
300 205 306 80 21 30 
300 205 307 73 21 28 
300 206 306 80 33 42 
300 206 307 75 31 41 
300 207 306 71 38 40 
300 207 307 67 36 37 
300 204 308 81 27 26 
300 204 309 77 29 27 
300 205 308 69 26 29 
300 205 309 68 30 29 
300 204 310 69 28 28 
300 204 311 65 27 30 
300 205 310 64 26 31 
300 205 311 61 26 32 
300 206 308 73 36 43 
300 206 309 70 35 41 
300 207 308 67 37 38 
300 207 309 65 32 36 
300 206 310 71 33 44 
300 206 311 71 33 41 
300 207 310 64 29 36 
300 207 311 62 26 36 
300 200 312 108 31 26 
300 200 313 105 33 27 
300 201 312 97 27 27 
300 201 313 89 29 27 
300 202 312 83 16 26 
300 202 313 79 23 26 
300 203 312 82 34 36 
300 203 313 79 35 35 
300 202 314 70 21 23 
300 203 314 79 42 42 
300 204 312 66 31 32 
300 204 313 65 32 32 
300 205 312 60 30 33 
300 205 313 61 32 32 
300 204 314 69 33 34 
300 205 314 62 29 28 
300 206 312 68 32 38 
300 206 313 64 31 33 
300 207 312 60 25 34 
300 207 313 61 27 31 
300 206 314 69 40 35 
300 207 314 60 30 30 
298 208 296 105 11 40 
298 208 297 105 7 43 
298 209 296 107 9 42 
298 209 297 107 3 40 
298 208 298 103 11 43 
298 209 298 105 7 44 
299 208 298 102 13 43 
299 208 299 97 17 39 
299 209 298 105 8 44 
299 209 299 102 7 42 
298 210 296 107 25 49 
298 210 297 108 23 46 
298 211 296 87 61 75 
298 211 297 90 53 70 
298 210 298 109 20 44 
298 211 298 92 50 69 
299 210 298 109 21 44 
299 210 299 110 18 41 
299 211 298 95 47 66 
299 211 299 98 41 63 
299 208 300 92 16 34 
299 208 301 87 20 32 
299 209 300 100 9 41 
299 209 301 98 16 45 
299 208 302 81 21 32 
299 208 303 76 24 33 
299 209 302 96 19 48 
299 209 303 91 23 44 
299 210 300 110 15 42 
299 210 301 108 3 46 
299 211 300 99 38 63 
299 211 301 102 32 59 
299 210 302 106 4 48 
299 210 303 103 13 44 
299 211 302 103 24 54 
299 211 303 104 21 52 
298 212 297 79 80 92 
298 213 297 85 68 79 
299 213 297 88 56 69 
298 212 298 78 77 91 
299 212 298 77 77 90 
299 212 299 76 75 88 
299 213 298 84 66 79 
299 213 299 80 70 81 
298 214 297 104 20 51 
299 214 297 104 22 55 
299 215 296 114 21 61 
299 215 297 113 17 56 
299 214 298 102 25 57 
299 214 299 100 34 59 
299 215 298 114 16 54 
299 215 299 114 18 53 
299 212 300 79 71 84 
299 212 301 81 65 78 
299 213 300 80 72 82 
299 213 301 80 72 82 
299 212 302 82 61 74 
299 212 303 86 58 72 
299 213 302 80 68 78 
299 213 303 79 70 79 
299 214 300 96 40 62 
299 214 301 93 44 64 
299 215 300 112 19 52 
299 215 301 109 13 53 
299 214 302 92 47 65 
299 214 303 89 56 70 
299 215 302 104 16 52 
299 215 303 104 23 51 
300 215 301 103 15 53 
299 216 296 97 44 71 
299 216 297 102 37 66 
299 217 296 59 68 90 
299 217 297 74 68 88 
299 216 298 107 36 66 
299 216 299 109 38 67 
299 217 298 81 66 83 
299 217 299 82 61 81 
299 218 296 47 83 107 
299 218 297 52 82 105 
299 219 296 55 91 117 
299 219 297 51 88 114 
299 218 298 64 88 108 
299 218 299 66 84 103 
299 219 298 50 86 111 
299 219 299 58 91 113 
299 216 300 109 35 65 
299 216 301 111 27 59 
299 217 300 86 59 82 
299 217 301 92 55 80 
299 216 302 111 22 56 
299 216 303 110 17 57 
299 217 302 96 48 74 
299 217 303 97 50 75 
299 218 300 65 78 98 
299 218 301 75 72 93 
299 220 296 57 92 118 
299 220 297 55 90 117 
299 221 296 52 85 112 
299 221 297 53 86 112 
299 222 296 51 81 106 
299 222 297 53 82 105 
299 223 297 65 83 102 
300 219 298 50 85 112 
300 219 299 54 89 114 
300 217 301 93 51 77 
300 217 302 90 55 78 
300 217 303 93 53 76 
300 218 300 63 83 102 
300 218 301 67 81 101 
300 219 300 58 91 113 
300 219 301 62 91 111 
300 218 302 74 75 94 
300 218 303 79 69 88 
300 219 302 65 88 107 
300 219 303 68 84 100 
300 220 298 51 87 114 
300 220 299 55 89 115 
300 221 298 56 88 112 
300 221 299 61 88 110 
300 222 297 53 81 102 
300 222 298 64 86 105 
300 222 299 70 80 94 
300 223 298 68 73 91 
300 223 299 78 66 82 
300 220 300 59 90 114 
300 220 301 64 89 109 
300 221 300 61 84 102 
300 221 301 66 84 102 
300 220 302 63 83 103 
300 220 303 66 77 93 
300 221 302 70 77 93 
300 221 303 71 62 77 
300 222 300 72 73 86 
300 222 301 67 63 75 
300 223 300 79 53 65 
300 223 301 80 43 50 
300 222 302 72 55 66 
300 222 303 83 60 73 
300 223 302 85 52 57 
300 223 303 90 66 73 
301 223 303 94 70 73 
299 208 304 73 25 38 
299 208 305 68 24 35 
299 209 304 86 28 43 
299 209 305 84 30 42 
299 208 306 64 29 34 
299 208 307 64 28 32 
299 209 306 84 31 44 
299 209 307 81 30 43 
299 210 304 101 19 40 
299 210 305 100 18 40 
299 211 304 107 11 45 
299 211 305 106 11 44 
299 210 306 97 25 44 
299 211 306 106 11 45 
299 211 310 103 14 46 
299 212 304 94 48 65 
299 212 305 99 42 63 
299 213 304 79 70 78 
299 213 305 81 68 76 
299 212 306 104 29 56 
299 214 304 87 61 71 
299 214 305 83 66 73 
299 215 304 102 28 53 
299 215 305 96 36 55 
299 215 310 87 64 79 
300 208 307 70 28 37 
300 209 307 86 34 44 
300 210 307 96 26 44 
300 211 306 106 15 46 
300 211 307 106 11 47 
300 208 308 66 27 32 
300 208 309 65 33 32 
300 209 308 83 34 43 
300 209 309 82 38 42 
300 208 310 64 33 33 
300 208 311 63 31 33 
300 209 310 80 39 42 
300 209 311 71 33 35 
300 210 308 94 27 44 
300 210 309 92 28 43 
300 211 308 105 15 48 
300 211 309 103 16 47 
300 210 310 90 30 43 
300 210 311 85 32 41 
300 211 310 101 19 45 
300 211 311 99 22 45 
300 212 305 93 52 72 
300 213 305 82 66 77 
300 212 306 99 40 64 
300 212 307 101 33 59 
300 213 306 87 62 74 
300 213 307 90 59 76 
300 214 305 83 72 78 
300 214 306 81 68 74 
300 214 307 85 64 73 
300 215 306 90 49 62 
300 215 307 90 50 64 
300 212 308 100 32 58 
300 212 309 102 27 54 
300 213 308 92 56 73 
300 213 309 93 53 70 
300 212 310 103 26 49 
300 212 311 102 22 46 
300 213 310 95 43 60 
300 213 311 96 41 57 
300 214 308 87 65 79 
300 214 309 89 63 79 
300 215 308 88 52 69 
300 215 309 90 55 72 
300 214 310 91 63 80 
300 214 311 89 56 73 
300 215 310 90 56 75 
300 215 311 88 60 75 
299 212 313 101 15 47 
299 212 314 101 14 45 
300 208 312 61 28 32 
300 208 313 64 33 37 
300 209 312 68 30 34 
300 209 313 67 31 41 
300 208 314 63 31 34 
300 209 314 66 31 45 
300 210 312 79 31 39 
300 210 313 76 30 44 
300 211 312 97 25 45 
300 211 313 93 26 45 
300 210 314 75 28 51 
300 211 314 90 26 45 
300 212 312 103 17 46 
300 212 313 102 15 46 
300 213 312 98 42 58 
300 213 313 101 31 55 
300 212 314 101 14 44 
300 213 314 101 23 52 
300 214 312 88 56 72 
300 214 313 90 52 70 
300 215 312 88 62 75 
300 215 313 83 64 76 
300 214 314 95 41 64 
300 214 315 97 34 60 
300 215 314 84 66 78 
300 215 315 85 60 77 
299 216 304 110 17 58 
299 216 305 109 17 58 
299 217 304 105 36 68 
300 216 305 110 21 61 
300 217 304 98 51 76 
300 217 305 104 38 67 
300 216 306 108 19 57 
300 216 307 104 27 56 
300 217 306 105 33 66 
300 217 307 108 31 63 
300 218 304 88 64 84 
300 218 305 98 57 79 
300 219 304 76 73 87 
300 219 305 84 61 75 
300 218 306 99 50 72 
300 218 307 100 49 70 
300 219 306 89 55 67 
300 219 307 92 59 69 
300 216 308 103 26 56 
300 216 309 100 31 59 
300 217 308 108 27 63 
300 217 309 107 24 62 
300 216 310 98 36 62 
300 216 311 96 43 63 
300 217 310 106 20 62 
300 217 311 105 19 58 
300 218 308 102 42 69 
300 218 309 104 35 67 
300 219 308 94 57 69 
300 219 309 97 52 68 
300 218 310 106 32 65 
300 218 311 107 27 60 
300 219 310 100 52 69 
300 219 311 104 50 69 
300 220 304 71 67 79 
300 220 305 80 59 68 
300 221 304 75 51 66 
300 221 305 87 57 65 
300 220 306 82 48 57 
300 220 307 85 55 61 
300 221 306 91 63 68 
300 221 307 93 73 74 
300 222 304 86 61 71 
300 223 304 93 69 76 
301 222 304 90 71 77 
301 222 305 94 74 75 
301 223 304 100 87 90 
301 223 305 108 102 102 
300 222 307 112 104 101 
301 222 306 102 87 84 
301 222 307 108 99 94 
301 223 306 111 107 106 
301 223 307 115 110 110 
300 220 308 90 69 73 
300 220 309 95 79 81 
300 221 308 97 88 87 
300 221 309 103 98 96 
301 221 309 107 101 101 
300 220 310 102 88 88 
300 220 311 106 86 87 
300 221 310 108 104 103 
301 220 310 105 96 95 
301 220 311 111 104 103 
301 221 310 113 110 109 
301 221 311 115 112 112 
300 222 308 113 107 105 
300 222 309 112 108 107 
300 223 308 115 112 112 
300 223 309 114 110 111 
301 222 309 113 109 108 
301 223 308 116 111 112 
301 223 309 113 110 112 
301 222 310 115 112 112 
301 222 311 117 114 115 
301 223 310 113 110 112 
301 223 311 113 110 112 
300 216 312 95 45 64 
300 216 313 91 51 66 
300 217 312 103 16 55 
300 217 313 103 17 54 
300 216 314 86 58 72 
300 216 315 82 63 76 
300 217 314 102 26 57 
300 217 315 102 29 57 
300 218 312 108 19 54 
300 218 313 109 15 53 
300 219 312 105 43 68 
300 219 313 108 33 61 
300 218 314 110 7 54 
300 218 315 109 6 55 
300 219 314 109 25 59 
300 219 315 109 17 58 
301 219 315 108 38 66 
300 220 312 107 82 89 
300 220 313 109 82 89 
301 220 312 116 110 109 
301 221 312 118 115 115 
301 221 313 118 114 114 
300 220 314 109 72 83 
300 220 315 109 59 76 
301 221 314 117 112 111 
301 221 315 115 101 102 
301 222 312 117 114 116 
301 222 313 117 115 116 
301 223 312 112 109 111 
301 223 313 113 110 112 
301 222 314 116 114 115 
301 222 315 116 114 114 
301 223 314 113 110 112 
301 223 315 114 112 114 
299 224 297 77 81 97 
299 225 297 74 61 79 
299 226 297 79 44 64 
299 227 297 86 38 55 
300 225 297 80 58 77 
300 224 298 75 58 78 
300 224 299 79 40 63 
300 225 298 83 53 71 
300 225 299 86 34 58 
300 226 297 79 33 56 
300 227 297 87 41 51 
300 226 298 84 34 52 
300 226 299 91 53 65 
300 227 298 90 59 61 
300 227 299 95 77 78 
300 224 300 85 40 53 
300 224 301 94 59 62 
300 225 300 92 54 60 
301 225 301 100 76 76 
300 224 302 95 61 65 
301 224 302 99 70 74 
301 224 303 99 79 80 
301 225 302 108 90 90 
301 225 303 111 101 99 
300 226 300 97 74 77 
300 227 300 103 90 90 
301 226 300 99 83 85 
301 226 301 106 96 96 
301 227 300 109 102 102 
301 227 301 114 111 112 
301 226 302 114 108 108 
301 226 303 117 112 112 
301 227 302 116 114 117 
301 227 303 116 114 118 
300 228 297 97 68 68 
300 229 297 108 96 94 
300 228 298 107 92 88 
300 228 299 112 104 102 
300 229 298 117 111 109 
300 229 299 115 112 113 
300 230 297 114 109 109 
300 231 297 103 104 109 
300 230 298 112 109 111 
300 230 299 113 112 115 
300 231 298 103 104 110 
300 231 299 111 111 116 
301 230 299 113 112 115 
300 228 300 114 111 113 
301 228 300 113 109 110 
301 228 301 114 113 116 
301 229 300 111 110 113 
301 229 301 109 109 115 
301 228 302 113 112 117 
301 228 303 111 111 116 
301 229 302 107 108 114 
301 229 303 107 107 113 
300 230 300 113 113 117 
300 231 300 115 115 119 
301 230 300 112 111 116 
301 230 301 110 111 116 
301 231 300 116 115 120 
301 231 301 118 117 122 
300 231 303 116 116 121 
301 230 302 107 109 115 
301 230 303 108 109 115 
301 231 302 116 116 121 
301 231 303 112 112 117 
299 232 297 99 102 108 
300 232 296 102 105 110 
300 232 297 98 102 109 
300 233 297 111 112 119 
300 232 298 106 108 115 
300 232 299 115 115 121 
300 233 298 113 114 121 
300 233 299 115 116 122 
300 234 297 116 117 122 
300 235 297 118 118 123 
300 234 298 116 117 123 
300 234 299 111 113 120 
300 235 298 119 118 124 
300 235 299 116 117 123 
300 232 300 115 116 121 
300 232 301 116 116 122 
300 233 300 111 112 119 
300 233 301 109 110 117 
301 232 301 118 118 123 
301 233 300 109 111 119 
301 233 301 110 111 118 
300 232 302 116 116 121 
300 232 303 117 116 122 
300 233 302 116 116 121 
300 233 303 117 116 122 
301 232 302 116 116 121 
301 233 302 115 115 121 
301 233 303 118 118 123 
300 234 300 106 109 116 
300 235 300 112 114 121 
301 234 300 105 108 116 
301 234 301 109 111 118 
301 235 301 115 116 123 
301 234 302 116 117 122 
301 234 303 119 119 125 
301 235 302 118 118 125 
301 235 303 118 119 125 
300 236 297 121 121 126 
300 237 297 123 123 128 
300 236 298 123 122 127 
300 236 299 123 123 128 
300 237 298 123 123 128 
300 237 299 122 122 128 
300 238 297 117 119 125 
300 239 297 110 113 120 
300 238 298 118 119 125 
300 238 299 120 121 127 
300 239 298 113 115 123 
300 239 299 119 120 127 
300 236 300 122 122 127 
300 236 301 120 120 126 
300 237 300 122 122 127 
300 237 301 118 119 124 
301 236 301 118 118 125 
301 237 301 121 120 126 
300 237 302 112 113 120 
301 236 302 116 117 123 
301 236 303 113 114 120 
301 237 302 110 112 118 
301 237 303 106 108 116 
300 238 300 122 122 128 
300 238 301 122 122 128 
300 239 300 122 122 128 
301 238 301 119 120 126 
301 239 301 122 122 129 
300 238 302 113 115 121 
300 238 303 113 115 122 
301 238 302 116 118 125 
301 238 303 108 111 118 
301 239 302 120 121 128 
301 239 303 118 119 127 
301 224 304 106 99 98 
301 224 305 110 108 110 
301 225 304 113 109 109 
301 225 305 108 106 109 
301 224 306 108 106 108 
301 224 307 110 108 111 
301 225 306 109 108 112 
301 225 307 111 110 114 
301 226 304 116 112 114 
301 226 305 113 111 114 
301 227 304 117 115 118 
301 227 305 115 113 117 
301 226 306 111 110 114 
301 226 307 111 110 115 
301 227 306 112 111 115 
301 227 307 109 109 114 
300 224 308 114 110 112 
300 224 309 112 109 112 
301 224 308 114 111 113 
301 224 309 114 112 115 
301 225 308 113 112 116 
301 225 309 116 114 118 
301 224 310 112 110 113 
301 224 311 110 108 111 
301 225 310 118 115 118 
301 225 311 115 113 116 
301 226 308 111 110 115 
301 226 309 113 111 115 
301 227 308 108 107 112 
301 227 309 107 106 110 
301 226 310 113 111 115 
301 226 311 114 111 115 
301 227 310 109 107 111 
301 227 311 113 111 114 
301 228 304 110 109 115 
301 228 305 112 111 115 
301 229 304 110 110 115 
301 229 305 114 113 117 
301 228 306 115 113 117 
301 228 307 113 112 116 
301 229 306 117 115 119 
301 229 307 117 116 120 
300 230 305 117 115 120 
300 231 304 115 115 121 
300 231 305 114 114 120 
301 230 304 113 112 117 
301 230 305 116 115 119 
301 231 304 114 114 119 
301 231 305 117 116 121 
300 230 306 117 116 120 
300 230 307 118 116 120 
300 231 306 114 114 120 
300 231 307 114 113 119 
301 230 306 118 116 120 
300 228 308 114 112 116 
300 229 308 116 115 119 
300 229 309 117 115 119 
301 228 308 109 108 113 
301 228 309 110 109 113 
301 229 308 116 114 118 
301 229 309 114 112 116 
301 228 310 112 110 114 
301 228 311 115 113 116 
301 229 310 115 113 117 
301 229 311 114 112 116 
300 230 308 118 116 120 
300 230 309 116 114 118 
300 231 308 114 114 118 
300 231 309 116 115 119 
301 231 308 114 114 119 
301 231 309 117 116 121 
300 230 310 113 112 116 
300 230 311 109 108 113 
300 231 310 115 113 118 
300 231 311 112 111 115 
301 230 310 114 113 117 
301 230 311 111 109 113 
301 224 312 112 110 113 
301 224 313 114 111 114 
301 225 312 113 111 115 
301 225 313 114 113 117 
300 225 315 117 116 119 
301 224 314 115 112 114 
301 224 315 117 113 116 
301 225 314 117 115 119 
301 225 315 117 115 119 
301 226 312 112 110 114 
301 226 313 111 110 114 
301 227 312 113 110 113 
301 227 313 112 110 113 
300 226 315 116 114 118 
300 227 314 115 113 116 
300 227 315 114 112 115 
301 226 314 113 111 115 
301 226 315 114 112 116 
301 227 314 112 110 114 
300 226 316 115 114 118 
300 227 316 116 114 118 
301 228 312 116 113 116 
301 228 313 117 114 116 
301 229 312 115 112 115 
301 229 313 117 114 116 
300 228 314 117 114 117 
300 228 315 116 113 116 
300 229 314 117 114 116 
300 229 315 114 111 114 
301 228 314 117 114 117 
301 229 314 118 114 117 
300 231 312 112 111 116 
300 231 313 114 112 117 
301 230 312 109 108 113 
301 230 313 114 112 116 
301 231 312 109 108 113 
301 231 313 113 111 115 
300 230 315 113 111 114 
300 231 314 114 112 116 
300 231 315 115 113 116 
301 230 314 115 113 116 
301 231 314 116 113 117 
301 231 315 116 113 117 
300 228 316 115 112 115 
300 229 316 111 109 112 
300 230 316 114 111 113 
300 231 316 116 114 117 
299 236 309 117 117 123 
300 232 304 116 116 121 
300 232 305 111 112 119 
301 232 305 109 111 117 
301 233 304 117 117 123 
301 233 305 115 116 121 
300 232 306 109 111 117 
300 232 307 111 111 117 
301 232 306 110 111 118 
301 232 307 111 112 118 
301 233 306 113 114 120 
301 233 307 111 113 119 
301 234 304 119 119 125 
301 234 305 118 117 123 
301 235 304 117 117 123 
301 235 305 116 116 122 
301 234 306 115 116 122 
301 234 307 112 114 121 
301 235 306 115 116 122 
301 235 307 114 115 122 
300 232 309 119 118 123 
301 232 308 114 114 120 
301 232 309 117 116 122 
301 233 308 113 114 121 
301 233 309 116 116 122 
300 232 310 117 117 122 
300 232 311 115 115 120 
300 233 310 115 115 120 
300 233 311 115 115 120 
301 233 310 116 116 122 
301 234 308 112 114 120 
301 234 309 111 112 119 
301 235 308 113 114 121 
301 235 309 111 112 119 
300 234 311 114 114 120 
300 235 311 115 115 120 
301 234 310 112 113 120 
301 234 311 113 113 119 
301 235 310 112 113 119 
301 235 311 115 115 121 
301 236 304 112 113 119 
301 236 305 113 114 120 
301 237 304 108 110 117 
301 237 305 113 115 122 
301 236 306 116 117 123 
301 236 307 117 118 124 
301 237 306 117 118 124 
301 237 307 117 118 125 
300 239 304 117 119 126 
300 239 305 114 116 123 
301 238 304 112 114 121 
301 238 305 114 116 123 
301 239 304 116 118 125 
301 239 305 111 113 120 
300 238 306 112 114 122 
300 238 307 113 115 122 
300 239 306 108 111 119 
300 239 307 110 113 120 
301 238 306 115 116 123 
301 238 307 114 115 122 
301 239 306 107 110 117 
301 236 308 118 118 124 
301 236 309 117 117 122 
301 237 308 118 118 125 
301 237 309 118 118 124 
301 236 310 116 116 121 
301 236 311 117 117 122 
301 237 310 116 116 121 
301 237 311 114 114 119 
300 238 308 115 117 123 
300 238 309 118 118 125 
300 238 310 116 116 122 
300 238 311 113 113 119 
301 238 310 115 115 120 
301 238 311 113 113 119 
300 232 312 115 113 118 
300 232 313 112 111 115 
300 233 312 115 114 118 
300 233 313 113 112 117 
300 232 314 110 109 113 
300 232 315 111 109 114 
300 233 314 111 109 114 
300 233 315 111 110 114 
300 234 312 115 115 120 
300 234 313 115 114 119 
300 235 312 116 116 121 
300 235 313 117 116 121 
300 234 314 116 114 117 
300 234 315 115 113 118 
300 235 314 117 116 120 
300 235 315 115 114 118 
300 232 316 115 113 117 
300 233 316 114 112 117 
300 234 316 114 113 118 
300 235 316 110 110 116 
300 236 312 117 117 122 
300 236 313 117 116 122 
300 237 313 112 112 117 
301 236 312 117 117 122 
301 237 312 113 113 119 
301 237 313 110 110 116 
300 236 314 116 115 119 
300 236 315 111 111 116 
300 237 314 111 112 117 
300 237 315 106 108 115 
300 238 312 112 112 118 
300 236 316 105 107 113 
300 237 316 99 103 112 
300 240 297 112 115 123 
300 241 297 124 125 132 
300 240 298 115 118 126 
300 240 299 119 121 128 
300 241 298 123 124 132 
301 240 298 120 123 130 
301 240 299 121 123 130 
301 241 298 122 123 131 
301 240 300 121 122 129 
301 240 301 119 121 129 
301 240 302 118 120 127 
301 240 303 119 120 127 
301 269 298 76 105 131 
302 268 298 91 112 134 
302 268 299 121 130 144 
302 269 298 78 105 130 
302 269 299 95 113 132 
302 270 298 75 105 131 
302 270 299 78 105 130 
