ply
format ascii 1.0
comment Created by CloudCompare v2.10.1 (Zephyrus)
comment Created 1/31/20 6:09 PM
obj_info Generated by CloudCompare!
element vertex 2100
property float x
property float y
property float z
property uchar red
property uchar green
property uchar blue
end_header
220 888 248 83 65 52 
220 888 249 81 63 50 
220 889 248 78 62 50 
220 889 249 79 63 48 
221 889 249 77 60 45 
220 888 250 79 61 48 
221 888 250 77 59 46 
221 888 251 79 62 47 
221 889 250 77 59 46 
220 890 248 74 59 46 
220 891 248 74 58 45 
221 890 248 75 59 45 
221 890 249 76 60 46 
221 891 248 73 58 43 
222 888 251 78 60 46 
222 889 250 77 60 47 
222 889 251 78 60 47 
223 889 251 79 61 48 
222 890 249 77 60 46 
222 891 249 78 61 47 
222 890 250 77 59 46 
222 891 250 79 62 48 
223 890 250 78 60 47 
223 890 251 77 59 45 
223 891 250 79 61 48 
223 891 251 77 59 46 
222 888 252 77 60 45 
222 888 253 78 61 45 
222 889 252 78 61 47 
223 888 253 77 60 45 
223 889 252 78 61 47 
223 889 253 76 60 45 
222 888 254 81 62 47 
223 888 254 78 60 46 
223 888 255 78 60 47 
223 890 252 76 59 44 
222 892 249 77 60 46 
223 892 249 78 62 48 
223 892 250 77 59 46 
224 860 255 145 101 72 
224 861 255 138 96 71 
224 862 255 129 89 61 
224 863 255 124 83 54 
224 864 255 124 84 60 
224 865 254 120 85 61 
224 865 255 120 84 63 
224 866 255 113 80 61 
224 867 254 110 78 60 
224 867 255 109 78 63 
224 868 255 105 75 59 
224 891 251 74 58 44 
224 889 253 75 58 43 
224 888 254 77 59 45 
224 888 255 76 58 45 
224 889 254 76 59 45 
224 889 255 75 58 44 
225 889 254 75 58 43 
225 889 255 73 55 40 
224 890 252 75 58 44 
224 890 253 75 58 43 
224 891 252 74 57 43 
224 891 253 74 57 42 
225 891 253 74 57 42 
224 890 254 75 58 43 
225 890 254 73 56 41 
225 890 255 73 55 39 
225 891 254 73 56 40 
226 890 255 71 54 38 
226 891 254 72 55 39 
226 891 255 72 56 40 
224 892 251 74 56 42 
224 893 251 74 55 42 
224 892 252 75 57 42 
224 893 252 75 57 43 
225 892 252 75 57 42 
225 892 253 74 57 42 
225 893 252 74 57 43 
225 893 253 75 57 41 
225 892 254 73 56 39 
225 893 254 75 58 41 
225 894 253 76 59 42 
226 892 254 74 57 42 
226 892 255 75 58 44 
226 893 254 78 61 45 
226 893 255 79 63 47 
227 892 255 78 62 48 
227 893 255 82 64 50 
226 894 253 79 62 45 
226 894 254 81 64 48 
227 894 255 83 66 52 
227 895 255 80 62 46 
223 869 256 117 87 64 
223 869 257 133 100 76 
223 869 258 145 110 84 
223 869 259 147 111 84 
222 870 256 125 94 68 
222 870 257 129 96 70 
222 871 256 126 93 67 
222 871 257 131 97 70 
223 870 256 123 92 69 
223 870 257 134 100 74 
222 871 258 137 103 74 
222 871 259 141 108 79 
223 870 258 142 108 80 
223 870 259 144 109 81 
223 869 260 148 113 88 
222 871 260 141 110 84 
222 871 261 135 102 79 
223 870 260 146 112 85 
223 870 261 142 108 83 
223 871 260 142 110 83 
223 871 261 137 105 80 
223 870 262 136 101 78 
223 870 263 120 83 62 
223 871 262 126 92 71 
223 871 263 115 77 58 
223 871 264 110 73 57 
223 871 265 111 77 57 
219 876 256 101 73 59 
219 876 257 97 70 55 
219 877 256 103 78 63 
219 877 257 97 72 59 
219 876 258 95 69 53 
219 876 259 92 66 52 
219 877 258 89 66 52 
219 877 259 84 60 48 
218 878 256 107 84 71 
218 879 256 103 81 67 
218 879 257 94 71 60 
219 878 256 104 81 68 
219 878 257 97 73 62 
218 879 258 84 62 50 
218 879 259 79 58 46 
219 878 258 86 64 52 
219 878 259 80 58 46 
219 879 258 82 60 48 
219 879 259 79 59 46 
219 876 260 83 58 48 
219 876 261 83 58 51 
219 877 260 80 58 47 
219 877 261 84 62 53 
219 877 262 89 66 54 
219 878 260 80 60 47 
219 878 261 85 65 54 
219 879 260 82 62 49 
219 879 261 85 64 53 
219 878 262 89 67 55 
219 878 263 92 66 52 
219 879 262 88 66 54 
219 879 263 91 66 53 
220 873 256 111 79 62 
221 872 256 120 87 63 
221 872 257 126 92 70 
221 873 256 114 82 63 
221 873 257 119 86 70 
221 872 258 133 100 79 
221 872 259 139 106 84 
221 873 258 127 94 77 
221 873 259 129 97 78 
220 874 256 104 74 59 
220 874 257 111 79 63 
220 875 256 100 71 57 
220 875 257 105 76 59 
220 874 258 116 84 67 
220 874 259 112 83 64 
220 875 258 107 78 60 
220 875 259 107 78 61 
221 874 259 118 86 68 
222 872 256 125 90 64 
222 872 257 127 92 66 
222 872 258 135 101 76 
222 872 259 140 107 84 
221 873 260 121 89 70 
221 873 261 110 76 60 
221 873 262 99 63 51 
221 873 263 97 64 50 
220 874 260 105 75 58 
220 874 261 93 62 50 
220 875 260 97 69 53 
220 875 261 89 61 50 
221 874 260 110 79 62 
221 874 261 97 65 53 
220 874 262 91 60 50 
220 875 262 91 63 52 
220 875 263 95 69 54 
221 874 262 93 59 49 
221 874 263 97 67 52 
221 875 263 99 73 56 
222 872 260 138 106 83 
222 872 261 128 95 75 
222 873 261 115 81 63 
222 872 262 117 81 64 
222 872 263 108 71 57 
222 873 262 107 71 57 
222 873 263 100 66 53 
223 872 263 107 69 54 
220 876 256 100 71 57 
220 876 257 101 72 55 
220 876 258 100 72 57 
220 876 259 96 69 55 
220 876 260 87 61 50 
220 876 261 85 58 50 
220 876 262 89 63 52 
220 876 263 95 68 54 
220 877 262 91 67 55 
220 877 263 93 67 53 
220 878 263 92 66 51 
221 874 264 105 78 58 
221 875 264 106 80 60 
221 875 265 107 78 59 
222 872 264 105 71 55 
222 873 264 103 73 54 
222 873 265 115 85 64 
223 872 264 106 72 54 
223 872 265 113 83 63 
223 873 265 114 84 63 
223 872 266 122 91 70 
223 873 266 123 92 69 
223 873 267 126 93 69 
222 874 264 112 86 63 
222 874 265 114 86 66 
222 875 265 114 82 60 
222 874 266 118 84 65 
222 875 266 114 80 60 
222 875 267 119 82 61 
223 874 266 120 87 66 
223 874 267 122 87 66 
223 875 267 114 82 63 
223 874 268 122 88 65 
223 875 268 120 87 66 
223 875 269 113 81 59 
220 876 264 94 65 50 
220 877 264 93 66 50 
220 877 265 92 65 50 
221 876 264 99 71 55 
221 876 265 102 74 56 
221 877 264 93 64 48 
221 877 265 94 66 48 
221 876 266 100 71 53 
221 877 266 94 67 49 
220 878 264 91 65 51 
220 878 265 92 66 51 
220 879 264 90 66 52 
220 879 265 91 67 52 
221 878 265 93 68 52 
221 879 265 91 68 53 
221 878 266 93 69 52 
221 879 266 91 68 53 
222 876 266 103 72 55 
222 876 267 104 74 57 
222 877 266 97 69 50 
222 877 267 100 71 52 
223 876 267 110 79 60 
223 877 267 103 72 53 
222 878 266 94 69 52 
222 878 267 94 67 48 
222 879 266 92 68 52 
222 879 267 90 65 49 
223 876 268 112 79 62 
223 876 269 113 80 62 
223 877 268 106 75 60 
223 877 269 111 79 63 
223 877 270 112 81 64 
222 878 268 95 67 50 
222 879 268 92 65 50 
223 878 268 100 72 55 
223 878 269 106 78 62 
223 879 269 97 70 55 
223 878 270 107 81 63 
223 879 270 101 76 59 
218 880 256 102 81 67 
218 880 257 91 69 57 
218 881 256 98 78 64 
218 881 257 89 70 56 
219 881 257 84 64 52 
218 880 258 82 60 49 
218 880 259 79 58 47 
218 881 258 81 59 49 
218 881 259 79 59 49 
219 881 258 81 60 50 
219 881 259 80 61 51 
218 882 256 96 77 62 
219 882 256 92 74 59 
219 882 257 85 65 53 
219 883 256 92 72 58 
219 883 257 84 65 52 
219 882 258 80 60 50 
219 882 259 79 60 51 
219 883 258 80 61 51 
219 883 259 80 61 52 
219 880 260 80 60 48 
219 880 261 82 62 51 
219 881 260 81 62 52 
219 881 261 83 63 54 
218 880 262 84 63 53 
219 880 262 86 63 52 
219 880 263 89 65 53 
219 881 262 85 63 53 
219 881 263 87 64 54 
219 882 260 80 61 51 
219 882 261 82 62 53 
219 883 260 79 60 50 
219 883 261 81 63 53 
219 882 262 83 64 54 
219 884 256 91 71 57 
220 883 257 83 64 52 
220 883 258 81 63 53 
220 883 259 79 61 52 
220 881 263 87 65 53 
220 883 260 78 60 50 
220 883 261 80 62 52 
220 882 262 83 64 53 
220 882 263 84 64 52 
220 883 262 80 63 51 
220 883 263 83 64 52 
221 883 263 80 61 49 
220 884 256 87 69 55 
220 884 257 83 65 52 
220 885 256 89 70 58 
221 885 256 85 67 54 
221 885 257 81 63 51 
220 884 258 81 63 53 
220 884 259 79 61 50 
221 884 258 81 63 53 
221 884 259 78 60 50 
221 885 258 78 61 50 
221 885 259 77 58 47 
221 886 256 83 65 51 
222 885 257 77 59 48 
222 885 258 77 58 47 
222 885 259 75 56 46 
222 886 256 80 63 50 
222 886 257 78 58 47 
223 886 256 80 61 49 
223 886 257 76 57 46 
223 887 256 78 60 47 
223 887 257 77 58 46 
222 886 258 76 57 46 
222 886 259 75 55 45 
223 886 258 73 54 44 
223 886 259 72 52 42 
220 884 260 79 61 50 
220 884 261 79 61 51 
221 884 260 77 59 48 
221 884 261 77 59 49 
221 885 260 75 57 46 
221 885 261 76 58 48 
220 884 262 78 60 49 
221 884 262 77 59 48 
221 884 263 78 59 47 
221 885 262 76 58 48 
221 885 263 76 58 48 
222 885 260 74 55 44 
222 885 261 74 56 45 
223 885 261 73 54 43 
222 885 262 74 56 47 
222 885 263 75 56 48 
223 885 262 73 54 45 
223 885 263 73 54 45 
223 886 260 71 52 41 
223 886 261 71 53 42 
223 886 262 72 53 43 
220 880 264 89 65 52 
220 880 265 90 66 53 
220 881 264 87 65 52 
220 881 265 88 66 52 
221 880 265 89 67 53 
221 881 265 87 66 52 
220 880 266 89 66 53 
221 880 266 89 67 54 
221 881 266 87 66 54 
220 882 264 86 65 52 
221 882 264 85 65 52 
221 882 265 86 65 52 
221 883 264 82 62 50 
221 883 265 83 64 51 
221 882 266 86 63 51 
222 880 267 88 66 53 
222 881 267 87 66 54 
222 883 265 82 62 49 
222 882 266 84 63 51 
222 882 267 86 64 52 
222 883 266 82 61 50 
223 883 267 81 61 49 
222 880 268 89 66 52 
222 881 268 87 67 54 
223 880 269 89 65 50 
223 881 268 86 67 53 
223 881 269 87 65 51 
223 880 270 92 68 51 
223 881 270 88 65 50 
223 882 268 86 66 52 
223 882 269 86 66 52 
223 883 268 83 64 51 
223 883 269 85 65 50 
223 882 270 85 65 50 
223 883 270 85 65 50 
221 884 264 79 59 47 
222 884 264 77 58 46 
222 884 265 78 58 46 
222 885 264 75 56 46 
223 884 265 76 57 46 
223 885 264 74 55 45 
223 885 265 74 56 44 
222 884 266 78 58 47 
223 884 266 77 58 46 
223 884 267 78 58 46 
223 885 266 75 56 45 
223 885 267 75 56 43 
223 884 268 79 60 47 
225 857 256 175 124 90 
225 857 257 169 120 89 
224 859 256 149 105 76 
225 858 256 161 114 86 
225 858 257 155 108 80 
225 859 256 150 106 77 
225 859 257 143 99 70 
226 857 257 170 120 88 
226 857 258 157 108 80 
227 857 258 155 105 75 
227 857 259 142 88 62 
226 858 257 151 104 78 
226 859 257 141 95 70 
226 858 258 142 93 70 
226 858 259 134 83 58 
226 859 258 126 78 52 
226 859 259 121 74 50 
227 858 259 124 72 46 
227 859 259 123 80 57 
227 857 260 130 76 50 
227 858 260 127 83 56 
227 859 260 129 91 67 
227 859 261 124 86 63 
224 860 256 139 95 67 
224 861 256 130 87 58 
225 860 256 135 91 63 
225 860 257 124 79 45 
225 861 256 124 80 49 
225 861 257 122 81 52 
224 862 256 126 85 57 
225 862 256 124 84 58 
225 862 257 126 90 67 
225 863 256 126 88 66 
225 863 257 123 85 65 
225 862 258 124 88 65 
225 863 258 122 84 64 
226 860 258 119 75 44 
226 860 259 124 85 63 
226 861 258 123 87 63 
226 861 259 123 88 65 
226 862 258 122 86 63 
226 862 259 121 85 62 
226 863 258 119 83 62 
226 863 259 117 80 58 
227 860 260 125 89 66 
227 860 261 117 80 56 
227 861 260 120 84 60 
227 861 261 113 76 51 
227 860 262 111 73 49 
227 861 262 113 74 49 
227 861 263 122 84 57 
226 862 260 116 79 55 
226 863 260 117 80 58 
226 863 261 123 87 64 
227 862 260 112 75 49 
227 862 261 114 77 51 
226 863 262 136 103 78 
227 862 262 122 85 60 
227 862 263 137 102 75 
227 863 262 131 97 72 
227 863 263 144 110 80 
228 856 261 127 74 48 
228 857 260 126 74 48 
228 857 261 130 86 61 
229 856 261 126 73 44 
228 857 262 134 95 70 
229 856 262 133 89 62 
229 856 263 140 102 75 
229 857 262 135 96 72 
229 857 263 134 95 70 
228 858 260 128 82 56 
228 858 261 130 90 66 
228 859 261 124 86 63 
228 858 262 127 88 63 
228 859 262 120 81 55 
228 859 263 115 72 47 
229 858 263 122 79 56 
229 859 263 113 68 45 
230 856 263 141 104 79 
228 860 262 112 72 47 
228 860 263 114 73 49 
228 861 262 110 70 46 
228 861 263 126 88 61 
227 862 264 151 115 86 
227 863 264 156 119 89 
227 863 265 156 117 91 
229 857 264 124 81 59 
229 858 264 115 69 48 
229 859 264 117 75 53 
229 859 265 136 99 79 
230 856 264 134 96 74 
230 857 264 124 80 59 
230 857 265 121 76 54 
231 856 264 130 89 66 
231 856 265 121 77 49 
231 857 265 122 78 51 
231 856 266 127 87 60 
231 857 266 133 94 71 
231 857 267 130 90 67 
230 858 264 115 72 52 
230 858 265 125 85 65 
230 859 265 134 97 77 
230 858 266 135 96 73 
230 859 266 136 97 71 
230 859 267 132 93 66 
231 858 266 133 94 72 
231 858 267 127 87 63 
231 859 267 126 86 59 
231 857 268 120 79 54 
230 859 268 139 100 73 
231 858 268 126 85 57 
231 858 269 138 101 72 
231 859 268 134 95 67 
231 859 269 143 105 77 
231 858 270 143 105 79 
231 858 271 140 100 74 
231 859 270 142 103 77 
231 859 271 138 96 68 
228 860 264 125 88 63 
228 861 264 144 109 81 
228 861 265 154 118 89 
229 860 264 133 96 71 
229 860 265 143 106 79 
229 861 265 150 115 87 
229 860 266 144 106 78 
229 861 266 146 108 80 
229 861 267 139 99 72 
228 862 264 154 117 87 
228 862 265 156 119 90 
228 863 265 156 117 90 
228 862 266 148 109 82 
228 862 267 141 102 76 
228 863 266 145 106 79 
228 863 267 140 101 76 
229 862 266 144 104 77 
229 862 267 140 101 75 
230 860 266 140 101 73 
230 860 267 137 99 73 
230 861 267 137 97 71 
229 861 268 139 99 73 
229 861 269 140 100 74 
228 863 268 135 95 69 
229 862 268 139 100 74 
229 862 269 138 98 72 
229 863 268 136 96 71 
229 863 269 136 95 71 
229 862 270 139 97 72 
229 862 271 140 97 71 
229 863 270 136 95 71 
229 863 271 138 97 73 
230 860 268 139 100 74 
230 860 269 142 104 78 
230 861 268 141 102 76 
230 861 269 141 101 76 
231 860 269 143 104 76 
230 860 270 141 102 76 
230 860 271 142 101 74 
230 861 270 140 99 73 
230 861 271 141 98 71 
231 860 270 141 101 74 
231 860 271 140 99 71 
230 862 270 140 97 72 
230 862 271 140 97 72 
232 855 268 132 95 73 
232 855 269 124 81 55 
233 855 268 133 95 73 
233 855 269 129 89 65 
232 855 270 125 83 55 
232 855 271 131 92 69 
232 856 266 127 87 63 
232 856 267 133 96 74 
232 857 267 130 92 67 
232 856 268 125 85 61 
232 856 269 122 79 52 
232 857 268 120 78 51 
232 857 269 128 88 62 
232 856 270 131 91 64 
232 856 271 135 96 74 
232 857 270 138 101 75 
232 857 271 137 99 76 
232 858 269 136 100 72 
232 858 270 141 105 78 
232 858 271 138 98 72 
231 859 272 139 98 68 
231 859 273 145 104 75 
231 858 274 148 105 76 
231 858 275 153 108 79 
231 859 274 149 105 77 
231 859 275 151 106 79 
229 863 272 142 100 77 
230 860 272 142 101 73 
230 861 272 143 101 73 
230 861 273 145 103 76 
231 860 272 143 102 72 
231 860 273 146 104 76 
231 861 272 142 101 72 
231 861 273 146 104 76 
230 861 274 147 104 77 
231 860 274 151 107 78 
231 860 275 152 106 79 
231 861 274 149 105 77 
231 861 275 151 107 80 
230 862 272 142 100 74 
230 862 273 146 103 78 
230 863 272 144 102 78 
230 863 273 146 103 78 
230 862 274 148 105 78 
230 862 275 149 106 77 
230 863 274 146 103 75 
230 863 275 148 105 75 
231 862 275 152 108 80 
231 860 276 152 107 81 
231 861 276 150 106 78 
231 861 277 148 103 75 
230 862 276 147 104 73 
230 862 277 149 106 76 
230 863 276 149 106 77 
230 863 277 152 109 79 
231 862 276 147 104 74 
231 862 277 149 104 75 
230 863 278 154 110 80 
232 855 272 132 90 67 
232 856 272 133 92 68 
232 856 273 138 95 69 
232 857 272 134 92 65 
232 857 273 141 99 71 
232 857 274 149 106 77 
232 858 272 137 95 67 
232 858 273 144 102 73 
232 858 274 150 106 77 
225 864 256 123 85 65 
225 864 257 120 81 65 
225 865 256 116 80 61 
225 865 257 110 73 55 
225 864 258 117 79 60 
225 864 259 115 76 55 
225 865 258 111 73 51 
225 865 259 119 83 59 
224 866 256 110 78 62 
224 867 256 106 74 58 
224 867 257 113 79 59 
225 866 256 108 73 55 
225 866 257 104 68 44 
225 867 256 106 72 54 
225 867 257 115 81 59 
224 867 259 145 112 87 
225 866 258 117 84 60 
225 866 259 134 103 79 
225 867 258 131 100 76 
225 867 259 141 110 86 
226 864 259 114 76 55 
225 865 260 140 107 84 
225 865 261 143 107 81 
225 865 262 143 106 79 
225 866 260 141 109 83 
225 866 261 142 107 80 
225 867 260 144 110 83 
225 867 261 146 109 82 
225 866 262 147 110 84 
225 866 263 153 116 91 
225 867 262 149 112 87 
225 867 263 149 114 90 
226 864 260 121 85 64 
226 864 261 135 103 81 
226 865 260 131 97 74 
226 865 261 143 108 84 
226 864 262 141 108 82 
226 864 263 148 112 82 
226 865 262 144 107 80 
226 865 263 148 112 85 
227 864 263 149 113 84 
226 866 263 151 114 89 
224 868 256 106 73 54 
224 868 257 125 94 73 
224 869 256 111 80 58 
224 869 257 133 100 78 
224 868 258 140 108 86 
224 868 259 147 113 89 
224 869 258 145 110 85 
224 869 259 147 111 86 
224 868 260 146 110 83 
224 868 261 147 111 86 
224 869 260 147 111 86 
224 869 261 146 111 86 
225 868 261 146 110 85 
224 868 262 149 112 88 
224 868 263 141 107 83 
224 869 262 142 107 83 
224 869 263 131 96 72 
225 868 262 149 113 90 
225 868 263 146 111 88 
224 870 262 132 98 75 
224 870 263 125 88 64 
225 867 264 139 102 76 
226 864 264 156 117 88 
226 865 264 151 114 90 
226 865 265 138 100 76 
227 864 264 157 118 91 
227 864 265 148 109 83 
227 865 264 151 112 88 
227 865 265 138 98 74 
227 864 266 138 96 70 
227 865 266 132 91 66 
227 865 267 130 91 66 
226 866 264 145 109 86 
226 866 265 129 89 62 
226 867 264 131 93 66 
226 867 265 125 86 60 
226 866 266 129 91 67 
226 867 266 127 88 67 
226 867 267 122 82 61 
227 866 266 131 93 70 
227 866 267 126 87 64 
227 865 268 127 87 66 
227 865 269 129 90 70 
226 867 268 124 84 63 
227 866 268 124 85 65 
227 866 269 128 90 70 
227 867 268 125 87 66 
227 867 269 129 91 71 
227 866 270 132 93 70 
227 867 270 134 96 73 
227 867 271 139 100 76 
224 869 264 120 83 60 
224 869 265 116 80 60 
225 868 264 128 91 64 
225 868 265 122 84 60 
225 869 264 119 81 59 
225 869 265 115 77 56 
225 868 266 117 80 59 
225 869 266 114 76 54 
225 869 267 118 82 61 
224 870 264 115 78 59 
224 870 265 113 78 58 
224 871 264 111 76 58 
224 871 265 112 79 58 
224 870 266 116 81 60 
224 871 266 120 89 68 
224 871 267 126 94 74 
225 870 266 115 81 60 
225 870 267 125 91 71 
226 868 266 120 82 61 
226 868 267 119 80 58 
226 869 267 119 82 63 
225 869 268 127 92 73 
224 871 268 133 97 75 
225 870 268 130 95 75 
225 870 269 130 94 72 
225 871 268 129 95 72 
225 871 269 132 96 72 
225 871 270 133 97 72 
226 868 268 125 87 65 
226 868 269 132 96 75 
226 869 268 127 92 70 
226 869 269 133 98 74 
227 868 269 130 93 72 
226 869 270 135 98 73 
226 869 271 138 101 75 
227 868 270 136 98 76 
227 868 271 137 98 73 
227 869 270 134 97 72 
227 869 271 137 99 72 
226 870 269 131 96 72 
226 870 270 134 98 74 
226 870 271 138 103 76 
226 871 270 134 99 73 
226 871 271 136 102 75 
228 864 266 138 97 70 
228 864 267 135 95 68 
228 864 268 132 91 65 
228 864 269 134 94 71 
228 865 268 130 90 67 
228 865 269 130 91 70 
228 864 270 134 94 71 
228 864 271 135 95 71 
228 865 270 132 92 69 
228 865 271 135 95 71 
229 864 270 135 94 71 
229 864 271 136 96 72 
228 866 270 132 93 68 
228 866 271 140 101 77 
228 867 271 141 101 77 
224 872 266 123 93 71 
224 872 267 128 95 72 
224 873 267 127 94 68 
224 872 268 130 95 72 
224 873 268 128 94 68 
224 873 269 130 96 72 
225 872 268 129 93 69 
225 872 269 131 96 73 
225 873 269 131 97 74 
224 873 270 127 93 72 
225 872 270 132 97 72 
225 872 271 135 100 73 
225 873 270 132 97 73 
225 873 271 135 100 75 
224 874 268 123 90 65 
224 874 269 125 90 65 
224 875 269 117 83 60 
224 874 270 128 93 72 
224 874 271 130 97 74 
224 875 270 121 86 64 
224 875 271 124 91 68 
225 874 271 132 99 77 
226 872 271 137 102 76 
224 876 270 117 85 64 
224 876 271 118 87 65 
224 877 270 113 83 64 
224 877 271 116 87 66 
224 878 270 109 82 64 
224 878 271 116 87 68 
224 879 270 100 76 59 
224 879 271 104 79 60 
227 867 272 142 103 76 
227 868 272 140 104 76 
227 868 273 145 109 82 
227 869 272 142 106 79 
227 869 273 143 107 79 
227 869 274 142 105 76 
227 869 275 141 104 76 
226 870 272 140 105 79 
226 871 272 139 104 79 
226 871 273 136 100 74 
227 870 272 141 106 80 
227 870 273 138 102 75 
227 871 273 135 99 73 
226 871 274 136 100 75 
227 870 274 137 101 73 
227 870 275 139 102 74 
227 871 274 137 100 75 
227 871 275 136 100 75 
227 870 276 137 100 73 
227 870 277 134 96 69 
227 871 276 135 98 73 
227 871 277 130 92 68 
228 865 272 141 101 77 
229 864 272 141 100 77 
229 864 273 145 102 75 
229 865 272 141 100 74 
229 865 273 143 101 74 
229 864 274 146 102 75 
229 865 274 146 103 76 
229 865 275 152 110 84 
228 866 272 141 101 75 
228 866 273 144 102 74 
228 867 272 141 103 77 
228 867 273 144 106 80 
228 866 274 147 106 78 
228 867 274 148 109 83 
228 867 275 152 113 85 
229 866 274 148 106 78 
229 866 275 152 111 84 
229 867 275 153 114 87 
230 864 274 146 103 76 
230 864 275 149 107 79 
230 865 275 152 110 83 
228 867 276 151 111 83 
229 866 276 153 112 82 
229 866 277 151 108 78 
229 867 276 150 110 80 
229 867 277 148 107 78 
229 866 278 150 109 82 
229 867 278 146 104 78 
229 867 279 141 99 73 
230 864 276 154 112 84 
230 864 277 154 112 84 
230 865 276 155 112 85 
230 865 277 157 114 86 
230 864 278 154 113 83 
230 864 279 151 110 81 
230 865 278 154 112 85 
230 865 279 150 107 81 
230 866 276 155 113 83 
230 866 277 153 110 81 
230 866 278 151 108 82 
230 866 279 144 101 74 
230 867 279 140 99 71 
228 868 272 144 108 81 
228 868 273 147 110 83 
228 868 274 147 110 84 
228 868 275 148 110 83 
228 869 274 146 109 81 
228 869 275 144 106 78 
228 868 276 145 106 77 
228 868 277 142 101 73 
228 869 276 140 102 74 
228 869 277 137 98 71 
229 868 277 145 104 77 
228 869 278 135 95 69 
228 869 279 134 94 68 
229 868 278 140 99 73 
229 868 279 139 98 73 
229 869 279 136 95 69 
228 870 277 134 96 70 
228 871 277 130 93 69 
228 870 278 132 92 66 
228 870 279 135 95 69 
228 871 278 128 89 65 
228 871 279 130 90 66 
229 867 280 139 99 72 
230 866 280 142 99 71 
230 867 280 141 101 73 
230 867 281 142 102 74 
228 869 280 141 103 79 
229 868 280 141 102 75 
229 868 281 144 104 78 
229 869 280 144 104 78 
229 869 281 149 107 79 
229 869 282 151 109 80 
228 870 280 145 106 79 
228 870 281 152 111 84 
228 871 280 144 105 81 
228 871 281 151 110 84 
229 870 281 152 111 82 
228 870 282 154 112 85 
228 870 283 156 113 86 
228 871 282 153 112 86 
228 871 283 154 113 86 
229 870 282 153 111 82 
229 870 283 155 112 85 
228 871 284 158 117 89 
225 873 272 136 100 77 
225 873 273 131 96 72 
225 874 272 132 99 76 
225 874 273 130 95 72 
225 875 272 126 92 69 
225 875 273 123 89 66 
225 874 274 132 96 74 
225 875 274 126 91 69 
226 872 272 138 102 77 
226 872 273 135 99 75 
226 873 272 137 102 77 
226 873 273 135 98 74 
226 872 274 134 98 75 
226 872 275 132 98 75 
226 873 274 132 98 75 
226 873 275 129 95 74 
227 872 275 133 98 76 
226 874 274 132 97 75 
226 874 275 128 96 76 
226 875 274 125 93 73 
226 875 275 126 95 77 
226 873 276 125 91 71 
227 872 276 130 95 72 
227 872 277 124 87 65 
227 873 276 121 86 65 
227 873 277 119 83 61 
227 872 278 124 86 62 
227 872 279 129 89 65 
227 873 278 122 85 62 
227 873 279 130 92 68 
226 874 276 117 83 63 
226 875 276 114 82 63 
226 875 277 109 74 52 
227 874 277 114 78 56 
227 875 277 113 79 58 
227 874 278 122 86 65 
227 874 279 133 94 69 
227 875 278 122 87 66 
227 875 279 133 94 70 
224 876 272 119 88 62 
224 877 272 112 84 61 
225 876 272 116 85 61 
225 876 273 117 84 60 
225 877 272 112 83 59 
225 877 273 113 83 62 
225 876 274 117 85 64 
225 877 274 112 82 63 
225 877 275 105 75 57 
224 878 272 109 82 62 
224 879 272 102 77 58 
224 879 273 104 78 59 
225 878 273 110 83 63 
225 879 273 104 79 60 
225 878 274 108 80 63 
225 878 275 101 73 56 
225 879 274 100 74 56 
225 879 275 97 70 54 
226 876 275 117 87 67 
226 877 275 109 78 60 
226 878 275 100 71 54 
226 879 275 97 69 52 
226 876 276 110 78 61 
226 876 277 106 72 55 
226 877 276 105 75 58 
226 877 277 109 77 58 
227 876 277 112 79 61 
227 876 278 122 88 67 
227 876 279 131 94 70 
227 877 278 121 89 67 
227 877 279 130 95 71 
226 878 276 102 73 55 
226 878 277 111 81 60 
226 879 276 102 73 56 
226 879 277 111 81 60 
226 878 278 119 89 67 
226 879 278 121 90 67 
227 878 278 127 96 74 
227 878 279 131 98 72 
227 879 278 129 98 75 
227 879 279 133 100 75 
228 872 278 126 87 62 
228 872 279 132 92 67 
228 873 279 134 95 71 
227 874 280 143 104 78 
227 875 280 145 106 80 
227 876 280 143 106 81 
227 877 280 142 106 81 
227 877 281 147 112 84 
227 878 280 142 108 81 
227 878 281 148 114 85 
227 879 280 139 104 78 
227 879 281 147 113 86 
228 872 280 144 105 80 
228 872 281 149 109 83 
228 873 280 143 104 78 
228 873 281 147 108 81 
228 872 282 150 110 84 
228 872 283 154 113 87 
228 873 282 150 111 84 
228 873 283 152 113 86 
228 874 280 148 110 83 
228 874 281 149 111 84 
228 875 280 149 112 86 
228 875 281 149 112 85 
228 874 282 149 113 84 
228 874 283 150 112 83 
228 875 282 149 112 83 
228 875 283 148 111 82 
228 872 284 157 115 88 
228 873 284 154 112 85 
229 873 284 156 114 86 
229 873 285 156 114 87 
228 874 284 152 113 85 
228 875 284 149 110 80 
229 874 284 152 112 84 
229 874 285 155 114 87 
229 875 284 149 110 80 
229 875 285 151 112 82 
229 874 286 155 115 87 
229 875 286 153 114 84 
230 874 286 154 115 85 
230 875 286 153 114 85 
228 876 281 147 111 84 
228 877 281 146 111 84 
228 876 282 147 111 83 
228 876 283 147 110 80 
228 877 282 147 110 84 
228 877 283 147 110 83 
228 878 281 147 113 84 
228 879 281 148 114 86 
228 878 282 149 114 88 
228 878 283 149 113 88 
228 879 282 151 116 90 
228 879 283 149 113 87 
228 877 284 147 110 83 
229 876 284 149 111 81 
229 876 285 151 112 82 
229 877 284 147 110 82 
229 877 285 149 111 83 
229 876 286 152 114 84 
228 878 284 147 111 85 
228 879 284 147 111 84 
229 878 284 146 109 82 
229 878 285 146 107 79 
229 879 284 145 107 79 
229 879 285 141 103 77 
230 876 286 152 114 86 
230 876 287 150 111 82 
230 877 286 150 112 85 
230 877 287 145 103 74 
230 878 286 144 106 79 
230 878 287 141 100 69 
230 879 286 137 97 71 
230 879 287 134 91 61 
231 878 287 138 96 66 
231 879 287 134 92 65 
224 887 256 75 58 46 
224 887 257 75 55 44 
224 886 258 75 55 46 
224 886 259 73 53 43 
224 887 258 75 54 45 
224 887 259 73 54 43 
225 887 258 75 55 45 
225 887 259 74 54 43 
224 886 260 73 54 43 
224 886 261 73 54 43 
224 887 260 72 54 43 
224 887 261 74 55 45 
225 887 260 74 55 43 
225 887 261 74 55 44 
224 886 262 72 53 42 
224 886 263 72 53 43 
225 886 262 74 55 44 
225 886 263 73 55 44 
225 887 262 75 56 45 
225 887 263 74 56 45 
226 887 260 75 56 44 
226 887 261 75 56 44 
226 887 262 74 55 45 
226 887 263 74 56 46 
227 887 262 72 54 42 
227 887 263 72 54 44 
224 880 270 93 68 52 
224 880 271 95 70 53 
224 881 271 91 68 52 
224 883 269 83 63 47 
224 882 270 86 65 50 
224 882 271 87 66 52 
224 883 270 84 63 48 
224 883 271 85 65 51 
224 885 264 73 55 44 
224 885 265 74 56 45 
224 884 267 78 58 45 
224 885 266 74 56 46 
224 885 267 76 57 45 
225 885 266 73 55 45 
225 885 267 74 57 44 
224 886 264 72 54 44 
225 886 264 73 55 45 
225 886 265 74 56 46 
225 886 266 74 56 46 
225 886 267 74 57 45 
226 886 264 74 55 46 
226 886 265 74 56 46 
226 887 264 74 56 47 
226 887 265 74 56 46 
227 887 264 72 55 46 
227 887 265 71 54 45 
226 886 266 74 56 46 
226 886 267 74 57 46 
226 887 266 74 56 46 
227 887 266 71 54 43 
227 887 267 71 54 43 
224 884 268 79 60 46 
224 884 269 81 61 46 
224 885 268 78 59 46 
224 885 269 79 60 45 
225 885 268 77 59 47 
225 885 269 78 60 46 
224 884 270 81 61 46 
224 884 271 82 61 48 
225 884 271 80 60 47 
225 885 270 78 59 45 
225 885 271 77 57 45 
226 885 270 76 58 44 
226 885 271 75 55 46 
226 886 268 77 60 49 
226 886 269 78 61 49 
227 886 269 78 62 50 
227 887 268 73 57 46 
227 887 269 76 60 49 
226 886 270 77 59 48 
226 886 271 75 57 46 
227 886 270 77 60 50 
227 886 271 75 58 47 
227 887 270 74 59 48 
227 887 271 74 58 47 
228 887 265 70 53 44 
228 887 266 70 53 42 
228 887 267 70 53 41 
228 887 268 71 54 44 
228 887 269 73 57 46 
228 887 270 72 56 45 
228 887 271 71 55 43 
224 888 256 76 58 45 
224 888 257 75 56 44 
225 888 256 75 56 42 
225 888 257 76 56 44 
225 889 256 73 54 40 
225 889 257 75 55 41 
225 888 258 76 56 46 
226 888 257 76 56 44 
226 889 257 74 55 42 
226 888 258 76 56 45 
226 888 259 76 56 45 
226 889 258 75 56 44 
227 889 258 75 57 46 
227 889 259 76 58 46 
226 890 256 73 55 40 
226 890 257 74 56 42 
226 891 256 74 57 43 
227 890 257 76 59 46 
227 891 256 77 61 47 
227 891 257 77 61 48 
227 890 258 77 59 47 
227 891 258 77 61 47 
226 888 260 74 55 44 
226 888 261 73 55 42 
227 888 260 73 55 42 
227 888 261 72 54 42 
227 889 260 73 56 45 
227 889 261 72 55 43 
227 888 262 72 54 42 
227 888 263 71 54 43 
227 892 256 79 63 49 
227 892 257 78 62 46 
227 893 256 80 64 49 
227 893 257 80 63 47 
227 894 256 79 62 45 
227 895 256 78 60 43 
228 889 259 74 57 45 
228 891 257 78 61 46 
228 890 258 75 58 44 
228 890 259 74 57 45 
228 891 258 76 59 44 
228 891 259 76 58 45 
229 891 259 79 62 50 
228 888 261 73 55 43 
228 889 260 74 56 44 
228 889 261 73 56 43 
228 888 262 73 56 44 
228 888 263 71 55 44 
228 889 262 74 58 45 
228 889 263 74 58 46 
229 889 262 74 58 45 
229 889 263 76 60 49 
228 890 260 74 57 45 
228 890 261 73 57 45 
228 891 260 77 60 48 
229 890 260 75 59 47 
229 890 261 76 60 47 
229 891 260 79 62 50 
229 891 261 77 61 47 
229 890 262 77 61 47 
229 890 263 77 62 50 
229 891 262 77 61 47 
230 891 261 78 61 48 
230 890 262 76 60 47 
230 890 263 78 61 49 
230 891 262 78 61 48 
230 891 263 78 61 48 
228 892 257 78 61 45 
228 893 257 79 62 45 
228 892 258 78 61 46 
228 892 259 80 62 49 
228 893 258 80 62 47 
229 892 259 80 62 50 
229 893 259 79 62 48 
228 894 257 80 62 45 
228 895 257 80 63 46 
228 894 258 80 62 48 
228 894 259 78 61 47 
228 895 258 79 63 46 
228 895 259 79 62 47 
229 894 259 78 61 46 
229 895 259 78 61 47 
229 892 260 79 61 48 
229 892 261 78 60 47 
229 893 260 78 61 47 
229 893 261 78 61 49 
229 894 260 78 61 49 
229 894 261 78 62 51 
229 895 260 77 61 49 
229 895 261 78 61 51 
230 892 261 78 61 48 
230 893 261 78 62 50 
230 892 262 78 62 49 
230 892 263 78 61 49 
230 893 262 79 63 51 
230 893 263 80 64 53 
230 894 262 78 62 51 
230 894 263 79 62 52 
230 895 262 77 60 51 
230 895 263 76 58 49 
227 888 264 71 55 46 
227 888 265 70 54 45 
228 888 264 71 56 46 
228 888 265 72 56 46 
229 888 265 74 58 48 
229 889 264 76 61 50 
229 889 265 76 61 50 
228 888 266 72 55 45 
228 888 267 71 55 43 
229 888 266 74 59 48 
229 888 267 74 58 47 
229 889 266 77 61 50 
229 889 267 77 61 49 
229 890 264 79 64 53 
229 890 265 79 64 53 
230 890 264 77 62 49 
230 890 265 78 63 51 
230 891 264 78 62 49 
230 891 265 78 62 50 
230 890 266 78 62 50 
230 890 267 78 61 49 
230 891 266 78 61 49 
230 891 267 78 60 48 
231 891 266 79 62 52 
231 891 267 79 62 51 
228 888 268 72 55 43 
228 888 269 74 58 45 
229 888 268 73 57 46 
229 888 269 76 60 48 
229 889 268 75 59 47 
229 889 269 76 61 47 
228 888 270 71 56 43 
228 888 271 69 53 40 
229 888 270 75 60 46 
229 888 271 69 55 41 
229 889 270 76 61 47 
229 889 271 73 58 44 
230 889 268 78 62 50 
230 889 269 77 62 48 
230 890 268 78 62 49 
230 890 269 78 62 50 
230 891 268 78 60 48 
230 891 269 77 61 48 
231 891 268 80 62 51 
231 891 269 78 61 49 
230 890 270 78 63 50 
230 890 271 76 61 47 
230 891 270 77 61 48 
230 891 271 77 63 50 
231 891 270 76 60 47 
231 891 271 76 62 48 
230 892 264 80 63 51 
230 893 264 81 63 53 
231 892 265 80 63 52 
231 893 264 80 62 51 
231 893 265 79 60 50 
231 892 266 80 62 53 
231 892 267 80 62 53 
231 893 266 79 60 50 
231 893 267 79 60 50 
230 894 264 79 60 51 
230 895 264 77 57 50 
231 894 264 77 57 49 
231 894 265 76 57 48 
231 895 264 74 55 48 
231 895 265 73 54 47 
231 894 266 76 57 48 
231 894 267 76 57 47 
231 895 266 74 54 49 
231 895 267 73 54 47 
231 892 268 82 64 54 
231 892 269 80 62 52 
231 893 268 80 62 51 
231 893 269 78 60 50 
231 892 270 76 60 48 
231 892 271 75 59 45 
231 893 270 75 59 48 
231 893 271 73 57 44 
231 894 268 75 57 46 
231 894 269 75 58 47 
231 895 268 71 53 46 
232 893 271 74 58 45 
232 894 268 74 56 46 
232 894 269 73 56 45 
232 895 268 69 52 45 
232 895 269 70 53 45 
232 894 270 72 56 44 
232 894 271 73 58 45 
232 895 270 70 55 45 
232 895 271 72 57 44 
224 880 272 98 74 57 
224 880 273 101 77 60 
224 881 272 94 72 57 
224 881 273 95 72 56 
225 880 273 98 74 56 
225 881 273 92 68 51 
225 880 274 95 68 51 
225 880 275 93 66 50 
225 881 274 90 64 48 
225 881 275 91 64 49 
224 882 272 89 68 52 
224 883 272 87 66 53 
225 882 273 87 64 48 
225 883 272 83 62 49 
225 883 273 84 62 48 
225 882 274 88 62 48 
225 882 275 89 64 48 
225 883 274 86 62 49 
226 880 275 96 69 53 
226 881 275 92 65 49 
226 882 275 93 68 53 
226 883 274 85 62 49 
226 883 275 91 67 55 
226 880 276 102 74 57 
226 880 277 111 80 58 
226 881 276 103 76 59 
226 881 277 109 79 58 
226 880 278 122 92 70 
226 881 278 123 94 74 
227 880 278 132 101 79 
227 880 279 133 100 75 
227 881 278 127 97 77 
227 881 279 131 96 73 
226 882 276 98 72 55 
226 882 277 108 79 59 
226 883 276 95 70 52 
226 883 277 103 75 56 
227 883 277 107 79 62 
227 882 278 121 91 72 
227 882 279 125 90 68 
227 883 278 115 85 66 
227 883 279 118 84 64 
225 884 272 80 59 49 
225 884 273 81 61 50 
225 885 272 78 57 47 
225 884 274 83 62 50 
226 885 272 76 56 48 
226 885 273 78 59 48 
226 884 274 84 63 51 
226 884 275 90 68 55 
226 885 274 83 63 50 
226 885 275 87 67 52 
227 885 275 87 66 50 
226 886 272 76 57 48 
226 886 273 78 58 45 
227 886 272 74 55 46 
227 886 273 76 57 46 
227 887 272 74 56 46 
227 887 273 74 57 47 
226 886 274 79 60 46 
227 886 274 80 60 47 
227 886 275 84 64 49 
227 887 275 82 62 48 
226 884 276 93 69 52 
227 884 276 94 69 51 
227 884 277 104 78 60 
227 885 276 90 67 50 
227 885 277 98 74 55 
227 884 278 110 81 61 
227 885 278 104 77 57 
227 886 276 89 67 53 
227 886 277 95 72 55 
227 887 276 86 65 52 
228 883 279 118 84 63 
228 887 272 71 55 45 
228 887 273 74 56 45 
228 887 274 78 59 45 
228 887 275 81 61 47 
228 884 279 113 83 62 
228 885 278 103 76 56 
228 885 279 108 79 58 
228 886 277 94 71 56 
228 887 276 88 66 53 
228 887 277 90 68 52 
228 886 278 97 72 54 
228 886 279 102 75 55 
228 887 278 93 68 51 
229 886 279 101 74 55 
229 887 278 92 68 49 
229 887 279 97 71 50 
227 880 280 138 102 76 
227 880 281 147 113 86 
227 881 280 134 99 74 
227 881 281 143 109 83 
227 882 280 130 94 71 
227 882 281 140 106 81 
228 880 281 148 114 87 
228 881 281 144 110 84 
228 880 282 149 115 89 
228 880 283 146 112 86 
228 881 282 144 110 84 
228 881 283 142 107 81 
229 881 283 138 102 77 
228 882 280 132 98 75 
228 882 281 138 104 80 
228 883 280 126 92 70 
228 883 281 129 96 73 
229 883 281 125 91 70 
228 882 282 137 104 80 
228 882 283 138 103 79 
229 882 282 133 98 77 
229 882 283 131 94 72 
229 883 282 126 91 70 
229 883 283 123 84 64 
230 883 283 120 79 60 
228 880 284 144 109 81 
229 880 284 141 105 77 
229 880 285 137 99 73 
229 881 284 135 99 72 
229 881 285 132 94 69 
229 882 284 128 90 68 
230 880 285 134 94 69 
230 881 285 127 89 66 
230 880 286 129 87 61 
230 881 286 121 79 56 
231 880 287 126 83 57 
231 881 286 113 67 42 
231 881 287 115 71 49 
230 882 284 123 84 64 
230 882 285 122 82 62 
230 883 284 119 78 59 
231 882 285 115 72 53 
231 883 284 117 68 52 
231 883 285 118 68 50 
231 882 286 110 67 45 
228 884 280 120 89 67 
228 884 281 126 94 70 
228 885 280 115 85 63 
229 884 281 120 86 63 
229 885 280 114 84 62 
229 885 281 115 81 57 
229 884 282 118 82 60 
229 885 282 116 78 54 
229 886 280 107 77 56 
229 886 281 112 77 56 
229 887 280 102 72 50 
230 884 282 118 79 55 
230 884 283 118 75 54 
230 885 282 115 75 49 
230 885 283 115 71 47 
231 885 283 117 65 39 
230 886 281 114 75 51 
230 887 280 104 72 47 
230 887 281 113 75 47 
231 887 281 117 75 48 
230 886 282 115 74 51 
231 886 282 119 70 45 
231 886 283 120 65 34 
231 887 282 124 74 46 
231 884 284 117 62 44 
231 885 284 117 60 38 
228 888 272 71 55 43 
228 888 273 71 54 43 
229 888 272 69 54 41 
229 888 273 71 54 43 
229 889 272 70 55 42 
229 889 273 69 54 42 
228 888 274 76 58 44 
228 888 275 79 60 46 
229 888 274 75 57 43 
229 888 275 78 59 45 
229 889 274 73 56 42 
229 889 275 77 59 44 
229 890 273 69 55 41 
229 890 275 75 58 43 
230 890 272 72 58 45 
230 890 273 70 55 41 
230 891 272 74 60 49 
230 891 273 72 58 45 
231 891 272 74 60 49 
231 891 273 72 59 47 
230 890 274 70 55 40 
230 890 275 74 57 44 
230 891 274 71 56 42 
230 891 275 73 57 43 
231 891 274 72 59 45 
231 891 275 74 59 43 
228 888 276 88 67 53 
228 888 277 88 66 51 
229 888 276 86 65 51 
229 888 277 87 66 50 
229 889 276 83 62 48 
229 889 277 86 64 49 
229 888 278 90 66 47 
229 888 279 94 67 44 
229 889 278 87 65 46 
229 889 279 92 67 45 
229 890 276 81 61 47 
229 890 277 82 62 47 
230 889 279 92 67 42 
230 890 276 79 60 47 
230 890 277 82 62 46 
230 891 276 78 60 47 
230 891 277 81 62 46 
231 891 276 79 60 46 
231 891 277 81 62 45 
230 890 278 86 63 44 
230 890 279 92 67 43 
230 891 278 86 64 45 
230 891 279 90 65 44 
231 891 278 86 64 46 
231 891 279 95 69 46 
231 892 272 73 58 46 
231 892 273 72 58 46 
231 893 272 74 58 45 
231 893 273 72 58 46 
231 892 274 73 59 45 
231 892 275 74 59 43 
231 892 276 78 61 46 
231 892 277 81 61 44 
231 892 278 84 62 44 
231 892 279 92 68 46 
230 888 280 101 71 45 
230 888 281 111 74 45 
230 889 280 101 72 44 
230 889 281 110 78 50 
231 888 281 120 77 50 
231 889 280 111 80 53 
231 889 281 121 82 53 
231 888 282 126 77 48 
231 889 282 122 79 51 
230 890 280 100 73 47 
231 890 280 107 78 52 
231 890 281 114 82 53 
231 891 280 106 78 51 
232 881 287 111 66 45 
232 883 285 121 60 36 
232 882 286 104 57 34 
232 882 287 104 60 39 
232 883 286 114 61 37 
233 882 287 102 59 38 
233 883 286 112 57 33 
233 883 287 103 58 37 
234 883 287 107 59 38 
232 885 283 126 52 26 
232 886 283 124 61 31 
232 887 282 125 69 43 
232 887 283 125 59 33 
233 886 283 129 56 28 
233 887 283 127 60 34 
234 887 283 131 62 34 
232 884 284 123 60 42 
232 884 285 128 60 37 
232 885 284 127 58 34 
233 884 285 127 60 33 
233 885 284 133 59 31 
233 885 285 134 62 32 
233 884 286 118 57 31 
233 886 284 133 57 28 
234 884 285 120 59 30 
234 885 285 126 61 33 
235 885 285 120 59 30 
234 884 286 105 57 32 
234 884 287 102 58 37 
235 884 286 103 57 31 
235 884 287 102 59 38 
235 885 286 106 56 29 
234 886 284 134 59 30 
234 886 285 130 59 32 
234 887 284 133 63 34 
235 886 285 126 59 31 
235 887 284 129 61 30 
235 887 285 126 56 28 
236 884 287 101 59 41 
236 885 286 102 56 32 
236 885 287 102 57 37 
237 885 287 101 59 41 
236 886 285 113 55 29 
236 887 285 119 54 28 
237 887 285 103 53 27 
236 886 286 108 56 25 
237 886 286 101 57 26 
237 886 287 100 58 34 
237 887 286 98 55 26 
238 886 287 100 58 31 
238 887 286 98 57 30 
238 887 287 99 58 31 
239 887 287 104 58 25 
232 893 272 74 59 46 
232 893 273 72 58 45 
232 893 274 73 59 45 
232 893 275 76 61 46 
232 894 272 75 60 48 
232 894 273 74 59 47 
232 895 272 73 57 44 
232 895 273 73 58 45 
233 895 273 74 59 45 
232 894 274 75 59 45 
232 894 275 77 61 46 
233 894 274 76 60 45 
233 894 275 77 61 44 
233 895 274 76 60 45 
233 895 275 78 61 45 
232 893 276 79 63 48 
232 893 277 81 62 47 
232 892 279 93 68 46 
232 893 278 84 63 46 
232 893 279 89 66 46 
233 893 278 84 64 50 
233 893 279 90 67 48 
233 894 276 80 63 46 
233 894 277 82 64 48 
233 895 276 81 63 45 
233 895 277 82 63 46 
233 894 278 84 64 48 
233 894 279 90 68 49 
234 895 276 80 62 44 
234 895 277 81 63 45 
234 894 279 90 67 46 
234 895 278 85 66 47 
234 895 279 88 66 46 
232 888 282 124 72 42 
232 889 282 123 76 45 
233 888 283 125 65 36 
233 889 282 123 67 36 
233 889 283 124 63 34 
232 890 281 117 79 49 
232 891 280 108 78 49 
232 891 281 113 78 48 
233 891 281 112 74 44 
232 890 282 121 76 46 
233 890 282 120 68 35 
233 891 282 115 69 38 
234 888 283 128 63 33 
234 889 283 122 59 26 
235 888 283 128 64 29 
235 889 283 123 62 26 
234 890 282 117 59 28 
234 890 283 118 59 27 
234 891 282 116 62 31 
234 891 283 116 60 28 
235 890 283 118 59 25 
235 891 283 117 62 30 
234 888 284 129 66 32 
235 888 284 127 65 30 
235 889 284 124 64 27 
232 892 280 101 73 46 
232 892 281 106 74 46 
233 892 280 100 69 45 
233 892 281 106 70 44 
233 893 280 96 69 47 
234 892 281 103 64 39 
234 893 280 96 67 43 
234 893 281 101 66 41 
234 892 282 110 63 34 
234 893 282 107 64 39 
235 892 282 115 63 32 
235 892 283 115 62 31 
235 893 282 110 65 38 
234 894 280 95 68 45 
234 894 281 100 68 44 
234 895 280 93 67 46 
235 894 281 102 67 42 
235 895 280 96 68 45 
235 895 281 101 69 41 
235 894 282 107 67 40 
236 890 283 115 59 27 
236 891 283 114 60 28 
236 888 284 118 57 26 
236 888 285 113 56 28 
236 889 284 116 57 24 
237 888 285 102 53 26 
237 889 285 108 54 27 
236 890 284 115 56 24 
236 891 284 112 56 25 
237 890 284 110 53 22 
237 890 285 107 54 26 
237 891 284 109 53 23 
238 889 285 100 54 32 
238 888 286 102 56 30 
238 889 286 96 55 34 
239 888 286 101 59 32 
239 888 287 112 66 33 
239 889 286 102 59 35 
238 890 284 107 53 26 
238 890 285 103 56 32 
238 891 284 107 53 27 
238 891 285 103 54 29 
239 890 285 101 59 35 
239 891 285 103 61 33 
239 890 286 102 60 37 
236 892 283 113 61 30 
236 893 282 111 63 35 
236 893 283 112 62 32 
237 893 283 110 59 28 
236 894 282 110 65 38 
236 894 283 113 67 42 
236 895 282 108 68 40 
237 894 283 113 64 39 
237 895 282 115 72 47 
237 895 283 114 69 42 
238 894 283 109 58 32 
238 895 283 110 62 37 
236 892 284 110 58 28 
237 892 284 109 55 23 
237 893 284 109 55 23 
238 892 284 107 56 31 
238 893 284 108 58 33 
239 892 284 104 60 35 
239 892 285 105 63 34 
239 893 284 107 65 38 
238 894 284 108 59 35 
239 894 284 109 65 40 
239 895 284 109 65 42 
231 877 288 143 99 68 
231 878 288 142 101 69 
231 879 288 136 96 69 
232 879 289 136 95 68 
231 880 288 130 89 66 
232 880 288 126 84 63 
232 880 289 125 83 61 
232 881 288 114 71 52 
233 880 289 117 75 52 
233 881 288 109 65 47 
233 881 289 110 67 47 
233 880 290 123 82 59 
232 882 288 106 65 47 
233 882 288 106 62 44 
233 882 289 105 64 44 
234 881 290 108 69 47 
235 881 290 108 68 45 
234 882 288 103 62 42 
234 882 289 103 64 42 
234 883 288 107 61 41 
235 882 289 101 63 41 
235 883 288 103 61 40 
235 883 289 101 62 40 
234 882 290 102 63 40 
235 882 290 100 64 40 
236 883 288 100 59 36 
236 883 289 100 61 37 
237 883 289 100 61 35 
236 882 290 97 61 35 
236 882 291 100 60 30 
236 883 290 99 63 38 
236 883 291 102 58 23 
237 883 290 99 60 31 
237 883 291 108 62 33 
237 883 292 115 70 46 
238 883 292 129 81 61 
236 884 288 100 58 37 
237 884 288 100 59 38 
237 884 289 99 59 32 
237 885 288 99 57 38 
237 884 290 101 59 30 
238 884 289 102 57 26 
238 885 288 101 55 35 
238 885 289 110 65 39 
238 884 290 109 65 38 
238 884 291 124 77 57 
238 885 290 122 76 56 
238 885 291 135 86 70 
239 885 290 133 86 65 
239 885 291 146 93 77 
238 886 288 103 55 35 
238 886 289 110 60 41 
239 886 288 111 61 38 
239 886 289 128 80 58 
239 887 288 121 72 46 
239 886 290 143 93 72 
239 886 291 154 99 80 
238 884 292 142 91 73 
238 884 293 157 104 84 
239 885 292 160 106 87 
239 885 293 171 117 96 
239 886 292 166 109 89 
239 886 293 178 126 103 
239 886 294 176 124 102 
239 887 295 171 120 98 
239 888 295 167 114 89 
239 889 296 176 124 99 
239 890 296 173 117 94 
239 890 297 157 97 80 
239 891 296 160 99 81 
239 891 297 142 79 66 
239 892 296 157 97 82 
239 892 297 132 73 63 
238 892 298 115 57 48 
238 893 299 123 74 56 
239 892 298 114 58 53 
239 893 298 110 57 46 
239 893 299 124 76 58 
228 896 257 81 64 47 
228 896 258 80 64 48 
228 896 259 80 65 50 
228 897 258 82 66 53 
229 896 259 81 65 51 
229 897 259 78 62 50 
229 896 260 77 62 50 
229 896 261 75 58 49 
229 897 260 72 56 45 
229 897 261 69 53 44 
229 898 260 69 53 44 
229 898 261 69 54 45 
230 897 261 69 52 44 
230 896 262 73 56 48 
230 896 263 71 54 46 
230 897 262 69 53 43 
230 897 263 68 53 43 
230 898 261 68 52 43 
230 898 262 66 51 42 
230 898 263 66 51 40 
230 899 262 66 52 43 
230 899 263 66 52 41 
231 898 263 67 52 41 
231 899 262 67 54 44 
231 899 263 68 54 44 
230 896 264 70 53 45 
230 897 264 69 52 43 
231 896 264 70 54 45 
231 896 265 69 52 44 
231 897 264 68 52 42 
231 897 265 68 52 42 
231 896 266 69 51 46 
231 896 267 68 50 44 
231 897 266 66 50 42 
231 897 267 67 50 43 
231 898 264 68 53 42 
231 898 265 70 55 45 
231 899 264 71 58 48 
231 899 265 72 59 50 
231 898 266 70 54 44 
231 900 264 71 58 47 
232 896 267 66 49 42 
232 897 267 66 49 41 
232 899 265 73 59 50 
232 898 266 70 56 46 
232 898 267 68 54 44 
232 899 266 74 60 50 
232 899 267 73 59 50 
232 896 268 65 49 43 
232 896 269 68 51 42 
232 897 268 66 49 41 
232 897 269 67 52 42 
232 896 270 68 53 45 
232 896 271 71 57 45 
232 897 270 68 53 42 
232 897 271 70 55 42 
233 897 271 72 56 44 
232 898 268 69 54 45 
232 898 269 68 55 44 
232 899 268 72 58 51 
232 899 269 72 59 49 
233 899 269 72 58 47 
232 898 270 69 55 43 
233 898 270 71 56 44 
233 898 271 71 57 45 
233 899 270 71 58 46 
233 899 271 70 57 45 
232 900 264 70 57 47 
232 900 265 71 57 48 
232 900 266 72 58 49 
232 900 267 72 57 49 
232 901 266 70 55 47 
232 901 267 71 56 49 
233 901 266 69 54 47 
233 901 267 70 55 47 
232 900 268 71 57 48 
233 900 268 70 55 46 
233 900 269 70 56 45 
233 901 268 71 56 47 
233 901 269 71 56 47 
233 900 270 70 57 46 
233 900 271 70 57 46 
233 901 270 70 56 46 
233 902 268 70 55 46 
234 901 269 71 57 47 
234 900 271 70 57 45 
234 901 270 70 56 46 
234 901 271 70 56 44 
234 902 268 70 55 46 
234 902 269 72 57 49 
234 902 270 73 58 49 
234 902 271 72 58 46 
234 903 270 75 60 53 
234 903 271 75 61 51 
232 896 272 72 57 44 
233 896 272 72 56 43 
233 896 273 73 58 43 
233 897 272 72 57 44 
233 897 273 73 58 44 
233 896 274 77 61 45 
233 896 275 78 61 45 
233 897 274 74 58 42 
233 898 272 72 58 46 
233 898 273 72 58 45 
233 899 272 71 57 44 
234 896 275 79 60 43 
234 897 274 73 57 41 
234 897 275 77 59 42 
234 898 273 72 58 44 
234 899 272 72 59 46 
234 899 273 71 58 46 
234 898 274 72 57 43 
234 898 275 77 60 44 
234 899 274 71 57 44 
234 899 275 74 57 42 
234 896 276 80 61 43 
234 896 277 83 64 47 
234 897 276 80 62 44 
234 897 277 83 65 47 
234 896 278 87 67 47 
234 896 279 89 66 45 
234 897 278 87 66 48 
235 896 279 89 66 45 
235 897 278 89 67 48 
235 897 279 90 66 47 
234 898 276 80 61 44 
234 898 277 86 66 50 
234 899 276 79 60 43 
235 899 276 78 59 42 
235 899 277 87 67 51 
235 898 278 87 66 47 
235 898 279 90 66 47 
235 899 278 89 68 50 
234 900 272 71 57 45 
234 900 273 72 58 46 
234 901 272 70 57 45 
234 901 273 72 57 46 
234 900 274 71 57 44 
234 901 274 72 57 45 
235 900 275 72 56 41 
235 901 274 70 56 44 
235 901 275 71 55 42 
234 902 272 71 57 45 
234 902 273 71 57 45 
234 903 272 74 60 49 
235 902 272 73 58 47 
235 902 273 71 57 46 
235 903 272 74 61 50 
235 903 273 74 61 50 
235 902 274 71 57 45 
235 902 275 72 56 43 
235 903 274 75 61 50 
235 903 275 73 60 49 
235 900 276 77 57 40 
235 900 277 86 65 49 
235 901 276 72 54 39 
235 900 278 92 69 50 
236 898 279 90 64 45 
236 899 278 88 66 47 
236 899 279 88 62 44 
237 899 279 89 62 44 
236 902 275 73 57 44 
236 903 275 76 61 50 
236 900 277 88 66 50 
236 901 276 74 55 39 
236 901 277 83 62 46 
236 900 278 91 68 51 
236 900 279 90 65 48 
236 901 278 89 68 52 
237 900 279 92 65 48 
237 901 278 93 70 54 
237 901 279 94 69 52 
236 902 276 74 56 43 
236 902 277 77 58 44 
236 903 276 78 61 50 
236 903 277 77 59 47 
237 902 277 84 63 48 
237 903 277 80 61 49 
237 902 278 90 67 51 
237 903 278 87 65 49 
238 901 279 94 65 48 
238 902 279 93 65 46 
238 903 278 87 65 48 
238 903 279 92 65 46 
235 896 280 94 68 47 
235 896 281 98 68 40 
235 897 280 92 66 44 
236 896 281 101 68 38 
236 897 280 92 64 41 
236 897 281 102 68 43 
237 897 281 111 73 51 
236 896 282 108 71 43 
237 896 282 115 72 45 
237 896 283 114 67 42 
237 897 282 112 70 47 
236 898 280 93 63 44 
237 898 280 98 64 46 
237 898 281 107 69 49 
237 899 280 95 62 45 
237 899 281 104 67 49 
238 896 283 111 62 38 
238 897 282 111 65 42 
238 897 283 110 64 41 
239 896 283 109 63 43 
239 897 283 111 65 45 
238 898 281 109 65 41 
238 899 281 106 64 42 
239 899 281 109 64 41 
238 898 282 110 64 40 
239 898 282 112 66 44 
239 898 283 113 67 48 
239 899 282 110 64 44 
239 896 284 108 64 41 
237 900 280 93 62 45 
238 900 280 96 62 45 
238 900 281 102 63 42 
238 901 280 94 61 44 
239 900 281 104 63 42 
239 901 280 98 63 45 
239 901 281 106 66 45 
239 900 282 107 63 43 
238 902 280 98 67 49 
238 903 280 98 67 48 
239 902 280 98 65 48 
239 902 281 101 65 46 
239 903 280 99 67 48 
239 903 281 104 69 49 
234 904 272 77 64 53 
235 904 272 77 63 52 
235 904 273 78 63 51 
235 905 273 77 62 50 
235 904 274 78 64 52 
235 905 274 80 65 53 
236 904 275 78 64 52 
236 905 275 80 66 54 
236 906 275 80 66 53 
236 904 276 80 65 52 
236 905 276 80 66 53 
237 904 276 84 68 54 
237 904 277 87 69 56 
237 905 276 81 66 52 
237 905 277 86 69 56 
236 906 276 79 65 52 
