ply
format ascii 1.0
comment Created by CloudCompare v2.10.1 (Zephyrus)
comment Created 1/30/20 5:16 PM
obj_info Generated by CloudCompare!
element vertex 1968
property float x
property float y
property float z
property uchar red
property uchar green
property uchar blue
end_header
119 659 307 160 111 101 
117 656 308 162 108 99 
117 656 309 161 109 99 
117 657 308 164 112 100 
117 657 309 163 112 101 
116 656 310 160 110 101 
116 656 311 158 109 101 
117 656 310 160 109 100 
117 656 311 158 109 101 
117 657 310 161 111 103 
117 657 311 158 110 103 
117 658 309 163 112 103 
117 658 310 160 110 103 
117 658 311 157 107 102 
117 659 311 157 107 101 
118 657 308 163 111 101 
118 658 308 164 112 102 
118 658 309 163 112 102 
118 659 308 162 112 101 
118 659 309 161 111 101 
118 659 310 158 107 100 
118 659 311 158 108 101 
119 660 305 156 110 100 
119 660 306 157 110 100 
119 660 307 159 112 102 
119 661 307 160 116 105 
117 660 311 158 109 102 
118 660 308 160 112 101 
118 660 309 158 109 101 
118 661 309 157 108 102 
119 660 308 160 114 104 
119 660 309 158 111 101 
119 661 308 158 113 104 
119 661 309 157 108 101 
118 660 310 159 109 102 
118 660 311 159 109 101 
118 661 310 158 109 102 
118 661 311 159 109 101 
119 662 308 157 111 103 
119 662 309 156 107 101 
119 663 309 156 106 100 
118 662 310 159 109 101 
118 662 311 159 109 100 
118 663 311 158 108 100 
119 662 310 158 108 102 
119 663 310 156 106 99 
119 663 311 157 106 99 
115 656 317 155 111 100 
115 656 318 155 108 99 
115 656 319 155 108 100 
115 657 319 154 106 98 
116 656 312 156 109 100 
116 656 313 157 111 103 
116 657 312 156 108 101 
116 657 313 156 110 103 
117 657 312 156 108 102 
117 657 313 156 109 102 
116 656 314 157 113 104 
116 656 315 157 113 104 
116 657 314 156 111 102 
116 657 315 156 112 102 
117 658 312 156 106 102 
117 658 313 156 108 103 
117 659 312 157 106 101 
117 659 313 157 107 102 
116 658 314 156 110 102 
116 658 315 155 110 100 
116 659 315 157 110 101 
117 658 314 156 109 102 
117 659 314 157 108 101 
117 659 315 157 109 101 
116 656 316 157 114 104 
116 656 317 156 112 101 
116 657 316 156 112 101 
116 657 317 155 110 100 
116 656 318 154 108 98 
116 657 318 154 108 98 
116 657 319 154 107 98 
116 658 316 155 110 99 
116 658 317 155 110 100 
116 659 316 157 110 101 
116 659 317 158 111 101 
117 659 316 159 110 102 
117 659 317 160 112 103 
116 658 318 156 109 99 
116 658 319 156 108 98 
116 659 318 160 112 102 
116 659 319 160 111 101 
117 659 318 164 115 106 
117 660 312 158 108 101 
117 660 313 157 105 101 
117 661 312 158 107 99 
117 661 313 157 106 100 
116 660 314 157 106 100 
116 660 315 158 108 101 
116 661 315 157 107 100 
117 660 314 156 106 100 
117 660 315 157 107 100 
117 661 314 156 104 98 
117 661 315 157 106 98 
117 662 312 157 106 98 
117 662 313 156 105 99 
117 663 313 155 105 99 
117 662 314 154 102 96 
117 662 315 156 104 97 
117 663 314 153 102 96 
117 663 315 154 102 96 
118 661 312 158 108 99 
118 662 312 158 108 100 
118 663 312 158 108 101 
118 663 313 157 107 101 
118 663 314 154 104 98 
118 663 315 152 99 95 
117 660 316 159 109 101 
117 660 317 164 114 105 
117 661 316 160 108 100 
117 661 317 168 116 107 
116 660 318 166 118 107 
116 660 319 167 117 108 
117 660 318 171 121 111 
117 660 319 172 121 111 
117 661 318 175 124 113 
117 661 319 178 125 115 
117 662 316 160 108 100 
117 662 317 167 113 105 
117 663 316 159 104 98 
117 663 317 165 108 101 
117 662 318 175 119 109 
117 662 319 179 124 115 
118 663 316 156 100 95 
118 663 317 164 104 98 
118 662 319 178 120 112 
118 663 318 168 107 101 
118 663 319 171 109 103 
119 664 310 156 104 99 
119 664 311 156 105 100 
119 665 311 156 106 101 
118 664 312 157 106 100 
118 664 313 156 105 100 
118 665 313 153 102 97 
119 664 312 155 105 99 
119 664 313 156 104 99 
119 665 312 154 103 97 
119 665 313 153 101 96 
118 664 314 152 101 96 
118 664 315 151 97 93 
118 665 314 150 99 95 
118 665 315 149 96 92 
119 665 314 151 99 95 
119 666 313 153 100 97 
119 666 314 152 99 96 
119 666 315 150 95 93 
119 667 314 153 99 98 
119 667 315 153 97 97 
118 664 316 153 96 92 
118 664 317 160 99 95 
118 665 316 150 92 90 
118 665 317 156 94 92 
119 665 317 158 96 93 
118 664 318 163 99 96 
118 665 318 161 98 94 
119 664 318 162 97 95 
119 664 319 164 98 95 
119 665 318 162 98 96 
119 665 319 160 94 93 
119 666 316 152 93 91 
119 666 317 160 99 97 
119 667 316 157 98 96 
119 667 317 167 107 104 
119 666 318 166 105 103 
119 666 319 163 100 99 
119 667 318 171 111 108 
120 657 304 156 107 96 
120 658 304 157 108 97 
120 659 304 156 107 97 
120 659 305 157 110 99 
120 660 304 157 107 99 
120 660 305 156 109 100 
120 661 305 155 107 100 
121 660 304 156 104 97 
121 661 304 152 100 94 
121 661 305 154 104 97 
120 660 306 157 111 101 
120 661 306 156 110 101 
120 661 307 158 114 104 
121 662 305 153 104 98 
121 663 305 152 103 97 
120 662 306 156 109 101 
120 662 307 157 111 102 
120 663 307 157 110 102 
121 662 306 155 107 100 
121 663 306 154 105 98 
121 663 307 155 107 99 
122 661 304 150 98 93 
122 662 304 148 98 93 
122 662 305 149 100 94 
122 663 304 147 98 93 
122 663 305 148 99 93 
123 663 304 144 95 91 
120 662 308 158 111 103 
120 663 308 158 110 103 
120 663 309 157 107 102 
121 664 306 154 105 98 
121 664 307 157 110 102 
122 664 305 149 100 93 
123 664 304 139 91 86 
123 664 305 145 95 89 
123 665 305 150 102 95 
122 664 306 152 103 96 
122 664 307 157 110 101 
122 665 306 155 107 98 
122 665 307 161 116 104 
123 665 306 153 106 96 
122 666 307 167 124 111 
123 666 306 158 110 100 
123 666 307 165 120 108 
123 667 306 160 108 99 
123 667 307 165 116 104 
120 664 308 159 110 103 
120 664 309 160 110 103 
120 665 309 160 111 104 
121 664 308 161 114 106 
121 665 308 163 117 105 
121 665 309 163 114 105 
120 664 310 157 106 101 
120 665 310 158 108 102 
120 665 311 156 107 101 
121 666 309 165 117 107 
121 667 309 165 116 108 
120 666 310 158 108 102 
120 666 311 158 108 102 
121 666 310 161 111 105 
121 667 310 163 113 105 
121 667 311 161 110 104 
122 665 308 164 121 108 
122 666 308 169 126 114 
122 666 309 169 123 112 
122 667 308 171 125 114 
122 667 309 169 120 112 
123 667 308 171 124 113 
122 667 310 165 116 108 
123 668 307 162 112 100 
121 668 311 164 113 106 
122 668 309 168 118 110 
123 668 308 166 115 105 
123 668 309 169 117 108 
123 669 309 168 114 106 
122 668 310 168 117 108 
122 668 311 166 115 108 
122 669 311 169 117 108 
123 669 310 171 117 108 
123 669 311 171 117 109 
123 670 310 171 115 106 
123 670 311 173 116 108 
123 671 311 177 119 110 
124 664 304 139 92 86 
124 665 304 143 98 93 
124 665 305 149 103 97 
125 665 304 140 95 90 
124 666 304 147 101 96 
124 666 305 152 104 98 
124 667 305 150 101 95 
125 666 304 140 93 91 
125 667 304 138 89 87 
125 667 305 144 97 92 
124 667 306 157 106 97 
126 667 304 136 87 87 
125 668 304 138 89 86 
125 668 305 143 94 89 
125 669 305 140 89 88 
124 668 306 155 103 95 
124 668 307 159 106 96 
124 669 307 158 105 96 
125 668 306 151 99 93 
125 669 306 147 95 91 
125 669 307 154 100 94 
125 670 306 147 95 92 
125 670 307 151 99 93 
125 671 307 151 98 93 
126 668 304 136 88 86 
126 668 305 137 88 85 
126 669 304 132 84 82 
126 669 305 135 85 83 
127 669 304 134 87 85 
126 670 305 133 83 83 
127 670 304 132 86 84 
127 670 305 130 81 82 
127 671 304 131 83 83 
127 671 305 131 81 82 
126 670 306 141 92 91 
126 671 306 139 90 89 
126 671 307 146 96 93 
127 671 306 134 84 85 
124 668 308 164 110 100 
124 669 308 162 108 100 
124 669 309 168 113 106 
124 670 308 162 105 100 
124 670 309 167 110 103 
124 671 309 169 111 104 
125 670 308 158 101 95 
125 671 308 156 100 96 
125 671 309 163 106 100 
124 670 310 171 113 105 
124 671 310 175 116 109 
124 671 311 179 120 112 
120 666 312 155 104 98 
120 666 313 153 101 97 
120 667 312 157 105 100 
120 667 313 154 100 98 
121 667 312 160 107 102 
120 667 314 154 99 98 
120 667 315 154 99 98 
120 665 319 160 94 94 
120 666 319 164 102 101 
120 667 318 174 113 110 
120 667 319 171 109 109 
120 668 313 154 100 98 
121 668 312 161 110 104 
121 668 313 157 103 100 
121 669 313 160 106 102 
120 668 314 154 100 97 
120 668 315 157 99 97 
121 668 314 156 100 96 
121 668 315 157 100 96 
121 669 314 159 103 98 
121 669 315 162 103 99 
122 668 312 164 113 107 
122 669 312 168 114 107 
122 669 313 164 110 105 
122 669 314 162 105 101 
122 670 312 171 116 108 
122 670 313 168 113 107 
123 670 312 173 117 109 
123 670 313 173 117 109 
123 671 312 178 120 111 
123 671 313 178 121 112 
122 670 314 164 107 101 
122 670 315 164 105 99 
123 671 314 175 118 111 
123 671 315 173 114 108 
120 668 316 163 102 101 
120 668 317 173 110 108 
121 669 316 169 108 105 
121 669 317 178 116 113 
120 668 318 179 117 114 
120 668 319 177 113 113 
121 668 318 182 118 116 
121 668 319 179 112 113 
121 669 318 185 121 119 
122 668 319 181 113 115 
122 669 318 188 125 122 
122 669 319 186 120 121 
122 670 316 171 110 106 
122 670 317 182 120 117 
123 670 317 184 122 117 
123 671 316 172 111 105 
123 671 317 177 114 109 
122 670 318 187 125 122 
123 670 318 187 124 121 
123 670 319 189 125 122 
123 671 318 185 122 117 
123 671 319 188 124 120 
124 671 312 183 124 114 
124 671 313 182 123 113 
124 671 317 176 114 108 
124 671 318 180 116 112 
124 671 319 186 122 118 
125 671 318 179 116 110 
125 671 319 182 119 113 
126 671 319 181 119 113 
127 672 305 131 81 81 
126 672 307 145 95 91 
127 672 306 134 84 83 
127 672 307 140 92 88 
127 673 306 135 85 84 
127 673 307 141 89 87 
125 672 308 155 100 97 
125 672 309 167 107 102 
124 672 311 182 122 113 
125 672 310 176 116 109 
125 672 311 183 121 113 
125 673 310 179 118 112 
125 673 311 182 120 114 
126 672 308 152 98 94 
126 672 309 161 102 99 
126 673 308 153 98 95 
126 673 309 164 103 101 
127 673 308 150 93 91 
126 673 310 175 113 108 
126 673 311 181 117 114 
126 674 309 168 105 102 
127 674 308 150 91 90 
127 674 309 163 103 100 
127 675 309 168 108 105 
126 674 310 176 112 109 
126 674 311 182 117 114 
127 674 310 175 113 109 
127 674 311 183 114 113 
127 675 310 180 116 113 
127 675 311 183 116 115 
124 672 312 184 123 114 
124 672 313 184 124 116 
125 673 312 184 120 115 
125 673 313 185 120 115 
124 672 314 183 124 118 
124 672 315 180 123 117 
125 672 315 182 123 118 
125 673 314 184 119 114 
125 673 315 184 121 116 
126 673 314 183 115 113 
126 673 315 183 116 114 
126 674 312 183 117 114 
126 674 313 183 115 112 
127 674 313 181 112 111 
127 675 312 183 114 114 
127 675 313 181 112 111 
126 674 314 183 113 113 
126 674 315 183 114 113 
127 674 314 181 111 110 
127 674 315 181 112 110 
127 675 314 180 110 109 
124 672 316 178 121 115 
124 672 317 177 118 111 
125 672 316 182 124 118 
125 672 317 180 121 114 
125 673 316 183 123 118 
125 672 318 179 117 110 
126 672 317 183 124 117 
126 673 316 184 120 116 
126 673 317 184 122 117 
127 672 317 184 124 117 
127 673 316 182 115 112 
127 673 317 183 121 115 
126 672 318 182 122 115 
126 672 319 181 120 114 
127 672 318 184 125 118 
127 672 319 183 124 118 
127 673 318 184 126 119 
127 674 316 180 113 110 
115 643 327 132 98 88 
113 645 321 150 105 99 
113 645 322 148 103 97 
113 645 323 146 102 96 
112 646 320 154 109 101 
112 646 321 151 106 99 
112 647 320 156 111 103 
113 646 321 150 104 98 
113 647 320 158 113 104 
113 647 321 153 107 100 
113 646 322 149 102 97 
113 646 323 148 102 97 
113 647 322 150 104 98 
113 647 323 149 102 97 
113 645 324 145 101 94 
113 645 325 142 99 92 
113 646 324 147 102 96 
113 646 325 145 100 94 
113 647 324 148 101 96 
113 647 325 147 100 94 
113 646 326 144 100 93 
113 647 326 145 99 94 
113 647 327 144 99 93 
114 644 325 137 96 88 
114 644 326 136 96 87 
114 644 327 135 97 88 
114 645 326 140 97 90 
114 645 327 137 97 88 
114 646 326 142 98 91 
114 646 327 140 98 90 
114 647 326 143 98 91 
114 647 327 143 98 92 
115 643 328 131 98 87 
115 643 329 130 98 88 
114 644 328 135 97 89 
114 645 328 136 97 89 
115 644 328 134 98 89 
115 644 329 134 98 88 
115 645 328 136 97 88 
115 645 329 136 97 88 
115 644 330 132 98 88 
115 645 330 135 97 89 
114 646 328 139 97 90 
114 646 329 138 97 89 
114 647 328 143 99 93 
114 647 329 143 98 91 
115 646 329 138 97 89 
115 647 329 141 98 90 
114 647 330 144 98 91 
115 646 330 138 97 90 
115 646 331 138 99 91 
115 647 330 142 97 91 
115 647 331 142 98 92 
116 643 329 128 97 85 
117 642 329 128 99 86 
116 643 330 130 98 86 
117 642 330 130 101 89 
117 643 331 132 101 89 
119 641 330 122 100 93 
119 641 331 120 96 88 
118 642 330 131 103 92 
118 642 331 130 103 92 
118 643 331 132 103 92 
119 642 331 123 97 89 
118 643 332 132 103 92 
119 642 332 118 92 84 
119 643 332 127 98 89 
119 643 333 124 95 86 
116 644 330 133 98 87 
116 644 331 133 99 88 
116 645 330 134 97 87 
116 645 331 135 99 89 
117 644 331 134 100 89 
116 646 331 138 99 90 
116 647 331 140 99 91 
116 645 332 136 100 91 
117 644 332 135 101 91 
117 645 332 136 100 91 
117 645 333 137 101 91 
116 646 332 138 99 91 
116 647 332 142 99 93 
117 646 332 137 99 91 
117 646 333 140 100 93 
117 647 333 144 101 96 
117 647 334 149 106 99 
118 644 332 133 100 90 
118 644 333 134 100 90 
118 645 333 138 102 93 
119 644 333 131 99 89 
119 644 334 131 99 89 
119 645 334 137 102 92 
119 645 335 139 104 94 
118 646 333 140 103 94 
118 646 334 140 104 94 
118 647 334 148 107 100 
119 646 334 142 106 96 
119 646 335 143 107 97 
119 647 334 145 108 99 
119 647 335 150 110 102 
113 648 320 160 114 105 
113 648 321 157 111 104 
113 649 320 161 116 107 
113 649 321 159 114 107 
113 648 322 153 107 101 
113 648 323 150 103 98 
113 649 322 156 111 104 
113 649 323 151 104 99 
113 650 320 162 117 109 
113 650 321 161 116 109 
113 651 320 159 114 106 
113 651 321 158 113 106 
113 650 322 157 113 106 
113 650 323 152 107 101 
113 651 322 157 112 104 
113 651 323 153 108 101 
113 648 324 148 100 96 
113 648 325 146 99 94 
113 649 324 147 100 96 
113 649 325 146 98 94 
113 648 326 145 98 94 
113 648 327 146 99 94 
113 649 326 146 98 94 
113 649 327 148 99 95 
113 650 324 149 102 97 
113 650 325 148 99 96 
113 651 324 152 105 100 
113 651 325 152 102 100 
113 650 326 149 99 96 
113 650 327 152 101 99 
113 651 326 154 102 101 
113 651 327 159 106 105 
113 652 320 157 111 104 
113 652 321 156 110 103 
113 652 322 153 108 100 
113 652 323 151 105 99 
114 652 320 155 110 103 
114 652 321 155 110 102 
114 653 320 155 110 103 
114 653 321 155 110 103 
114 652 322 154 109 102 
114 653 322 152 108 100 
114 653 323 150 105 98 
114 654 320 154 109 103 
114 654 321 152 108 101 
114 655 321 151 107 101 
115 655 320 155 110 104 
115 655 321 152 108 101 
114 654 322 150 106 99 
114 654 323 150 104 97 
114 655 322 150 106 99 
114 655 323 151 106 96 
115 655 322 152 109 100 
115 655 323 155 110 101 
113 652 324 152 103 99 
113 652 325 154 102 100 
113 653 325 154 102 99 
113 652 326 161 107 105 
113 652 327 167 112 111 
114 653 324 151 101 97 
114 653 325 154 102 98 
114 652 327 172 117 114 
114 653 326 165 110 106 
114 653 327 177 121 117 
114 654 324 151 101 96 
114 654 325 160 107 101 
114 655 324 153 105 97 
114 655 325 161 110 102 
115 655 324 159 112 103 
115 655 325 166 116 108 
114 654 326 173 118 112 
114 654 327 182 125 120 
114 655 326 168 116 109 
115 654 327 183 126 122 
115 655 326 176 124 117 
115 655 327 183 126 122 
116 655 327 181 125 121 
113 648 328 147 99 94 
113 649 328 149 100 96 
113 650 328 154 103 101 
113 650 329 158 107 105 
113 651 328 162 109 108 
114 648 328 147 99 95 
114 648 329 147 100 94 
114 649 328 150 101 96 
114 649 329 151 102 97 
114 648 330 148 99 94 
114 649 330 153 104 99 
115 648 330 148 99 94 
115 648 331 148 100 95 
115 649 330 154 104 100 
115 649 331 153 103 99 
114 650 328 154 103 100 
114 650 329 157 106 103 
114 651 328 165 111 110 
114 651 329 168 115 113 
114 650 330 160 109 107 
114 651 330 169 115 113 
115 650 330 160 109 107 
115 650 331 159 107 105 
115 651 330 170 114 113 
115 651 331 168 111 111 
114 652 328 175 120 117 
114 652 329 178 121 119 
114 653 328 184 126 123 
114 653 329 184 125 123 
115 653 329 186 125 124 
114 652 330 177 119 118 
115 652 330 179 119 118 
115 653 330 185 124 123 
115 654 328 187 127 124 
115 654 329 189 127 126 
115 655 328 186 127 123 
116 650 331 163 108 108 
116 651 331 171 112 113 
116 648 332 150 102 98 
116 649 332 155 104 102 
117 648 333 152 105 101 
117 649 333 159 108 106 
117 648 334 155 109 104 
117 649 334 160 111 108 
116 650 332 162 108 107 
116 651 332 174 115 116 
117 650 333 166 113 111 
117 651 332 173 115 115 
117 651 333 175 117 116 
118 648 334 156 111 105 
118 649 334 164 115 112 
119 648 335 158 113 107 
119 649 335 166 118 114 
118 651 333 177 120 118 
118 650 334 171 118 116 
118 651 334 178 122 120 
119 650 334 174 122 118 
119 650 335 173 121 118 
119 651 334 180 124 122 
119 651 335 180 125 123 
116 652 330 181 119 119 
116 652 331 179 118 118 
116 653 330 186 124 122 
116 653 331 185 123 121 
117 653 331 187 124 122 
116 654 329 189 127 125 
116 655 328 184 126 123 
116 655 329 187 127 124 
117 655 329 184 126 124 
116 654 330 188 126 124 
117 654 330 187 125 123 
117 654 331 189 127 124 
117 655 330 187 127 125 
118 654 331 182 123 119 
118 655 330 186 130 126 
118 655 331 184 128 123 
119 655 331 178 123 118 
117 652 332 182 121 121 
117 652 333 180 121 121 
117 653 332 188 126 124 
118 652 333 184 125 125 
118 653 333 191 129 128 
119 652 333 189 129 129 
119 653 333 193 132 131 
119 652 334 187 129 128 
119 652 335 186 129 128 
119 653 334 195 136 135 
118 654 332 190 128 126 
119 654 332 177 115 114 
119 654 333 188 127 127 
119 655 332 163 100 98 
120 641 331 115 96 91 
121 640 330 94 72 80 
121 640 331 99 81 84 
121 641 331 107 90 89 
122 640 331 80 64 74 
122 641 331 92 77 78 
123 640 331 84 71 87 
121 641 332 109 92 89 
120 642 332 112 89 84 
120 642 333 110 87 82 
120 643 333 117 91 84 
121 642 332 108 91 87 
121 642 333 107 89 85 
120 643 334 122 98 90 
121 643 334 118 98 92 
122 641 332 81 68 69 
122 641 333 82 65 68 
123 640 332 74 63 73 
123 641 332 75 60 63 
123 641 333 73 55 63 
122 642 333 91 77 78 
122 642 334 96 81 82 
122 643 334 109 92 87 
122 643 335 109 88 81 
123 642 334 80 60 68 
123 643 334 95 75 77 
123 643 335 91 71 70 
120 644 334 128 100 90 
120 644 335 131 101 91 
120 645 335 136 104 93 
121 644 334 126 100 91 
121 644 335 128 101 91 
121 645 335 134 105 94 
120 646 335 142 107 98 
122 644 335 120 97 87 
124 640 332 79 68 80 
124 640 333 76 64 71 
124 641 333 76 63 69 
125 640 332 83 79 91 
125 640 333 77 69 76 
124 641 334 76 62 72 
125 641 334 85 74 81 
124 642 334 80 62 67 
124 642 335 84 66 68 
124 643 335 77 58 61 
125 642 334 92 81 84 
125 642 335 85 73 75 
125 643 335 73 60 63 
126 640 333 80 78 96 
126 640 334 83 77 91 
126 641 334 89 78 86 
126 641 335 88 76 82 
127 640 334 86 79 96 
127 640 335 84 75 92 
127 641 335 85 73 82 
126 642 335 91 80 84 
127 642 335 87 76 81 
120 651 335 181 126 125 
120 652 335 189 133 133 
120 653 334 197 139 137 
120 653 335 196 139 138 
121 652 335 193 137 136 
121 653 335 196 139 137 
120 654 333 171 106 107 
120 655 332 146 82 80 
120 655 333 149 83 85 
121 655 333 143 77 81 
120 654 334 189 128 128 
121 654 334 173 109 109 
121 655 334 143 74 78 
122 653 335 197 139 137 
122 654 334 163 96 97 
122 654 335 177 113 113 
122 655 334 137 68 74 
122 655 335 141 69 74 
123 654 335 168 101 102 
123 655 335 135 64 69 
124 655 335 133 63 67 
121 645 336 136 106 96 
120 646 336 144 107 100 
120 647 336 150 110 103 
121 646 336 143 107 99 
121 647 336 150 109 104 
121 647 337 153 110 105 
122 644 336 123 100 89 
122 645 336 133 105 94 
123 644 336 114 94 86 
123 645 336 127 102 91 
123 645 337 127 101 92 
122 646 336 140 107 98 
122 646 337 142 106 99 
122 647 337 151 110 105 
123 646 337 137 104 96 
123 647 337 146 107 101 
123 646 338 138 103 95 
123 647 338 151 109 104 
124 643 336 82 66 67 
125 643 336 76 62 65 
127 641 336 83 69 79 
126 642 336 89 79 82 
126 643 336 77 66 70 
126 643 337 77 62 69 
127 642 336 83 71 77 
127 643 336 82 72 76 
127 643 337 80 71 77 
127 643 338 86 79 83 
124 644 336 97 82 81 
124 644 337 106 90 86 
124 645 337 122 99 92 
125 644 337 92 75 76 
124 645 338 125 99 92 
125 645 338 119 95 90 
124 646 338 135 102 94 
124 647 338 148 107 102 
124 647 339 152 110 105 
125 646 338 132 101 94 
125 646 339 136 102 96 
125 647 339 149 109 104 
126 644 337 83 69 74 
126 644 338 93 75 78 
126 645 338 113 89 86 
126 645 339 119 93 88 
127 644 338 95 83 84 
127 644 339 106 92 88 
127 645 339 117 94 87 
126 646 339 132 100 95 
126 647 339 142 105 100 
127 646 339 127 97 91 
126 647 340 150 111 105 
127 646 340 132 101 92 
127 647 340 146 109 102 
127 647 341 151 111 105 
120 648 336 159 114 108 
120 649 336 165 116 112 
121 648 337 159 113 109 
121 649 337 165 116 113 
120 650 336 173 121 119 
120 651 336 181 126 124 
121 650 336 173 121 119 
121 650 337 172 121 118 
121 651 336 181 127 125 
121 651 337 178 124 123 
122 648 337 159 112 109 
122 649 337 165 116 113 
122 648 338 161 112 110 
122 649 338 165 115 113 
123 648 338 160 112 110 
123 649 338 166 115 113 
122 650 337 172 120 118 
122 651 337 182 127 126 
123 651 337 186 130 130 
123 650 338 173 120 119 
123 651 338 182 127 127 
121 652 336 188 133 132 
122 652 336 192 136 136 
122 653 336 199 141 141 
123 652 336 197 140 141 
123 652 337 196 138 139 
123 653 336 200 142 142 
123 653 337 202 144 145 
123 654 336 190 129 129 
124 648 339 161 114 111 
124 649 339 168 118 115 
125 648 339 160 115 111 
125 649 339 170 119 116 
124 650 338 176 122 121 
124 650 339 174 121 120 
124 651 338 184 128 130 
124 651 339 179 123 125 
125 650 339 176 122 121 
125 651 338 190 132 135 
125 651 339 184 127 129 
126 651 339 187 131 133 
127 651 339 193 139 140 
125 648 340 163 116 111 
125 649 340 166 116 113 
126 648 340 160 116 111 
126 649 340 168 118 115 
127 648 340 158 115 110 
127 648 341 156 114 109 
127 649 340 168 119 117 
127 649 341 164 118 115 
126 650 340 176 124 123 
126 651 340 181 128 128 
127 650 340 176 126 125 
127 651 340 187 135 135 
124 652 337 200 142 143 
124 653 336 201 143 143 
124 653 337 203 145 146 
125 653 337 205 147 147 
124 652 338 197 139 141 
125 652 338 199 140 144 
125 653 338 207 148 149 
124 654 336 181 117 118 
124 655 336 143 72 73 
125 654 336 172 106 107 
125 654 337 194 133 133 
125 655 336 141 75 76 
126 653 337 207 148 148 
126 652 338 204 145 148 
126 652 339 198 140 144 
126 653 338 208 149 150 
127 652 339 203 147 149 
127 653 338 209 151 151 
127 653 339 211 154 154 
126 654 337 184 121 122 
126 655 336 142 78 79 
126 655 337 149 81 83 
127 654 337 180 117 117 
127 655 336 139 76 77 
127 655 337 145 80 80 
127 654 338 186 125 124 
115 656 320 154 108 101 
115 656 321 153 108 101 
115 657 320 155 108 100 
115 657 321 155 108 100 
115 656 322 154 109 100 
115 656 323 157 111 102 
115 657 322 154 107 99 
115 657 323 158 108 101 
115 656 324 164 117 108 
115 656 325 171 123 116 
115 657 324 165 116 110 
115 657 325 171 123 116 
115 656 326 176 125 119 
116 657 320 155 107 99 
116 658 320 156 108 99 
116 658 321 155 107 98 
116 659 320 158 108 99 
116 659 321 157 106 98 
116 658 322 154 103 97 
116 658 323 158 104 100 
116 659 322 157 103 98 
116 659 323 162 105 102 
116 657 324 166 114 110 
116 657 325 173 123 118 
116 656 326 177 125 120 
116 656 327 179 125 121 
116 657 326 177 125 120 
117 656 327 178 124 120 
117 657 326 177 124 119 
117 657 327 177 122 119 
116 658 324 167 112 109 
116 658 325 174 121 117 
116 659 324 171 113 110 
116 659 325 178 123 119 
117 659 325 182 125 121 
116 658 326 177 125 120 
117 658 326 178 124 120 
117 658 327 176 120 117 
117 659 326 182 127 122 
118 658 327 177 120 118 
118 659 326 184 128 124 
118 659 327 182 125 122 
116 660 320 164 112 103 
116 660 321 164 110 103 
117 660 320 170 116 107 
117 660 321 170 115 107 
117 661 320 177 122 113 
117 661 321 177 119 111 
116 660 322 164 109 103 
116 660 323 169 110 107 
117 660 322 172 116 110 
117 660 323 175 117 112 
117 661 322 179 121 115 
117 661 323 184 126 121 
118 661 322 182 123 116 
118 661 323 190 131 125 
118 662 320 180 123 115 
118 662 321 180 120 113 
118 663 320 176 116 109 
119 663 320 175 114 108 
119 663 321 179 118 113 
118 662 322 182 121 113 
118 662 323 187 125 120 
119 662 322 182 119 113 
119 662 323 185 120 114 
119 663 322 183 121 115 
119 663 323 183 118 112 
116 660 324 175 116 112 
117 660 324 184 125 120 
117 660 325 187 129 124 
117 660 326 188 130 126 
118 660 325 193 132 128 
118 661 324 193 133 128 
118 661 325 195 133 130 
119 661 325 196 133 130 
118 660 326 190 129 126 
118 660 327 186 127 124 
119 660 326 191 128 126 
119 660 327 189 127 126 
119 661 326 195 131 129 
119 661 327 194 130 129 
119 662 324 190 127 122 
119 662 325 194 130 126 
119 662 326 196 132 129 
117 656 328 180 124 121 
117 656 329 182 125 123 
117 657 328 177 121 119 
118 656 329 181 125 123 
118 657 328 177 120 118 
118 657 329 178 122 120 
119 657 329 178 123 120 
118 656 330 184 129 125 
119 656 330 181 127 123 
119 656 331 183 131 126 
119 657 330 179 124 121 
118 658 328 177 120 118 
118 659 328 181 125 122 
119 658 328 179 123 121 
119 658 329 179 124 121 
119 659 328 183 127 124 
119 659 329 183 127 125 
119 658 330 178 125 121 
119 660 328 187 127 125 
119 664 320 166 101 98 
119 664 321 172 108 105 
120 663 322 182 120 116 
120 663 323 184 121 115 
121 663 323 184 123 117 
120 661 326 196 132 131 
120 661 327 196 133 132 
120 662 324 186 120 115 
120 662 325 188 123 119 
120 663 324 185 121 115 
121 663 324 185 124 117 
121 663 325 186 122 117 
120 662 326 193 128 125 
121 662 326 189 124 120 
121 662 327 195 132 129 
121 663 326 186 122 118 
122 663 324 185 125 119 
122 663 325 185 124 118 
123 663 325 184 124 119 
122 662 326 188 124 120 
122 662 327 190 127 123 
122 663 326 186 124 119 
123 663 326 185 125 120 
123 663 327 187 126 122 
124 663 327 182 122 117 
120 656 331 181 128 124 
120 657 330 179 125 121 
120 657 331 179 125 120 
121 657 331 179 125 120 
120 659 329 183 127 125 
120 658 330 179 125 122 
120 658 331 178 125 121 
120 659 330 181 127 124 
121 658 331 179 126 122 
121 659 330 182 128 126 
121 659 331 181 127 125 
122 658 331 179 127 123 
122 659 331 181 127 125 
120 656 332 175 124 121 
121 656 332 176 124 121 
121 656 333 161 106 108 
121 657 332 179 125 120 
122 656 333 165 113 113 
122 657 332 179 126 122 
122 657 333 178 125 123 
123 657 333 177 125 122 
122 656 334 147 91 93 
123 656 334 151 98 99 
123 656 335 134 75 77 
123 657 334 173 122 120 
122 658 332 179 126 123 
122 658 333 178 125 122 
122 659 332 180 126 124 
123 658 333 177 125 122 
123 659 332 178 125 122 
123 659 333 177 124 121 
120 660 328 191 129 128 
120 660 329 185 127 124 
120 661 328 195 133 131 
121 660 329 189 129 127 
121 661 328 196 135 133 
121 661 329 194 134 131 
121 660 330 186 129 126 
121 662 328 197 136 132 
122 661 329 197 138 134 
122 660 330 189 132 128 
122 660 331 185 130 126 
122 661 330 195 136 133 
123 660 331 188 132 129 
123 661 330 197 139 135 
123 661 331 195 138 135 
122 662 328 196 134 131 
122 662 329 197 138 134 
123 662 328 192 130 126 
123 662 329 195 134 130 
123 663 328 188 126 122 
123 662 330 198 139 135 
123 660 332 182 127 123 
124 656 334 162 112 112 
124 656 335 144 90 91 
124 657 334 175 125 122 
124 657 335 172 123 120 
125 656 335 148 97 97 
125 657 335 171 124 121 
124 659 333 175 122 121 
124 658 334 175 125 122 
124 659 334 174 123 121 
125 658 334 174 126 122 
125 658 335 174 127 122 
125 659 334 173 123 119 
126 657 335 170 124 120 
126 658 335 174 129 123 
126 659 335 174 125 120 
127 659 335 175 126 121 
124 661 331 195 138 134 
124 663 328 185 126 122 
124 663 329 189 128 125 
125 663 328 179 119 115 
125 663 329 184 126 122 
124 662 330 196 136 133 
124 662 331 197 139 136 
124 663 330 191 131 127 
125 662 330 193 133 130 
125 662 331 195 135 132 
125 663 330 190 130 127 
126 663 329 177 118 114 
126 662 331 192 133 129 
126 663 330 184 126 122 
126 663 331 190 132 127 
127 663 330 184 128 123 
127 663 331 187 131 126 
124 660 332 186 130 127 
124 660 333 181 126 123 
124 661 332 193 136 132 
125 660 333 184 129 126 
125 661 332 194 136 133 
125 661 333 191 135 132 
125 660 334 178 124 122 
125 662 332 196 137 134 
126 661 333 190 134 131 
126 660 334 180 127 125 
126 661 334 189 133 130 
127 660 335 181 127 125 
127 661 334 187 131 128 
127 661 335 185 129 127 
126 662 332 194 135 132 
126 662 333 194 136 133 
127 662 333 192 135 133 
127 663 332 192 136 131 
127 663 333 193 136 133 
127 662 334 190 133 131 
120 664 320 163 96 94 
120 664 321 171 107 103 
120 665 320 160 95 94 
120 665 321 163 97 95 
121 665 321 164 100 98 
120 664 322 177 114 111 
121 664 322 176 114 110 
121 664 323 182 121 116 
121 665 322 169 105 102 
120 666 320 162 99 98 
121 666 320 164 99 100 
121 666 321 163 97 97 
121 667 320 167 102 104 
121 667 321 165 98 99 
122 664 323 179 117 113 
122 665 322 171 108 104 
122 665 323 173 110 107 
123 665 323 172 108 105 
122 666 321 163 96 97 
122 667 321 167 100 100 
122 666 322 165 99 98 
122 667 322 168 102 101 
123 666 322 168 103 102 
123 666 323 171 108 104 
123 667 322 171 108 106 
122 664 324 183 123 118 
123 664 324 181 120 116 
123 664 325 182 122 118 
123 665 324 176 114 110 
123 664 326 184 124 119 
121 668 320 172 105 107 
122 668 320 176 108 109 
122 668 321 174 106 107 
122 669 320 184 116 117 
123 668 321 180 113 113 
123 669 320 186 119 119 
123 669 321 186 118 118 
123 668 322 179 115 114 
123 670 320 189 123 122 
124 666 323 173 112 108 
124 667 323 177 116 112 
124 664 325 180 119 114 
124 665 324 173 110 106 
124 665 325 174 113 108 
125 665 325 174 113 108 
124 664 326 181 122 116 
124 664 327 177 116 110 
124 665 326 179 121 114 
125 664 326 178 122 114 
125 664 327 173 113 106 
125 665 326 178 121 114 
124 666 324 173 113 108 
124 667 324 179 120 115 
125 666 324 177 117 112 
125 666 325 176 117 111 
125 667 324 182 125 119 
125 667 325 181 124 118 
126 664 327 173 118 111 
126 665 326 179 124 116 
126 665 327 180 128 121 
127 665 327 184 133 127 
126 667 325 183 126 120 
126 666 326 178 121 114 
126 667 326 181 124 119 
127 666 326 179 123 115 
127 666 327 183 129 122 
127 667 326 180 123 118 
124 669 321 188 121 120 
124 668 322 183 119 117 
124 668 323 183 121 118 
124 669 322 186 120 119 
125 668 323 186 124 120 
125 669 322 188 123 121 
125 669 323 188 124 121 
124 670 320 190 124 123 
124 670 321 190 124 123 
124 671 320 189 123 121 
125 670 321 191 125 123 
125 671 320 188 123 119 
125 671 321 190 125 122 
125 670 322 191 125 123 
126 669 323 190 126 123 
126 670 321 192 129 125 
126 671 320 185 122 117 
126 671 321 189 126 121 
127 671 320 184 122 117 
127 671 321 187 126 121 
126 670 322 192 128 125 
126 670 323 191 127 125 
127 670 322 193 130 127 
127 670 323 193 130 127 
127 671 322 192 130 126 
125 668 324 186 127 122 
126 668 324 188 127 123 
126 668 325 186 127 123 
127 668 325 187 125 123 
127 669 324 192 129 126 
127 669 325 189 127 124 
127 668 326 183 123 121 
127 670 324 194 132 129 
125 664 328 172 110 106 
126 664 328 166 105 101 
126 664 329 165 102 100 
127 664 328 166 110 106 
127 664 329 160 98 97 
127 665 328 177 125 121 
127 665 329 164 106 105 
127 664 330 164 99 99 
127 664 331 175 114 112 
125 656 336 135 78 79 
126 656 336 147 96 95 
126 657 336 170 125 121 
127 656 336 151 101 98 
127 656 337 149 99 95 
127 657 336 170 126 120 
127 658 336 174 131 123 
127 659 336 174 128 121 
127 660 336 178 127 123 
127 672 320 183 123 117 
128 637 335 117 120 148 
128 638 335 107 112 139 
128 639 334 108 111 134 
128 639 335 93 95 121 
130 635 339 117 131 170 
130 635 340 107 122 165 
130 635 341 104 114 160 
131 635 341 103 109 154 
131 634 342 151 155 180 
131 634 343 193 196 208 
131 635 342 133 136 167 
128 636 337 145 149 168 
128 637 336 113 117 148 
129 636 337 136 142 165 
129 637 337 112 118 151 
129 636 338 140 146 174 
129 637 338 118 126 159 
128 638 336 100 105 138 
128 639 336 91 94 121 
129 638 336 95 100 136 
129 638 337 92 99 137 
129 639 336 87 92 121 
129 639 337 88 92 123 
130 636 338 126 134 171 
130 636 339 111 123 166 
130 637 338 116 124 163 
130 637 339 103 115 160 
131 637 339 95 106 155 
130 638 338 98 106 146 
130 639 338 86 90 122 
131 638 338 93 101 139 
131 638 339 93 103 148 
131 639 338 86 93 127 
131 639 339 81 87 122 
130 636 340 97 111 158 
131 636 340 93 106 155 
131 636 341 100 105 152 
131 637 340 90 101 152 
131 637 341 96 101 151 
131 636 342 123 122 156 
131 638 340 88 99 147 
131 639 340 83 90 128 
132 634 343 208 208 218 
132 635 342 175 175 190 
132 635 343 205 205 215 
133 635 343 211 210 219 
132 637 341 114 108 151 
132 636 342 165 162 181 
132 637 342 155 150 173 
133 636 342 199 196 205 
133 636 343 209 207 216 
133 637 342 192 189 199 
133 637 343 209 207 215 
132 638 340 95 100 144 
132 638 341 110 104 148 
132 639 340 92 94 132 
132 639 341 100 96 138 
133 638 341 115 107 144 
133 639 341 101 90 133 
133 638 342 160 156 175 
133 639 342 136 130 157 
134 637 343 212 210 219 
134 639 341 122 112 149 
134 638 342 193 191 200 
134 638 343 210 208 214 
134 639 342 168 165 184 
135 638 343 215 213 219 
135 639 342 181 182 200 
135 639 343 200 203 216 
133 633 345 217 218 228 
132 634 344 214 214 224 
132 635 344 213 213 222 
133 634 344 216 216 226 
133 634 345 215 216 227 
133 635 344 216 215 225 
135 633 346 215 219 232 
134 634 345 215 216 228 
134 635 344 215 216 226 
134 635 345 215 216 227 
135 635 345 215 216 227 
134 634 346 215 217 229 
135 634 346 214 217 230 
135 634 347 210 216 231 
135 635 346 214 216 227 
133 636 344 214 213 223 
134 636 344 215 215 226 
135 636 344 216 216 226 
135 636 345 215 216 227 
135 637 344 215 214 224 
135 637 345 214 215 226 
135 638 344 216 215 223 
135 639 344 216 216 224 
136 639 343 193 202 223 
136 633 347 178 195 223 
137 633 347 132 157 207 
136 634 346 202 210 229 
136 634 347 188 200 225 
136 635 346 195 204 223 
137 634 347 147 168 211 
137 635 346 157 174 209 
137 635 347 150 169 208 
138 633 347 109 136 200 
138 634 347 115 141 202 
138 635 346 159 177 213 
138 635 347 137 159 207 
139 634 347 96 124 192 
139 635 347 112 138 198 
138 633 348 104 132 198 
139 632 348 103 133 194 
139 633 348 105 133 196 
139 634 348 99 127 194 
136 636 345 202 207 223 
136 637 345 204 208 224 
137 637 345 170 184 208 
136 636 346 189 198 219 
137 636 346 168 182 210 
137 637 346 166 181 207 
136 638 344 214 214 225 
136 638 345 202 206 221 
136 639 344 201 207 224 
137 638 345 175 187 209 
137 639 344 166 179 206 
137 639 345 164 178 204 
138 636 346 173 188 218 
138 637 346 186 198 219 
139 636 346 152 173 210 
139 636 347 137 161 206 
139 637 346 167 186 215 
138 638 345 186 197 215 
138 639 345 173 185 210 
139 639 345 190 201 221 
138 638 346 199 208 224 
139 638 346 185 199 222 
139 639 346 179 195 219 
140 635 347 93 121 189 
140 632 348 93 124 181 
140 633 348 86 116 175 
140 633 349 102 128 179 
141 632 349 96 116 182 
141 633 349 116 137 189 
140 634 348 82 110 177 
140 635 348 82 108 179 
141 634 348 87 111 171 
141 634 349 115 136 187 
141 635 348 75 100 171 
142 632 349 69 94 174 
142 633 349 97 119 185 
143 633 349 125 146 200 
142 632 350 97 117 186 
143 632 350 119 140 201 
143 633 350 124 147 202 
142 634 349 123 144 195 
142 635 348 113 133 188 
142 635 349 129 149 195 
143 634 349 146 167 210 
143 635 348 142 161 203 
143 635 349 144 165 206 
140 636 347 95 125 189 
140 637 346 118 145 196 
140 637 347 93 124 187 
141 636 347 98 125 187 
141 637 347 104 130 190 
140 638 346 120 147 198 
140 639 346 127 151 199 
141 638 346 115 139 194 
141 638 347 117 140 194 
141 639 346 123 143 197 
142 637 347 130 150 199 
142 638 347 129 149 199 
142 639 346 104 124 191 
142 639 347 112 131 193 
143 638 347 97 117 185 
143 639 347 44 67 163 
141 636 348 101 123 186 
142 636 348 124 143 195 
143 636 348 128 146 198 
143 636 349 117 137 193 
143 637 348 104 123 188 
143 638 348 57 83 170 
146 631 351 91 117 191 
147 631 351 53 81 171 
148 631 351 75 101 164 
149 631 351 99 115 154 
150 631 351 80 90 123 
151 631 351 92 101 132 
144 632 350 126 151 206 
144 632 351 114 141 203 
144 633 350 108 136 199 
145 632 351 86 114 190 
145 633 350 51 75 177 
145 633 351 64 90 182 
144 635 349 89 121 189 
145 635 349 70 105 187 
144 634 350 99 128 194 
144 635 350 68 104 184 
145 634 350 61 82 179 
145 635 350 85 113 192 
146 632 351 62 94 185 
146 633 351 75 98 190 
147 632 351 51 89 175 
147 633 351 85 120 189 
146 634 350 94 118 195 
146 635 350 114 143 205 
147 634 350 109 142 202 
147 634 351 109 142 199 
147 635 350 107 142 201 
144 639 347 53 84 161 
144 636 349 78 107 183 
144 637 348 49 73 170 
144 637 349 63 87 178 
145 636 349 93 123 194 
145 637 349 94 117 192 
144 638 348 36 65 166 
144 639 348 59 91 171 
145 638 348 71 94 179 
145 638 349 92 114 189 
145 639 348 115 140 191 
146 636 349 113 143 204 
146 637 349 118 144 205 
147 637 349 117 146 204 
146 636 350 118 149 206 
147 636 350 107 140 201 
146 638 349 108 134 196 
146 639 348 129 154 199 
147 638 349 122 146 204 
147 639 348 125 148 198 
147 639 349 107 133 193 
148 632 351 106 129 179 
148 633 351 128 150 190 
149 632 351 115 132 162 
149 633 351 125 144 169 
148 634 350 134 159 197 
148 634 351 138 162 197 
148 635 350 110 141 190 
149 634 350 118 139 165 
149 634 351 125 144 167 
149 635 350 97 123 159 
150 632 351 81 93 123 
150 633 351 75 92 119 
151 632 351 71 75 118 
151 633 351 67 74 120 
150 634 350 68 89 115 
150 634 351 71 92 117 
150 635 350 61 80 110 
151 634 350 82 95 124 
151 634 351 80 92 128 
151 635 350 76 89 115 
148 637 349 114 143 197 
149 637 349 95 120 169 
148 636 350 104 135 192 
148 637 350 110 140 195 
149 636 350 90 118 163 
149 637 350 96 121 168 
148 638 349 107 136 191 
148 639 348 101 122 176 
148 639 349 96 123 180 
149 638 349 80 109 159 
149 639 348 130 147 181 
149 639 349 99 124 165 
150 637 349 51 63 104 
151 637 349 54 53 82 
150 636 350 56 72 106 
150 637 350 58 71 106 
151 636 350 66 70 97 
151 637 350 59 60 87 
150 638 349 41 59 101 
150 639 349 61 78 109 
151 638 349 45 44 74 
151 639 349 45 50 71 
152 631 351 107 119 152 
152 632 351 93 101 144 
152 633 351 77 84 136 
153 632 351 126 136 175 
153 633 351 124 135 174 
152 634 351 92 104 142 
152 635 350 102 113 138 
152 635 351 112 124 151 
153 634 351 120 132 168 
153 635 350 113 121 145 
153 635 351 113 125 153 
154 633 351 118 134 175 
154 634 351 105 122 166 
154 635 351 102 117 151 
155 634 351 91 112 164 
155 635 351 107 121 157 
152 637 349 68 66 92 
152 636 350 93 97 121 
152 637 350 85 85 107 
153 636 350 103 107 131 
153 637 350 95 96 117 
152 638 349 63 62 83 
152 639 349 63 64 80 
153 638 349 87 87 106 
153 639 349 71 73 92 
153 638 350 88 90 110 
154 636 350 93 100 125 
154 636 351 99 108 133 
154 637 350 83 87 111 
155 636 350 105 111 131 
155 636 351 116 124 142 
155 637 350 92 95 115 
154 638 349 75 79 100 
154 639 349 66 69 93 
155 639 349 61 66 94 
154 638 350 75 79 103 
155 638 350 72 77 102 
156 634 351 75 99 158 
156 635 351 95 112 152 
157 634 351 65 88 146 
157 635 351 80 98 137 
159 633 351 103 122 156 
158 634 351 88 106 149 
158 635 351 95 110 137 
159 634 351 113 125 149 
159 635 350 103 111 127 
159 635 351 115 123 138 
156 636 351 121 130 143 
156 637 350 103 110 121 
157 636 351 87 100 121 
157 637 350 80 89 106 
156 639 349 57 65 92 
157 639 349 53 60 86 
156 638 350 77 84 104 
157 638 350 67 75 96 
159 637 349 64 73 97 
158 636 350 87 95 112 
158 636 351 84 95 116 
158 637 350 68 74 96 
159 636 350 96 103 116 
159 637 350 75 82 101 
158 638 349 51 56 86 
158 639 349 47 54 83 
159 638 349 54 63 90 
159 639 348 47 62 92 
159 639 349 47 58 88 
158 638 350 57 62 89 
147 631 352 65 85 169 
148 631 352 53 80 153 
149 630 352 81 101 145 
149 631 352 87 104 148 
150 630 352 86 103 133 
150 631 352 82 97 128 
151 630 352 105 122 152 
151 631 352 107 120 148 
152 629 352 102 120 168 
153 629 352 106 124 177 
153 629 353 108 127 180 
152 630 352 113 130 171 
152 631 352 123 137 170 
153 630 352 112 133 178 
153 631 352 128 146 180 
154 629 353 108 132 181 
155 628 353 146 166 202 
155 629 353 116 141 189 
154 630 352 134 156 190 
154 630 353 117 143 184 
154 631 352 157 174 199 
155 630 352 172 188 210 
155 630 353 155 174 203 
155 631 352 173 187 210 
155 631 353 174 188 210 
159 627 354 127 148 192 
156 629 353 110 137 187 
157 629 353 132 153 193 
156 629 354 109 136 186 
157 628 354 136 157 196 
157 629 354 122 145 189 
156 630 353 132 155 192 
156 631 352 129 148 186 
156 631 353 126 147 186 
157 630 353 147 167 200 
157 631 353 131 151 190 
158 629 353 141 160 195 
159 629 353 121 142 186 
158 628 354 136 155 194 
158 629 354 126 146 189 
159 628 354 116 138 186 
159 629 354 119 140 186 
158 630 353 165 181 208 
158 631 352 142 160 194 
158 631 353 155 172 202 
159 630 353 145 163 193 
159 631 352 137 155 188 
159 631 353 156 173 201 
153 632 352 129 144 180 
154 632 352 140 156 188 
154 633 352 122 140 178 
155 632 352 130 147 182 
155 633 352 107 126 171 
156 632 352 107 126 174 
156 633 352 99 120 170 
157 632 352 106 126 176 
157 633 352 95 116 171 
156 634 352 81 105 164 
157 634 352 70 95 158 
158 632 352 111 130 175 
158 633 352 94 114 165 
159 632 352 114 133 172 
159 633 352 102 122 162 
158 634 352 83 104 158 
165 623 351 85 101 122 
166 623 351 85 107 130 
167 622 351 81 107 139 
167 623 351 94 118 144 
168 622 351 89 117 152 
168 623 351 104 129 159 
169 622 351 100 129 167 
169 623 351 108 134 168 
170 622 351 112 140 175 
170 623 351 127 149 178 
171 623 351 138 157 184 
163 626 351 41 43 64 
163 627 351 40 48 67 
160 631 351 99 117 153 
161 630 351 63 79 109 
161 631 351 60 76 113 
162 628 351 39 54 76 
162 629 351 48 61 82 
163 628 350 46 51 66 
163 628 351 39 44 62 
163 629 350 45 51 64 
163 629 351 41 46 58 
163 630 349 47 52 68 
163 631 349 52 56 74 
162 630 350 42 46 65 
162 630 351 46 54 76 
162 631 350 41 46 73 
162 631 351 42 49 81 
163 630 350 47 50 66 
163 631 350 49 52 72 
164 624 351 76 82 103 
164 625 351 73 78 97 
165 624 351 84 98 119 
165 625 350 77 91 113 
165 625 351 79 91 111 
164 626 350 67 73 89 
164 626 351 61 62 79 
164 627 350 58 64 80 
164 627 351 50 53 67 
165 626 350 71 81 103 
165 627 350 62 70 90 
166 624 351 87 107 130 
166 625 350 87 105 127 
167 624 350 117 136 159 
167 624 351 107 128 151 
167 625 350 111 128 151 
166 627 349 71 76 100 
167 627 349 95 97 118 
166 626 350 81 93 117 
166 627 350 76 83 107 
167 626 350 103 113 136 
164 628 349 53 59 78 
164 629 349 51 57 75 
165 628 349 58 64 84 
165 629 349 55 61 79 
164 628 350 54 60 78 
164 629 350 48 54 70 
164 630 349 51 56 70 
164 631 348 57 57 72 
164 631 349 54 55 70 
165 630 348 62 63 74 
165 630 349 55 59 74 
165 631 348 63 63 75 
166 628 349 65 68 92 
166 629 349 61 63 85 
167 628 349 76 74 97 
167 629 349 71 69 90 
166 630 348 67 68 81 
166 630 349 62 65 81 
166 631 348 65 65 76 
167 630 348 80 79 91 
167 631 348 75 73 80 
160 632 351 98 114 150 
160 633 351 101 116 148 
161 632 350 47 53 91 
161 632 351 65 79 117 
161 633 350 51 63 106 
161 634 349 45 60 100 
161 635 349 47 61 100 
160 634 350 71 82 118 
160 634 351 97 109 136 
160 635 350 65 77 110 
161 634 350 46 59 103 
162 632 349 50 54 88 
162 633 349 46 54 93 
163 632 349 54 59 81 
163 633 348 56 63 88 
163 633 349 56 63 92 
162 632 350 46 51 88 
162 633 350 38 44 88 
162 634 348 58 69 107 
162 634 349 51 62 101 
162 635 348 62 72 112 
162 635 349 57 66 105 
163 634 348 58 66 98 
163 635 348 64 73 109 
160 639 347 46 69 102 
161 638 347 55 75 109 
161 639 347 54 78 109 
162 637 347 58 76 118 
163 636 347 71 85 124 
163 637 347 67 86 127 
162 638 347 60 81 120 
162 639 346 55 87 120 
162 639 347 58 83 119 
163 638 346 53 77 125 
163 638 347 59 81 126 
163 639 346 46 79 122 
160 636 349 51 65 99 
160 637 349 51 66 96 
161 636 348 44 55 98 
161 636 349 43 57 97 
161 637 348 47 60 100 
160 636 350 72 83 106 
160 638 348 48 65 98 
160 638 349 51 66 96 
160 639 348 48 65 99 
161 638 348 51 67 103 
162 636 348 57 69 111 
162 637 348 52 67 111 
163 636 348 70 81 120 
164 634 347 62 65 86 
164 635 347 60 67 96 
165 634 347 63 63 76 
165 635 347 61 63 81 
166 633 347 60 61 70 
167 633 347 67 65 73 
166 634 347 65 64 72 
166 635 347 63 64 74 
167 634 347 69 68 74 
167 635 347 66 66 73 
164 632 348 59 60 79 
164 632 349 57 60 79 
164 633 348 58 61 80 
165 632 348 59 58 73 
165 633 348 60 61 74 
164 634 348 63 66 86 
165 634 348 61 63 75 
166 632 348 57 57 70 
166 633 348 57 58 69 
167 632 348 64 62 70 
167 633 348 61 59 69 
164 636 347 63 75 111 
164 637 346 67 83 124 
164 637 347 69 86 127 
165 636 347 57 63 89 
165 637 346 60 73 108 
164 639 345 55 88 130 
165 639 345 79 109 140 
164 638 346 69 89 134 
164 639 346 58 84 131 
165 638 346 84 100 133 
165 639 346 94 115 145 
166 636 346 60 63 80 
166 636 347 61 63 77 
166 637 346 59 64 88 
167 636 346 62 61 70 
167 636 347 63 63 73 
167 637 346 59 58 70 
166 639 345 85 104 129 
167 639 345 45 61 88 
166 638 346 69 79 106 
167 638 346 54 55 75 
168 624 350 121 141 166 
168 624 351 117 140 166 
168 625 350 127 143 165 
169 624 350 126 145 171 
169 624 351 128 147 173 
169 625 350 134 148 168 
168 627 349 135 134 147 
169 627 349 169 167 174 
168 626 350 137 143 159 
169 626 350 162 166 178 
169 627 350 177 176 183 
170 624 351 142 157 179 
170 625 350 146 154 171 
170 625 351 149 158 175 
171 624 351 157 168 187 
171 625 351 169 173 185 
170 627 349 181 178 183 
170 626 350 173 175 184 
170 627 350 185 182 188 
171 626 350 182 181 189 
171 626 351 178 179 188 
171 627 350 179 177 184 
168 628 349 115 111 126 
168 629 349 106 101 115 
169 628 349 158 154 161 
169 629 349 151 146 152 
168 630 348 116 112 121 
168 631 348 99 96 103 
169 630 348 140 136 141 
169 630 349 153 148 153 
169 631 348 113 109 116 
170 628 349 179 175 181 
170 629 349 172 168 173 
171 628 349 181 178 184 
171 629 349 180 175 180 
171 628 350 177 175 182 
170 630 348 135 132 138 
170 630 349 150 146 153 
170 631 348 118 115 124 
171 630 349 145 140 149 
171 631 348 124 120 133 
171 631 349 134 130 141 
172 624 351 150 161 181 
172 625 351 166 170 183 
173 625 351 175 178 189 
172 626 350 175 174 183 
172 626 351 179 179 187 
172 627 350 157 158 169 
173 626 351 181 180 188 
173 627 350 155 156 167 
173 627 351 160 160 169 
174 626 351 189 186 193 
174 627 351 183 180 186 
175 627 351 194 188 193 
172 629 349 184 179 183 
172 628 350 177 175 183 
172 629 350 190 184 189 
173 628 350 181 179 186 
173 629 350 192 186 191 
172 630 349 173 167 172 
172 631 349 166 161 167 
173 630 349 183 176 180 
173 631 349 181 176 181 
173 630 350 190 183 187 
174 628 350 190 186 193 
174 628 351 188 184 191 
174 629 350 191 187 192 
174 629 351 189 185 191 
175 628 351 190 186 191 
175 629 351 177 174 182 
174 631 349 184 178 183 
174 630 350 190 184 188 
174 631 350 186 181 185 
175 630 350 186 181 185 
175 630 351 175 173 180 
175 631 350 187 181 184 
168 633 347 75 71 81 
169 633 347 79 74 84 
168 634 347 68 66 75 
168 635 347 61 61 68 
169 634 347 62 58 70 
169 635 347 58 56 65 
170 634 347 69 62 75 
170 635 347 66 64 73 
171 634 347 85 79 86 
171 635 347 79 75 82 
168 632 348 84 81 88 
168 633 348 84 79 89 
169 632 348 99 96 104 
169 633 348 90 85 94 
170 632 348 111 107 115 
170 633 348 99 94 101 
171 632 348 142 138 145 
171 633 348 126 121 126 
171 634 348 103 98 102 
168 636 346 59 57 64 
168 637 346 57 54 59 
169 636 346 59 59 66 
169 636 347 60 60 67 
169 637 346 52 52 58 
168 639 345 44 46 65 
169 639 345 53 51 57 
168 638 346 54 52 62 
169 638 346 47 47 53 
169 639 346 51 49 55 
170 636 346 65 66 71 
170 636 347 68 68 74 
170 637 346 60 60 64 
171 636 347 69 67 74 
171 637 346 63 63 68 
171 637 347 63 63 69 
170 639 345 52 51 55 
170 638 346 49 49 53 
170 639 346 49 48 52 
171 638 346 56 57 61 
171 639 346 54 54 58 
172 634 347 101 96 101 
172 635 347 88 83 89 
172 632 348 168 164 168 
172 632 349 175 170 174 
172 633 348 148 144 148 
173 632 349 170 166 171 
173 633 348 145 141 147 
173 633 349 150 147 152 
172 634 348 121 116 120 
172 635 348 105 100 105 
173 634 348 134 130 134 
173 635 348 113 108 113 
174 632 349 163 160 166 
174 633 349 141 139 147 
175 633 349 149 146 152 
175 632 350 176 170 174 
175 633 350 162 158 162 
174 634 348 147 142 146 
