ply
format ascii 1.0
comment Created by CloudCompare v2.10.1 (Zephyrus)
comment Created 1/31/20 6:09 PM
obj_info Generated by CloudCompare!
element vertex 2050
property float x
property float y
property float z
property uchar red
property uchar green
property uchar blue
end_header
218 965 269 88 58 43 
218 964 270 104 76 55 
218 965 270 89 61 45 
219 964 270 102 72 51 
219 964 271 112 84 60 
219 965 270 93 64 46 
219 965 271 96 68 40 
218 966 268 92 68 42 
218 966 269 82 52 30 
219 966 269 88 60 44 
219 967 268 104 80 60 
219 967 269 90 65 47 
219 966 270 96 69 54 
220 962 271 123 96 72 
220 963 271 131 106 84 
221 962 271 124 96 68 
220 964 271 117 89 62 
220 965 271 103 77 50 
220 967 268 102 78 59 
220 967 269 90 64 47 
221 967 269 89 64 46 
220 966 270 97 72 56 
220 966 271 99 75 55 
220 967 270 87 61 47 
221 966 271 110 88 68 
221 967 270 90 65 48 
221 967 271 101 78 60 
222 967 271 101 77 56 
216 969 259 121 95 65 
216 970 258 125 99 70 
216 970 259 120 93 63 
216 971 258 129 103 73 
216 971 259 125 99 70 
216 968 260 120 92 59 
216 968 261 127 97 64 
216 969 260 118 90 60 
217 968 261 118 86 51 
217 969 260 113 85 60 
217 969 261 113 83 53 
216 968 262 133 103 71 
217 968 262 128 98 65 
217 968 263 133 106 76 
217 969 262 115 87 55 
217 969 263 124 96 67 
217 970 260 111 83 57 
217 970 261 110 84 59 
217 971 260 113 87 58 
217 971 261 109 84 59 
217 970 262 110 84 58 
218 969 263 122 96 69 
218 971 261 112 89 66 
218 970 262 112 86 61 
218 970 263 115 90 65 
218 971 262 112 89 65 
218 971 263 113 89 64 
219 970 263 115 90 64 
219 971 263 112 87 61 
216 973 257 131 102 67 
216 972 258 130 103 72 
216 972 259 137 112 86 
216 973 258 133 106 74 
216 973 259 141 116 90 
217 972 259 133 108 82 
217 973 259 140 115 90 
216 974 256 144 114 80 
216 974 257 137 108 74 
216 975 256 153 121 87 
216 975 257 138 107 71 
216 974 258 139 112 82 
216 975 258 139 110 78 
217 974 259 142 117 93 
217 975 258 145 117 87 
217 975 259 148 123 98 
217 972 260 131 107 84 
217 972 261 125 102 80 
217 973 260 128 104 78 
217 974 260 130 105 78 
217 975 260 139 114 90 
218 972 261 126 103 83 
218 973 261 121 98 71 
218 972 262 125 102 81 
218 973 262 125 101 78 
219 972 262 126 104 83 
219 972 263 120 97 73 
219 973 262 124 100 76 
219 973 263 121 97 72 
218 974 260 128 103 77 
218 974 261 125 101 75 
218 975 260 137 112 87 
218 975 261 136 112 88 
218 974 262 129 106 81 
219 974 262 130 107 83 
219 974 263 131 108 86 
219 975 262 142 118 96 
219 975 263 144 122 101 
220 972 263 120 97 74 
220 973 263 119 96 73 
220 974 263 132 110 91 
220 975 263 142 119 98 
217 968 264 134 108 78 
217 968 265 132 105 74 
218 968 264 133 107 78 
218 968 265 134 107 78 
218 969 264 128 101 72 
218 969 265 132 104 74 
219 969 264 125 97 69 
219 969 265 130 102 72 
218 968 266 131 104 73 
219 968 266 131 104 74 
219 968 267 123 96 65 
219 969 266 135 108 79 
219 970 264 118 92 65 
219 970 265 124 97 68 
219 971 264 110 85 55 
220 969 266 134 107 79 
220 969 267 129 103 75 
221 969 267 120 94 67 
220 970 265 126 99 71 
220 971 264 118 93 65 
220 971 265 124 99 73 
220 970 266 132 106 79 
221 970 267 122 96 68 
221 971 266 125 100 72 
221 971 267 125 101 74 
222 971 267 122 97 71 
220 968 268 107 80 52 
220 968 269 94 69 50 
221 968 268 101 78 55 
221 968 269 92 68 43 
221 969 268 109 83 58 
221 968 270 86 60 41 
221 970 268 115 89 61 
222 968 269 93 70 44 
222 969 268 108 84 60 
222 969 269 101 79 53 
222 968 270 86 60 31 
222 968 271 89 64 37 
222 969 270 94 69 41 
223 968 271 90 68 42 
223 969 270 94 70 37 
223 969 271 99 78 56 
222 970 268 111 87 58 
222 970 269 109 87 62 
222 971 268 116 92 64 
223 970 269 112 90 65 
223 971 268 119 95 69 
223 971 269 118 95 70 
223 970 270 111 89 65 
223 970 271 110 90 69 
223 971 270 124 102 82 
220 972 264 119 96 72 
220 972 265 121 98 73 
220 973 264 122 99 76 
220 973 265 123 100 77 
221 972 265 123 99 74 
221 973 265 125 103 80 
221 972 266 126 103 78 
221 972 267 126 102 77 
221 973 266 126 103 80 
220 974 264 129 107 87 
220 975 264 134 112 90 
221 974 265 127 104 82 
221 975 265 127 103 79 
221 974 266 123 99 75 
221 975 266 125 101 75 
222 972 267 123 99 73 
222 973 267 122 98 72 
222 974 267 120 96 69 
222 975 267 130 106 81 
222 972 268 122 98 71 
222 973 268 125 101 75 
223 972 268 127 103 79 
223 972 269 135 113 91 
223 973 268 132 110 87 
223 973 269 135 113 91 
223 972 270 130 108 86 
223 973 270 126 103 79 
222 974 268 134 111 89 
222 975 268 145 123 102 
223 974 268 141 119 98 
223 974 269 133 110 88 
223 975 268 139 116 93 
223 975 269 138 116 95 
223 974 270 129 107 86 
223 975 270 132 110 89 
220 963 272 129 105 82 
221 962 272 139 113 88 
221 963 272 134 109 84 
222 962 272 134 106 80 
222 963 272 132 107 82 
222 963 273 131 106 80 
223 962 272 122 96 69 
223 962 273 137 112 88 
223 963 273 132 106 81 
220 964 272 119 90 63 
220 965 272 107 78 49 
221 964 272 116 87 57 
221 965 272 113 88 64 
221 966 272 116 95 76 
222 964 272 117 88 58 
222 964 273 121 92 61 
222 965 272 113 84 55 
222 965 273 113 86 60 
223 964 273 127 99 70 
223 965 273 115 83 50 
223 964 274 125 96 64 
223 965 274 114 83 53 
222 966 272 119 98 79 
222 966 273 118 95 75 
222 967 272 105 82 61 
223 966 273 113 87 68 
223 967 272 103 79 59 
223 967 273 103 78 61 
223 966 274 111 85 66 
223 968 272 94 71 52 
223 969 272 97 77 60 
215 981 256 165 124 82 
214 982 256 167 126 85 
214 983 256 161 121 80 
215 982 256 153 112 73 
215 983 256 148 107 69 
215 983 257 146 107 77 
208 985 256 146 107 76 
209 985 256 145 105 67 
208 986 257 139 97 58 
209 986 257 155 116 74 
208 987 258 159 123 80 
209 987 258 174 137 96 
210 984 256 149 106 64 
210 985 256 165 127 83 
211 984 256 181 143 102 
211 985 256 185 148 107 
210 986 257 180 144 101 
211 986 257 181 145 105 
210 987 258 180 141 99 
211 986 258 178 140 99 
211 987 258 171 133 96 
211 987 259 160 121 92 
208 988 259 177 142 102 
209 988 259 180 142 101 
210 988 259 167 127 91 
211 988 259 158 119 87 
208 988 260 183 145 103 
208 989 260 178 136 93 
208 989 261 173 131 97 
209 988 260 172 133 95 
209 989 260 160 118 81 
209 989 261 160 124 95 
208 990 261 166 131 103 
209 990 261 161 129 104 
208 990 262 167 136 108 
208 991 263 212 181 153 
209 990 262 166 139 114 
209 990 263 191 164 138 
209 991 263 217 187 159 
210 988 260 156 115 79 
210 989 260 150 110 80 
210 989 261 157 127 105 
211 988 260 150 110 75 
211 989 260 150 114 83 
211 989 261 150 120 96 
211 989 262 150 121 100 
210 990 262 158 132 108 
210 990 263 189 162 138 
210 991 263 217 187 159 
211 990 262 150 124 101 
211 990 263 184 157 132 
211 991 263 217 186 159 
212 984 256 185 148 110 
212 985 256 185 147 108 
212 985 257 175 138 99 
213 984 256 168 129 92 
213 984 257 148 108 71 
213 985 256 175 137 101 
213 985 257 155 117 75 
213 985 258 150 115 80 
212 986 257 171 134 94 
212 986 258 165 125 85 
212 987 258 164 126 95 
212 987 259 156 119 93 
213 986 258 158 123 87 
213 986 259 154 120 88 
213 987 259 148 113 82 
214 984 256 150 107 70 
214 984 257 145 103 69 
214 985 257 144 104 65 
215 984 257 146 106 75 
214 985 258 147 110 75 
215 984 258 146 108 75 
215 985 258 147 109 77 
215 985 259 148 111 81 
214 986 258 154 121 85 
214 986 259 146 112 75 
215 986 259 145 108 75 
213 987 260 142 108 73 
215 985 260 146 109 78 
214 986 260 143 108 77 
214 987 260 143 108 74 
214 987 261 142 108 77 
215 986 260 147 113 82 
215 986 261 153 120 91 
215 987 261 149 115 87 
215 987 262 140 103 81 
215 987 263 128 88 63 
212 988 259 152 115 87 
212 988 260 147 111 76 
212 988 261 147 113 84 
212 989 261 146 115 90 
213 988 260 145 111 77 
213 988 261 141 106 76 
212 989 262 141 109 88 
212 989 263 144 115 89 
213 988 262 130 92 68 
213 989 262 134 99 77 
213 989 263 140 108 81 
212 990 263 176 149 123 
214 988 261 137 100 72 
214 988 262 131 91 67 
214 988 263 122 80 53 
214 989 263 141 110 83 
215 988 263 127 90 64 
209 991 264 234 200 173 
210 991 264 228 194 166 
211 991 264 227 195 167 
211 991 265 219 186 157 
213 989 264 199 173 149 
212 990 264 215 185 158 
212 991 264 224 192 165 
212 991 265 209 176 149 
213 990 264 215 185 160 
213 990 265 214 183 157 
213 991 265 197 165 138 
212 991 266 180 149 124 
213 991 266 172 142 116 
213 991 267 163 133 104 
214 989 264 208 181 158 
214 989 265 226 197 173 
215 988 264 178 151 126 
215 989 264 194 168 145 
215 989 265 220 188 162 
215 989 266 177 142 114 
214 990 265 206 172 147 
215 990 265 202 166 141 
214 990 266 174 143 118 
214 990 267 168 139 111 
214 991 266 168 140 112 
214 991 267 169 139 111 
215 990 266 168 136 109 
215 990 267 166 137 109 
213 991 268 167 138 110 
214 991 268 168 140 114 
214 991 269 142 115 89 
215 990 268 166 136 111 
215 990 269 131 102 73 
215 991 269 131 104 76 
214 991 270 126 102 84 
214 991 271 113 92 77 
215 990 270 116 91 71 
215 990 271 92 67 60 
215 991 270 116 91 71 
215 991 271 95 72 60 
216 976 256 154 120 84 
216 976 257 140 109 72 
216 977 256 158 124 88 
217 976 257 141 111 75 
217 977 256 151 118 84 
217 977 257 148 118 84 
217 976 258 147 118 85 
217 976 259 156 129 103 
217 977 258 152 122 89 
217 977 259 158 128 97 
216 978 256 161 127 91 
216 979 256 168 134 101 
217 978 256 156 124 91 
217 978 257 154 123 91 
217 979 256 165 133 102 
217 979 257 158 127 94 
217 978 258 150 119 84 
217 978 259 159 129 98 
217 979 258 153 121 86 
217 979 259 165 135 105 
218 976 259 160 132 107 
218 977 259 162 135 107 
218 978 259 163 134 105 
218 979 259 168 138 109 
218 976 260 151 125 99 
218 976 261 146 121 96 
218 977 260 156 129 102 
218 977 261 148 122 95 
219 976 262 145 120 94 
219 976 263 143 117 92 
219 977 262 142 116 87 
219 977 263 142 115 87 
218 978 260 157 128 98 
218 978 261 149 120 90 
218 979 260 164 134 104 
218 979 261 155 127 98 
218 978 262 147 121 93 
218 979 262 151 124 96 
219 978 262 147 121 93 
219 978 263 147 120 94 
219 979 262 149 122 93 
219 979 263 146 119 90 
216 980 256 165 130 92 
216 980 257 156 121 83 
216 981 256 156 117 77 
216 981 257 154 118 81 
217 980 256 165 132 99 
217 980 257 158 125 89 
217 981 257 153 118 81 
217 980 258 154 121 85 
217 980 259 168 138 106 
217 981 258 153 120 83 
217 981 259 167 136 105 
216 982 257 150 112 78 
216 983 257 146 107 76 
216 982 258 149 113 79 
216 983 258 148 112 82 
216 983 259 153 119 87 
217 982 258 154 120 87 
217 982 259 159 127 94 
217 983 259 156 120 89 
218 980 259 171 141 112 
217 981 260 174 144 114 
217 982 260 169 139 108 
217 983 260 164 132 101 
217 983 261 161 130 98 
218 980 260 171 142 112 
218 980 261 162 133 105 
218 981 260 170 141 111 
218 981 261 159 130 98 
218 980 262 153 125 96 
218 981 262 154 124 93 
219 980 262 151 122 93 
219 980 263 153 125 95 
219 981 262 157 128 97 
219 981 263 161 131 100 
218 982 260 168 138 107 
218 982 261 164 133 102 
218 983 261 161 130 98 
218 982 262 161 130 98 
218 983 262 158 126 92 
218 983 263 158 122 88 
219 982 263 162 130 97 
219 983 263 162 127 94 
220 977 263 143 117 91 
220 978 263 146 119 91 
220 979 263 146 118 88 
219 980 264 150 121 90 
219 981 264 164 134 105 
219 982 264 161 129 96 
219 983 264 156 122 88 
219 983 265 148 113 75 
220 976 264 138 113 88 
220 977 264 145 119 93 
221 976 265 130 104 76 
221 977 265 142 115 87 
221 976 266 133 108 82 
221 977 266 149 123 97 
221 977 267 153 128 103 
220 978 264 145 118 90 
220 979 264 146 118 88 
220 979 265 152 124 96 
221 978 265 146 118 90 
221 979 265 156 128 101 
221 978 266 152 124 97 
221 978 267 152 124 96 
221 979 266 154 125 96 
221 979 267 153 124 94 
222 976 267 147 123 101 
222 977 267 152 127 102 
222 978 267 152 124 96 
222 979 267 156 128 98 
222 976 268 149 124 101 
222 977 268 152 127 101 
223 976 268 149 125 102 
223 976 269 149 126 107 
223 977 268 164 140 119 
223 977 269 154 131 110 
223 976 270 128 106 83 
223 977 270 125 101 75 
222 978 268 165 139 115 
222 979 268 172 146 122 
223 978 269 152 129 107 
223 979 269 146 122 98 
223 978 270 121 98 73 
223 979 270 121 99 76 
220 980 264 155 126 96 
220 980 265 154 124 93 
220 981 264 164 134 105 
220 981 265 154 123 89 
221 980 265 155 126 96 
220 981 266 158 128 95 
221 980 266 154 124 91 
221 980 267 164 136 106 
221 981 266 166 136 106 
221 981 267 177 148 121 
220 982 264 160 129 96 
220 982 265 154 122 86 
220 983 265 160 128 96 
220 982 266 169 140 110 
220 983 266 182 151 122 
220 983 267 196 167 140 
221 982 267 186 158 131 
221 983 267 197 169 143 
221 981 268 185 158 134 
221 982 268 180 153 128 
221 983 268 162 133 105 
221 983 269 132 102 75 
222 980 268 174 148 124 
222 980 269 147 121 96 
222 981 268 168 141 117 
222 981 269 134 107 82 
223 980 269 131 106 83 
223 980 270 121 97 70 
223 980 271 122 97 68 
223 981 270 121 93 62 
223 981 271 133 105 76 
222 982 268 149 121 93 
222 982 269 127 97 69 
222 983 269 131 102 74 
222 982 270 130 103 73 
222 983 270 147 121 93 
222 983 271 152 124 96 
223 982 270 131 104 75 
223 982 271 144 116 88 
223 983 271 148 120 91 
216 984 258 149 114 81 
216 984 259 150 114 82 
216 985 259 149 112 82 
216 984 260 153 118 89 
216 985 260 151 117 87 
216 985 261 154 122 89 
217 984 260 159 126 96 
217 984 261 159 128 98 
217 985 261 156 125 94 
217 984 262 154 122 88 
217 985 262 152 117 78 
217 985 263 157 120 87 
216 986 260 151 118 87 
216 986 261 156 122 93 
216 986 262 156 121 91 
216 986 263 154 116 90 
216 987 262 148 112 88 
216 987 263 138 102 77 
217 986 262 156 120 89 
217 986 263 156 121 91 
218 984 262 153 119 82 
218 984 263 158 121 89 
218 985 263 153 118 87 
216 988 263 131 97 69 
216 987 264 147 117 85 
217 986 264 146 115 82 
217 987 264 143 112 78 
217 987 265 200 169 138 
217 987 266 219 187 157 
218 984 264 147 110 77 
218 985 264 145 113 81 
218 985 265 154 123 89 
219 984 264 145 108 72 
219 984 265 155 122 85 
219 985 265 169 137 102 
219 984 266 192 161 130 
219 985 266 207 174 144 
219 985 267 201 170 142 
218 986 264 150 121 90 
218 986 265 170 138 104 
218 986 266 218 187 159 
218 987 266 217 185 156 
218 987 267 173 141 110 
219 986 266 215 183 154 
219 986 267 184 151 121 
218 987 268 158 128 101 
218 987 269 150 120 89 
219 986 268 154 121 92 
219 987 268 158 126 99 
219 987 269 153 121 91 
219 987 270 144 111 89 
219 987 271 120 86 70 
216 988 264 170 142 115 
216 988 265 219 189 162 
216 988 266 199 166 135 
216 989 266 196 162 132 
216 989 267 161 130 100 
217 988 266 220 186 156 
217 988 267 166 135 105 
217 989 267 160 131 102 
216 990 267 166 137 108 
216 989 268 163 134 109 
216 989 269 145 116 89 
217 988 268 163 135 111 
217 989 268 160 130 103 
217 989 269 143 114 87 
217 989 270 132 103 84 
217 989 271 95 65 65 
216 990 268 162 132 107 
216 990 269 136 107 79 
216 990 270 122 95 77 
216 990 271 88 60 60 
218 988 268 163 135 109 
218 988 269 145 115 87 
218 988 270 140 109 90 
218 988 271 106 75 68 
218 989 270 137 107 89 
218 989 271 99 69 66 
219 988 271 117 86 73 
220 984 266 199 168 138 
220 984 267 204 174 147 
220 985 267 190 159 133 
220 984 268 162 131 103 
220 985 268 149 117 89 
220 985 269 161 133 104 
221 984 268 151 120 91 
221 984 269 146 118 91 
221 985 268 142 110 81 
221 985 269 156 129 101 
221 984 270 156 129 100 
221 985 270 155 125 96 
221 985 271 140 108 80 
220 986 268 154 123 95 
220 986 269 161 131 101 
220 986 270 155 122 95 
220 986 271 130 94 67 
220 987 270 148 114 89 
220 987 271 117 80 57 
221 986 270 157 125 100 
221 986 271 134 100 72 
222 984 269 146 119 93 
222 984 270 154 127 98 
222 984 271 147 116 86 
222 985 271 142 111 83 
214 991 272 109 88 72 
214 991 273 129 104 78 
215 990 272 80 53 43 
215 990 273 125 99 79 
215 991 272 88 64 49 
215 991 273 127 103 80 
214 991 274 133 102 73 
214 991 275 130 98 64 
215 991 274 133 101 76 
215 991 275 127 93 63 
214 991 276 141 113 85 
214 991 277 141 114 89 
215 991 276 134 103 76 
215 991 277 137 108 82 
214 991 278 130 102 73 
214 991 279 125 96 71 
215 991 278 137 109 83 
215 991 279 132 103 80 
214 991 280 129 103 81 
214 991 281 126 99 78 
215 991 280 130 103 85 
215 991 281 117 88 68 
214 991 282 132 107 81 
215 991 282 128 103 77 
215 991 283 144 118 91 
215 991 284 149 123 96 
223 981 272 138 110 81 
223 982 272 141 113 84 
223 983 272 139 108 79 
223 983 273 125 91 64 
223 983 274 116 81 57 
219 987 272 109 82 72 
217 989 272 85 58 58 
217 989 273 113 86 73 
217 989 274 129 96 79 
216 990 272 82 54 49 
216 990 273 119 93 75 
217 990 272 85 58 58 
217 990 273 114 88 74 
216 990 274 130 97 75 
216 990 275 129 93 68 
217 990 274 128 95 76 
217 990 275 132 96 74 
218 988 272 87 57 54 
218 988 273 107 78 65 
218 989 272 86 58 57 
218 989 273 108 80 66 
219 988 272 98 71 62 
219 988 273 110 82 69 
218 988 274 133 102 91 
218 989 274 133 101 85 
218 989 275 136 101 79 
219 988 274 135 106 93 
219 988 275 139 108 86 
219 989 275 148 114 86 
216 990 276 134 101 76 
216 990 277 135 105 79 
217 990 276 131 95 71 
217 990 277 133 101 75 
216 990 278 143 116 92 
216 990 279 141 114 91 
217 990 278 146 120 96 
217 990 279 144 118 95 
218 989 276 133 94 70 
218 989 277 134 100 74 
219 988 276 144 106 80 
219 989 276 139 101 76 
219 989 277 139 105 82 
218 989 278 142 116 92 
218 989 279 142 117 92 
219 989 278 137 111 88 
219 989 279 138 112 87 
218 990 277 134 104 77 
218 990 278 146 120 97 
218 990 279 144 119 95 
221 985 272 122 92 66 
220 987 272 113 84 67 
220 987 273 111 84 67 
221 986 272 118 88 62 
221 986 273 114 84 64 
221 987 273 105 74 55 
220 987 274 121 90 75 
220 987 275 131 103 84 
221 986 274 101 65 43 
221 987 274 109 76 58 
221 987 275 128 99 77 
222 984 272 131 99 72 
222 985 272 122 89 64 
222 985 273 120 89 67 
223 984 272 130 99 72 
223 984 273 118 82 59 
222 985 274 113 82 60 
222 985 275 104 74 51 
223 984 274 120 88 70 
223 984 275 108 74 56 
223 985 274 120 89 70 
223 985 275 101 69 47 
222 986 273 119 89 70 
222 986 274 100 67 44 
222 986 275 114 84 65 
221 987 276 143 109 81 
223 984 276 120 88 65 
223 985 276 128 96 73 
223 985 277 141 105 80 
222 986 276 140 108 87 
222 986 277 147 108 82 
222 987 276 144 111 84 
222 987 277 141 104 78 
223 986 277 141 102 79 
222 987 278 127 94 71 
222 987 279 131 101 78 
223 986 278 129 93 68 
223 986 279 131 99 76 
223 987 278 126 94 71 
223 987 279 133 102 80 
220 988 274 131 103 88 
220 988 275 139 109 85 
220 988 276 145 108 81 
220 988 277 143 109 85 
221 988 276 142 106 78 
221 988 277 142 108 83 
220 988 278 132 104 81 
220 988 279 126 99 74 
220 989 278 127 100 77 
220 989 279 136 109 84 
221 988 278 127 98 75 
221 988 279 130 102 78 
222 988 278 124 94 73 
222 988 279 131 101 78 
216 990 280 136 108 92 
216 990 281 114 78 63 
216 991 280 137 108 93 
216 991 281 117 86 66 
217 990 280 141 113 98 
217 990 281 120 85 74 
216 991 282 116 88 69 
216 991 283 139 115 91 
217 990 282 116 87 72 
217 990 283 130 105 85 
217 991 283 131 107 86 
218 989 280 143 113 97 
218 989 281 130 94 81 
219 989 280 145 116 95 
219 989 281 136 105 84 
219 989 282 121 84 69 
219 989 283 123 95 76 
218 990 280 143 114 98 
218 990 281 122 84 74 
218 990 282 116 83 71 
218 990 283 120 94 75 
216 991 284 148 122 97 
216 991 285 153 126 101 
217 991 284 133 108 86 
217 991 285 140 114 90 
216 991 286 162 132 106 
217 991 286 151 121 97 
217 991 287 163 132 106 
219 989 284 124 98 79 
219 989 285 119 90 69 
219 989 286 117 86 63 
218 990 284 124 97 76 
218 990 285 120 91 65 
219 990 284 123 96 78 
219 990 285 116 86 63 
218 990 286 122 93 63 
218 990 287 134 104 75 
218 991 286 136 107 81 
218 991 287 147 116 89 
219 990 286 117 86 59 
219 990 287 121 91 62 
222 987 280 144 115 87 
222 987 281 144 116 86 
223 986 280 140 111 88 
223 987 280 144 114 89 
223 987 281 139 109 79 
222 987 282 138 110 78 
222 987 283 136 108 81 
223 986 283 134 103 77 
223 987 282 136 105 76 
223 987 283 135 106 81 
222 987 284 135 107 83 
222 987 285 131 99 74 
223 986 284 139 110 87 
223 986 285 139 109 88 
223 987 284 140 112 90 
223 987 285 135 106 84 
222 987 286 131 95 67 
222 987 287 142 111 84 
223 986 286 135 104 78 
223 986 287 153 126 103 
223 987 286 135 102 77 
223 987 287 150 121 96 
220 989 280 146 119 95 
220 989 281 139 109 84 
221 988 280 146 119 92 
221 988 281 144 115 87 
220 989 282 128 96 73 
220 989 283 127 97 77 
221 988 282 133 102 74 
221 988 283 130 98 73 
221 989 283 129 98 75 
222 988 280 144 116 90 
222 988 281 147 120 90 
222 988 282 136 106 72 
222 988 283 132 101 74 
220 989 284 125 96 75 
220 989 285 123 93 72 
221 988 284 126 93 70 
221 988 285 124 89 65 
221 989 284 125 93 71 
221 989 285 124 92 69 
220 989 286 121 90 72 
220 989 287 120 89 67 
221 988 286 121 87 65 
221 988 287 126 94 71 
221 989 286 122 90 70 
221 989 287 124 92 73 
222 988 284 129 97 73 
222 988 285 125 89 64 
222 988 286 124 88 59 
222 988 287 135 103 76 
193 975 315 91 70 51 
194 975 315 102 81 61 
195 975 315 92 68 47 
193 973 317 77 53 36 
193 972 319 83 61 40 
193 973 318 81 58 40 
193 973 319 85 63 41 
193 974 316 77 54 34 
193 974 317 77 53 33 
193 975 316 89 69 47 
194 973 317 88 63 39 
194 973 318 88 64 38 
194 973 319 88 65 39 
195 973 318 90 66 42 
195 973 319 90 67 44 
194 974 316 87 64 43 
194 974 317 85 62 40 
194 975 316 94 72 51 
195 974 316 87 61 41 
195 974 317 89 64 42 
196 973 318 85 61 39 
196 973 319 87 64 44 
197 973 318 78 52 33 
197 973 319 80 53 35 
196 974 316 84 56 39 
196 974 317 86 61 42 
196 975 316 86 58 43 
197 974 317 79 54 35 
197 975 316 83 58 41 
197 974 318 77 51 32 
198 973 318 74 48 28 
198 973 319 75 51 30 
199 973 318 75 47 33 
199 973 319 73 47 32 
198 974 317 75 52 35 
198 975 316 90 70 52 
199 974 317 77 52 38 
199 975 316 93 73 55 
199 975 317 81 56 39 
198 974 318 74 47 29 
199 974 318 75 47 35 
200 973 318 77 51 32 
200 973 319 75 48 31 
201 973 318 83 57 34 
201 973 319 84 54 34 
200 974 317 83 60 42 
200 975 316 97 76 56 
200 975 317 89 67 46 
201 974 317 92 70 49 
201 975 316 106 84 60 
201 975 317 101 79 56 
200 974 318 78 53 37 
201 974 318 86 61 39 
202 973 318 84 55 31 
202 973 319 85 49 30 
203 973 318 77 45 27 
203 973 319 83 42 27 
202 974 317 93 70 49 
202 975 316 100 77 54 
203 974 317 83 59 43 
203 975 316 95 71 53 
202 974 318 84 60 35 
203 974 318 80 53 30 
204 975 315 86 61 40 
205 975 315 88 63 45 
206 975 314 81 61 46 
206 975 315 81 58 46 
207 974 315 70 52 45 
207 975 314 77 58 45 
207 975 315 71 52 45 
205 973 317 88 66 46 
204 973 318 79 50 36 
204 973 319 84 48 35 
205 973 318 93 71 52 
205 973 319 98 73 57 
204 974 316 89 66 52 
204 974 317 81 57 42 
204 975 316 91 68 49 
205 974 316 87 63 42 
205 974 317 87 64 41 
205 975 316 86 61 41 
206 973 317 86 65 52 
207 973 317 71 51 42 
206 972 319 101 84 70 
206 973 318 93 75 60 
206 973 319 105 87 73 
207 972 318 71 50 35 
207 972 319 80 59 45 
207 973 318 75 55 42 
206 974 316 78 54 40 
206 974 317 83 59 46 
207 974 316 70 52 42 
207 974 317 75 54 44 
201 991 303 114 80 61 
202 991 302 115 89 68 
202 991 303 118 89 68 
203 991 302 115 89 68 
203 991 303 117 88 67 
207 987 303 97 68 48 
205 989 303 81 55 41 
204 991 301 124 99 79 
205 991 301 120 96 73 
204 990 303 99 71 50 
204 991 302 111 85 67 
204 991 303 109 80 61 
205 990 302 103 80 61 
205 990 303 89 62 42 
205 991 302 110 87 67 
206 988 303 95 68 52 
206 989 302 94 68 51 
206 989 303 90 63 46 
207 988 303 98 70 52 
207 989 302 95 69 50 
206 991 301 110 85 61 
207 990 301 96 70 55 
207 991 301 109 85 62 
206 990 302 103 79 62 
207 990 302 98 73 58 
193 983 311 118 86 63 
194 983 311 128 99 70 
195 983 311 140 110 83 
196 983 311 130 96 66 
197 983 311 116 78 48 
198 982 311 113 74 56 
198 983 311 112 76 55 
199 982 311 119 84 65 
199 983 311 121 88 65 
193 976 314 111 88 69 
193 976 315 105 84 65 
193 977 314 115 89 66 
193 979 313 117 85 57 
193 978 314 119 87 63 
194 976 315 114 92 72 
194 977 314 112 83 58 
195 976 315 102 79 55 
195 977 314 106 78 52 
194 979 313 109 78 49 
195 979 313 112 87 62 
194 978 314 108 73 47 
195 978 314 103 72 45 
195 979 314 109 82 54 
193 980 313 115 82 51 
193 981 312 115 83 55 
193 982 312 116 85 62 
193 983 312 118 88 64 
194 980 313 113 85 59 
194 981 312 115 89 65 
195 980 313 113 86 61 
195 981 312 116 88 59 
194 982 312 118 89 62 
194 983 312 123 93 64 
195 982 312 128 100 72 
195 983 312 137 109 82 
196 976 315 92 68 48 
196 977 314 103 79 53 
196 977 315 102 79 55 
197 976 315 90 66 48 
197 977 314 103 79 54 
197 977 315 101 78 57 
196 979 313 116 90 65 
197 979 313 128 103 77 
196 978 314 108 83 57 
196 979 314 114 90 66 
197 978 314 112 88 63 
197 979 314 119 95 68 
198 976 315 97 75 51 
198 977 314 109 87 65 
198 977 315 101 79 56 
199 976 315 107 84 61 
199 977 314 116 92 68 
199 977 315 112 88 64 
198 979 313 134 109 81 
199 979 313 124 95 64 
198 978 314 120 97 75 
198 979 314 130 106 80 
199 978 314 120 95 69 
199 979 314 126 100 71 
198 976 316 98 77 57 
199 976 316 105 84 65 
196 980 313 118 91 62 
196 981 312 135 106 77 
197 980 312 138 109 79 
197 980 313 136 109 82 
197 981 312 137 106 76 
196 982 312 141 111 82 
196 983 312 137 105 75 
197 982 312 128 93 62 
198 980 312 126 93 59 
198 980 313 132 104 73 
198 981 312 120 82 51 
199 980 312 119 81 55 
199 980 313 120 85 52 
199 981 312 119 80 61 
198 982 312 115 75 49 
199 982 312 120 83 66 
193 984 310 125 95 66 
193 984 311 120 89 63 
193 985 310 134 104 78 
193 986 309 134 102 75 
193 987 309 129 96 69 
193 986 310 136 106 80 
194 984 311 134 103 75 
194 985 310 134 102 75 
194 985 311 136 104 75 
195 984 311 138 107 78 
195 985 310 126 89 62 
195 985 311 133 100 70 
194 986 309 129 95 69 
194 987 309 120 84 57 
195 987 309 114 80 53 
194 986 310 126 91 66 
195 986 310 118 80 55 
195 987 310 115 79 55 
193 989 307 121 93 71 
193 990 307 121 93 72 
193 991 306 114 84 61 
193 991 307 117 87 65 
194 990 307 119 89 67 
194 991 306 118 87 64 
194 991 307 119 87 65 
195 990 307 121 89 66 
195 991 306 151 122 94 
195 991 307 135 105 78 
193 988 308 121 91 60 
193 989 308 118 89 62 
194 988 308 114 82 52 
194 988 309 115 82 50 
194 989 308 115 86 61 
195 988 309 115 83 54 
195 989 308 116 84 58 
195 989 309 116 84 54 
195 990 308 122 89 66 
196 984 311 124 89 61 
196 985 310 115 80 54 
196 985 311 115 80 54 
197 984 311 109 74 46 
197 985 311 111 79 53 
196 987 309 115 82 56 
196 986 310 116 82 57 
196 987 310 117 84 60 
197 986 310 117 85 61 
197 986 311 117 84 61 
197 987 310 121 88 64 
198 984 311 112 80 56 
198 985 311 119 85 60 
199 984 311 128 97 71 
199 985 311 138 106 78 
198 986 310 121 88 64 
198 986 311 124 91 63 
198 987 310 131 99 70 
199 986 311 146 114 79 
199 987 310 165 133 99 
199 987 311 162 130 96 
196 991 307 163 133 102 
197 991 307 167 131 95 
198 991 307 166 128 92 
199 991 306 185 151 116 
199 991 307 180 144 109 
196 988 309 117 85 58 
196 989 308 122 88 61 
196 989 309 124 91 62 
197 988 309 123 90 64 
197 989 309 146 114 85 
196 988 310 119 86 62 
197 988 310 127 94 68 
196 990 308 142 111 81 
197 990 308 168 136 103 
198 989 309 164 132 101 
199 989 309 162 123 88 
198 988 310 145 113 84 
199 988 310 171 137 105 
199 989 310 168 131 97 
198 990 308 168 131 96 
198 990 309 171 137 105 
198 991 308 166 129 91 
199 990 308 165 126 88 
199 990 309 159 119 82 
199 991 308 170 132 95 
200 982 311 128 95 67 
200 983 311 134 102 72 
201 982 311 152 116 86 
201 983 311 153 119 88 
202 982 311 135 100 76 
202 983 311 132 98 73 
203 982 311 121 92 65 
203 983 311 135 105 76 
206 979 311 115 87 63 
207 978 311 113 87 63 
207 979 310 150 125 100 
207 979 311 133 108 82 
207 983 307 135 96 70 
204 981 311 114 86 55 
205 980 311 115 85 60 
205 981 310 164 134 105 
205 981 311 137 108 80 
205 983 309 176 143 113 
204 982 311 131 101 68 
204 983 310 160 128 98 
204 983 311 150 120 91 
205 982 310 167 136 106 
205 982 311 144 114 83 
205 983 310 170 138 107 
207 981 309 167 133 102 
206 980 310 164 135 106 
206 980 311 142 115 90 
206 981 310 170 139 108 
207 980 310 163 135 108 
207 981 310 173 142 112 
206 982 309 171 138 106 
206 983 308 162 126 97 
206 983 309 166 132 100 
207 982 308 161 126 97 
207 982 309 163 128 96 
207 983 308 155 120 92 
206 982 310 176 144 114 
200 976 315 112 88 64 
200 977 314 117 90 59 
200 977 315 115 90 63 
201 976 315 118 94 72 
201 977 314 128 103 77 
201 977 315 123 99 74 
200 979 313 121 89 60 
201 979 313 144 113 83 
200 978 314 121 93 62 
201 978 314 135 108 82 
202 976 315 111 88 64 
202 977 314 135 111 87 
202 977 315 126 102 78 
203 976 315 111 89 68 
203 977 314 125 102 78 
202 978 313 148 123 97 
202 979 313 155 126 97 
203 978 313 125 98 69 
203 979 313 124 96 65 
202 978 314 148 122 97 
203 978 314 126 101 73 
200 976 316 107 84 62 
201 976 316 112 89 67 
202 976 316 109 85 61 
200 980 312 125 88 67 
200 980 313 123 86 63 
200 981 312 127 93 69 
201 980 312 149 115 83 
201 980 313 148 115 84 
201 981 312 148 114 81 
200 982 312 126 93 66 
201 982 312 150 116 84 
202 980 312 152 121 90 
202 980 313 154 124 92 
202 981 312 147 114 84 
203 980 312 120 92 62 
203 981 312 119 90 65 
202 982 312 139 103 77 
205 977 313 94 70 53 
204 976 314 101 78 52 
204 976 315 101 77 52 
204 977 314 106 81 54 
205 976 314 90 68 49 
205 976 315 92 67 46 
205 977 314 93 69 49 
204 978 313 113 86 63 
204 979 312 113 85 60 
204 979 313 115 87 65 
205 978 312 103 77 56 
205 978 313 104 77 58 
205 979 312 107 77 54 
206 976 313 93 74 58 
206 977 312 97 74 56 
206 977 313 96 74 57 
207 976 313 90 71 55 
207 977 312 102 79 62 
206 976 314 85 65 49 
206 978 312 106 81 62 
206 979 312 109 80 57 
207 978 312 107 83 64 
204 980 312 112 84 59 
204 981 312 113 86 60 
205 980 312 109 78 55 
200 984 311 147 117 84 
200 985 311 161 129 96 
201 984 311 153 119 87 
201 985 311 152 117 83 
200 986 311 168 135 100 
200 987 310 166 129 93 
200 987 311 169 133 97 
201 986 311 153 117 82 
201 987 310 157 119 87 
201 987 311 157 118 82 
202 984 311 136 103 74 
202 985 310 155 122 89 
202 985 311 146 113 82 
203 984 310 155 123 93 
203 984 311 143 112 85 
203 985 310 165 131 98 
203 987 309 176 139 103 
202 986 310 166 132 98 
202 986 311 155 122 87 
202 987 310 173 138 104 
203 986 310 174 140 106 
203 987 310 180 145 109 
200 991 305 146 107 73 
201 991 304 110 67 44 
201 991 305 127 85 57 
200 991 306 168 131 97 
200 991 307 184 149 117 
201 990 307 164 129 96 
201 991 306 141 103 73 
201 991 307 155 118 87 
203 989 306 115 71 53 
203 989 307 119 72 52 
202 990 305 121 83 60 
202 991 304 116 79 57 
202 991 305 116 75 49 
203 990 304 116 84 62 
203 990 305 118 83 62 
203 991 304 119 88 64 
202 990 306 119 78 54 
202 990 307 128 87 58 
202 991 306 124 83 55 
203 990 306 116 77 57 
203 990 307 114 69 51 
200 989 309 159 118 83 
201 989 309 180 145 111 
200 988 310 161 121 86 
200 989 310 157 115 79 
201 988 310 164 126 93 
201 989 310 168 132 97 
200 990 308 181 145 112 
200 990 309 167 129 93 
201 990 308 173 136 102 
201 990 309 181 145 112 
202 988 309 183 146 111 
202 989 308 148 107 69 
202 989 309 174 136 99 
203 988 308 141 98 69 
203 988 309 168 131 95 
203 989 308 137 93 62 
203 989 309 155 116 74 
202 988 310 182 146 112 
202 990 308 142 102 64 
205 986 307 143 102 81 
205 987 306 108 70 54 
205 987 307 132 92 72 
207 984 305 98 66 45 
207 985 305 97 66 47 
206 984 307 140 104 75 
206 985 306 118 83 63 
206 985 307 133 95 69 
207 984 306 107 69 50 
207 984 307 128 88 62 
207 985 306 108 75 56 
206 986 305 109 82 63 
206 987 304 97 66 52 
206 987 305 98 70 52 
207 986 304 103 74 56 
207 986 305 105 77 57 
207 987 304 97 66 48 
206 986 306 116 80 63 
206 986 307 130 87 68 
206 987 306 103 69 56 
204 985 309 181 148 115 
205 984 308 165 129 98 
205 984 309 174 140 108 
205 985 308 152 114 78 
205 985 309 172 137 103 
204 984 310 170 137 106 
204 985 310 177 145 114 
205 984 310 177 145 116 
204 986 309 171 135 100 
204 987 308 142 97 70 
204 987 309 165 126 91 
205 986 308 147 108 77 
205 987 308 135 92 71 
206 984 308 157 121 91 
206 985 308 148 112 76 
207 984 308 151 114 84 
204 989 304 99 65 43 
204 989 305 109 74 52 
205 988 305 86 54 37 
205 989 304 82 53 39 
205 989 305 93 62 42 
204 988 306 111 72 52 
204 988 307 123 81 60 
204 989 306 112 73 50 
204 989 307 113 72 49 
205 988 306 106 71 52 
205 988 307 122 85 68 
204 990 304 105 71 51 
204 990 305 112 77 56 
206 988 304 88 60 47 
206 988 305 85 56 42 
204 988 308 135 90 63 
215 973 299 102 78 59 
214 975 299 106 78 54 
215 974 298 111 86 62 
215 974 299 105 81 57 
215 975 298 109 82 58 
215 975 299 107 80 55 
212 975 301 120 93 63 
213 974 301 115 89 61 
213 975 301 115 88 59 
212 975 302 127 101 75 
212 975 303 136 112 89 
213 974 302 121 96 71 
213 974 303 117 91 66 
213 975 302 122 96 69 
214 973 301 101 72 45 
215 972 301 101 76 55 
215 973 300 99 73 52 
215 973 301 95 68 43 
214 973 302 106 79 53 
214 973 303 110 85 62 
215 972 302 105 80 60 
215 972 303 107 85 67 
215 973 302 102 75 51 
214 974 301 108 82 55 
214 975 300 109 83 59 
215 974 300 105 79 56 
214 974 302 111 86 59 
223 967 291 77 56 46 
223 967 292 83 60 47 
223 967 293 91 65 47 
223 967 294 98 72 58 
223 967 295 94 69 56 
223 967 296 86 61 48 
223 967 297 82 56 46 
223 967 298 80 56 44 
223 967 299 79 57 43 
223 967 300 82 60 47 
223 967 301 84 61 45 
222 967 303 90 68 54 
223 967 302 87 62 46 
223 967 303 91 68 53 
219 971 294 84 64 44 
219 971 295 86 67 46 
219 972 293 102 79 57 
219 973 292 112 88 61 
219 973 293 108 82 56 
218 973 294 107 78 56 
218 973 295 105 80 57 
219 972 294 97 74 51 
219 972 295 93 71 48 
219 973 294 107 80 57 
219 973 295 99 75 51 
219 974 292 115 87 58 
219 974 293 111 81 55 
219 975 293 119 92 69 
218 974 294 110 78 54 
218 974 295 112 83 61 
218 975 294 113 85 63 
218 975 295 114 84 61 
219 974 294 107 74 48 
219 975 294 114 86 62 
221 969 290 75 58 49 
221 969 291 74 56 46 
220 971 291 80 60 45 
221 970 290 79 62 51 
221 970 291 76 58 48 
221 971 290 84 62 46 
221 971 291 77 58 44 
222 969 289 78 63 54 
223 968 289 63 46 35 
223 969 289 70 54 44 
222 968 290 60 44 37 
222 968 291 70 49 39 
222 969 290 69 54 45 
222 969 291 69 51 42 
223 968 290 68 48 41 
223 968 291 72 50 43 
222 970 289 86 69 58 
222 971 289 97 76 59 
223 970 288 95 78 64 
223 970 289 92 75 63 
223 971 288 108 88 72 
222 970 290 83 65 54 
221 969 292 74 52 42 
221 969 293 77 53 43 
221 969 294 78 56 44 
221 969 295 79 59 44 
220 970 292 73 55 44 
220 970 293 72 53 40 
220 971 292 77 58 43 
220 971 293 80 61 44 
221 970 292 74 56 47 
221 970 293 76 57 47 
220 970 294 75 56 39 
220 970 295 79 61 44 
220 971 294 81 62 43 
220 971 295 84 66 47 
221 970 294 75 56 43 
221 970 295 79 62 46 
222 968 292 76 51 38 
222 968 293 84 58 43 
223 968 292 82 57 45 
222 968 294 86 60 47 
222 968 295 86 60 47 
222 969 295 80 58 44 
223 968 294 90 63 50 
223 968 295 89 63 50 
221 972 289 95 71 46 
221 973 289 113 91 71 
220 972 291 102 81 62 
220 973 291 118 95 71 
221 972 290 97 75 54 
221 973 290 117 95 75 
220 974 291 123 97 69 
220 975 291 130 103 75 
221 974 290 122 99 75 
221 975 290 132 106 79 
221 975 291 136 109 82 
222 972 288 107 82 59 
222 972 289 101 75 51 
222 973 288 107 81 53 
222 973 289 112 88 65 
223 972 288 114 90 67 
223 973 288 113 88 60 
222 974 289 124 101 78 
222 975 289 129 103 75 
223 974 288 120 96 70 
223 974 289 126 103 79 
223 975 288 128 104 77 
223 975 289 129 103 76 
222 975 290 129 103 75 
220 972 292 103 83 63 
220 972 293 93 73 53 
220 973 292 114 90 65 
220 974 292 118 91 62 
220 975 292 125 98 71 
218 971 297 89 67 45 
219 971 296 90 71 50 
219 971 297 85 64 43 
218 971 298 85 63 42 
218 971 299 85 63 43 
219 970 298 82 60 39 
219 970 299 83 60 41 
219 971 298 82 60 39 
219 971 299 83 61 39 
217 971 300 93 73 56 
217 971 301 89 68 51 
216 971 303 87 67 51 
217 971 302 82 62 42 
217 971 303 79 58 39 
219 969 303 87 68 53 
218 970 301 85 63 47 
218 971 300 85 62 42 
218 971 301 83 61 42 
219 970 300 85 63 47 
219 970 301 85 65 50 
218 970 302 84 63 46 
218 970 303 82 61 44 
218 971 302 80 58 39 
218 971 303 77 55 37 
219 970 302 84 65 51 
219 970 303 86 67 53 
217 973 297 108 86 64 
216 972 299 91 66 46 
216 973 298 103 80 57 
216 973 299 99 74 55 
217 972 298 89 66 44 
217 972 299 90 66 47 
217 973 298 99 76 53 
217 973 299 91 66 45 
216 974 297 119 95 73 
216 975 297 117 90 65 
217 974 296 114 88 63 
217 974 297 118 93 71 
217 975 296 113 83 57 
217 975 297 116 87 61 
216 974 298 114 91 68 
216 975 298 116 90 66 
218 972 296 98 75 53 
218 972 297 92 70 47 
218 973 296 104 80 57 
218 973 297 99 76 53 
219 972 296 92 71 50 
218 972 298 90 68 46 
218 972 299 90 67 48 
218 974 296 112 85 61 
218 975 296 114 84 60 
216 972 300 92 67 49 
216 972 301 97 74 55 
216 973 300 93 67 47 
217 972 300 93 71 54 
217 972 301 95 74 59 
216 972 302 99 78 58 
216 972 303 98 77 61 
221 969 296 78 59 41 
221 969 297 80 62 47 
221 969 298 81 61 46 
221 969 299 80 58 43 
220 970 296 82 64 47 
220 970 297 84 65 47 
220 971 296 84 66 47 
221 970 296 79 61 46 
221 970 297 82 64 50 
220 970 298 82 61 44 
220 970 299 81 58 42 
222 968 296 81 56 43 
222 968 297 77 53 38 
222 969 296 79 58 42 
222 969 297 78 58 42 
223 968 296 84 58 46 
223 968 297 79 55 43 
222 968 298 75 54 38 
222 968 299 73 54 35 
222 969 298 77 57 42 
222 969 299 77 56 38 
223 968 298 76 53 38 
223 968 299 79 58 44 
220 969 300 81 59 43 
220 969 301 81 59 42 
221 969 300 80 58 42 
221 969 301 79 57 39 
220 969 302 79 58 41 
220 969 303 80 59 44 
221 968 302 78 53 39 
221 968 303 78 54 40 
221 969 302 77 53 36 
221 969 303 74 52 36 
220 970 300 83 59 44 
220 970 301 83 60 45 
222 968 300 76 55 36 
222 968 301 81 57 40 
222 969 300 78 57 38 
223 968 300 79 58 43 
222 968 302 84 61 46 
222 968 303 86 62 49 
211 975 309 138 119 103 
210 975 311 103 83 63 
211 974 311 82 65 49 
211 975 310 115 97 78 
211 975 311 94 76 58 
215 971 305 80 63 50 
215 971 306 81 64 50 
215 971 307 84 67 59 
215 969 311 80 52 40 
214 971 309 68 42 43 
215 970 309 83 63 54 
215 971 308 82 63 56 
215 971 309 78 55 50 
214 970 311 68 45 36 
214 971 310 69 46 44 
214 971 311 71 53 47 
215 970 310 75 52 42 
215 970 311 73 46 36 
213 973 304 118 94 74 
213 973 305 123 101 82 
213 973 306 122 102 83 
213 973 307 122 103 85 
212 975 304 135 111 89 
212 975 305 127 102 76 
213 974 304 113 85 57 
213 974 305 117 90 66 
213 975 305 120 92 67 
212 975 306 124 99 74 
212 975 307 125 100 78 
213 974 306 120 95 72 
213 974 307 124 101 81 
213 975 306 120 94 71 
214 972 304 116 98 81 
214 972 305 116 99 84 
214 973 304 115 93 72 
214 973 305 124 105 89 
215 972 304 102 83 68 
215 972 305 98 82 68 
214 972 306 100 86 70 
214 972 307 85 70 55 
214 973 306 119 102 86 
214 973 307 109 94 79 
215 972 306 87 73 59 
215 972 307 79 65 53 
213 972 309 62 46 36 
213 973 308 105 88 73 
213 973 309 85 69 52 
212 973 310 80 64 53 
212 973 311 79 63 53 
213 972 310 67 49 44 
213 972 311 69 52 43 
213 973 310 75 59 46 
213 973 311 71 54 41 
212 974 308 136 117 100 
212 974 309 122 105 90 
212 975 308 129 107 85 
212 975 309 135 115 98 
213 974 308 129 109 92 
213 974 309 122 105 90 
212 974 310 92 74 59 
212 974 311 79 61 48 
212 975 310 120 103 87 
214 972 308 70 53 43 
214 972 309 64 43 43 
214 972 310 67 46 47 
208 971 319 60 39 32 
209 970 319 84 69 57 
209 971 318 77 62 52 
209 971 319 71 54 45 
210 971 317 87 74 64 
211 971 316 78 61 51 
211 971 317 80 65 54 
210 970 318 85 70 59 
210 970 319 87 71 60 
210 971 318 87 73 63 
211 970 318 83 64 51 
211 970 319 83 64 52 
211 971 318 81 65 53 
209 973 315 82 64 52 
208 975 313 89 69 54 
209 974 313 95 78 64 
209 975 312 104 85 68 
209 975 313 100 81 66 
208 974 314 80 64 51 
208 974 315 70 54 44 
208 975 314 81 63 50 
209 974 314 88 71 58 
209 974 315 79 62 51 
209 975 314 93 77 63 
211 973 313 83 68 56 
210 973 314 86 70 59 
210 973 315 86 69 59 
211 972 314 77 63 52 
211 972 315 78 62 52 
211 973 314 82 68 56 
211 973 315 82 67 57 
210 974 313 98 83 70 
210 975 312 102 85 70 
210 975 313 102 86 72 
211 974 312 83 68 54 
211 974 313 86 72 60 
211 975 312 91 75 60 
210 974 314 91 75 64 
211 974 314 85 70 60 
208 972 317 53 36 31 
208 973 316 63 48 36 
208 973 317 56 39 32 
209 972 317 76 59 50 
209 973 316 78 60 48 
209 973 317 64 45 37 
208 972 318 57 37 30 
208 972 319 59 37 28 
209 972 318 65 49 42 
208 974 316 66 50 39 
210 972 316 86 71 61 
210 972 317 90 76 67 
210 973 316 86 70 59 
211 972 316 79 64 55 
213 971 312 76 60 51 
213 971 313 79 64 56 
212 971 315 75 54 44 
213 970 314 83 67 58 
213 970 315 83 66 56 
213 971 314 77 57 49 
213 971 315 76 55 45 
215 969 312 77 44 35 
215 969 313 80 49 40 
214 969 314 79 59 49 
214 969 315 86 69 57 
215 969 314 85 57 48 
214 970 312 69 48 41 
214 970 313 74 55 49 
214 971 312 75 58 51 
215 970 312 70 38 32 
214 970 314 80 64 55 
214 970 315 85 68 57 
213 969 316 91 74 63 
213 969 317 102 84 69 
212 970 316 83 62 50 
212 970 317 87 67 53 
212 971 316 77 57 46 
212 971 317 81 62 51 
213 970 316 87 68 58 
213 970 317 91 70 54 
212 970 318 89 70 55 
214 969 316 91 74 61 
212 972 313 75 54 42 
212 973 312 79 61 51 
212 973 313 80 64 53 
213 972 312 72 53 41 
213 972 313 74 52 41 
213 973 312 72 51 40 
212 972 314 75 56 47 
212 972 315 73 56 46 
212 973 314 78 63 52 
213 972 314 73 50 42 
212 974 312 80 63 52 
222 967 304 86 63 51 
222 967 305 79 55 45 
223 967 304 90 68 55 
223 967 305 83 60 51 
217 969 307 95 76 61 
216 971 304 81 62 48 
216 971 305 79 58 46 
217 970 305 85 62 53 
217 971 304 78 56 44 
217 971 305 82 60 49 
216 970 307 86 65 52 
216 971 306 80 59 47 
216 971 307 84 65 55 
217 970 306 87 66 54 
217 970 307 92 71 57 
218 969 305 86 63 53 
219 969 304 88 68 53 
219 969 305 87 66 50 
218 969 306 88 68 56 
218 969 307 94 75 61 
219 968 307 100 80 68 
219 969 306 90 69 56 
219 969 307 96 76 64 
218 970 304 82 58 43 
218 970 305 85 61 50 
219 970 304 85 64 48 
218 970 306 86 65 55 
216 969 309 96 79 65 
217 969 308 93 73 58 
217 969 309 94 75 58 
216 969 310 93 74 61 
216 969 311 91 69 56 
217 968 310 97 78 62 
217 968 311 102 83 69 
217 969 310 98 81 65 
217 969 311 102 84 71 
216 970 308 90 71 59 
216 970 309 91 74 61 
216 971 308 88 69 60 
217 970 308 93 74 59 
217 970 309 91 73 57 
216 970 310 90 72 59 
218 968 309 89 67 53 
218 969 308 93 73 59 
218 969 309 91 70 54 
219 968 308 98 79 65 
219 968 309 93 72 59 
219 969 308 98 78 66 
218 968 310 91 69 55 
218 968 311 95 76 63 
219 968 310 89 66 54 
220 969 304 84 65 49 
220 969 305 91 73 56 
221 968 304 74 52 38 
221 968 305 82 63 48 
221 969 304 75 55 39 
220 968 306 97 79 61 
220 968 307 99 80 64 
220 969 306 95 76 60 
221 968 306 94 75 59 
221 968 307 100 82 65 
222 968 304 81 58 46 
222 968 305 77 54 43 
220 968 308 101 83 68 
220 968 309 98 78 65 
221 968 308 101 82 64 
216 969 312 92 66 53 
211 976 301 130 104 79 
211 977 301 123 94 68 
211 976 302 129 101 76 
211 976 303 133 102 77 
211 977 302 123 92 65 
211 977 303 123 88 58 
211 978 301 121 92 66 
211 979 301 122 92 67 
210 979 303 125 97 69 
211 978 302 121 92 66 
211 978 303 128 100 75 
211 979 302 122 93 67 
211 979 303 127 101 75 
209 982 303 111 81 62 
209 983 303 109 76 57 
211 980 301 121 94 70 
211 981 301 120 93 71 
210 980 302 117 86 60 
210 980 303 115 84 56 
210 981 302 113 84 60 
210 981 303 114 85 63 
211 980 302 118 89 63 
211 981 302 116 88 64 
211 982 301 116 87 67 
211 983 301 103 69 48 
210 982 302 110 80 57 
210 982 303 111 82 61 
210 983 302 104 72 51 
210 983 303 105 72 54 
214 976 299 109 81 58 
214 977 299 114 88 64 
215 976 298 105 75 47 
215 976 299 104 74 50 
215 977 298 108 80 57 
215 977 299 108 82 59 
214 978 299 117 90 62 
214 979 299 123 97 69 
215 978 298 109 81 57 
215 978 299 109 82 57 
215 979 298 112 85 59 
215 979 299 115 88 61 
212 976 300 123 96 70 
212 976 301 126 99 74 
212 977 300 121 95 69 
212 977 301 123 95 69 
213 976 300 117 90 64 
213 976 301 119 93 66 
213 977 300 120 94 68 
212 976 302 129 102 75 
212 976 303 138 112 88 
212 978 300 125 98 73 
212 979 300 125 97 71 
212 979 301 125 96 71 
213 978 300 128 102 78 
213 979 300 129 101 75 
214 976 300 111 83 59 
214 980 299 125 98 72 
214 981 299 127 100 74 
215 980 299 122 96 69 
215 981 299 130 105 79 
215 982 299 132 106 80 
212 980 300 124 95 69 
212 980 301 127 100 77 
212 981 300 126 99 79 
212 981 301 126 99 80 
213 980 300 121 90 60 
213 981 300 118 88 61 
212 982 300 121 92 72 
212 982 301 119 89 69 
212 983 300 114 84 61 
212 983 301 107 74 49 
213 982 300 119 90 66 
213 983 300 116 88 64 
214 980 300 124 95 68 
214 981 300 119 89 61 
214 982 300 119 89 61 
214 983 300 119 88 60 
215 982 300 127 100 73 
215 983 300 126 99 72 
208 985 303 97 70 51 
209 984 302 104 77 56 
209 984 303 100 72 52 
209 985 302 101 74 53 
209 985 303 95 68 49 
208 986 303 96 68 50 
208 987 302 95 66 42 
208 987 303 97 70 47 
209 986 302 106 78 55 
209 986 303 95 66 45 
209 987 302 103 74 50 
210 985 301 112 87 66 
211 984 301 104 74 53 
211 985 301 109 82 58 
210 984 302 105 76 56 
210 985 302 110 84 63 
210 986 301 113 87 65 
210 987 301 110 82 62 
211 986 301 112 86 63 
211 987 301 112 82 61 
210 986 302 112 86 63 
209 988 301 100 73 55 
209 989 301 91 63 46 
208 988 302 95 67 45 
208 989 302 96 71 54 
209 988 302 99 73 54 
209 989 302 96 70 54 
208 990 301 93 67 48 
208 991 300 137 112 89 
208 991 301 114 90 64 
209 990 301 102 76 52 
209 991 300 143 117 93 
209 991 301 128 104 81 
208 990 302 94 69 52 
210 988 301 99 69 51 
210 989 301 104 75 52 
211 988 301 106 76 56 
211 989 301 123 97 72 
210 990 301 127 102 76 
210 991 300 143 114 88 
211 990 300 146 120 92 
211 990 301 136 111 84 
211 991 300 147 116 87 
212 984 301 112 83 57 
212 985 301 115 87 60 
213 984 300 121 96 73 
213 985 300 129 103 81 
213 985 301 126 100 77 
212 986 301 117 89 62 
212 987 301 116 87 60 
213 986 300 132 106 82 
213 986 301 130 103 77 
213 987 301 130 103 75 
214 984 300 118 90 62 
214 985 300 124 97 70 
215 984 300 127 100 76 
215 985 300 127 100 75 
214 986 300 131 104 76 
214 987 300 134 107 79 
215 986 300 125 97 70 
215 987 300 125 97 69 
212 991 299 142 109 77 
213 991 298 146 116 88 
213 991 299 144 113 84 
215 989 299 141 110 80 
214 991 297 145 113 80 
215 991 296 155 126 97 
215 991 297 153 123 92 
214 990 299 147 117 89 
214 991 298 145 114 83 
214 991 299 144 114 85 
215 990 298 152 121 92 
215 990 299 147 117 88 
215 991 298 151 120 90 
212 988 301 118 90 66 
212 989 300 142 115 86 
212 989 301 129 103 78 
213 988 300 137 110 83 
213 988 301 132 106 78 
213 989 300 142 114 87 
213 989 301 135 107 80 
212 990 300 150 123 95 
212 991 300 147 116 86 
213 990 300 148 119 90 
214 988 300 135 107 79 
214 989 300 140 110 82 
215 988 300 129 99 69 
215 989 300 139 109 80 
214 990 300 146 116 89 
219 976 293 116 89 66 
219 977 293 106 80 54 
218 976 294 110 83 59 
218 976 295 108 79 55 
218 977 295 107 83 60 
219 976 294 107 81 57 
219 977 294 108 85 62 
219 977 295 109 88 66 
218 978 295 114 93 74 
219 978 294 122 101 82 
219 978 295 120 99 79 
219 979 294 129 107 87 
219 979 295 128 105 83 
219 980 295 133 111 89 
220 976 291 137 110 84 
221 976 290 138 111 82 
221 976 291 139 112 85 
221 977 291 135 108 81 
222 976 289 131 102 71 
223 976 289 128 100 70 
222 976 290 140 112 82 
222 976 291 144 117 89 
222 977 290 146 120 92 
222 977 291 140 112 85 
223 976 290 135 106 75 
223 977 290 145 118 92 
223 977 291 142 117 90 
222 978 291 133 106 80 
223 978 290 147 121 97 
223 978 291 139 112 88 
223 979 291 125 94 73 
220 976 292 127 100 75 
220 976 293 118 90 64 
220 977 292 124 96 72 
220 977 293 116 90 65 
221 977 292 129 102 78 
220 978 293 129 107 86 
220 979 293 130 108 88 
221 978 292 131 105 81 
221 978 293 132 108 87 
221 979 293 127 102 80 
220 978 294 128 107 88 
220 979 294 129 107 85 
222 978 292 129 103 78 
222 979 292 120 91 69 
222 979 293 119 92 70 
223 979 292 117 87 67 
223 983 291 124 101 78 
220 980 294 132 110 89 
220 980 295 136 113 91 
220 981 295 137 114 92 
221 980 294 129 105 82 
221 981 294 135 113 93 
221 981 295 137 113 92 
221 982 295 137 112 91 
222 980 293 123 101 82 
222 981 293 135 116 98 
223 980 292 118 93 74 
223 980 293 129 109 91 
223 981 292 132 111 92 
223 981 293 134 113 94 
222 980 294 130 110 90 
222 981 294 138 115 94 
223 982 293 127 98 76 
223 983 292 121 96 73 
223 983 293 121 93 74 
222 982 294 132 105 83 
222 982 295 135 108 88 
222 983 294 125 99 76 
222 983 295 132 107 86 
223 982 294 129 101 77 
223 983 294 124 97 75 
216 976 297 106 75 48 
216 977 297 98 68 41 
217 976 296 108 77 52 
217 976 297 105 73 46 
217 977 296 103 74 53 
217 977 297 97 66 40 
216 976 298 108 79 53 
