ply
format ascii 1.0
comment Created by CloudCompare v2.10.1 (Zephyrus)
comment Created 1/31/20 5:40 PM
obj_info Generated by CloudCompare!
element vertex 2013
property float x
property float y
property float z
property uchar red
property uchar green
property uchar blue
end_header
216 132 254 141 111 94 
216 134 252 139 114 98 
218 132 252 134 111 97 
220 129 251 141 113 96 
221 128 251 144 85 61 
221 129 251 139 112 98 
220 130 251 139 114 98 
222 128 251 156 97 63 
220 128 252 147 102 91 
220 129 252 141 112 93 
223 111 263 177 85 15 
222 111 264 181 87 18 
223 110 264 177 82 21 
223 111 264 179 85 17 
215 118 264 186 106 44 
215 119 264 182 103 65 
211 126 263 168 109 95 
211 127 263 167 105 89 
213 122 263 169 104 83 
213 123 263 166 101 73 
214 121 263 173 110 87 
215 120 262 180 109 81 
215 120 263 182 108 81 
215 121 262 174 109 82 
215 121 263 179 112 88 
214 123 261 163 105 80 
215 122 261 192 84 37 
215 123 260 199 81 17 
215 123 261 186 86 39 
214 122 262 168 102 72 
214 122 263 172 108 85 
214 123 262 164 105 78 
214 123 263 169 105 82 
215 122 262 166 99 69 
215 124 259 152 109 91 
215 125 259 154 109 92 
215 127 257 147 101 88 
214 126 259 157 104 88 
214 127 258 153 99 88 
214 127 259 155 100 84 
215 126 258 151 103 88 
215 126 259 156 104 89 
215 127 258 152 101 89 
213 125 261 167 111 96 
212 124 263 168 102 67 
212 125 262 167 111 96 
212 125 263 170 112 93 
213 124 262 161 104 81 
213 124 263 164 105 74 
213 125 262 167 110 93 
213 125 263 169 108 86 
212 127 261 162 98 82 
213 126 260 163 107 90 
213 126 261 164 104 86 
213 127 260 159 98 81 
213 127 261 161 95 76 
212 126 262 168 111 97 
212 126 263 170 113 99 
212 127 262 165 104 89 
212 127 263 167 108 93 
213 126 262 164 104 86 
214 124 261 157 106 89 
214 125 260 160 109 96 
214 125 261 163 108 93 
215 124 260 155 107 90 
215 125 260 160 110 95 
214 124 262 160 106 89 
214 126 260 160 104 87 
214 127 260 156 95 72 
209 127 264 172 109 85 
210 125 264 170 107 95 
211 124 264 167 106 72 
211 125 264 170 110 89 
210 126 264 170 107 94 
210 127 264 170 106 85 
211 126 264 167 107 89 
213 120 264 174 110 87 
213 121 264 176 115 96 
212 122 264 171 110 91 
212 123 264 169 104 77 
213 122 264 173 112 93 
213 123 264 168 100 72 
214 120 264 176 108 81 
214 121 264 176 113 92 
215 120 264 179 106 75 
212 124 264 168 103 66 
212 125 264 168 110 88 
219 115 263 165 93 66 
217 117 263 190 99 43 
216 119 263 186 99 71 
217 118 263 187 98 22 
217 119 262 184 101 71 
217 119 263 188 98 46 
219 117 261 182 102 43 
218 116 263 192 105 29 
218 117 262 187 101 43 
218 117 263 190 103 30 
219 116 262 178 97 65 
219 116 263 187 106 50 
219 117 262 179 96 50 
218 118 261 184 105 69 
218 119 261 183 108 80 
219 118 260 164 113 94 
219 118 261 179 109 65 
219 119 260 166 115 96 
218 118 262 186 101 33 
218 119 262 182 106 78 
223 115 259 184 89 43 
221 112 263 165 85 46 
221 113 262 183 84 18 
221 113 263 177 82 23 
221 115 261 173 83 26 
220 114 263 174 91 36 
220 115 262 177 93 23 
220 115 263 173 98 59 
221 114 262 180 85 18 
221 114 263 176 80 17 
221 115 262 170 83 30 
222 113 261 184 80 16 
223 113 261 187 82 15 
222 112 262 184 84 19 
222 112 263 183 84 18 
222 113 262 183 82 17 
223 112 262 178 83 24 
223 112 263 186 84 19 
223 113 262 187 84 16 
222 114 260 182 84 15 
222 114 261 182 82 16 
222 115 260 180 89 57 
222 115 261 178 85 29 
223 114 260 186 85 17 
223 114 261 185 82 14 
223 115 260 180 93 54 
222 114 262 180 83 18 
221 117 259 173 118 95 
221 119 257 199 115 68 
220 118 259 165 122 109 
220 119 258 149 125 119 
220 119 259 155 122 108 
221 118 258 164 121 115 
221 118 259 165 121 107 
221 119 258 153 125 119 
223 117 257 203 88 65 
222 116 259 181 101 71 
222 117 258 188 111 86 
222 117 259 177 115 92 
223 116 258 181 102 71 
223 116 259 184 95 60 
223 117 258 194 100 75 
222 118 257 209 104 73 
222 119 256 185 106 65 
222 119 257 200 110 71 
223 118 257 205 95 75 
223 119 256 187 102 73 
223 119 257 205 101 74 
222 118 258 178 122 112 
220 116 261 176 97 68 
220 117 260 146 91 67 
220 117 261 158 83 52 
221 116 260 172 97 73 
221 116 261 167 92 77 
221 117 260 161 95 63 
220 116 262 178 99 71 
220 118 260 161 111 92 
220 118 261 163 105 74 
220 119 260 163 118 105 
222 116 260 178 94 69 
219 113 264 189 117 76 
218 115 264 179 105 63 
219 114 264 180 101 46 
219 115 264 169 97 63 
216 117 264 192 94 41 
217 116 264 182 101 60 
217 117 264 185 100 50 
216 118 264 191 95 30 
216 119 264 188 97 58 
218 116 264 188 107 54 
219 116 264 184 107 58 
220 113 264 182 95 40 
221 112 264 185 101 53 
221 113 264 181 94 41 
220 114 264 180 97 39 
222 112 264 181 88 17 
216 123 259 190 97 18 
217 122 259 175 107 33 
217 123 258 174 126 36 
217 123 259 180 119 20 
218 120 259 159 119 89 
218 121 259 154 117 98 
219 120 259 149 123 106 
219 121 258 131 115 109 
219 121 259 147 122 107 
219 122 257 163 139 114 
219 123 257 170 145 125 
218 122 258 159 120 60 
218 122 259 157 119 104 
218 123 258 169 135 86 
219 122 258 139 116 99 
219 123 258 172 145 116 
216 120 261 181 109 83 
216 121 260 169 104 70 
216 121 261 174 112 87 
217 120 261 182 109 81 
217 121 260 169 111 83 
217 121 261 176 114 86 
216 120 262 185 107 81 
216 120 263 185 104 78 
217 120 262 180 105 79 
216 122 260 178 95 49 
216 122 261 198 77 15 
216 123 260 194 88 17 
217 122 260 166 109 82 
218 120 260 177 113 82 
218 120 261 182 108 77 
218 121 260 168 116 86 
219 120 260 159 116 95 
217 125 257 141 116 108 
216 124 258 143 111 91 
216 124 259 146 109 90 
216 125 258 145 113 98 
216 125 259 146 110 93 
217 124 258 163 130 83 
217 124 259 146 113 95 
217 125 258 141 115 103 
216 126 257 145 107 93 
216 127 257 146 103 90 
217 126 256 136 103 100 
217 126 257 145 109 100 
217 127 256 141 100 93 
217 127 257 145 104 94 
216 126 258 148 107 90 
218 124 257 143 133 130 
218 125 256 112 121 130 
218 125 257 134 119 117 
219 124 256 143 137 138 
219 124 257 158 147 143 
219 125 256 115 118 126 
219 125 257 112 123 134 
218 124 258 163 146 128 
218 126 256 124 103 105 
218 126 257 139 107 104 
218 127 256 137 100 93 
216 124 260 147 107 87 
220 121 257 139 131 122 
221 120 257 168 117 60 
221 121 256 163 154 145 
221 121 257 157 133 99 
220 120 258 141 127 120 
220 120 259 147 125 111 
220 121 258 134 125 123 
220 122 256 154 147 145 
220 122 257 160 151 143 
220 123 256 161 153 155 
220 123 257 162 151 148 
221 122 256 166 163 166 
221 123 256 166 166 175 
222 120 256 171 130 86 
222 120 257 174 125 62 
222 121 256 160 152 144 
223 120 256 165 135 100 
223 121 256 155 152 149 
220 124 256 128 121 122 
225 109 263 159 74 17 
225 111 261 168 86 30 
224 110 263 185 88 21 
224 111 262 173 85 30 
224 111 263 179 86 21 
225 110 262 175 87 30 
225 110 263 159 78 21 
225 111 262 163 84 27 
226 109 262 173 86 24 
226 109 263 166 83 25 
227 108 263 166 83 40 
227 109 262 172 84 29 
227 109 263 169 81 32 
226 110 261 170 83 19 
226 111 261 179 85 23 
227 110 261 171 83 22 
227 111 260 185 84 18 
227 111 261 182 85 20 
226 110 262 172 85 24 
226 110 263 170 84 25 
227 110 262 148 79 9 
228 107 263 161 87 45 
229 106 263 155 96 55 
229 107 262 166 89 44 
229 107 263 162 90 46 
230 107 261 168 82 44 
231 107 261 168 87 45 
230 106 263 157 98 61 
230 107 262 165 89 46 
230 107 263 161 92 48 
231 106 262 160 91 52 
231 106 263 156 100 61 
231 107 262 166 86 46 
228 111 259 187 86 19 
229 111 259 187 86 23 
231 109 259 209 102 18 
231 111 257 188 83 16 
230 110 259 189 91 28 
230 111 258 190 86 19 
230 111 259 189 87 24 
231 110 258 190 87 26 
231 110 259 200 96 20 
231 111 258 189 86 19 
228 109 261 173 83 29 
229 109 260 180 87 34 
229 109 261 168 83 28 
228 108 262 171 83 37 
228 108 263 165 82 40 
228 109 262 171 83 33 
229 108 262 169 85 39 
229 108 263 165 84 40 
229 109 262 172 86 38 
228 110 260 179 84 25 
228 110 261 178 85 26 
228 111 260 182 85 21 
229 110 260 180 85 28 
230 108 261 173 86 41 
230 109 260 185 89 33 
230 109 261 180 90 38 
231 108 261 173 89 42 
231 109 260 199 91 15 
230 108 262 167 87 42 
230 110 260 185 88 29 
227 107 264 161 91 48 
224 109 264 164 72 23 
225 109 264 170 81 29 
224 110 264 169 77 19 
225 110 264 170 79 23 
226 108 264 170 82 38 
226 109 264 171 82 31 
227 108 264 168 81 40 
229 105 264 154 103 71 
228 106 264 156 96 60 
228 107 264 158 92 50 
229 106 264 156 101 66 
230 105 264 155 107 75 
230 106 264 156 106 73 
232 107 260 172 87 45 
232 109 259 185 89 33 
232 111 257 188 84 18 
232 110 258 189 88 26 
232 111 258 188 85 22 
232 108 260 177 85 31 
225 113 259 192 86 14 
225 115 257 187 85 40 
224 114 259 189 86 17 
224 115 258 187 87 43 
224 115 259 186 87 29 
225 114 259 191 85 24 
225 115 258 192 85 35 
225 115 259 189 87 33 
226 112 259 188 79 12 
226 113 259 191 80 13 
227 112 259 188 84 16 
227 113 258 192 84 13 
227 113 259 190 84 13 
226 115 257 191 87 46 
227 115 257 191 86 31 
226 114 258 193 86 34 
226 115 258 192 86 35 
227 114 258 193 81 16 
227 115 258 190 85 27 
224 112 261 187 87 15 
224 113 260 189 87 15 
224 113 261 187 85 14 
225 112 260 189 86 15 
225 112 261 169 85 30 
225 113 260 191 87 14 
224 112 262 186 86 14 
224 114 260 189 85 17 
226 112 260 189 83 14 
226 112 261 189 86 16 
227 112 260 186 81 15 
224 116 257 201 88 56 
224 117 256 206 101 68 
224 117 257 204 92 64 
225 116 257 204 83 40 
225 117 256 208 96 56 
225 117 257 203 87 41 
224 116 258 195 95 51 
224 118 256 206 97 69 
224 119 256 185 98 72 
225 118 256 210 106 68 
226 116 256 203 96 31 
226 116 257 203 90 15 
226 117 256 201 110 63 
227 116 256 201 95 21 
227 117 256 199 116 86 
226 118 256 211 104 67 
229 113 257 192 84 13 
228 112 258 190 86 13 
228 112 259 188 84 17 
228 113 258 191 85 13 
229 112 258 190 87 13 
229 112 259 188 85 17 
229 113 258 191 85 13 
228 114 257 190 84 15 
228 115 256 191 89 40 
228 115 257 190 88 27 
229 114 257 192 85 25 
229 115 256 192 91 32 
229 115 257 190 92 35 
230 112 257 190 88 13 
230 113 257 191 87 13 
231 112 257 190 87 13 
231 113 256 190 87 18 
231 113 257 190 89 18 
230 112 258 189 86 14 
230 114 256 191 88 23 
230 114 257 191 85 21 
230 115 256 194 93 26 
231 114 256 191 87 19 
231 115 256 206 99 16 
228 116 256 192 92 40 
229 116 256 196 89 19 
232 112 257 188 83 13 
232 113 256 187 86 18 
199 143 259 137 109 98 
197 142 263 122 99 88 
197 143 262 125 102 92 
197 143 263 122 99 89 
198 141 263 124 101 90 
199 140 263 132 104 93 
199 141 262 132 105 94 
199 141 263 128 103 92 
198 143 261 129 106 95 
199 142 261 132 107 96 
199 143 260 135 108 97 
199 143 261 131 107 96 
198 142 262 127 104 93 
198 142 263 124 101 90 
198 143 262 126 103 93 
199 142 262 131 105 95 
196 143 264 115 95 84 
197 142 264 121 98 88 
197 143 264 120 98 87 
198 140 264 125 100 89 
198 141 264 124 100 89 
199 140 264 130 102 90 
203 135 263 158 105 88 
205 135 261 153 104 90 
204 135 262 156 105 90 
204 135 263 158 105 88 
205 134 262 157 102 86 
205 134 263 160 100 84 
205 135 262 155 104 89 
205 135 263 158 104 87 
206 133 263 161 98 81 
207 132 263 164 97 81 
207 133 262 159 99 82 
207 133 263 161 98 82 
206 135 260 153 103 89 
206 135 261 155 102 88 
207 134 261 155 101 86 
207 135 260 152 103 89 
207 135 261 154 102 87 
206 134 262 158 100 85 
206 134 263 160 99 83 
206 135 262 156 102 86 
207 134 262 157 100 85 
207 135 262 156 101 86 
203 135 264 159 105 87 
207 130 264 169 96 79 
207 131 264 168 96 79 
205 133 264 163 98 80 
204 134 264 162 100 82 
204 135 264 161 105 86 
205 134 264 162 99 81 
206 132 264 164 98 78 
206 133 264 163 98 79 
207 132 264 166 97 79 
203 139 259 146 110 99 
201 139 261 144 108 95 
200 139 263 140 104 90 
201 138 263 147 105 90 
201 139 262 144 107 94 
201 139 263 143 106 91 
202 137 263 153 105 89 
203 136 262 155 106 91 
203 136 263 156 105 90 
203 137 262 152 106 92 
203 137 263 154 105 90 
202 139 260 145 109 97 
202 139 261 146 108 95 
203 138 260 148 108 96 
203 138 261 149 107 94 
203 139 260 147 109 97 
203 139 261 148 108 96 
202 138 262 149 106 92 
202 138 263 148 106 91 
202 139 262 147 106 93 
203 138 262 150 106 93 
201 141 259 141 112 101 
200 143 256 145 112 102 
200 143 257 143 112 101 
201 143 256 146 114 103 
201 143 257 144 113 102 
200 143 258 142 112 101 
200 143 259 139 111 99 
201 142 258 143 113 103 
201 142 259 141 112 102 
201 143 258 143 112 102 
201 143 259 141 112 101 
202 141 257 144 115 105 
203 140 257 144 114 103 
203 141 256 144 115 104 
203 141 257 144 114 104 
202 140 259 144 112 100 
202 141 258 143 113 103 
202 141 259 142 112 102 
203 140 258 144 113 103 
203 140 259 145 112 101 
202 142 256 145 115 104 
202 142 257 144 114 103 
203 142 256 145 115 105 
202 142 258 143 113 103 
202 142 259 143 113 102 
200 140 261 141 110 98 
200 141 261 137 109 98 
201 140 260 142 111 100 
201 140 261 143 109 96 
201 141 260 141 112 101 
200 140 262 138 107 95 
200 140 263 137 104 91 
200 141 262 135 107 95 
200 142 260 138 111 99 
200 142 261 136 109 98 
200 143 260 137 109 98 
201 142 260 140 112 101 
202 140 260 143 111 99 
205 137 259 149 107 95 
205 139 256 143 112 102 
205 139 257 145 111 101 
204 138 259 148 109 97 
204 139 258 146 111 100 
204 139 259 147 110 98 
205 138 258 146 110 99 
205 138 259 148 109 98 
205 139 258 146 111 100 
207 137 256 144 109 98 
207 137 257 145 108 97 
206 136 259 150 106 93 
206 137 259 149 107 95 
207 136 259 149 105 92 
207 137 258 146 107 95 
207 137 259 148 106 94 
206 138 256 143 111 101 
206 138 257 145 109 99 
206 139 256 143 112 102 
207 138 256 143 110 99 
207 138 257 145 109 98 
207 139 256 142 112 101 
206 138 258 146 109 98 
206 138 259 148 108 97 
207 138 258 146 108 96 
204 136 261 152 106 92 
204 137 260 150 106 94 
204 137 261 151 106 93 
205 136 260 151 106 93 
205 136 261 152 106 92 
205 137 260 150 107 94 
205 137 261 151 106 93 
204 136 262 155 106 91 
204 137 262 152 106 93 
205 136 262 153 106 92 
204 138 260 149 107 95 
204 138 261 150 107 94 
206 136 260 151 105 92 
207 136 260 150 103 90 
204 140 256 144 114 104 
204 140 257 144 114 104 
204 141 256 144 115 105 
205 140 256 144 114 103 
205 141 256 144 115 105 
204 142 256 144 116 105 
201 137 264 149 104 87 
200 138 264 141 103 88 
200 139 264 138 103 89 
201 138 264 146 104 88 
202 136 264 156 104 87 
202 137 264 152 104 86 
203 136 264 157 104 87 
200 140 264 136 103 90 
193 146 256 133 103 91 
193 146 257 126 100 89 
193 146 258 121 98 88 
193 146 259 117 96 87 
193 147 258 121 97 87 
193 147 259 113 94 84 
194 145 256 139 106 95 
195 145 256 137 106 95 
194 146 256 135 104 93 
194 146 257 128 101 91 
195 146 256 135 105 94 
195 146 257 132 103 92 
194 146 258 124 99 88 
194 146 259 118 97 87 
195 146 258 125 100 90 
195 146 259 123 99 89 
195 147 259 118 97 87 
193 147 260 108 91 82 
193 147 261 106 89 80 
193 147 262 102 87 77 
193 147 263 101 86 76 
195 145 263 113 94 84 
194 147 260 110 92 82 
194 147 261 109 91 82 
195 146 261 115 96 85 
195 147 260 118 97 87 
195 147 261 113 94 84 
194 146 263 106 90 80 
194 147 262 108 91 81 
194 147 263 106 90 80 
195 146 262 112 93 83 
195 146 263 109 91 81 
195 147 262 111 93 83 
193 148 262 100 85 76 
193 148 263 100 85 76 
194 148 261 108 91 81 
195 148 261 111 92 82 
194 148 262 106 89 80 
194 148 263 104 89 79 
195 148 262 111 92 82 
196 145 256 138 107 96 
196 145 257 136 106 95 
197 145 256 140 108 97 
197 145 257 137 107 96 
196 145 258 132 104 93 
197 145 258 134 106 95 
197 145 259 131 105 93 
196 146 257 133 105 94 
196 146 258 129 103 92 
196 146 259 125 101 90 
197 146 259 128 104 92 
198 144 256 142 110 99 
198 144 257 140 110 99 
198 145 256 141 109 98 
198 145 257 140 109 98 
199 144 256 144 111 101 
199 144 257 142 111 100 
198 144 258 137 108 98 
198 144 259 135 107 96 
198 145 258 137 108 97 
198 145 259 134 106 95 
199 144 258 139 110 99 
199 144 259 137 109 98 
196 145 261 123 100 90 
197 144 261 127 104 94 
197 145 260 128 103 92 
197 145 261 126 103 91 
196 144 263 119 97 87 
196 145 262 119 98 88 
196 145 263 116 96 86 
197 144 262 124 102 91 
197 144 263 121 99 88 
197 145 262 124 101 90 
196 146 260 125 101 90 
196 146 261 122 100 90 
196 147 260 121 99 88 
196 147 261 119 97 87 
197 146 260 127 102 91 
196 146 262 115 95 85 
198 144 260 132 106 96 
198 144 261 129 106 95 
198 145 260 130 105 94 
199 144 260 135 108 97 
193 147 264 97 84 75 
194 145 264 105 89 80 
195 144 264 111 93 83 
195 145 264 109 92 82 
194 146 264 105 89 80 
194 147 264 103 88 78 
196 144 264 113 94 84 
197 144 264 119 97 86 
200 144 258 141 111 100 
200 144 259 140 111 99 
211 131 259 155 102 85 
209 131 261 160 101 82 
208 131 263 164 97 81 
209 130 262 163 103 79 
209 130 263 166 102 78 
209 131 262 162 99 82 
209 131 263 164 98 82 
211 129 261 160 101 89 
210 128 263 168 107 80 
210 129 263 168 105 80 
211 128 262 164 103 92 
211 128 263 167 106 85 
211 129 262 162 104 89 
211 129 263 165 105 80 
210 130 261 160 102 80 
210 131 260 157 102 83 
210 131 261 159 102 81 
211 130 260 157 101 85 
211 130 261 159 102 85 
211 131 260 156 101 83 
210 130 262 164 103 79 
210 130 263 166 104 79 
211 130 262 161 102 80 
209 133 259 153 101 84 
208 134 259 151 102 87 
208 135 259 150 103 89 
209 134 258 149 104 89 
209 134 259 151 102 87 
209 135 258 147 105 91 
209 135 259 150 103 88 
211 133 257 147 104 88 
210 132 259 154 102 84 
210 133 259 152 102 85 
211 132 259 154 103 85 
211 133 258 150 103 86 
211 133 259 151 103 86 
210 135 256 144 108 95 
210 135 257 146 106 93 
211 134 256 144 107 92 
211 134 257 146 105 90 
211 135 256 144 108 94 
211 135 257 145 106 93 
210 134 258 149 103 87 
210 135 258 147 105 92 
211 134 258 148 103 87 
208 133 261 157 99 83 
209 132 260 157 100 83 
209 132 261 158 100 83 
209 133 260 156 101 84 
209 133 261 157 100 84 
208 132 262 161 98 82 
208 132 263 163 97 81 
208 133 262 159 98 83 
209 132 262 159 98 82 
208 134 260 154 101 86 
208 134 261 155 101 85 
208 135 260 152 101 87 
209 134 260 153 101 85 
210 132 260 156 101 84 
213 128 259 155 102 90 
213 129 258 151 103 95 
213 129 259 153 101 91 
213 131 257 143 104 86 
212 130 259 151 102 84 
212 131 258 149 103 86 
212 131 259 152 102 87 
213 130 258 147 103 86 
213 130 259 149 102 85 
213 131 258 146 103 85 
214 129 257 147 106 97 
215 128 257 149 102 93 
215 129 257 148 102 96 
214 128 258 152 103 91 
214 128 259 154 103 89 
214 129 258 151 105 95 
215 128 258 153 100 92 
214 130 257 146 106 98 
214 131 256 141 106 88 
214 131 257 142 104 87 
215 130 256 144 101 97 
215 130 257 145 103 98 
215 131 256 140 105 89 
214 130 258 150 105 97 
212 128 260 159 99 87 
212 128 261 160 99 87 
212 129 260 155 100 86 
212 129 261 157 99 87 
213 128 260 157 100 87 
213 129 260 154 100 87 
212 128 262 163 102 89 
212 130 260 154 101 84 
212 130 261 156 101 87 
212 132 257 145 104 86 
212 133 256 144 106 90 
212 133 257 146 105 88 
213 132 256 144 105 88 
213 132 257 145 104 87 
213 133 256 143 106 89 
212 132 258 150 103 86 
212 133 258 148 103 86 
212 134 256 143 107 92 
214 132 256 141 106 88 
214 133 256 141 107 89 
215 132 256 140 106 88 
209 128 264 170 106 80 
209 129 264 169 103 77 
208 130 264 168 99 79 
208 131 264 166 97 80 
209 130 264 168 102 77 
210 128 264 169 106 80 
208 137 256 143 110 98 
208 137 257 145 108 96 
209 136 257 145 107 94 
209 137 256 144 109 97 
209 137 257 146 107 94 
208 136 258 147 106 93 
208 136 259 149 104 91 
208 137 258 147 107 95 
209 136 258 146 106 93 
208 138 256 143 110 99 
210 136 256 144 108 95 
210 136 257 145 107 94 
216 128 256 148 106 98 
216 128 257 147 103 93 
216 129 256 146 103 98 
217 128 256 144 104 96 
217 129 256 146 106 98 
216 130 256 144 99 97 
207 122 271 169 124 110 
207 123 270 174 124 106 
207 123 271 173 125 110 
207 126 267 176 105 83 
207 127 267 175 101 83 
205 125 271 174 115 91 
205 127 269 176 103 80 
204 127 271 175 107 79 
205 126 270 176 109 86 
205 126 271 177 109 84 
205 127 270 177 105 82 
205 127 271 176 107 80 
206 125 269 176 106 82 
207 124 268 174 116 87 
207 124 269 176 119 92 
207 125 268 174 110 82 
207 125 269 175 110 86 
206 124 270 177 113 90 
206 124 271 176 118 96 
206 125 270 176 110 86 
206 125 271 174 115 91 
207 124 270 176 119 97 
207 124 271 176 121 102 
206 126 268 175 104 80 
206 126 269 175 105 81 
206 127 268 174 100 76 
206 127 269 176 104 80 
207 126 268 176 105 81 
207 127 268 176 100 78 
206 126 270 174 109 84 
206 127 270 177 105 82 
199 119 285 150 107 84 
198 119 287 144 103 82 
199 118 287 143 104 83 
199 119 286 147 105 84 
199 119 287 144 104 83 
199 124 279 152 107 78 
199 125 278 148 104 79 
199 125 279 147 103 78 
199 126 277 147 105 90 
199 127 276 148 107 89 
199 127 277 146 106 89 
198 126 279 147 103 71 
198 127 278 143 104 81 
198 127 279 142 104 81 
199 126 278 147 105 80 
199 126 279 149 104 72 
199 127 278 145 105 83 
195 122 287 144 100 75 
195 123 286 144 97 73 
195 123 287 144 98 74 
195 126 283 143 92 70 
195 127 283 133 96 73 
193 124 287 139 92 71 
193 125 286 127 95 73 
193 125 287 128 95 75 
193 126 285 123 99 83 
193 127 285 119 96 81 
193 126 286 123 97 80 
193 126 287 119 98 83 
193 127 286 118 98 84 
194 125 285 139 92 71 
195 124 285 143 94 72 
195 125 284 145 94 72 
195 125 285 142 93 71 
194 124 286 141 93 71 
194 124 287 141 94 72 
194 125 286 139 92 71 
195 124 286 142 94 72 
195 124 287 142 96 72 
194 126 285 131 94 74 
194 127 284 127 95 75 
194 127 285 122 95 78 
195 126 284 142 92 70 
195 126 285 141 92 70 
195 127 284 130 95 74 
197 122 283 153 98 74 
197 123 283 151 98 74 
198 121 283 157 99 76 
199 120 283 158 101 79 
199 121 282 159 102 78 
199 121 283 158 101 78 
198 123 281 152 104 75 
199 122 281 155 104 77 
199 123 280 155 105 77 
199 123 281 154 104 76 
198 122 282 156 98 75 
198 122 283 154 99 75 
198 123 282 152 101 74 
199 122 282 156 102 76 
197 121 285 151 101 77 
196 121 287 147 99 76 
197 120 286 151 100 80 
197 120 287 148 98 80 
197 121 286 148 100 77 
197 121 287 148 100 78 
196 122 285 150 100 75 
196 123 285 147 97 73 
197 122 284 152 97 75 
197 122 285 152 99 75 
197 123 284 150 97 74 
197 123 285 150 97 73 
196 122 286 149 101 75 
196 122 287 144 100 75 
196 123 286 145 98 74 
198 120 284 154 102 78 
198 120 285 152 103 81 
198 121 284 154 98 76 
198 121 285 153 102 78 
199 120 284 157 102 79 
199 120 285 152 106 83 
198 120 286 148 103 82 
198 120 287 145 102 81 
197 125 281 148 101 71 
196 124 283 147 96 71 
196 125 283 147 95 70 
197 124 282 149 100 73 
197 124 283 148 98 73 
197 125 282 148 98 72 
196 127 281 140 100 74 
197 126 280 144 101 73 
197 126 281 143 100 71 
197 127 280 141 102 74 
197 127 281 140 102 73 
196 126 282 146 96 71 
196 126 283 145 94 70 
196 127 282 140 100 71 
196 127 283 138 100 70 
197 126 282 146 97 71 
198 124 280 150 104 75 
198 124 281 150 104 74 
198 125 280 148 104 72 
198 125 281 149 103 71 
199 124 280 151 107 76 
199 125 280 148 104 74 
198 124 282 151 102 73 
198 126 280 145 103 72 
198 127 280 141 104 82 
196 124 284 147 95 72 
196 124 285 146 95 73 
196 125 284 145 93 70 
203 119 279 170 119 87 
207 115 277 170 123 98 
206 115 279 166 120 95 
207 114 279 163 115 92 
207 115 278 168 119 97 
207 115 279 165 117 95 
207 117 275 176 122 95 
206 119 275 177 120 92 
207 118 275 177 122 94 
207 119 274 178 120 90 
207 119 275 178 120 91 
205 116 279 167 119 96 
205 117 278 171 123 98 
205 117 279 168 121 97 
204 119 277 173 114 88 
205 118 277 173 119 94 
205 119 276 175 118 92 
205 119 277 173 117 91 
204 118 278 169 120 93 
204 118 279 166 121 96 
204 119 278 170 117 88 
205 118 278 171 121 96 
206 116 277 173 127 99 
206 117 276 173 122 97 
206 117 277 172 123 98 
207 116 276 173 125 99 
207 116 277 171 124 99 
207 117 276 175 123 97 
206 116 278 168 121 98 
206 116 279 167 119 97 
206 117 278 171 124 99 
207 116 278 168 120 98 
206 118 276 174 121 94 
206 118 277 174 121 95 
206 119 276 176 119 92 
207 118 276 175 122 95 
203 115 285 132 110 91 
202 115 286 128 109 93 
202 115 287 129 110 95 
203 115 286 129 110 94 
203 115 287 130 111 95 
201 117 283 146 108 87 
201 119 281 163 110 85 
200 119 282 161 106 83 
200 119 283 158 106 83 
201 118 282 157 113 88 
201 118 283 153 110 87 
201 119 282 159 110 86 
203 117 280 161 118 93 
203 117 281 158 115 91 
202 117 282 155 112 89 
202 117 283 145 109 86 
203 116 282 148 106 87 
203 116 283 140 112 89 
203 117 282 151 109 88 
203 117 283 144 110 86 
202 118 280 164 118 91 
202 118 281 160 115 91 
202 119 280 166 116 87 
202 119 281 163 114 88 
203 118 280 163 119 93 
203 118 281 159 117 93 
203 119 280 169 119 88 
202 118 282 156 114 90 
201 117 284 141 106 86 
201 117 285 139 107 87 
200 117 287 138 106 86 
201 116 286 130 109 92 
201 116 287 130 109 91 
201 117 286 139 107 87 
201 117 287 133 110 90 
200 118 285 147 107 85 
200 119 284 154 107 84 
200 119 285 149 107 85 
201 118 284 147 107 86 
201 118 285 145 107 85 
200 118 286 144 106 84 
200 118 287 142 104 83 
202 116 284 136 112 91 
202 116 285 131 110 93 
202 117 284 134 111 91 
203 116 284 136 112 91 
203 116 285 132 110 92 
202 116 286 130 109 93 
202 116 287 129 109 94 
205 115 280 159 117 91 
205 115 281 154 113 88 
204 115 283 137 112 93 
205 114 283 139 112 90 
205 115 282 144 113 89 
205 115 283 137 113 92 
207 113 282 149 121 97 
207 113 283 141 118 100 
206 114 281 154 114 87 
206 115 280 161 117 92 
206 115 281 155 114 87 
207 114 280 158 114 89 
207 114 281 153 116 87 
207 115 280 161 116 91 
206 114 282 148 117 93 
206 114 283 144 119 98 
207 114 282 149 121 97 
205 113 286 129 110 94 
205 113 287 127 108 93 
204 115 284 134 111 92 
204 115 285 131 109 91 
205 114 284 135 112 93 
205 114 285 131 111 95 
205 115 284 135 111 92 
205 115 285 133 110 91 
204 114 286 128 109 94 
204 114 287 127 109 94 
204 115 286 128 109 94 
205 114 286 127 109 94 
205 114 287 127 108 93 
206 113 284 138 117 100 
206 113 285 132 111 96 
207 112 285 132 111 94 
207 113 284 136 114 98 
207 113 285 132 111 95 
206 112 287 126 104 87 
206 113 286 130 109 94 
206 113 287 127 106 89 
207 112 286 130 108 92 
207 112 287 127 105 87 
206 114 284 137 116 99 
206 114 285 135 115 98 
204 116 281 156 115 90 
204 117 280 164 119 94 
204 117 281 158 116 91 
205 116 280 162 118 94 
205 116 281 155 115 90 
205 117 280 163 119 94 
204 116 282 148 109 86 
204 116 283 137 113 93 
205 116 282 148 108 86 
204 118 280 164 120 96 
201 121 279 163 110 83 
201 123 277 162 119 102 
200 123 279 154 110 89 
201 122 278 160 114 92 
201 122 279 160 115 90 
201 123 278 159 116 99 
201 123 279 155 112 95 
203 120 277 174 112 85 
203 121 277 169 116 89 
202 120 279 171 113 85 
202 121 278 169 112 83 
202 121 279 167 111 83 
203 120 278 173 112 85 
203 120 279 172 113 86 
203 121 278 173 112 85 
202 122 277 166 112 82 
202 123 276 162 119 106 
202 123 277 161 117 100 
203 122 276 166 120 101 
203 122 277 169 114 82 
203 123 276 166 120 105 
202 122 278 162 111 83 
201 126 275 163 113 98 
201 127 275 162 111 95 
202 125 275 168 117 99 
203 124 274 172 120 101 
203 124 275 169 120 104 
203 125 274 173 119 98 
203 125 275 170 119 100 
202 127 273 172 115 94 
203 126 273 173 116 92 
203 127 272 173 112 85 
203 127 273 172 114 90 
202 126 274 171 117 97 
202 126 275 167 116 99 
202 127 274 169 115 98 
203 126 274 172 117 96 
200 125 277 154 109 89 
201 124 276 159 114 100 
201 124 277 158 113 98 
201 125 276 160 113 98 
201 125 277 157 111 95 
200 124 278 155 111 90 
200 124 279 154 108 83 
200 125 278 153 106 81 
201 124 278 157 113 96 
200 126 276 152 108 89 
200 126 277 150 106 87 
200 127 276 152 108 92 
201 126 276 158 111 94 
201 127 276 158 110 93 
202 124 276 165 119 102 
202 124 277 163 118 102 
202 125 276 164 116 99 
203 124 276 166 120 105 
205 120 275 175 116 87 
205 121 274 170 120 89 
205 121 275 170 119 89 
205 123 273 170 123 108 
204 122 275 168 121 104 
204 123 274 171 123 108 
204 123 275 170 122 107 
205 122 274 170 124 107 
205 122 275 169 124 107 
205 123 274 170 123 109 
206 121 273 170 122 96 
207 120 272 181 116 84 
207 120 273 180 118 85 
207 121 272 174 119 87 
207 121 273 176 119 88 
206 120 274 177 118 85 
206 120 275 177 117 87 
206 121 274 173 119 87 
207 120 274 180 119 88 
206 122 272 168 124 112 
206 122 273 170 123 102 
206 123 272 171 125 110 
206 123 273 171 124 109 
207 122 272 170 124 107 
207 123 272 171 126 113 
206 122 274 171 120 94 
204 120 276 170 114 86 
204 120 277 174 114 87 
204 121 276 169 117 93 
205 120 276 176 115 88 
205 120 277 174 116 89 
205 121 276 171 114 86 
204 120 278 175 115 87 
204 122 276 166 121 106 
206 120 276 177 116 88 
204 125 273 174 118 95 
205 124 272 175 122 102 
205 124 273 175 123 105 
205 125 272 177 117 95 
205 125 273 176 119 97 
204 124 274 174 122 104 
204 124 275 171 122 106 
204 125 274 175 120 99 
205 124 274 175 123 106 
204 126 272 174 113 86 
204 126 273 174 116 92 
204 127 272 174 111 82 
205 126 272 177 110 84 
206 124 272 175 123 104 
206 124 273 174 123 106 
200 120 281 160 105 82 
200 121 280 156 109 82 
200 121 281 158 105 81 
201 120 280 164 109 84 
201 120 281 163 108 83 
201 121 280 162 109 82 
200 120 282 161 104 81 
200 120 283 160 104 81 
200 121 282 160 103 80 
200 122 280 155 107 81 
200 122 281 156 104 79 
200 123 280 155 107 81 
201 122 280 157 110 82 
202 120 280 167 113 86 
219 111 267 179 106 63 
216 111 271 172 117 86 
217 111 270 163 100 53 
217 111 271 162 98 58 
218 109 271 160 91 36 
219 108 271 161 106 57 
219 109 270 164 96 37 
219 109 271 160 99 44 
218 111 268 163 88 54 
218 111 269 161 89 52 
219 110 268 171 99 54 
219 110 269 164 91 36 
219 111 268 168 95 54 
219 111 269 162 89 52 
218 110 270 162 89 23 
218 110 271 160 97 50 
218 111 270 161 96 51 
220 107 271 149 82 25 
221 107 270 151 80 19 
221 107 271 148 80 22 
222 105 271 144 85 36 
223 105 270 151 82 10 
223 105 271 144 83 18 
222 107 269 155 86 25 
223 106 269 147 78 20 
223 107 268 151 85 31 
223 107 269 147 73 7 
222 106 270 148 79 15 
222 106 271 146 81 18 
222 107 270 149 79 14 
222 107 271 149 80 19 
223 106 270 146 80 13 
221 109 267 162 89 35 
221 111 265 182 90 27 
220 110 267 174 98 50 
220 111 266 178 102 64 
220 111 267 174 96 50 
221 110 266 175 101 57 
221 110 267 175 99 54 
221 111 266 174 94 51 
223 109 265 171 77 29 
222 109 266 174 85 31 
222 109 267 174 92 42 
223 108 266 170 84 38 
223 108 267 168 93 47 
223 109 266 172 83 35 
223 109 267 173 89 40 
222 110 265 175 89 36 
222 111 265 182 88 20 
223 110 265 175 81 23 
222 110 266 175 97 53 
220 109 268 172 87 19 
220 109 269 170 91 23 
221 108 268 167 88 35 
221 108 269 163 93 38 
221 109 268 170 89 35 
221 109 269 167 89 31 
220 108 270 161 96 44 
220 108 271 153 90 33 
220 109 270 162 98 39 
221 108 270 157 90 35 
220 110 268 173 97 49 
220 110 269 172 87 18 
222 108 268 167 92 40 
222 108 269 162 93 40 
222 109 268 172 89 34 
223 108 268 166 94 48 
223 110 271 145 72 5 
223 111 271 146 69 5 
211 111 279 157 128 105 
214 111 273 166 116 88 
215 111 272 169 117 91 
215 111 273 166 117 91 
214 110 275 162 110 82 
214 111 274 164 115 88 
214 111 275 161 111 87 
215 110 274 166 116 90 
215 110 275 164 113 82 
215 111 274 165 116 90 
212 111 277 160 109 88 
213 110 277 155 101 75 
213 111 276 160 110 87 
213 111 277 158 107 83 
212 111 278 156 112 88 
212 111 279 154 124 102 
213 110 278 149 106 83 
213 110 279 146 114 94 
213 111 278 150 107 83 
214 109 277 143 99 75 
215 109 276 157 113 79 
215 109 277 144 101 76 
214 109 278 142 99 74 
214 109 279 139 98 73 
215 108 278 139 95 72 
215 108 279 137 92 70 
215 109 278 141 98 73 
215 109 279 137 94 71 
214 110 276 159 109 80 
214 110 277 155 105 77 
214 111 276 161 111 86 
215 110 276 160 111 78 
214 110 278 144 110 91 
209 111 283 136 113 96 
210 111 281 143 119 103 
211 111 280 153 128 109 
211 111 281 142 117 99 
210 111 282 138 115 97 
210 111 283 135 113 96 
211 110 282 136 105 88 
211 110 283 135 105 87 
211 111 282 137 111 94 
211 111 283 134 112 95 
209 111 284 133 112 95 
209 111 285 131 108 91 
208 111 286 129 106 89 
208 111 287 128 106 88 
209 110 286 128 106 89 
209 110 287 127 104 86 
209 111 286 129 107 90 
209 111 287 127 104 86 
211 109 285 128 98 76 
211 109 286 128 98 79 
211 109 287 128 98 79 
210 110 284 132 111 95 
210 110 285 130 100 79 
210 111 284 133 111 95 
210 111 285 131 109 93 
211 110 284 133 103 83 
211 110 285 129 97 75 
210 110 286 129 100 80 
210 110 287 129 98 78 
211 110 286 129 98 79 
215 107 282 131 98 75 
215 107 283 127 99 78 
214 107 284 126 98 79 
214 107 285 124 101 81 
215 106 285 122 105 89 
215 107 284 124 99 80 
215 107 285 122 102 83 
214 107 286 125 105 85 
214 107 287 126 107 90 
215 106 286 123 106 91 
213 109 280 136 96 72 
213 109 281 135 94 71 
212 109 283 128 95 73 
213 108 283 129 94 73 
213 109 282 133 94 72 
213 109 283 130 94 73 
212 110 280 149 120 101 
212 110 281 138 107 88 
212 111 280 152 121 101 
213 110 280 142 108 87 
213 110 281 135 95 71 
212 110 282 134 99 80 
212 110 283 129 94 73 
213 110 282 133 94 72 
214 108 280 135 93 69 
214 108 281 135 95 69 
214 109 280 136 95 71 
214 109 281 135 95 71 
215 108 280 135 92 69 
215 108 281 133 94 69 
214 108 282 132 95 72 
214 108 283 130 97 77 
215 108 282 131 97 73 
215 108 283 130 98 76 
212 109 284 129 97 75 
212 109 285 128 98 78 
213 108 284 129 96 77 
213 108 285 127 98 78 
213 109 284 128 97 76 
213 109 285 127 98 78 
212 108 287 126 100 79 
212 109 286 127 98 79 
212 109 287 126 99 79 
213 108 286 126 100 79 
213 108 287 126 103 83 
212 110 284 129 96 75 
214 108 284 128 97 78 
214 108 285 126 100 80 
223 103 274 127 85 55 
223 103 275 126 89 60 
219 107 273 143 73 20 
218 107 274 141 74 23 
218 107 275 150 96 62 
219 106 275 141 78 34 
219 107 274 141 74 24 
219 107 275 144 81 39 
217 107 277 139 93 67 
216 107 279 134 89 67 
217 107 278 136 91 67 
217 107 279 133 90 66 
219 105 277 129 92 62 
219 105 278 125 96 70 
219 105 279 124 101 80 
218 106 276 139 90 62 
218 106 277 136 90 62 
218 107 276 142 93 65 
218 107 277 137 91 64 
219 106 276 140 85 51 
219 106 277 133 91 62 
218 106 278 131 95 66 
218 106 279 127 96 70 
218 107 278 135 91 65 
219 106 278 128 95 66 
217 109 273 160 102 74 
216 109 274 153 106 75 
216 109 275 152 104 75 
217 108 274 143 88 61 
217 108 275 140 95 72 
217 109 274 146 93 69 
217 109 275 138 93 72 
216 110 272 166 115 90 
216 110 273 164 117 92 
216 111 272 170 116 89 
216 111 273 168 118 91 
217 110 272 164 108 77 
217 110 273 163 109 81 
217 111 272 167 107 72 
216 110 274 159 111 85 
218 108 273 144 75 24 
218 109 272 159 108 68 
218 109 273 153 101 69 
219 108 272 148 82 28 
219 108 273 144 77 20 
218 108 274 148 91 56 
218 108 275 146 97 67 
218 110 272 165 105 71 
219 111 275 150 89 48 
216 108 276 148 105 87 
216 108 277 141 98 72 
216 109 276 144 100 74 
217 108 276 139 95 70 
217 108 277 139 95 70 
216 108 278 138 94 70 
216 108 279 136 91 68 
217 111 279 142 71 4 
218 108 276 143 97 71 
219 108 277 151 105 80 
219 109 276 161 121 92 
219 109 277 146 106 85 
218 109 278 145 102 80 
218 109 279 144 81 29 
219 108 278 146 82 38 
219 108 279 144 68 11 
219 109 278 146 101 78 
218 110 277 140 102 84 
218 111 276 144 79 43 
218 111 277 141 102 87 
219 110 276 150 103 73 
219 110 277 140 103 85 
219 111 276 145 87 53 
218 110 278 146 106 85 
218 110 279 143 81 24 
218 111 278 149 109 88 
221 105 273 139 81 27 
220 105 275 138 83 41 
221 105 274 138 81 29 
221 105 275 136 85 38 
220 106 273 143 76 23 
220 107 272 147 79 23 
220 107 273 144 75 22 
221 106 272 145 78 22 
221 106 273 142 77 22 
221 107 272 146 78 22 
220 106 274 141 76 27 
220 106 275 139 79 32 
221 106 274 137 79 26 
222 104 273 134 86 47 
222 105 272 140 84 36 
222 105 273 138 85 37 
223 104 272 135 89 49 
223 104 273 131 87 55 
223 105 272 139 86 38 
222 104 274 134 88 51 
222 104 275 133 90 55 
222 105 274 137 83 31 
223 104 274 129 86 52 
223 104 275 130 86 47 
223 105 275 135 80 28 
222 106 272 143 81 28 
223 106 273 146 64 7 
223 107 273 146 65 6 
222 107 274 143 68 6 
222 107 275 144 70 7 
223 106 274 143 68 8 
223 107 274 145 66 6 
220 105 276 134 88 55 
220 105 277 126 93 64 
221 104 276 129 92 60 
221 104 277 124 94 71 
221 105 276 133 91 56 
220 104 278 119 96 77 
220 104 279 121 100 83 
220 105 278 122 95 72 
220 105 279 122 101 82 
221 104 278 117 94 75 
221 104 279 117 97 80 
220 106 276 138 84 47 
221 107 276 142 73 7 
220 107 278 143 70 6 
222 104 276 128 94 68 
222 104 277 121 93 73 
223 104 276 129 93 62 
222 106 276 140 80 12 
220 108 272 149 82 27 
220 109 275 150 83 31 
221 108 274 146 70 7 
221 108 275 144 72 14 
221 109 274 145 71 7 
221 109 275 146 73 8 
221 110 273 145 73 5 
221 111 273 145 74 4 
220 110 275 151 85 33 
220 111 274 149 83 27 
220 111 275 145 76 7 
221 110 274 146 74 8 
221 111 274 146 75 8 
222 108 273 146 66 5 
222 109 272 146 71 5 
222 109 273 146 70 5 
223 108 272 146 70 6 
223 108 273 145 65 6 
223 109 272 146 72 5 
222 108 274 145 67 6 
222 109 274 146 69 9 
222 110 272 145 69 4 
222 110 273 146 72 5 
222 111 272 144 67 5 
220 108 276 166 115 83 
220 108 277 145 78 24 
220 109 276 163 111 71 
221 108 276 144 70 12 
220 110 276 152 91 51 
217 105 283 121 106 93 
216 107 280 130 90 67 
216 107 281 127 94 71 
217 106 280 124 94 70 
217 106 281 122 97 76 
217 107 280 128 92 67 
217 107 281 124 95 72 
216 106 283 123 103 84 
216 107 282 127 100 79 
216 107 283 125 101 81 
217 106 282 123 103 83 
217 106 283 121 105 88 
218 105 280 119 102 84 
218 105 281 119 103 88 
219 104 281 120 104 89 
219 105 280 122 103 87 
219 105 281 119 104 89 
218 105 282 120 105 92 
219 104 282 120 105 90 
218 106 280 123 98 76 
218 106 281 119 101 84 
217 105 284 121 106 91 
216 106 284 121 102 85 
216 107 284 122 101 82 
216 108 280 134 90 67 
217 110 280 143 73 4 
220 104 280 121 103 86 
209 119 270 183 113 80 
209 119 271 183 114 82 
210 117 271 182 116 84 
211 116 271 178 117 85 
211 117 270 181 116 80 
211 117 271 180 117 84 
210 119 269 182 113 75 
211 118 269 184 114 74 
211 119 268 184 111 71 
211 119 269 184 113 73 
210 118 270 183 114 79 
210 118 271 183 115 83 
210 119 270 183 113 79 
211 118 270 183 114 78 
213 115 269 181 115 81 
212 115 271 173 118 87 
213 114 271 172 115 84 
213 115 270 179 115 82 
213 115 271 175 118 86 
214 113 271 174 116 84 
215 112 271 174 116 84 
215 113 270 176 116 80 
215 113 271 175 116 83 
214 115 268 179 112 73 
214 115 269 179 112 76 
215 114 268 181 112 75 
215 114 269 177 112 74 
215 115 268 181 111 72 
214 114 270 176 114 80 
214 114 271 176 116 84 
214 115 270 180 115 79 
215 114 270 176 113 78 
213 117 267 182 107 63 
213 119 265 180 104 52 
212 119 267 183 112 69 
213 118 266 180 98 62 
213 118 267 182 104 64 
213 119 266 181 108 64 
213 119 267 185 109 67 
215 117 265 181 98 53 
214 117 266 184 103 58 
214 117 267 183 107 61 
215 116 267 184 110 66 
215 117 266 187 103 58 
215 117 267 185 107 61 
214 118 265 183 105 52 
214 119 265 180 106 60 
215 118 265 187 103 49 
214 118 266 183 102 57 
212 116 269 178 110 76 
212 117 268 182 110 69 
212 117 269 181 113 74 
213 116 268 182 112 75 
213 116 269 180 112 79 
213 117 268 182 108 69 
212 116 270 178 113 80 
212 116 271 176 116 85 
212 117 270 179 113 78 
213 116 270 178 114 83 
212 118 268 183 109 68 
212 118 269 183 111 70 
212 119 268 182 111 69 
213 118 268 183 106 66 
214 116 268 181 110 69 
215 116 268 183 112 71 
209 123 267 175 125 109 
210 121 267 173 122 105 
211 120 267 175 118 91 
211 121 266 175 121 105 
211 121 267 174 123 106 
211 122 265 172 114 92 
211 123 265 169 111 86 
210 122 267 175 125 109 
210 123 266 174 121 101 
210 123 267 175 124 107 
211 122 266 176 122 106 
211 123 266 174 120 99 
209 120 269 176 117 80 
209 121 268 173 125 108 
209 121 269 173 124 104 
208 120 271 178 114 81 
208 121 270 172 124 101 
208 121 271 173 120 91 
209 120 270 178 116 79 
209 120 271 181 113 81 
209 121 270 174 121 88 
208 122 269 172 126 112 
208 123 268 175 122 99 
208 123 269 176 124 104 
209 122 268 175 127 112 
209 122 269 173 127 113 
209 123 268 174 125 107 
208 122 270 171 126 111 
208 122 271 169 125 111 
208 123 270 175 126 108 
210 120 268 175 117 82 
210 120 269 178 115 75 
210 121 268 173 123 106 
211 120 268 175 116 81 
210 122 268 174 126 111 
209 125 265 173 101 80 
208 124 267 175 113 89 
208 125 267 173 106 78 
209 124 266 174 101 81 
209 124 267 173 112 89 
209 125 266 174 102 79 
208 127 265 174 104 82 
209 126 265 173 104 82 
209 127 265 173 105 81 
208 126 266 176 106 82 
208 126 267 176 106 82 
208 127 266 175 104 84 
209 126 266 176 106 81 
210 124 265 169 104 74 
210 125 265 171 102 84 
211 124 265 167 106 74 
210 124 266 171 104 81 
210 125 266 172 100 84 
210 126 265 171 103 87 
208 124 268 175 118 93 
208 124 269 176 120 93 
208 125 268 173 110 80 
209 124 268 174 119 97 
212 121 265 177 121 104 
213 120 265 176 111 83 
213 121 265 176 119 102 
212 120 266 178 115 79 
212 120 267 179 115 74 
212 121 266 176 121 105 
213 120 266 181 111 65 
212 122 265 177 122 107 
212 123 265 172 112 90 
214 120 265 177 108 75 
217 113 267 182 111 76 
217 115 265 180 104 68 
216 115 267 185 110 68 
217 114 266 185 111 70 
217 114 267 185 111 71 
217 115 266 186 112 70 
217 115 267 185 112 72 
218 113 265 192 120 77 
219 113 265 187 113 70 
218 112 267 170 94 63 
218 113 266 187 114 71 
218 113 267 175 96 57 
219 112 266 180 106 69 
219 112 267 178 101 58 
219 113 266 189 116 74 
218 114 265 183 107 57 
218 115 265 184 108 66 
219 114 265 181 102 48 
218 114 266 182 102 53 
216 112 269 175 112 74 
216 113 268 179 110 75 
216 113 269 177 112 76 
217 112 268 170 97 68 
217 112 269 172 107 70 
217 113 268 179 104 67 
216 112 270 175 117 78 
216 112 271 173 117 85 
216 113 270 176 116 78 
217 112 270 169 112 70 
216 114 268 182 112 74 
216 115 268 183 111 70 
217 114 268 182 107 72 
218 112 268 160 87 52 
218 112 269 162 91 52 
219 112 268 144 82 41 
216 116 265 188 96 58 
216 117 265 189 96 49 
217 116 265 179 101 64 
216 116 266 190 102 61 
216 116 267 188 109 66 
217 116 266 182 103 66 
220 112 265 186 102 58 
220 113 265 183 92 27 
221 112 265 186 101 56 
220 112 266 182 108 69 
209 115 275 178 128 103 
211 113 275 169 123 101 
210 115 273 178 125 100 
211 114 273 173 124 97 
211 115 272 174 120 94 
211 115 273 174 123 97 
210 114 275 172 125 100 
210 115 274 178 126 101 
210 115 275 176 125 102 
211 114 274 172 124 98 
211 114 275 171 124 100 
211 115 274 174 124 98 
209 113 278 166 117 92 
209 113 279 162 114 90 
208 115 276 171 124 99 
208 115 277 170 122 97 
209 114 276 169 120 95 
209 114 277 169 120 94 
209 115 276 171 124 98 
209 115 277 171 122 97 
208 114 278 168 119 95 
208 114 279 163 115 92 
208 115 278 168 120 96 
209 114 278 167 118 93 
209 114 279 163 114 91 
210 113 276 167 119 94 
210 113 277 167 118 92 
211 112 277 163 116 91 
211 113 276 167 120 95 
211 113 277 164 118 92 
210 112 279 157 117 89 
210 113 278 164 116 90 
210 113 279 163 115 89 
211 112 278 159 116 89 
211 112 279 157 121 94 
210 114 276 170 121 97 
210 114 277 168 119 93 
211 114 276 168 122 100 
209 116 273 179 123 97 
209 117 272 181 117 91 
209 117 273 180 121 94 
208 116 275 177 123 99 
208 117 274 178 122 95 
208 117 275 177 123 96 
209 116 274 179 124 100 
209 116 275 178 126 101 
209 117 274 179 122 95 
208 118 273 177 121 91 
208 119 272 181 116 86 
208 119 273 179 118 88 
209 118 272 181 117 88 
209 118 273 179 120 91 
209 119 272 182 115 84 
208 118 274 177 122 93 
208 119 274 178 120 90 
210 116 272 179 122 93 
210 116 273 180 124 98 
210 117 272 180 117 90 
211 116 272 178 119 90 
210 118 272 182 115 86 
208 116 276 173 124 99 
209 116 276 173 126 101 
212 113 273 168 117 94 
213 112 272 168 109 81 
213 112 273 168 114 92 
213 113 272 169 114 87 
213 113 273 167 113 92 
212 112 275 167 116 92 
212 113 274 169 119 95 
212 113 275 168 119 95 
213 112 274 164 115 89 
213 112 275 163 114 89 
213 113 274 167 115 92 
212 114 272 168 118 91 
212 114 273 171 122 96 
212 115 272 172 120 91 
213 114 272 169 116 88 
212 114 274 172 123 98 
214 112 272 170 114 87 
214 112 273 168 117 93 
214 113 272 172 116 84 
215 112 272 171 117 90 
212 112 276 164 116 92 
212 112 277 161 112 89 
212 113 276 166 117 94 
213 112 276 162 112 89 
212 112 278 157 112 89 
208 113 280 156 111 87 
208 113 281 146 118 96 
209 112 280 151 124 102 
209 112 281 142 119 102 
209 113 280 151 121 99 
209 113 281 144 120 102 
208 112 282 140 116 99 
208 112 283 138 115 98 
208 113 282 141 118 100 
208 113 283 138 115 98 
209 112 282 140 116 99 
209 112 283 137 114 97 
208 114 280 159 112 89 
210 112 280 153 126 103 
210 112 281 143 120 103 
211 112 280 155 128 107 
208 112 284 135 113 96 
208 112 285 132 110 93 
209 112 284 135 113 96 
209 112 285 133 110 93 
208 112 286 129 107 89 
208 112 287 128 105 88 
208 120 272 181 114 83 
208 120 273 180 118 85 
208 121 272 176 114 81 
219 112 275 146 80 22 
219 113 275 145 73 8 
217 112 278 143 72 5 
217 112 279 142 75 7 
217 113 278 143 71 5 
218 112 276 143 79 45 
218 112 277 147 93 62 
218 113 276 143 68 5 
219 112 276 144 81 37 
218 114 276 144 66 9 
221 112 273 145 76 5 
220 112 274 148 82 18 
220 113 274 147 74 6 
216 112 280 143 73 4 
207 111 289 125 101 83 
207 111 290 124 101 82 
207 111 291 123 100 81 
206 111 292 124 104 88 
206 111 293 117 103 90 
207 111 292 122 99 81 
207 111 293 117 101 87 
206 111 294 115 100 87 
206 111 295 118 98 81 
207 111 294 113 99 86 
197 119 289 138 100 79 
197 119 290 134 99 78 
197 119 291 131 95 77 
199 117 290 126 106 90 
199 117 291 122 105 91 
198 118 289 136 98 81 
198 119 288 141 102 82 
198 119 289 137 100 80 
199 118 288 140 102 82 
199 118 289 135 103 84 
199 119 288 142 103 83 
198 118 290 131 99 83 
198 118 291 124 102 87 
198 119 290 134 97 80 
199 118 290 127 106 89 
199 118 291 123 104 90 
196 119 292 127 93 77 
196 119 293 105 92 82 
197 118 292 118 102 89 
197 118 293 114 99 87 
197 119 292 126 96 80 
197 119 293 105 92 81 
196 119 294 104 93 83 
196 119 295 106 95 85 
197 118 294 110 97 86 
197 118 295 114 101 89 
198 117 293 121 105 91 
199 116 293 118 102 89 
199 117 292 121 105 91 
199 117 293 120 104 91 
198 117 294 121 105 92 
198 117 295 112 98 86 
199 116 294 118 102 89 
199 116 295 113 98 86 
199 117 294 119 103 90 
199 117 295 117 102 89 
198 118 292 119 102 89 
198 118 293 119 103 90 
195 119 296 104 93 84 
195 119 297 113 101 90 
194 119 299 111 99 89 
195 119 298 110 98 88 
195 119 299 107 96 88 
194 119 300 110 98 91 
194 119 301 96 86 80 
195 118 300 96 86 79 
195 118 301 95 85 78 
195 119 300 102 91 84 
195 119 301 96 86 78 
194 119 302 92 82 76 
194 119 303 94 82 77 
195 118 302 98 88 82 
195 118 303 107 94 86 
195 119 303 101 89 83 
199 115 300 111 99 87 
199 115 301 108 96 83 
199 115 302 106 93 81 
199 115 303 106 92 80 
197 117 296 111 98 89 
197 117 297 100 89 80 
197 117 298 96 86 77 
197 117 299 96 86 78 
196 118 296 107 96 86 
196 118 297 116 103 92 
196 119 296 113 102 90 
196 119 297 114 102 90 
197 118 296 112 100 89 
197 118 297 106 94 85 
196 118 298 102 92 83 
196 118 299 94 84 78 
197 118 298 96 86 78 
197 118 299 93 84 77 
198 116 297 100 89 79 
198 117 296 105 93 83 
198 117 297 101 90 80 
199 116 296 103 91 81 
199 116 297 103 91 80 
198 116 298 101 89 79 
198 116 299 101 90 80 
198 117 298 99 88 78 
198 117 299 98 88 79 
199 116 298 106 92 80 
199 116 299 104 92 79 
196 117 301 105 94 86 
197 117 300 99 88 79 
197 117 301 104 92 82 
196 117 302 110 98 88 
196 117 303 115 103 92 
197 116 302 110 99 88 
197 117 302 111 100 89 
197 117 303 109 97 87 
196 118 300 96 85 78 
196 118 301 98 87 79 
196 118 302 107 96 88 
196 118 303 114 101 91 
198 116 300 105 94 82 
198 116 301 107 95 84 
199 116 300 107 94 82 
199 116 301 108 96 84 
198 116 302 106 96 86 
198 116 303 102 93 84 
199 116 302 106 94 83 
193 122 291 134 92 74 
193 123 290 135 93 73 
193 123 291 134 91 73 
195 121 289 141 96 75 
194 121 291 134 93 74 
195 121 290 138 94 75 
195 121 291 134 94 75 
194 122 289 139 95 74 
194 123 288 142 97 73 
194 123 289 139 96 73 
195 122 288 142 99 74 
195 122 289 141 97 74 
195 123 288 142 98 74 
194 122 290 137 94 74 
194 122 291 134 93 74 
194 123 290 136 94 73 
195 122 290 137 95 75 
193 121 294 112 101 90 
193 121 295 111 101 90 
193 122 292 118 90 76 
193 122 293 107 92 81 
193 123 292 112 91 76 
193 123 293 105 92 80 
193 122 294 110 99 87 
193 122 295 114 102 91 
194 121 292 130 92 75 
194 121 293 103 90 80 
195 120 292 129 94 76 
195 120 293 111 91 79 
195 121 292 129 93 76 
194 120 295 100 92 85 
194 121 294 105 94 84 
194 121 295 105 95 85 
