ply
format ascii 1.0
comment Created by CloudCompare v2.10.1 (Zephyrus)
comment Created 2/3/20 11:52 AM
obj_info Generated by CloudCompare!
element vertex 1932
property float x
property float y
property float z
property uchar red
property uchar green
property uchar blue
end_header
282 480 292 101 111 152 
282 480 293 106 117 154 
282 481 292 109 116 154 
281 484 288 101 114 156 
281 484 289 116 132 160 
281 485 288 81 98 139 
281 485 289 113 129 154 
281 484 290 130 143 160 
281 484 291 165 168 177 
281 485 290 146 154 167 
281 485 291 175 173 178 
281 486 288 116 128 160 
281 486 289 116 129 157 
281 487 288 109 128 162 
281 487 289 102 122 160 
280 486 290 128 140 159 
280 486 291 167 167 174 
280 487 290 94 114 151 
280 487 291 125 136 158 
281 486 290 134 144 162 
281 486 291 171 171 177 
280 484 293 179 174 176 
280 485 292 181 174 174 
280 485 293 181 174 173 
281 484 292 176 174 178 
281 484 293 172 171 178 
281 485 292 181 174 175 
280 484 294 172 171 177 
280 484 295 155 160 171 
280 485 294 180 174 175 
280 485 295 175 172 178 
280 486 292 177 172 175 
280 486 293 179 172 173 
280 487 292 164 164 171 
280 487 293 178 172 174 
280 486 294 179 172 173 
280 486 295 180 174 176 
280 487 294 179 172 173 
280 487 295 179 173 175 
280 480 297 110 118 155 
280 481 297 109 117 152 
281 480 296 108 120 158 
281 480 297 107 117 155 
281 481 296 113 121 156 
281 481 297 111 118 153 
280 480 298 106 114 153 
280 480 299 106 114 154 
280 481 298 109 116 152 
280 481 299 107 116 153 
280 482 297 117 130 157 
280 483 296 120 136 158 
280 483 297 148 159 175 
281 482 296 107 115 152 
281 482 297 105 116 151 
281 483 296 113 127 157 
280 482 298 123 133 155 
280 482 299 128 138 156 
280 483 298 164 170 183 
280 483 299 173 177 186 
280 480 300 110 119 158 
280 480 301 112 121 160 
280 481 300 107 117 156 
280 481 301 104 113 154 
280 482 300 134 144 165 
280 482 301 132 142 168 
280 483 300 165 171 182 
280 483 301 154 162 178 
280 484 296 119 134 153 
280 484 297 94 116 143 
280 485 296 153 158 170 
280 485 297 112 127 150 
280 484 298 90 111 142 
280 484 299 150 159 175 
280 485 298 64 85 129 
280 486 296 175 173 178 
280 486 297 151 157 169 
280 487 296 177 174 178 
280 487 297 177 176 182 
280 488 289 94 121 158 
280 489 288 158 164 177 
280 489 289 135 147 165 
281 488 288 99 122 156 
281 488 289 100 125 161 
281 489 288 134 147 167 
280 488 290 76 104 151 
280 488 291 77 99 143 
280 489 290 100 120 152 
280 489 291 78 102 145 
280 490 289 176 174 178 
280 491 288 159 163 174 
280 491 289 176 172 175 
281 490 288 170 171 180 
281 491 288 169 170 179 
280 490 290 161 162 172 
280 490 291 139 147 165 
280 491 290 178 172 173 
280 491 291 174 169 172 
280 488 292 121 132 157 
280 488 293 163 164 174 
280 489 292 87 109 147 
280 489 293 122 137 161 
280 488 294 177 173 176 
280 488 295 177 173 177 
280 489 294 161 166 177 
280 489 295 172 172 180 
280 490 292 115 130 155 
280 490 293 93 118 147 
280 491 292 166 165 172 
280 491 293 142 150 163 
280 490 294 91 117 147 
280 490 295 138 148 163 
280 491 294 94 115 144 
281 492 288 129 140 157 
280 488 296 169 168 176 
280 489 296 163 165 175 
278 481 304 127 138 162 
278 481 305 108 123 153 
279 480 304 107 117 159 
279 480 305 94 107 153 
279 481 304 109 120 157 
279 481 305 98 112 153 
278 481 306 97 116 150 
279 480 306 93 108 149 
279 480 307 107 122 154 
279 481 306 94 112 152 
279 481 307 111 129 159 
278 482 304 167 170 179 
278 482 305 157 161 171 
278 483 304 179 174 175 
278 483 305 176 171 173 
278 482 306 131 141 158 
278 482 307 101 120 142 
278 483 306 166 164 170 
278 483 307 149 153 163 
279 480 308 129 143 163 
279 480 309 148 158 172 
279 481 308 139 152 170 
279 481 309 152 161 174 
279 481 310 151 159 173 
278 482 308 88 109 131 
278 483 308 135 143 157 
278 483 309 139 146 161 
279 482 308 99 119 141 
279 482 309 116 130 148 
279 483 309 114 127 144 
278 483 310 139 146 161 
279 482 310 132 142 159 
279 482 311 138 148 165 
279 483 310 137 145 160 
279 483 311 144 151 165 
277 485 305 171 166 169 
277 484 306 167 163 167 
277 485 306 166 163 167 
277 485 307 162 160 167 
277 486 304 177 170 171 
277 486 305 173 167 169 
277 487 304 172 169 174 
277 487 305 171 167 170 
277 486 306 167 163 168 
277 486 307 158 157 163 
277 487 306 163 160 165 
277 487 307 153 152 158 
278 484 304 177 170 171 
278 484 305 173 167 169 
278 485 304 176 169 171 
278 485 305 174 167 170 
278 484 306 167 164 168 
278 484 307 162 162 170 
278 485 307 160 160 168 
278 486 304 178 171 172 
277 486 308 148 148 155 
277 487 308 150 149 155 
277 487 309 164 162 168 
277 487 310 173 169 174 
277 487 311 174 170 175 
278 484 308 152 157 168 
278 484 309 143 149 165 
278 485 308 146 149 160 
278 485 309 127 136 153 
278 484 310 133 141 159 
278 484 311 125 135 154 
278 485 310 124 134 155 
278 485 311 131 140 160 
279 484 311 128 136 152 
278 486 308 147 148 156 
278 486 309 140 144 155 
278 487 309 161 160 168 
278 486 310 139 144 159 
278 486 311 137 143 160 
278 487 310 166 165 173 
278 487 311 167 166 173 
279 482 312 150 157 171 
279 483 312 156 160 172 
279 483 313 169 169 177 
278 485 312 134 142 162 
279 484 312 147 151 163 
279 484 313 167 167 176 
279 485 312 126 136 154 
279 485 313 147 153 167 
279 484 314 170 169 177 
279 485 314 166 168 178 
279 485 315 167 168 177 
278 486 312 143 149 163 
278 486 313 138 146 160 
278 487 312 167 165 173 
278 487 313 159 162 172 
279 486 313 135 145 161 
278 487 314 158 161 172 
279 486 314 148 156 170 
279 486 315 155 160 171 
279 487 314 137 143 156 
279 487 315 136 142 154 
279 486 316 156 159 171 
279 487 316 130 136 149 
279 487 317 144 148 160 
277 488 304 156 158 168 
277 488 305 160 160 168 
277 489 304 138 141 152 
277 489 305 130 135 148 
277 488 306 154 154 162 
277 488 307 151 151 158 
277 489 306 137 142 154 
277 489 307 148 149 158 
277 490 304 155 154 160 
277 490 305 136 141 153 
277 490 306 131 138 152 
277 490 307 144 147 158 
277 488 308 156 154 160 
277 488 309 169 165 170 
277 489 308 160 158 164 
277 489 309 171 166 169 
277 488 310 173 168 171 
277 488 311 175 170 173 
277 489 310 174 167 170 
277 489 311 174 168 171 
277 490 308 166 163 168 
277 490 309 171 166 169 
277 490 310 173 167 169 
277 488 312 174 170 175 
277 488 313 173 170 176 
277 489 312 174 169 173 
277 489 313 172 169 174 
278 488 313 171 169 176 
278 489 313 172 170 177 
278 488 314 171 170 177 
278 488 315 165 165 173 
278 489 314 172 170 177 
278 489 315 168 168 175 
279 488 315 159 159 168 
278 490 314 172 169 174 
278 490 315 168 167 174 
279 488 316 149 151 160 
279 488 317 153 154 164 
279 489 316 161 161 168 
279 489 317 157 158 167 
279 489 318 151 153 164 
278 490 316 158 159 167 
279 490 316 159 160 168 
279 490 317 154 158 168 
279 490 318 158 162 174 
279 490 319 161 165 177 
280 480 309 137 149 167 
280 480 310 145 156 173 
280 480 311 140 152 173 
280 481 310 159 167 180 
280 481 311 145 155 172 
280 480 312 125 139 167 
280 481 312 135 147 168 
280 481 313 156 162 176 
281 480 312 120 132 166 
281 480 313 136 146 170 
281 481 313 158 163 176 
281 480 314 158 163 176 
281 480 315 170 172 180 
281 481 314 171 171 178 
281 481 315 176 174 179 
280 482 312 148 156 171 
280 482 313 169 170 179 
280 483 313 173 171 178 
280 482 314 174 172 177 
280 482 315 175 171 175 
280 483 314 176 171 176 
280 483 315 175 170 174 
281 480 316 174 174 182 
281 480 317 173 175 183 
281 481 316 176 174 180 
281 481 317 175 174 181 
281 480 318 169 172 184 
281 480 319 157 164 178 
281 481 318 175 175 183 
281 481 319 171 173 184 
280 482 316 175 171 176 
280 482 317 171 170 177 
280 483 316 175 172 176 
280 483 317 172 171 178 
281 482 316 175 172 178 
281 482 317 174 172 179 
280 482 318 170 171 180 
280 483 318 170 170 180 
280 483 319 162 165 176 
281 482 318 173 173 180 
281 482 319 167 169 179 
281 483 319 160 164 175 
282 480 316 175 176 183 
282 480 317 164 170 182 
282 480 318 152 161 177 
282 480 319 138 151 170 
280 484 313 173 171 178 
280 484 314 172 170 176 
280 484 315 172 170 175 
280 485 315 171 170 178 
280 484 316 174 171 177 
280 484 317 172 171 178 
280 485 316 170 170 177 
280 485 317 170 169 176 
280 484 318 167 168 177 
280 484 319 157 161 173 
280 485 318 166 166 174 
280 485 319 155 159 170 
280 486 316 164 166 176 
280 486 317 164 165 174 
280 487 317 147 151 164 
280 486 318 162 163 173 
280 486 319 154 157 167 
280 487 318 152 155 168 
280 487 319 153 155 167 
280 488 317 142 145 157 
280 488 318 144 145 160 
280 488 319 150 151 163 
280 489 318 150 151 163 
280 489 319 147 150 160 
280 490 319 158 162 172 
288 448 305 163 165 175 
288 449 305 162 167 180 
288 448 306 151 155 168 
288 449 306 147 154 171 
288 449 307 128 139 162 
289 448 307 141 149 167 
289 449 307 127 138 161 
288 450 306 139 147 169 
288 450 307 117 129 158 
288 451 306 116 127 158 
288 451 307 109 121 155 
288 449 308 119 132 160 
288 449 309 115 129 158 
289 448 308 128 137 164 
289 448 309 118 127 161 
289 449 308 120 132 160 
289 449 309 115 126 156 
289 448 310 117 124 158 
289 448 311 125 133 163 
289 449 310 119 129 160 
289 449 311 127 138 164 
288 450 308 116 130 157 
288 450 309 109 127 155 
288 451 308 93 109 147 
288 451 309 101 120 157 
289 450 309 112 127 154 
288 451 310 120 138 169 
289 450 310 110 128 160 
289 450 311 125 139 168 
289 451 310 118 137 169 
289 451 311 127 143 173 
288 452 307 118 132 159 
288 453 307 154 163 185 
288 454 307 153 161 181 
288 452 308 115 132 165 
288 452 309 114 131 168 
288 453 308 136 149 178 
288 453 309 126 143 179 
289 453 309 127 143 181 
288 452 310 116 134 167 
289 452 310 121 138 171 
289 452 311 130 145 174 
289 453 310 131 146 181 
289 453 311 132 147 179 
288 454 308 139 151 178 
288 454 309 126 143 177 
288 455 308 139 150 176 
288 455 309 121 137 172 
289 454 309 117 136 176 
289 455 309 109 130 170 
289 454 310 111 130 174 
289 454 311 114 132 172 
289 455 310 104 125 167 
289 455 311 98 121 165 
289 448 312 116 125 152 
289 448 313 90 100 140 
289 449 312 129 140 160 
289 449 313 115 129 151 
289 448 314 88 100 140 
289 448 315 90 103 139 
289 449 314 75 94 128 
289 449 315 63 83 121 
289 450 312 141 151 172 
289 450 313 143 150 167 
289 451 312 146 154 177 
289 451 313 150 153 170 
289 450 314 129 137 151 
289 450 315 91 108 132 
289 451 314 148 151 163 
289 451 315 136 144 158 
289 448 316 93 110 137 
289 448 317 92 116 142 
289 449 316 82 97 128 
289 449 317 99 116 146 
289 450 316 67 86 118 
289 450 317 98 113 142 
289 451 316 102 118 141 
289 451 317 88 110 138 
290 448 316 97 117 143 
290 448 317 99 124 151 
290 449 317 100 117 154 
290 448 318 102 128 161 
290 449 318 97 118 160 
291 448 318 98 124 162 
291 449 318 97 121 164 
291 449 319 96 119 164 
290 451 317 80 109 140 
290 450 318 104 120 163 
290 451 318 100 122 161 
290 451 319 101 122 169 
291 450 318 97 116 164 
291 450 319 96 117 166 
291 451 319 100 121 169 
288 453 313 162 164 174 
289 452 312 151 158 178 
289 452 313 154 158 171 
289 453 312 149 158 182 
289 453 313 156 161 175 
289 452 314 153 155 165 
289 452 315 136 144 159 
289 453 314 159 162 171 
289 453 315 138 146 162 
288 454 313 133 145 168 
288 455 313 102 118 151 
289 454 312 130 142 172 
289 454 313 146 153 174 
289 455 312 102 121 157 
289 455 313 118 132 161 
288 454 314 134 146 165 
288 454 315 121 135 155 
288 455 314 99 121 150 
288 455 315 96 119 148 
289 454 314 151 157 169 
289 454 315 124 135 154 
289 452 316 95 113 143 
289 452 317 70 95 136 
289 453 316 98 115 145 
289 453 317 106 121 156 
289 453 318 106 126 159 
288 454 316 97 116 143 
288 454 317 107 123 147 
288 455 316 92 116 144 
288 455 317 102 121 148 
289 454 316 98 113 145 
289 454 317 112 127 155 
288 455 318 109 128 153 
289 454 318 112 130 159 
289 455 318 116 132 157 
289 455 319 138 152 172 
290 452 317 67 99 135 
290 452 318 99 124 158 
290 452 319 107 125 166 
290 453 318 104 126 160 
290 453 319 114 133 168 
291 452 319 106 124 169 
291 453 319 102 124 162 
290 454 319 142 157 181 
290 455 319 163 169 186 
292 448 319 99 121 168 
292 449 319 94 119 164 
293 448 319 100 124 168 
292 450 319 87 112 159 
288 456 308 150 160 179 
288 456 309 138 152 175 
288 457 308 155 163 180 
288 457 309 154 163 181 
288 456 310 144 158 179 
288 457 310 168 173 187 
288 457 311 179 182 192 
289 456 310 121 140 174 
289 456 311 135 151 178 
288 458 309 158 163 181 
288 458 310 178 179 189 
288 458 311 187 185 192 
288 456 312 139 152 174 
288 456 313 123 134 166 
288 457 312 178 180 189 
288 457 313 153 160 182 
288 456 314 102 121 159 
288 456 315 93 117 153 
288 458 312 180 180 187 
288 456 317 95 120 150 
288 456 318 110 130 156 
288 457 318 113 133 159 
288 457 319 143 152 171 
289 456 319 149 157 175 
289 457 319 157 161 176 
288 458 316 74 101 149 
288 459 316 69 94 150 
288 459 317 71 94 149 
288 458 318 104 121 151 
288 458 319 147 155 174 
288 459 319 101 121 150 
290 456 319 164 168 184 
288 460 316 84 105 154 
288 460 317 81 101 152 
287 460 320 105 121 156 
287 461 320 121 137 162 
286 463 320 126 140 160 
287 462 320 108 129 161 
287 462 321 91 117 154 
287 463 320 116 135 159 
287 463 321 137 152 172 
285 466 320 143 154 173 
286 464 320 143 153 169 
286 464 321 159 165 179 
286 465 320 149 158 174 
286 465 321 156 162 175 
287 464 320 147 157 174 
287 464 321 160 166 180 
287 465 321 158 163 176 
287 464 322 162 167 179 
287 464 323 158 164 178 
287 465 322 157 163 175 
287 465 323 150 158 172 
286 466 320 152 161 177 
286 466 321 155 161 175 
286 467 320 152 159 177 
286 467 321 150 157 172 
286 467 322 145 154 170 
287 466 322 152 159 173 
287 466 323 139 151 168 
287 467 322 141 153 171 
287 467 323 113 131 158 
285 468 320 126 140 164 
285 469 320 65 100 139 
285 469 321 80 110 145 
285 470 320 80 107 155 
285 470 321 74 104 148 
285 471 320 93 115 161 
285 471 321 89 114 160 
285 471 322 91 116 160 
286 468 320 145 154 173 
286 468 321 146 155 173 
286 469 321 121 139 163 
286 468 322 137 149 170 
286 469 322 112 131 160 
287 468 322 123 138 163 
287 468 323 89 109 146 
287 469 323 74 94 143 
286 470 321 83 111 152 
286 471 321 76 105 155 
286 470 322 81 109 149 
286 470 323 73 100 147 
286 471 322 82 108 155 
286 471 323 81 102 151 
287 470 323 71 90 144 
287 471 323 68 88 141 
287 468 324 86 107 147 
287 469 324 73 94 141 
287 470 324 76 98 145 
287 471 324 77 102 146 
287 471 325 87 111 153 
283 476 322 113 131 164 
283 476 323 122 140 169 
283 477 322 135 148 171 
283 477 323 149 161 178 
283 479 320 121 138 162 
283 479 321 114 130 156 
283 478 322 147 158 175 
283 478 323 151 160 176 
283 479 322 126 140 163 
283 479 323 149 159 176 
283 478 324 151 159 174 
283 478 325 148 153 166 
283 479 324 153 161 177 
283 479 325 152 158 170 
283 479 326 149 154 165 
283 479 327 161 165 177 
284 473 320 103 121 163 
284 473 321 93 115 160 
285 472 320 104 123 163 
285 472 321 99 123 161 
285 473 320 98 117 162 
285 473 321 88 113 157 
284 473 322 88 112 159 
285 472 322 91 117 157 
285 472 323 84 111 150 
285 473 322 86 112 155 
285 473 323 86 109 151 
284 474 320 86 108 160 
284 474 321 87 110 162 
284 475 320 83 108 162 
284 475 321 83 107 163 
285 474 320 90 112 162 
284 474 322 91 113 161 
284 474 323 82 107 150 
284 475 322 86 110 160 
284 475 323 80 106 151 
285 474 322 93 114 160 
285 474 323 94 113 157 
285 475 323 84 107 152 
286 472 323 84 106 149 
286 473 323 87 107 146 
284 475 324 80 107 146 
285 474 324 92 112 152 
285 475 324 85 108 149 
286 472 324 73 96 144 
286 473 324 82 102 144 
286 473 325 87 107 148 
287 472 324 78 102 146 
287 472 325 90 109 156 
287 473 325 86 107 155 
287 473 326 96 119 167 
286 474 324 91 110 149 
286 474 325 88 109 149 
286 475 324 85 105 144 
286 475 325 88 110 148 
287 474 325 89 112 156 
286 475 326 95 118 155 
287 474 326 93 116 163 
287 475 326 93 117 159 
287 475 327 96 124 167 
284 476 320 82 107 160 
284 476 321 92 114 162 
284 477 320 112 133 167 
284 477 321 124 141 169 
285 476 320 81 107 163 
284 476 322 99 119 161 
284 476 323 114 133 164 
284 477 323 140 154 175 
284 478 320 126 143 170 
284 478 321 136 149 170 
284 479 320 110 129 156 
284 479 321 118 134 157 
284 478 322 137 150 168 
284 476 324 116 133 159 
284 476 325 124 138 158 
284 477 324 143 154 171 
284 477 325 136 145 160 
285 476 324 91 114 148 
285 476 325 114 130 154 
285 477 325 126 138 156 
284 477 326 137 145 160 
285 476 326 116 133 156 
285 477 326 126 140 159 
285 477 327 126 141 162 
284 478 325 144 151 164 
284 478 326 144 151 164 
284 478 327 152 160 174 
284 479 327 160 165 178 
285 478 326 141 149 164 
285 478 327 147 158 175 
286 476 325 101 122 152 
286 476 326 111 131 161 
286 476 327 120 137 165 
286 477 327 120 136 162 
287 476 327 121 142 171 
287 475 328 107 133 172 
284 479 328 168 173 186 
285 478 328 158 167 184 
285 478 329 152 163 180 
285 479 328 165 172 185 
285 479 329 152 163 180 
285 479 330 147 160 183 
286 477 328 139 154 174 
286 477 329 155 167 186 
287 476 328 137 155 182 
287 476 329 153 166 189 
287 477 328 150 162 182 
287 477 329 155 167 187 
286 477 330 159 171 191 
287 477 330 160 170 188 
287 477 331 162 171 187 
286 478 328 142 156 176 
286 478 329 155 168 187 
286 478 330 152 167 188 
286 479 330 142 158 181 
286 479 331 133 150 176 
287 478 330 159 171 191 
287 478 331 150 164 183 
287 479 331 132 149 173 
287 478 332 135 151 173 
287 479 332 130 147 170 
287 479 333 130 146 168 
281 480 320 148 158 175 
281 481 320 149 159 176 
281 481 321 122 139 163 
281 481 322 117 133 162 
281 481 323 129 144 168 
281 482 320 152 159 173 
281 482 321 138 150 170 
281 483 320 154 160 173 
281 483 321 159 165 178 
281 482 322 137 148 171 
281 482 323 137 149 171 
281 483 322 162 168 182 
281 483 323 166 172 186 
282 480 320 138 152 172 
282 480 321 137 151 174 
282 481 320 133 148 170 
282 481 321 127 142 167 
283 480 320 134 148 170 
283 480 321 128 143 167 
282 480 322 117 132 161 
282 480 323 129 142 167 
282 481 322 126 143 168 
282 481 323 126 141 165 
283 480 322 120 135 163 
283 480 323 131 143 169 
281 481 324 140 152 171 
281 481 325 136 146 161 
281 482 324 139 152 170 
281 482 325 134 145 162 
281 483 324 157 166 181 
281 483 325 133 145 163 
281 482 326 126 136 152 
281 483 326 117 131 149 
281 483 327 115 128 147 
282 480 324 147 157 175 
282 480 325 150 156 169 
282 481 324 136 147 165 
282 481 325 138 146 162 
282 480 326 149 153 164 
282 480 327 153 156 165 
282 481 326 143 149 161 
282 481 327 157 159 168 
283 480 327 160 163 173 
282 482 326 135 143 157 
282 482 327 145 151 163 
282 483 327 131 141 156 
280 484 320 153 159 171 
280 485 320 154 158 170 
281 484 320 157 162 174 
281 484 321 165 167 177 
281 485 320 155 159 172 
281 485 321 165 166 176 
281 484 322 171 173 183 
281 484 323 176 178 187 
281 485 322 174 174 182 
281 485 323 176 176 185 
280 486 320 156 159 169 
280 486 321 168 169 178 
280 487 320 162 162 171 
280 487 321 171 170 178 
280 486 322 174 173 181 
280 486 323 175 174 183 
280 487 322 174 173 181 
280 487 323 173 174 183 
281 487 322 174 173 181 
281 487 323 174 174 183 
280 485 324 169 172 183 
281 484 324 169 174 186 
281 484 325 150 159 174 
281 485 324 169 172 183 
281 485 325 158 164 178 
281 484 326 125 138 157 
281 484 327 113 126 146 
281 485 326 138 147 165 
281 485 327 113 125 145 
280 486 324 170 172 182 
280 487 324 170 173 184 
281 486 324 169 171 182 
281 486 325 161 166 179 
281 487 324 169 172 183 
281 487 325 162 166 178 
281 486 326 140 148 165 
281 486 327 119 130 149 
281 487 326 140 147 164 
281 487 327 126 136 154 
283 480 328 168 170 180 
283 481 328 166 168 177 
283 481 329 168 171 182 
282 482 328 162 164 175 
282 483 328 145 152 165 
283 482 328 165 167 176 
283 482 329 169 170 179 
283 483 328 159 163 174 
283 483 329 161 165 176 
281 484 328 115 127 145 
281 486 328 124 134 150 
281 487 328 127 137 153 
282 484 328 136 145 160 
282 484 329 155 160 172 
282 485 328 127 137 154 
282 485 329 152 157 169 
283 484 329 162 166 177 
283 485 329 161 164 175 
283 484 330 168 170 180 
283 485 330 167 169 179 
282 486 328 138 145 159 
282 486 329 152 157 168 
282 487 328 139 147 160 
282 487 329 147 154 166 
282 486 330 163 166 176 
282 487 330 157 164 178 
283 486 330 169 172 182 
283 486 331 165 170 182 
283 487 330 156 163 177 
283 487 331 154 164 179 
283 487 332 156 166 182 
284 480 328 169 172 183 
284 480 329 161 168 183 
284 481 329 160 167 181 
285 480 329 148 160 180 
284 481 330 149 159 176 
285 480 330 141 155 179 
285 480 331 134 149 176 
285 481 330 136 148 169 
285 481 331 130 143 168 
284 482 329 172 175 185 
284 482 330 168 172 185 
284 483 330 172 175 186 
284 483 331 174 178 190 
285 482 330 166 172 185 
285 482 331 159 167 183 
285 483 331 174 178 190 
286 480 331 134 149 177 
286 481 331 125 141 168 
285 483 332 168 173 185 
286 480 332 133 148 173 
286 481 332 122 140 166 
286 481 333 115 134 161 
287 480 332 133 149 173 
287 480 333 130 145 168 
287 481 333 124 140 164 
287 481 334 123 140 164 
286 482 332 140 153 172 
286 482 333 122 138 162 
286 483 332 155 163 178 
286 483 333 134 145 167 
287 482 333 120 136 160 
287 483 333 122 136 160 
287 482 334 129 143 164 
287 483 334 131 144 165 
284 484 330 171 173 183 
284 484 331 173 176 186 
284 485 330 171 173 183 
284 485 331 171 173 183 
284 486 331 168 173 184 
284 485 332 171 173 184 
285 484 332 166 170 182 
285 485 332 160 165 178 
285 485 333 150 159 175 
284 486 332 162 168 182 
284 487 332 157 166 180 
284 487 333 148 157 172 
285 486 332 157 164 179 
285 486 333 143 153 171 
285 487 333 145 154 169 
285 486 334 139 150 168 
285 487 334 140 151 167 
286 484 333 142 151 170 
286 485 333 143 153 170 
286 485 334 137 148 166 
287 484 334 132 144 163 
287 485 334 130 143 162 
287 485 335 132 145 163 
286 486 334 132 146 165 
286 487 334 137 149 166 
286 487 335 128 142 162 
287 486 335 117 134 156 
287 487 335 121 136 159 
280 488 320 164 163 170 
280 488 321 174 172 178 
280 489 320 156 158 167 
280 489 321 166 167 176 
280 488 322 174 174 182 
280 488 323 174 175 184 
280 489 322 173 173 183 
280 489 323 175 176 185 
280 490 320 153 159 170 
280 490 321 146 155 171 
280 490 322 153 162 180 
280 490 323 162 168 183 
280 488 324 171 173 184 
280 488 325 162 166 178 
280 489 324 172 174 186 
280 489 325 158 165 180 
281 488 325 155 161 174 
280 488 326 142 152 169 
280 489 326 140 152 170 
280 489 327 128 143 164 
281 488 326 142 150 165 
281 488 327 129 140 157 
281 489 327 126 140 160 
280 490 324 162 170 186 
280 490 325 141 154 178 
280 490 326 120 138 168 
280 490 327 106 125 155 
281 488 328 118 131 149 
281 489 328 105 123 145 
281 489 329 102 121 145 
281 489 330 105 123 153 
280 490 328 84 106 141 
281 490 328 96 117 144 
281 490 329 100 120 145 
281 490 330 109 127 156 
281 490 331 106 127 161 
282 488 329 121 135 155 
282 489 329 103 123 149 
282 488 330 122 138 161 
282 488 331 110 130 159 
282 489 330 98 119 151 
282 489 331 102 122 159 
283 488 331 129 146 169 
283 489 331 104 124 160 
282 490 331 105 125 162 
283 488 332 132 149 173 
283 489 332 91 114 155 
283 489 333 86 109 151 
282 490 332 95 116 160 
282 490 333 87 107 155 
282 491 332 96 117 162 
282 491 333 91 110 159 
283 490 332 83 106 153 
283 490 333 81 102 151 
282 491 334 87 105 153 
283 490 334 82 100 150 
283 491 334 84 103 151 
283 491 335 74 95 143 
284 488 332 145 159 178 
284 488 333 135 149 168 
284 489 333 101 122 153 
285 488 333 135 147 165 
284 489 334 85 108 148 
285 488 334 129 144 163 
285 489 334 93 113 150 
285 489 335 102 121 154 
284 490 334 74 96 145 
284 490 335 75 94 146 
284 491 335 71 93 142 
285 490 335 74 94 143 
286 488 334 134 147 165 
286 488 335 113 130 155 
286 489 335 98 118 150 
287 487 336 111 129 154 
284 491 336 68 92 139 
285 490 336 77 99 144 
285 491 336 73 96 143 
286 489 336 91 111 149 
287 488 336 99 120 149 
287 489 336 91 113 149 
287 489 337 91 113 149 
286 490 336 83 104 146 
286 490 337 86 105 148 
286 491 336 80 100 146 
286 491 337 77 98 144 
287 490 337 92 111 151 
286 491 338 72 96 143 
287 490 338 93 113 153 
287 491 338 81 104 148 
285 492 336 65 90 139 
285 492 337 67 91 141 
286 492 337 68 92 142 
286 492 338 71 93 145 
287 492 338 68 94 144 
287 492 339 63 92 142 
287 493 338 78 102 150 
287 493 339 72 100 149 
291 452 320 100 121 163 
291 453 320 106 127 163 
291 454 320 152 163 187 
291 455 320 170 174 192 
291 455 321 159 166 184 
292 449 320 94 119 161 
293 448 320 98 124 165 
293 449 320 101 125 165 
292 450 320 87 113 160 
292 451 320 93 118 162 
292 451 321 86 114 159 
293 450 320 89 115 161 
293 450 321 96 120 168 
293 451 321 85 111 163 
294 448 320 109 133 166 
294 448 321 131 152 177 
294 449 320 114 136 170 
294 449 321 121 141 176 
295 448 321 164 175 195 
295 449 321 144 160 189 
295 448 322 183 188 205 
295 449 322 142 159 189 
294 450 321 94 116 170 
294 451 321 98 118 177 
294 451 322 101 119 184 
295 450 322 86 111 170 
295 450 323 84 114 170 
295 451 322 90 111 178 
295 451 323 93 116 179 
295 451 324 89 110 173 
292 452 320 95 121 159 
292 453 320 89 112 157 
292 453 321 84 112 157 
293 452 321 93 117 164 
293 453 321 76 108 156 
293 452 322 98 120 173 
293 453 322 92 118 170 
292 454 320 122 141 173 
292 454 321 118 139 174 
292 455 321 147 159 183 
292 455 322 133 151 182 
293 454 322 103 129 175 
293 454 323 107 129 183 
293 455 322 120 142 181 
293 455 323 106 132 177 
294 452 321 99 118 174 
294 452 322 97 118 179 
294 452 323 86 111 174 
294 453 322 104 124 176 
294 453 323 104 125 181 
295 452 323 86 112 175 
294 454 323 112 131 183 
294 455 323 99 123 176 
294 453 324 105 128 182 
295 452 324 83 109 170 
295 452 325 73 99 164 
295 453 324 94 118 175 
295 453 325 86 108 168 
294 454 324 114 134 181 
294 455 324 102 121 180 
295 454 324 110 128 178 
295 454 325 103 117 172 
295 455 324 116 130 182 
295 455 325 108 118 173 
295 455 326 98 109 166 
289 457 320 165 168 181 
288 458 320 161 167 184 
288 459 320 99 120 152 
289 458 320 167 172 186 
289 459 320 143 155 174 
289 459 321 132 148 170 
290 456 320 172 174 187 
290 457 320 168 171 185 
290 457 321 160 168 185 
291 456 320 171 173 188 
291 456 321 162 169 186 
291 457 321 161 168 185 
291 457 322 127 147 172 
290 458 321 147 159 178 
290 459 321 133 148 170 
290 458 322 129 145 167 
290 459 322 136 150 170 
291 458 322 135 151 174 
291 458 323 159 168 186 
291 459 323 168 173 187 
288 460 320 95 114 153 
288 460 321 90 111 155 
288 461 320 110 128 161 
288 461 321 103 124 163 
289 460 320 93 115 148 
289 460 321 93 117 156 
289 460 322 100 122 158 
289 461 322 90 115 156 
289 461 323 89 111 153 
288 462 321 94 119 156 
288 462 322 103 126 158 
288 463 322 144 155 174 
288 463 323 146 156 173 
289 462 322 107 130 165 
289 462 323 99 121 158 
289 463 323 111 130 154 
290 460 322 134 148 173 
290 460 323 147 158 179 
290 461 323 107 124 162 
291 460 323 160 167 185 
291 461 323 135 149 175 
289 463 324 153 165 186 
290 461 324 127 140 174 
291 460 324 171 178 195 
291 461 324 172 178 195 
291 461 325 191 191 201 
290 462 324 150 160 186 
290 462 325 180 186 202 
290 463 325 145 159 183 
291 462 325 182 187 201 
291 463 325 124 139 171 
291 463 326 145 160 190 
292 456 322 135 154 180 
292 457 322 116 139 170 
292 457 323 139 156 184 
293 456 323 137 157 189 
293 457 323 173 181 201 
292 458 322 137 154 178 
292 458 323 170 177 194 
292 459 323 184 186 199 
293 457 324 185 190 206 
292 458 324 196 196 207 
292 459 324 192 193 206 
292 459 325 192 194 207 
293 458 324 194 195 207 
293 458 325 189 192 206 
293 459 325 188 192 207 
293 459 326 186 191 206 
294 456 324 132 148 189 
294 456 325 124 141 184 
294 457 324 174 184 207 
294 457 325 176 184 205 
295 456 325 101 118 170 
294 457 326 170 175 194 
295 456 326 106 124 169 
295 457 326 146 158 184 
295 457 327 142 155 180 
294 458 325 185 188 205 
294 458 326 175 179 196 
294 459 326 173 179 195 
294 459 327 161 168 184 
295 458 326 155 163 182 
295 458 327 149 159 179 
295 459 327 156 165 182 
292 460 324 186 189 204 
292 460 325 196 195 207 
292 461 325 190 190 201 
293 460 325 193 195 208 
292 461 326 189 188 199 
293 460 326 180 185 199 
293 461 326 179 181 194 
293 461 327 163 169 184 
292 462 325 190 191 202 
292 462 326 183 188 203 
292 462 327 174 182 199 
292 463 326 166 179 203 
292 463 327 147 164 187 
293 462 327 164 171 187 
293 463 327 145 158 179 
294 460 326 176 182 197 
294 460 327 162 168 185 
294 461 327 159 165 183 
295 460 327 152 160 180 
293 462 328 140 154 175 
293 463 328 131 149 172 
294 461 328 146 157 179 
295 460 328 150 160 180 
295 460 329 142 160 185 
295 461 328 143 157 180 
295 461 329 140 158 183 
294 462 328 132 149 175 
294 463 328 126 148 174 
294 463 329 142 158 181 
295 462 328 128 148 177 
295 462 329 143 160 185 
295 463 329 163 174 193 
295 463 330 183 188 205 
296 448 322 178 185 203 
296 448 323 163 176 199 
296 449 323 125 148 185 
296 450 323 82 113 169 
296 449 324 93 120 170 
297 448 324 127 149 182 
297 448 325 84 122 169 
297 449 324 87 118 165 
297 449 325 60 104 162 
296 450 324 73 100 164 
296 450 325 59 90 159 
296 451 324 81 101 168 
296 451 325 83 103 168 
297 450 325 53 89 157 
297 451 325 77 100 166 
297 450 326 59 95 164 
297 451 326 80 105 172 
298 448 325 75 118 174 
298 448 326 106 139 188 
298 449 326 76 114 174 
299 448 326 119 148 193 
299 448 327 132 157 197 
299 449 326 83 119 178 
299 449 327 109 139 191 
298 450 326 64 101 173 
298 450 327 73 107 178 
298 451 327 87 112 180 
299 450 327 84 115 182 
299 451 327 94 120 184 
296 452 325 76 98 163 
296 453 325 75 97 161 
296 453 326 69 94 158 
297 452 326 79 103 167 
297 452 327 87 111 174 
297 453 326 69 97 161 
297 453 327 81 105 169 
296 454 326 92 108 166 
296 454 327 95 111 173 
296 455 326 95 107 165 
296 455 327 93 107 169 
297 454 327 99 117 176 
297 455 327 106 117 176 
298 452 327 95 119 183 
298 453 327 90 114 176 
299 452 327 105 126 190 
300 448 327 134 157 198 
300 449 327 121 151 200 
301 448 327 116 140 190 
301 449 327 118 148 198 
300 450 327 98 130 190 
302 448 327 109 132 188 
299 451 328 101 125 187 
297 455 328 112 117 174 
298 453 328 92 116 179 
299 452 328 100 123 189 
299 453 328 96 118 185 
298 454 328 112 128 183 
298 455 328 119 132 184 
299 454 328 121 139 191 
299 455 328 124 146 194 
299 455 329 117 143 194 
301 449 328 112 142 199 
300 450 328 98 130 189 
300 451 328 103 131 189 
301 450 328 101 134 192 
301 451 328 104 134 190 
302 448 328 102 126 184 
302 449 328 97 129 188 
303 448 328 121 142 188 
303 449 328 78 116 176 
302 450 328 100 133 193 
302 451 328 94 129 186 
302 451 329 104 135 191 
303 450 328 86 123 185 
303 450 329 86 123 183 
303 451 329 106 135 190 
300 452 328 98 125 189 
300 453 328 88 116 183 
300 453 329 89 117 184 
301 452 328 107 134 190 
301 452 329 92 125 184 
301 453 329 68 108 178 
300 454 328 119 139 191 
300 454 329 129 149 196 
300 455 329 125 148 195 
301 454 329 119 142 191 
301 455 329 128 150 192 
301 455 330 128 150 191 
302 452 329 88 123 181 
302 453 329 37 92 168 
303 452 329 79 118 176 
303 453 330 32 79 159 
302 454 329 96 123 187 
302 454 330 117 140 190 
302 455 330 130 149 189 
302 455 331 131 148 188 
303 454 330 97 124 183 
303 454 331 101 126 182 
303 455 331 134 150 189 
303 455 332 133 148 186 
296 456 326 86 103 160 
296 456 327 108 128 165 
296 457 327 142 156 180 
296 458 327 144 158 180 
296 459 327 150 162 183 
296 457 328 153 166 188 
297 456 328 123 135 172 
297 457 328 163 175 193 
296 458 328 156 170 193 
296 459 328 152 166 190 
296 459 329 157 170 194 
297 458 328 175 184 203 
297 458 329 174 183 201 
297 459 328 159 171 193 
297 459 329 160 173 198 
298 456 328 131 147 182 
298 456 329 143 162 188 
298 457 329 157 169 188 
299 456 329 126 150 184 
299 457 329 159 174 199 
298 458 329 171 182 202 
298 459 329 158 173 202 
299 458 329 166 180 205 
298 459 330 153 169 197 
299 458 330 161 177 207 
299 459 330 156 172 204 
296 460 328 150 162 184 
296 460 329 142 159 185 
296 461 328 145 160 182 
296 461 329 143 158 182 
297 460 329 149 165 192 
296 461 330 165 175 194 
297 460 330 154 170 197 
297 461 330 165 176 197 
296 462 329 152 166 188 
296 462 330 180 187 203 
296 463 330 187 193 211 
296 463 331 178 186 207 
297 462 330 178 187 206 
297 463 330 181 189 210 
297 463 331 173 180 204 
298 460 330 148 165 193 
298 461 330 157 170 198 
299 460 330 138 156 191 
299 460 331 140 160 193 
299 461 330 139 154 188 
299 461 331 133 152 184 
298 462 330 170 180 205 
298 462 331 167 176 201 
298 463 331 166 175 199 
299 462 331 137 154 186 
299 463 331 141 159 189 
299 462 332 118 142 180 
299 463 332 118 144 181 
300 456 329 114 139 187 
300 457 329 151 168 201 
300 456 330 115 138 192 
300 457 330 148 164 200 
301 456 330 106 131 187 
301 457 330 125 143 190 
301 457 331 104 122 175 
300 458 330 152 169 203 
300 458 331 134 154 192 
300 459 330 148 168 201 
300 459 331 131 152 192 
301 458 330 130 146 187 
301 458 331 113 133 183 
301 459 331 108 131 180 
302 456 330 101 124 180 
302 456 331 107 127 178 
302 457 331 93 114 173 
303 456 331 120 135 183 
302 458 331 91 113 173 
301 459 332 99 125 173 
302 457 332 75 106 162 
302 457 333 82 120 167 
303 456 332 107 125 176 
303 456 333 120 141 185 
303 457 332 84 111 167 
303 457 333 98 127 177 
303 456 334 113 141 187 
303 457 334 97 127 180 
303 457 335 101 133 185 
302 458 332 84 116 168 
302 458 333 105 135 176 
302 459 332 96 123 172 
302 459 333 111 137 178 
303 458 333 103 132 175 
302 459 334 131 154 186 
302 459 335 139 159 189 
303 458 334 118 144 181 
303 458 335 132 156 189 
303 459 335 138 160 188 
300 460 331 125 147 186 
300 461 331 119 142 180 
300 461 332 109 135 175 
301 460 332 108 133 175 
301 460 333 115 138 176 
301 461 332 119 142 179 
301 461 333 117 140 176 
301 461 334 112 137 172 
301 461 335 125 146 182 
300 462 332 106 132 175 
300 462 333 104 133 181 
300 463 332 97 130 179 
300 463 333 97 126 179 
301 462 333 104 130 173 
301 463 333 95 118 170 
301 462 334 102 127 170 
301 462 335 124 146 183 
301 463 334 85 114 166 
301 463 335 119 145 182 
302 460 333 115 139 177 
302 460 334 134 155 187 
302 460 335 137 154 188 
302 461 334 125 145 179 
302 461 335 125 143 180 
303 449 342 73 109 175 
303 451 341 81 113 173 
303 450 342 73 110 172 
303 451 342 79 112 172 
303 454 339 126 149 190 
303 455 338 144 166 197 
303 455 339 139 161 195 
301 455 342 99 122 178 
302 453 341 92 115 180 
303 452 340 31 68 157 
303 452 341 58 88 164 
303 453 340 74 103 174 
303 453 341 81 105 176 
302 452 342 62 93 167 
302 453 342 91 114 178 
303 452 342 58 92 165 
302 454 341 115 135 185 
302 455 340 120 141 188 
302 455 341 115 135 184 
303 454 340 122 144 189 
303 454 341 114 135 187 
303 455 340 127 149 189 
302 454 342 107 128 182 
302 455 342 108 127 181 
299 461 342 88 119 176 
299 462 341 83 112 162 
299 463 341 83 112 162 
298 463 342 82 118 177 
299 462 342 83 114 173 
299 463 342 80 112 171 
303 456 337 98 128 181 
303 457 336 99 128 185 
303 457 337 97 125 182 
302 457 339 88 116 175 
303 456 338 109 138 184 
303 456 339 106 135 183 
303 457 338 94 123 180 
303 457 339 89 118 178 
302 459 336 135 156 186 
302 459 337 131 153 183 
303 458 336 133 156 188 
303 458 337 129 151 186 
303 459 336 136 158 186 
302 458 338 116 139 182 
302 458 339 106 128 178 
302 459 338 126 148 184 
302 459 339 121 143 182 
303 458 338 110 134 182 
301 457 341 90 117 174 
301 456 342 81 110 174 
301 457 342 81 113 172 
301 458 341 97 123 174 
301 459 340 102 130 171 
301 459 341 100 128 174 
300 458 342 84 116 171 
300 459 342 92 122 173 
301 458 342 84 116 171 
301 459 342 92 122 173 
302 456 340 96 123 179 
302 456 341 94 118 179 
302 457 340 81 112 170 
302 457 341 87 116 174 
303 456 340 110 135 185 
302 458 340 89 118 168 
302 458 341 92 119 173 
302 459 340 102 130 170 
301 461 336 115 139 176 
301 461 337 107 132 172 
301 460 339 119 142 179 
301 461 338 109 134 175 
301 461 339 110 135 176 
301 462 336 125 148 182 
301 462 337 122 146 182 
301 463 336 128 155 187 
301 463 337 128 153 187 
300 462 339 95 123 172 
300 463 338 118 141 183 
300 463 339 99 123 175 
301 462 338 119 142 182 
301 462 339 107 131 176 
301 463 338 122 146 183 
302 460 336 131 151 184 
302 460 337 123 145 179 
302 461 336 116 138 176 
302 461 337 112 136 174 
302 460 338 123 146 181 
302 460 339 123 144 183 
302 461 338 113 138 175 
300 460 341 105 133 176 
300 461 340 101 133 175 
300 461 341 98 127 172 
301 460 340 108 136 173 
301 460 341 106 134 177 
301 461 340 107 136 175 
300 460 342 95 125 173 
300 461 342 89 117 170 
300 462 340 90 123 170 
300 462 341 84 112 163 
300 463 340 86 118 168 
300 463 341 81 111 160 
288 464 322 164 170 184 
288 464 323 154 161 174 
288 465 323 149 156 169 
288 464 324 143 154 171 
288 465 324 140 150 167 
289 464 324 144 156 175 
289 464 325 158 172 194 
289 465 325 162 175 194 
288 466 324 128 140 158 
288 466 325 174 179 194 
288 467 324 113 129 155 
288 467 325 147 156 175 
289 466 325 175 183 200 
289 467 325 161 168 184 
289 466 326 185 191 208 
289 467 326 181 185 200 
290 464 325 147 163 188 
290 465 325 156 173 197 
290 464 326 144 163 192 
290 465 326 147 166 192 
291 464 326 132 151 186 
291 464 327 132 153 186 
291 465 326 143 163 192 
291 465 327 140 159 189 
290 466 326 160 173 196 
290 466 327 161 173 195 
290 467 326 189 193 210 
290 467 327 183 189 206 
291 466 327 142 159 184 
288 468 324 114 131 159 
288 468 325 142 153 176 
288 469 324 98 118 152 
288 469 325 128 146 174 
289 468 325 157 167 185 
289 469 325 134 151 180 
289 468 326 181 187 202 
289 469 326 155 169 194 
288 470 324 86 110 149 
288 470 325 102 126 163 
288 471 325 97 118 162 
288 470 326 112 136 174 
288 471 326 97 117 168 
289 470 326 121 145 181 
289 470 327 126 149 185 
289 471 326 101 120 173 
289 471 327 106 127 178 
290 468 327 189 194 209 
290 469 327 162 176 199 
290 470 327 113 139 177 
292 464 327 130 150 178 
292 465 327 137 156 182 
291 466 328 140 154 178 
291 467 328 166 176 195 
291 467 329 154 165 188 
289 471 328 100 121 174 
290 468 328 180 187 203 
290 469 328 151 167 192 
291 468 328 168 177 195 
291 468 329 149 161 184 
291 469 329 130 150 180 
290 470 328 110 135 174 
290 471 328 101 123 175 
290 471 329 95 117 169 
291 470 329 97 124 167 
291 471 329 86 111 166 
291 470 330 98 125 170 
291 471 330 82 105 161 
292 464 328 137 153 175 
292 465 328 142 155 178 
293 464 328 140 155 176 
293 464 329 157 168 187 
293 465 328 152 163 184 
293 465 329 157 166 185 
292 466 328 128 144 170 
292 466 329 140 154 179 
292 467 328 143 156 180 
292 467 329 132 150 176 
293 466 329 151 162 184 
292 467 330 129 147 173 
293 467 330 136 152 178 
294 464 329 162 170 189 
294 465 329 166 173 192 
295 464 329 167 174 192 
294 465 330 164 171 192 
295 464 330 178 183 201 
295 465 330 172 178 199 
295 465 331 172 179 199 
294 466 329 158 166 188 
294 466 330 155 165 186 
294 467 330 141 157 184 
295 466 330 163 171 192 
295 466 331 168 176 197 
295 467 330 152 166 191 
295 467 331 155 169 192 
292 468 329 139 154 178 
292 468 330 133 149 178 
292 469 330 127 145 177 
293 468 330 133 149 177 
293 469 330 135 151 178 
293 469 331 133 154 183 
292 470 330 102 123 167 
292 470 331 103 125 170 
292 471 330 86 109 166 
292 471 331 96 121 179 
293 470 331 128 151 188 
293 471 331 111 135 191 
294 468 330 135 153 182 
294 468 331 133 153 181 
294 469 331 154 173 200 
295 468 331 149 167 192 
295 469 331 154 173 197 
294 470 331 144 165 198 
293 471 332 96 126 173 
295 468 332 155 172 195 
295 469 332 157 172 193 
294 470 332 149 169 196 
294 471 332 113 140 180 
294 471 333 100 126 173 
295 470 332 162 177 199 
295 470 333 163 178 201 
295 471 332 139 160 190 
295 471 333 116 141 179 
288 472 325 98 115 166 
288 472 326 96 116 170 
288 472 327 87 113 169 
288 473 326 90 113 165 
288 473 327 85 111 167 
289 472 327 94 117 172 
289 473 327 77 108 164 
288 474 326 93 117 165 
288 474 327 93 115 168 
288 473 328 83 110 167 
289 472 328 74 102 163 
289 473 328 73 104 162 
289 473 329 68 96 158 
288 474 328 101 123 175 
288 475 328 106 133 175 
288 475 329 109 136 174 
289 474 328 94 118 171 
289 474 329 89 112 168 
289 475 329 100 125 171 
289 474 330 88 111 167 
289 475 330 97 126 168 
289 475 331 91 119 163 
290 472 328 80 103 166 
290 472 329 67 94 162 
290 473 329 57 86 155 
291 472 329 78 104 167 
290 473 330 66 93 159 
291 472 330 64 92 162 
291 473 330 69 93 160 
290 474 330 78 101 162 
290 474 331 98 118 169 
290 475 330 91 115 166 
290 475 331 90 112 164 
291 474 330 74 98 158 
291 474 331 73 97 157 
291 475 331 87 105 162 
290 474 332 92 117 165 
290 475 332 86 114 159 
291 474 332 106 128 173 
291 474 333 121 140 177 
291 475 332 97 123 165 
291 475 333 112 135 174 
288 476 329 142 159 187 
288 476 330 149 164 187 
288 476 331 135 154 179 
288 477 331 149 161 180 
289 476 331 121 144 175 
288 476 332 129 149 176 
288 477 332 136 152 173 
289 476 332 116 139 171 
289 477 332 136 152 177 
289 477 333 143 157 179 
288 478 332 138 153 173 
288 478 333 141 155 175 
288 479 333 137 151 171 
289 478 333 148 160 178 
289 479 333 150 161 179 
289 479 334 149 160 179 
290 476 332 111 135 171 
290 476 333 128 148 182 
290 477 333 144 158 183 
291 476 333 119 140 174 
291 477 333 129 148 177 
291 477 334 130 149 178 
290 478 333 155 166 185 
290 478 334 152 164 187 
290 479 334 154 165 184 
291 478 334 132 149 179 
291 479 334 142 155 180 
291 479 335 125 141 172 
292 472 330 74 101 170 
292 472 331 85 111 178 
292 473 331 73 98 162 
293 472 331 83 109 170 
293 473 331 79 104 169 
292 474 331 88 109 166 
292 473 332 88 110 169 
292 473 333 105 123 172 
293 472 332 90 116 171 
293 472 333 106 131 191 
293 473 332 80 106 167 
293 473 333 102 125 176 
292 474 332 110 129 172 
292 474 333 142 160 192 
292 475 333 144 158 189 
293 474 333 147 165 197 
293 475 333 150 164 192 
293 475 334 150 164 192 
294 472 332 97 121 174 
294 472 333 98 120 178 
294 473 333 96 118 172 
295 472 333 93 116 170 
295 473 333 93 112 173 
295 472 334 93 112 171 
295 473 334 88 110 168 
294 474 333 114 131 174 
294 474 334 132 155 195 
294 475 334 130 150 184 
294 475 335 123 144 181 
295 474 334 88 116 167 
295 474 335 87 119 169 
295 475 335 118 142 183 
292 476 333 125 142 178 
292 476 334 132 147 180 
292 477 334 125 145 176 
293 476 334 142 156 184 
293 477 334 122 142 174 
293 477 335 126 144 177 
292 478 334 120 141 175 
292 478 335 111 134 172 
292 479 335 109 131 168 
293 478 335 108 132 173 
294 476 335 120 140 176 
294 477 335 113 135 175 
295 476 335 109 134 175 
294 478 335 103 130 176 
296 464 330 184 189 209 
296 464 331 179 186 208 
296 465 331 172 179 202 
297 464 331 163 171 201 
297 465 331 147 161 191 
296 466 331 157 168 194 
296 467 331 150 164 187 
297 466 331 138 153 181 
298 464 331 147 161 189 
297 465 332 129 148 181 
296 467 332 132 152 181 
297 466 332 120 140 177 
297 467 332 117 142 181 
297 467 333 134 157 195 
298 464 332 120 143 177 
298 465 332 109 134 174 
299 464 332 104 134 176 
299 464 333 94 127 177 
299 465 332 91 123 170 
299 465 333 92 124 174 
298 466 332 97 123 173 
298 466 333 87 115 168 
298 467 333 108 134 182 
299 466 333 86 123 171 
298 467 334 90 119 172 
299 466 334 105 137 181 
299 467 334 94 126 175 
299 467 335 102 136 179 
296 468 332 144 165 192 
296 469 332 160 175 196 
296 469 333 160 175 197 
297 468 332 129 155 184 
297 468 333 142 163 196 
297 469 333 146 166 195 
297 469 334 115 141 179 
296 470 333 154 171 197 
296 471 333 119 145 181 
297 470 333 130 153 185 
296 471 334 109 135 180 
297 470 334 114 142 183 
297 471 334 113 140 185 
297 471 335 101 127 180 
298 468 333 119 142 186 
298 468 334 82 114 170 
298 468 335 73 108 167 
298 469 334 87 116 169 
298 469 335 73 104 168 
299 468 335 88 123 173 
298 470 334 111 137 183 
298 470 335 85 117 174 
298 471 335 84 113 174 
300 464 333 100 126 180 
300 465 333 102 130 182 
300 464 334 83 115 167 
300 464 335 111 142 178 
300 465 334 102 132 178 
300 465 335 128 156 191 
301 464 335 116 147 182 
300 466 334 108 138 181 
300 466 335 124 151 190 
300 467 335 106 137 180 
296 472 334 93 118 170 
296 472 335 102 126 175 
296 473 334 86 111 169 
296 473 335 97 123 175 
297 472 335 100 124 176 
296 474 335 95 125 175 
295 475 336 109 134 177 
295 472 342 83 111 174 
295 473 342 80 111 174 
295 474 341 79 115 172 
295 475 340 88 126 175 
295 475 341 82 120 172 
294 474 342 72 102 169 
294 475 342 75 110 166 
295 474 342 75 109 169 
295 475 342 78 114 169 
292 479 336 104 130 170 
293 478 336 101 129 172 
293 479 336 104 132 173 
293 479 337 102 131 171 
294 477 336 106 132 177 
295 476 336 95 123 171 
295 476 337 79 115 162 
295 477 336 96 124 171 
295 477 337 83 119 166 
295 476 338 103 136 180 
295 476 339 98 134 180 
295 477 338 99 133 176 
295 477 339 101 134 179 
294 478 336 94 125 170 
294 478 337 91 125 168 
294 479 337 94 126 169 
295 478 337 85 121 166 
294 479 338 93 126 170 
294 479 339 101 134 178 
295 478 338 90 126 171 
295 478 339 96 130 176 
293 477 342 76 114 167 
293 479 341 110 141 176 
293 478 342 95 128 172 
293 479 342 110 140 176 
294 476 341 93 124 173 
294 477 341 85 120 169 
295 476 340 93 129 177 
295 476 341 95 129 176 
295 477 340 100 133 179 
295 477 341 94 127 174 
294 476 342 81 114 168 
294 477 342 78 114 167 
294 478 340 95 130 177 
294 478 341 85 122 170 
294 479 340 98 134 177 
294 479 341 100 134 175 
295 478 340 96 130 177 
294 478 342 94 127 171 
299 467 336 109 142 184 
299 467 337 104 138 185 
299 466 339 103 136 184 
299 467 338 104 136 185 
299 467 339 99 128 181 
297 466 342 75 114 173 
297 467 342 73 106 169 
299 464 340 101 131 176 
299 464 341 94 124 171 
299 465 340 109 139 185 
299 465 341 101 133 181 
298 464 342 81 117 176 
298 465 342 86 120 179 
299 464 342 87 119 175 
299 465 342 89 123 178 
298 466 341 85 126 180 
298 467 340 85 122 177 
298 467 341 86 123 178 
299 466 340 97 135 184 
299 466 341 91 129 181 
299 467 340 89 126 178 
298 466 342 88 123 179 
298 467 342 87 122 177 
297 471 336 92 122 180 
297 471 339 87 122 177 
298 469 336 114 141 188 
298 469 337 114 146 193 
299 468 336 121 151 190 
299 468 337 112 146 192 
299 469 336 117 146 190 
299 469 337 107 142 191 
298 468 339 100 133 181 
298 469 338 97 133 183 
298 469 339 99 133 181 
299 468 338 103 138 187 
299 468 339 101 133 183 
299 469 338 98 136 187 
298 470 336 94 127 179 
298 470 337 95 130 184 
298 471 336 91 121 179 
298 471 337 94 127 184 
298 470 338 89 125 179 
298 470 339 84 122 175 
298 471 338 85 123 179 
298 471 339 84 121 176 
297 468 341 83 115 169 
297 469 341 72 107 166 
296 468 342 78 108 171 
296 469 342 74 110 172 
297 468 342 73 105 165 
297 469 342 66 100 164 
296 471 341 84 114 177 
297 470 340 76 113 174 
297 470 341 74 109 173 
297 471 340 82 118 177 
297 471 341 84 115 178 
296 470 342 82 115 177 
296 471 342 85 114 177 
297 470 342 74 109 172 
298 468 340 92 126 177 
298 468 341 93 125 178 
298 469 340 82 118 172 
298 469 341 79 113 170 
298 470 340 72 111 170 
300 464 337 116 144 184 
300 465 336 125 155 194 
300 465 337 112 144 188 
301 464 336 124 154 189 
301 464 337 122 151 189 
301 465 336 120 151 190 
300 464 338 115 141 184 
300 464 339 101 126 178 
300 465 338 108 138 184 
300 465 339 107 134 184 
301 464 338 121 148 185 
300 466 336 127 155 196 
300 466 337 108 140 187 
300 467 336 114 145 187 
300 467 337 102 136 184 
300 466 338 105 137 185 
300 466 339 110 139 187 
300 467 338 102 137 186 
300 464 340 91 122 172 
300 465 340 97 128 179 
296 473 336 91 122 174 
297 472 336 93 122 178 
297 472 337 94 126 181 
297 473 336 90 122 176 
297 473 337 92 125 178 
297 472 338 99 130 182 
297 472 339 97 128 181 
297 473 338 94 125 178 
297 473 339 92 125 178 
296 474 336 89 123 174 
296 474 337 92 126 177 
296 475 336 93 125 172 
296 475 337 79 118 168 
297 474 337 96 129 180 
296 474 338 94 125 178 
296 474 339 83 119 174 
296 475 338 95 129 177 
296 475 339 86 123 176 
297 474 338 90 122 176 
296 472 341 83 115 176 
296 473 340 79 117 173 
296 473 341 83 118 175 
297 472 340 85 121 176 
297 472 341 82 115 176 
297 473 340 85 121 175 
296 472 342 83 112 175 
296 473 342 82 113 175 
296 474 340 85 121 177 
296 474 341 84 119 176 
296 475 340 85 122 175 
296 476 336 79 114 164 
296 476 337 86 123 169 
296 476 338 105 139 182 
