ply
format ascii 1.0
comment Created by CloudCompare v2.10.1 (Zephyrus)
comment Created 1/31/20 10:54 AM
obj_info Generated by CloudCompare!
element vertex 2128
property float x
property float y
property float z
property uchar red
property uchar green
property uchar blue
end_header
109 237 304 99 81 60 
109 237 305 100 80 59 
108 238 304 99 79 56 
108 239 304 98 77 55 
109 238 304 100 80 57 
109 238 305 99 79 56 
109 239 305 98 77 55 
109 238 306 100 78 55 
109 238 307 100 76 54 
109 239 306 99 77 55 
109 239 307 100 76 54 
110 236 304 97 82 67 
110 236 305 99 79 62 
110 237 305 100 78 56 
111 236 304 97 78 59 
111 236 305 98 78 59 
110 236 306 101 76 54 
110 236 307 104 74 50 
110 237 306 101 76 53 
110 237 307 103 75 51 
111 236 306 100 75 55 
111 236 307 104 75 50 
110 238 307 101 75 53 
109 237 310 99 72 48 
109 237 311 98 71 49 
109 238 309 98 71 47 
109 239 308 100 75 53 
109 239 309 100 73 51 
108 239 310 96 72 50 
108 239 311 96 73 51 
109 238 310 98 71 48 
109 238 311 97 70 49 
109 239 310 97 71 49 
109 239 311 96 71 49 
110 236 308 105 72 48 
110 236 309 103 72 47 
110 237 308 105 74 49 
110 237 309 103 72 47 
111 236 308 105 72 47 
111 236 309 102 72 47 
110 236 310 100 71 47 
110 236 311 98 71 50 
110 237 310 100 71 47 
110 238 308 101 74 50 
110 238 309 104 71 46 
107 236 319 111 58 21 
107 237 318 111 59 28 
107 237 319 112 55 21 
107 238 317 112 57 29 
107 239 317 109 60 27 
107 238 318 113 57 28 
107 238 319 113 54 21 
107 239 318 113 57 24 
107 239 319 112 54 21 
109 234 315 93 64 44 
109 235 314 92 65 43 
109 235 315 94 63 41 
110 233 312 96 68 45 
110 233 313 94 67 44 
111 232 312 99 66 41 
111 232 313 95 66 43 
111 233 312 97 67 43 
111 233 313 95 66 43 
110 232 314 93 65 42 
110 232 315 92 63 40 
110 233 314 92 65 42 
110 233 315 92 63 41 
111 232 314 94 66 43 
110 234 312 96 70 45 
110 234 313 94 69 46 
110 235 312 96 71 48 
110 235 313 94 68 45 
110 234 314 91 66 44 
110 234 315 93 63 42 
110 235 314 93 66 43 
109 232 317 98 61 35 
109 233 316 94 59 37 
109 233 317 97 61 35 
109 232 318 99 60 34 
109 232 319 97 57 33 
109 233 318 98 59 33 
109 233 319 98 57 33 
108 235 317 103 62 30 
109 234 316 96 60 39 
109 234 317 99 61 36 
109 235 316 97 60 37 
109 235 317 101 60 32 
108 234 318 101 57 30 
108 234 319 102 55 30 
108 235 318 103 58 29 
108 235 319 104 57 27 
109 234 318 99 58 32 
109 234 319 99 55 33 
110 232 316 94 61 38 
110 232 317 95 59 36 
110 233 316 94 60 38 
109 236 312 97 70 49 
109 236 313 93 69 46 
109 237 312 96 71 51 
109 237 313 94 70 48 
108 237 314 92 66 44 
108 237 315 93 63 38 
109 236 314 93 66 43 
109 236 315 94 63 41 
109 237 314 93 67 43 
109 237 315 92 65 40 
108 238 312 96 70 51 
108 238 313 93 70 48 
108 239 312 95 70 50 
108 239 313 93 70 49 
109 238 312 96 70 51 
109 238 313 94 71 50 
108 238 314 94 68 45 
108 238 315 94 65 40 
108 239 314 93 69 46 
108 239 315 95 67 43 
110 236 312 95 70 48 
108 236 316 100 62 37 
108 236 317 106 62 32 
108 237 316 100 63 38 
108 237 317 106 62 35 
109 236 316 99 62 38 
109 236 317 101 62 34 
108 236 318 107 60 28 
108 236 319 109 58 22 
108 237 318 110 60 30 
108 238 316 100 64 37 
108 238 317 108 64 37 
108 239 316 102 63 34 
96 240 303 106 95 84 
96 241 303 108 105 105 
97 240 303 108 104 101 
97 241 303 109 108 111 
96 242 303 109 109 112 
96 243 303 113 111 112 
97 242 303 112 109 109 
97 243 303 112 105 101 
98 240 303 106 104 105 
98 241 302 109 102 100 
98 241 303 109 106 106 
99 240 302 107 101 99 
99 240 303 107 102 101 
99 241 302 106 96 89 
98 242 302 107 96 89 
98 242 303 111 105 102 
98 243 302 103 85 72 
98 243 303 109 97 89 
99 242 302 100 83 69 
99 243 302 95 64 46 
96 244 303 113 104 99 
96 245 303 104 80 66 
97 244 303 105 88 78 
97 245 303 100 63 49 
96 246 303 101 60 41 
96 247 303 103 49 27 
97 246 303 102 53 35 
97 247 303 107 59 39 
98 244 302 97 62 49 
98 244 303 100 72 59 
98 245 302 99 53 41 
98 245 303 101 55 42 
99 244 302 96 52 39 
99 245 302 100 54 41 
98 246 303 104 56 40 
98 247 303 104 63 45 
99 246 302 99 60 43 
99 247 302 94 67 53 
99 247 303 94 66 54 
100 240 302 108 96 88 
100 241 302 100 81 64 
101 240 302 103 84 69 
101 241 302 96 69 43 
100 242 302 95 65 41 
100 243 302 95 53 33 
101 242 302 96 61 34 
101 243 302 96 58 36 
102 240 302 94 70 50 
102 241 302 92 63 40 
103 240 302 90 63 46 
103 241 302 89 65 45 
102 242 302 91 62 39 
102 243 302 88 61 45 
103 242 302 84 65 47 
103 243 302 79 65 54 
100 244 302 95 50 32 
100 245 302 98 61 43 
101 244 302 94 59 38 
101 245 302 92 63 46 
100 246 302 95 65 49 
100 247 302 81 61 54 
101 246 302 85 61 48 
101 247 302 74 59 56 
102 244 302 84 62 49 
102 245 302 80 63 53 
103 244 302 77 65 59 
103 245 302 74 65 61 
102 246 302 73 60 56 
102 247 302 68 63 66 
103 246 302 73 66 66 
103 247 302 68 65 68 
96 251 290 103 85 67 
96 252 290 108 83 64 
96 253 290 109 77 57 
96 254 290 98 71 49 
96 255 290 94 66 38 
97 255 290 98 64 35 
99 254 289 82 71 59 
99 255 289 83 69 52 
96 248 303 103 50 29 
96 249 303 101 60 45 
97 248 303 104 61 47 
97 249 303 92 56 53 
96 250 303 86 54 53 
97 250 303 79 51 55 
97 251 303 79 58 64 
98 248 303 97 62 52 
98 249 303 83 53 55 
99 248 303 85 62 58 
99 249 303 75 57 61 
98 250 303 77 58 63 
98 251 303 77 64 69 
99 250 303 74 63 68 
99 251 303 71 61 68 
98 252 303 71 62 67 
99 252 303 65 61 69 
100 248 302 71 58 60 
100 248 303 73 59 61 
100 249 303 70 62 69 
101 248 302 68 63 69 
101 248 303 70 64 69 
101 249 303 64 65 74 
100 250 303 72 66 73 
100 251 303 67 64 72 
101 250 303 65 67 75 
101 251 303 62 66 74 
102 248 302 65 66 74 
102 249 302 65 67 74 
102 249 303 65 69 76 
103 248 302 68 67 71 
103 249 302 69 67 71 
102 250 303 63 68 75 
102 251 303 63 66 74 
103 250 302 69 68 71 
103 250 303 68 65 68 
103 251 303 66 64 69 
100 252 303 62 65 75 
101 252 303 60 64 74 
102 252 303 61 63 71 
103 252 303 64 62 67 
105 241 301 90 70 51 
104 240 302 89 64 46 
104 241 302 87 65 47 
105 240 302 91 70 51 
105 241 302 88 68 49 
104 243 301 85 66 52 
105 242 301 88 68 51 
105 243 301 87 68 53 
104 242 302 85 66 49 
104 243 302 81 65 52 
106 240 301 94 74 54 
106 241 301 93 72 53 
107 240 301 97 75 54 
107 241 300 95 74 53 
107 241 301 96 74 54 
106 240 302 95 75 56 
107 240 302 97 75 55 
107 240 303 97 74 53 
106 242 300 91 71 54 
106 242 301 91 71 52 
106 243 300 92 72 54 
106 243 301 91 71 55 
107 242 300 93 73 54 
107 242 301 94 72 53 
107 243 300 93 73 54 
107 243 301 93 73 54 
104 244 301 81 67 57 
104 245 301 80 68 61 
105 244 301 85 68 55 
105 245 301 85 69 58 
104 244 302 77 66 59 
104 245 302 77 67 62 
104 247 301 75 65 61 
105 246 301 86 69 57 
105 247 301 81 67 59 
104 246 302 76 66 63 
104 247 302 72 64 64 
105 246 302 81 67 59 
105 247 302 81 67 58 
106 244 301 90 71 55 
106 245 301 91 71 55 
107 244 301 94 72 55 
107 245 301 93 72 55 
107 245 302 92 72 52 
106 246 301 91 72 56 
106 247 301 85 69 56 
106 246 302 90 71 55 
106 247 302 88 70 56 
107 246 302 92 71 53 
107 246 303 92 72 53 
107 247 302 91 71 55 
107 247 303 91 71 54 
108 240 301 97 74 53 
108 241 300 98 75 55 
108 241 301 97 75 53 
109 241 301 97 74 52 
108 240 302 97 73 51 
108 240 303 97 74 52 
108 241 302 97 73 51 
108 241 303 96 73 51 
109 241 302 98 74 54 
109 241 303 96 73 51 
108 242 300 96 75 55 
108 243 300 95 74 55 
108 243 301 96 73 53 
109 242 301 98 75 55 
109 243 301 96 73 54 
109 242 302 97 74 53 
109 242 303 96 73 53 
109 243 302 96 73 53 
109 243 303 95 73 52 
108 244 301 95 73 54 
108 245 301 93 72 53 
108 244 302 95 73 52 
108 244 303 94 73 52 
108 245 302 93 72 52 
108 245 303 93 73 52 
109 244 302 96 73 54 
108 246 303 93 72 52 
104 248 302 72 65 67 
104 249 302 74 65 67 
105 248 302 81 68 58 
105 249 302 80 66 56 
104 250 302 73 64 63 
104 250 303 72 63 62 
104 251 303 70 61 60 
105 250 302 80 65 57 
105 250 303 79 64 56 
105 251 303 76 63 56 
106 248 302 88 70 56 
106 248 303 88 71 57 
106 249 302 85 68 55 
106 249 303 87 70 57 
107 248 303 89 72 55 
107 249 303 87 70 55 
106 250 303 83 68 55 
106 251 303 81 66 54 
107 250 303 84 68 53 
107 251 303 82 66 53 
104 252 303 66 60 60 
105 252 303 69 59 56 
106 252 303 78 64 52 
108 249 303 87 70 52 
108 250 303 85 67 52 
96 249 304 99 62 51 
96 250 304 92 59 51 
96 251 304 80 55 59 
97 251 304 79 64 69 
96 252 304 81 64 70 
96 253 304 78 63 68 
97 252 304 79 66 70 
97 253 304 77 66 68 
96 254 304 73 59 64 
96 255 304 77 63 66 
96 255 305 82 67 67 
97 254 304 74 63 62 
97 255 304 78 65 65 
97 255 305 74 60 63 
98 252 304 73 63 68 
98 253 304 73 64 68 
99 252 304 67 62 70 
99 253 304 66 63 70 
98 254 304 70 61 62 
98 255 304 71 62 63 
98 255 305 70 60 66 
99 254 304 61 60 66 
99 255 304 57 57 64 
99 255 305 55 57 69 
100 252 304 61 64 74 
100 253 304 58 62 73 
101 252 304 59 64 74 
101 253 304 56 62 73 
100 254 304 56 63 73 
100 255 304 53 60 73 
100 255 305 52 58 72 
101 254 304 55 62 72 
101 255 305 52 58 68 
102 252 304 60 64 72 
102 253 304 55 60 67 
103 253 304 60 60 65 
102 254 304 56 60 68 
102 254 305 56 59 66 
102 255 305 55 57 63 
103 254 304 49 54 63 
103 254 305 55 55 61 
103 255 305 58 55 58 
108 240 304 97 74 52 
108 241 304 97 74 50 
109 240 304 97 74 50 
109 240 305 99 78 56 
109 241 304 97 73 50 
109 241 305 99 74 52 
109 240 306 99 74 54 
109 240 307 101 74 55 
109 241 306 100 76 56 
109 241 307 99 76 57 
109 242 304 97 73 51 
109 242 305 98 73 52 
109 243 304 96 72 50 
109 243 305 97 72 51 
109 242 306 99 75 55 
109 242 307 98 77 56 
109 243 306 98 74 52 
109 243 307 99 72 52 
108 240 309 99 74 52 
108 241 309 98 73 51 
109 240 308 100 78 63 
109 240 309 100 76 57 
109 241 308 99 76 56 
109 241 309 99 74 54 
108 240 310 97 73 50 
108 240 311 95 72 50 
108 241 310 97 73 51 
108 241 311 96 72 50 
108 242 309 97 74 53 
108 243 309 94 74 55 
109 242 308 98 77 56 
109 242 309 97 76 54 
109 243 308 96 76 55 
109 243 309 94 74 55 
108 242 310 97 72 50 
108 242 311 99 72 50 
108 243 310 95 73 53 
108 243 311 96 71 50 
108 244 304 94 73 52 
108 244 305 95 73 53 
108 245 304 94 73 54 
108 245 305 93 73 53 
109 244 304 95 72 50 
109 244 305 95 72 50 
108 245 306 94 73 53 
109 244 306 96 73 52 
109 244 307 96 73 53 
109 245 306 94 74 54 
109 245 307 93 73 52 
108 246 304 93 72 54 
108 246 305 91 72 54 
108 247 304 91 72 53 
108 247 305 90 72 55 
108 246 306 91 73 54 
108 247 306 89 71 55 
109 246 306 94 74 55 
109 246 307 93 74 54 
109 247 306 87 70 55 
109 247 307 89 71 55 
109 244 308 95 74 54 
109 244 309 94 74 55 
109 245 308 92 72 52 
109 245 309 93 72 53 
108 244 310 95 73 54 
108 244 311 94 72 50 
108 245 310 93 72 54 
108 245 311 93 72 51 
109 244 310 94 73 55 
109 245 310 93 73 55 
109 246 308 91 72 52 
109 246 309 90 72 54 
109 247 308 88 71 54 
109 247 309 87 70 55 
108 246 310 92 72 56 
108 246 311 92 73 56 
108 247 311 86 69 55 
109 246 310 90 71 54 
109 247 310 86 70 55 
107 241 315 99 65 39 
107 242 313 95 69 45 
107 243 312 95 69 46 
107 243 313 95 69 45 
107 242 314 95 69 46 
107 242 315 98 66 40 
107 243 314 95 68 44 
107 243 315 97 66 43 
107 240 316 110 60 30 
107 240 317 110 58 26 
107 241 316 108 62 32 
107 241 317 111 58 26 
106 240 319 113 54 15 
106 241 319 115 53 20 
107 240 318 112 56 22 
107 240 319 113 55 20 
107 241 318 114 56 23 
107 241 319 115 54 20 
107 242 316 105 61 32 
107 242 317 110 58 25 
107 243 316 103 63 37 
107 243 317 108 62 35 
106 242 319 116 56 29 
106 243 319 114 61 37 
107 242 318 113 54 23 
107 242 319 115 56 29 
107 243 318 112 59 30 
107 244 313 94 68 44 
107 244 314 94 67 43 
107 244 315 96 66 41 
107 245 314 92 67 45 
107 247 315 89 81 76 
105 247 319 96 86 79 
107 244 317 105 76 60 
107 245 316 96 76 63 
107 245 317 96 76 65 
106 244 319 108 69 43 
106 245 319 98 77 58 
107 244 318 108 72 52 
107 244 319 107 68 44 
107 245 318 100 79 68 
107 245 319 102 81 69 
107 246 316 95 82 74 
107 246 317 96 82 74 
107 247 316 92 83 79 
107 247 317 97 87 83 
106 246 319 92 83 77 
106 247 318 100 93 88 
106 247 319 95 87 81 
107 246 318 97 86 80 
107 247 318 100 92 87 
108 240 312 94 70 49 
108 240 313 93 70 47 
108 241 312 95 70 47 
108 241 313 95 69 45 
108 240 314 92 69 46 
108 240 315 94 68 43 
108 241 314 94 68 44 
108 241 315 94 67 42 
108 242 312 97 69 48 
108 242 313 95 69 46 
108 243 312 95 70 48 
108 242 314 95 69 45 
108 242 315 96 67 42 
108 243 315 98 68 45 
108 240 316 101 66 39 
108 243 316 101 66 45 
108 243 317 105 67 46 
108 244 312 94 70 47 
108 244 313 94 69 45 
108 245 312 92 71 50 
108 245 313 92 70 50 
108 244 315 97 68 44 
108 245 314 92 69 50 
108 245 315 95 72 54 
108 246 312 91 73 56 
108 246 313 89 72 56 
108 247 312 85 67 56 
108 247 313 85 70 61 
108 246 314 87 71 58 
108 246 315 89 72 61 
108 247 314 83 72 63 
108 247 315 82 71 65 
108 244 316 100 71 51 
108 244 317 104 72 54 
108 245 316 96 75 61 
108 246 316 92 79 71 
107 251 304 80 65 52 
104 252 304 64 57 58 
104 253 304 65 58 58 
105 252 304 72 61 55 
105 253 304 67 58 52 
105 253 305 69 59 51 
104 254 305 65 57 55 
104 255 305 65 58 55 
105 254 305 72 61 52 
104 254 306 69 59 52 
104 255 306 76 67 59 
105 254 306 79 68 59 
105 255 306 84 73 64 
105 255 307 82 73 65 
106 252 304 71 60 50 
106 253 304 71 60 50 
106 253 305 72 61 51 
107 252 304 75 61 47 
107 252 305 73 60 46 
107 253 305 72 61 51 
106 253 306 71 61 51 
107 252 306 75 62 49 
107 253 306 73 61 49 
107 253 307 76 64 54 
106 254 306 75 65 55 
106 254 307 71 62 52 
106 255 307 74 66 58 
107 254 307 75 66 57 
107 253 308 86 76 67 
106 255 308 80 71 64 
107 254 308 88 78 69 
107 254 309 101 90 80 
107 255 308 88 78 70 
107 255 309 105 93 83 
107 255 310 112 99 87 
108 248 304 89 72 52 
108 248 305 88 71 54 
108 249 304 88 70 51 
108 249 305 87 70 52 
108 248 306 88 71 55 
108 249 306 85 69 53 
108 249 307 83 66 53 
109 248 306 87 70 54 
109 248 307 85 68 53 
109 249 307 84 66 53 
108 250 304 85 68 51 
108 250 305 84 67 50 
108 251 304 80 64 49 
108 251 305 80 64 49 
108 250 306 82 66 51 
108 250 307 79 65 53 
108 251 306 78 63 50 
108 251 307 75 62 50 
108 249 309 79 65 53 
109 248 308 84 68 53 
109 248 309 83 68 52 
109 249 308 81 66 52 
109 249 309 79 65 52 
108 248 310 81 64 49 
108 248 311 81 65 53 
108 249 310 78 61 51 
108 249 311 78 62 55 
109 248 310 83 66 51 
109 249 310 79 63 50 
108 250 308 77 64 51 
108 250 309 76 63 51 
108 251 308 74 62 50 
108 251 309 71 60 50 
108 250 310 75 60 51 
108 250 311 76 63 54 
108 251 310 69 59 50 
108 251 311 73 64 55 
108 252 305 78 63 50 
108 252 306 77 63 49 
108 252 307 77 65 51 
108 252 308 81 70 59 
108 252 309 79 69 61 
108 253 308 87 78 69 
108 253 309 92 83 76 
108 252 310 76 68 60 
108 252 311 77 69 62 
108 253 310 95 85 79 
108 253 311 91 82 75 
108 254 309 100 90 81 
108 254 310 104 93 84 
108 254 311 100 89 80 
108 255 310 111 98 86 
108 255 311 108 96 86 
107 248 315 89 79 76 
107 249 315 92 81 72 
107 250 315 103 90 78 
107 251 315 115 102 88 
105 248 319 102 91 82 
105 249 319 104 92 82 
105 250 319 105 93 81 
105 251 319 109 94 83 
106 248 317 98 88 80 
106 249 317 100 90 81 
107 248 316 87 79 75 
107 248 317 91 83 78 
107 249 316 94 84 75 
107 249 317 96 88 81 
106 248 318 104 95 88 
106 248 319 105 96 88 
106 249 318 103 92 83 
106 250 317 104 92 81 
106 251 317 103 91 82 
107 250 316 107 94 81 
107 250 317 103 91 81 
107 251 316 113 100 86 
107 251 317 109 96 85 
106 250 318 104 92 82 
106 251 318 106 94 83 
106 251 319 108 94 82 
107 252 315 119 105 92 
107 252 316 118 105 91 
107 252 317 113 100 88 
107 253 316 120 106 91 
107 253 317 115 101 88 
106 252 318 112 99 87 
106 252 319 111 98 85 
106 253 319 111 97 86 
107 252 318 114 100 88 
107 253 318 110 97 85 
107 253 319 110 97 86 
107 254 317 114 101 88 
107 255 317 111 98 87 
107 254 318 106 95 84 
107 254 319 106 94 84 
107 255 318 105 94 85 
107 255 319 103 91 83 
108 248 312 80 65 54 
108 248 313 81 68 59 
108 249 312 81 66 56 
108 249 313 85 72 60 
108 248 314 82 69 62 
108 248 315 84 73 67 
108 249 314 89 75 63 
108 249 315 90 78 68 
108 250 312 82 69 57 
108 250 313 94 81 69 
108 251 312 81 71 61 
108 251 313 98 86 73 
108 250 314 103 90 76 
108 250 315 105 91 76 
108 251 314 112 99 86 
108 251 315 115 101 88 
108 252 312 84 75 68 
108 252 313 98 86 75 
108 253 312 90 81 73 
108 253 313 94 83 75 
108 252 314 115 102 90 
108 252 315 120 106 94 
108 253 314 106 94 83 
108 253 315 116 102 90 
108 254 312 96 86 78 
108 254 313 96 86 77 
108 255 312 103 93 83 
108 255 313 96 87 78 
108 254 314 102 90 81 
108 254 315 109 97 85 
108 255 314 98 87 79 
108 255 315 107 94 83 
108 253 316 119 105 90 
108 254 316 118 103 89 
108 254 317 118 103 89 
108 255 316 116 102 88 
108 255 317 116 102 89 
112 224 297 97 77 54 
112 225 297 98 77 55 
113 224 297 98 77 55 
113 225 297 99 77 55 
112 226 297 98 78 55 
113 226 297 100 78 56 
112 226 298 99 79 56 
112 227 298 99 78 56 
113 226 298 100 78 57 
113 227 298 99 79 57 
114 224 297 98 78 55 
114 225 297 99 78 55 
115 224 297 99 79 56 
115 224 298 99 79 57 
115 224 299 99 79 56 
115 225 298 99 79 56 
115 225 299 100 80 57 
114 226 297 100 79 56 
114 226 298 100 79 56 
114 227 298 99 79 57 
115 226 298 99 79 57 
115 226 299 100 80 57 
115 227 298 99 78 56 
115 227 299 99 79 56 
115 226 300 99 79 56 
115 227 300 99 79 56 
115 227 301 99 78 55 
115 227 302 98 76 54 
115 227 303 99 75 53 
112 228 298 100 79 56 
112 229 298 100 79 57 
113 228 298 100 79 57 
113 229 298 100 79 57 
113 229 299 100 79 56 
112 230 298 100 79 58 
112 230 299 100 79 56 
112 231 299 99 79 56 
113 230 298 100 79 58 
113 230 299 101 79 58 
113 231 299 100 79 57 
114 228 298 100 79 58 
114 228 299 100 79 57 
114 229 299 100 78 56 
115 228 299 100 79 57 
115 229 299 99 78 56 
114 230 299 100 78 56 
114 231 299 100 79 56 
115 228 300 100 78 55 
115 228 301 99 77 55 
115 229 300 99 78 54 
115 229 301 99 76 55 
115 228 302 99 76 55 
115 228 303 97 75 54 
115 229 302 98 75 54 
115 229 303 97 74 53 
114 231 300 99 78 56 
115 230 300 99 78 54 
115 230 301 99 77 56 
115 231 300 99 78 55 
115 231 301 99 77 55 
114 230 303 101 78 57 
114 231 302 99 78 57 
114 231 303 99 77 56 
115 230 302 99 76 55 
115 230 303 98 75 54 
115 231 302 99 77 56 
116 224 299 100 79 57 
116 225 299 99 79 56 
116 226 299 99 79 57 
116 224 300 100 79 56 
116 224 301 100 79 55 
116 225 300 99 79 56 
116 225 301 100 79 56 
116 224 302 100 78 55 
116 224 303 100 78 54 
116 225 302 99 78 55 
116 225 303 100 76 52 
117 224 303 100 76 50 
117 225 303 100 76 52 
116 226 300 100 79 56 
116 226 301 99 78 55 
116 226 302 99 77 54 
116 226 303 98 75 51 
116 227 302 98 76 54 
116 227 303 97 75 53 
112 232 299 99 78 55 
112 232 300 99 78 56 
112 233 300 98 78 56 
112 233 301 98 77 55 
113 232 300 99 79 56 
113 232 301 99 78 56 
113 233 301 99 77 56 
113 233 302 99 76 57 
113 233 303 99 77 57 
112 234 301 98 77 55 
112 234 302 98 77 57 
112 234 303 98 77 58 
112 235 303 98 78 58 
113 234 302 98 76 57 
113 234 303 98 76 57 
114 232 300 100 78 56 
114 232 301 100 78 57 
115 232 301 100 78 58 
114 232 302 99 77 57 
114 232 303 102 82 64 
114 233 302 99 77 58 
114 233 303 99 77 57 
115 227 304 101 74 51 
115 227 305 104 73 47 
115 227 306 108 69 41 
115 227 307 102 68 43 
115 224 311 121 76 45 
115 225 310 121 62 21 
115 225 311 117 70 32 
114 227 309 100 65 38 
115 226 309 114 63 31 
115 227 308 105 67 37 
115 227 309 101 65 37 
114 226 311 108 66 32 
114 227 310 103 64 34 
114 227 311 109 64 30 
115 226 310 112 64 28 
115 226 311 115 62 26 
113 229 307 104 68 42 
113 230 305 97 69 48 
113 231 305 104 69 46 
113 230 306 101 69 45 
113 230 307 105 68 42 
113 231 306 101 70 46 
113 231 307 102 70 45 
114 229 304 104 67 43 
114 229 305 99 70 47 
115 228 304 101 72 49 
115 228 305 103 71 47 
115 229 304 98 71 48 
115 229 305 100 70 46 
114 228 306 103 69 44 
114 228 307 100 69 44 
114 229 306 102 68 43 
114 229 307 102 68 43 
115 228 306 103 71 46 
115 228 307 107 68 41 
114 230 304 98 73 51 
114 230 305 102 69 46 
114 231 304 102 74 51 
114 230 306 102 68 44 
113 229 308 103 67 40 
113 229 309 101 66 40 
113 228 311 101 64 33 
113 229 310 101 64 36 
113 229 311 101 63 35 
112 231 309 104 67 40 
113 230 308 104 69 42 
113 230 309 102 66 40 
113 231 308 108 67 40 
113 231 309 102 68 42 
112 230 310 101 63 37 
112 230 311 101 63 37 
112 231 310 102 66 38 
112 231 311 102 65 38 
113 230 310 104 63 36 
113 230 311 103 63 36 
114 228 308 102 68 40 
114 228 309 109 64 34 
114 229 308 103 67 40 
114 229 309 104 65 37 
115 228 308 100 69 42 
114 228 310 107 62 32 
114 228 311 110 62 29 
117 224 304 100 72 45 
117 225 304 100 74 48 
117 225 305 102 72 45 
117 224 307 109 65 34 
117 225 306 103 69 42 
117 225 307 103 66 38 
116 226 304 100 74 48 
116 226 305 101 71 45 
116 227 304 102 72 47 
116 227 305 103 72 47 
116 226 306 103 69 43 
116 226 307 108 65 37 
116 227 306 99 70 47 
117 226 306 104 69 42 
117 226 307 107 65 38 
118 224 305 102 70 44 
118 224 306 105 69 41 
118 224 307 107 65 35 
116 225 309 114 64 27 
117 224 308 107 66 33 
117 224 309 112 67 28 
117 225 308 108 65 33 
117 225 309 114 65 27 
116 224 310 109 66 29 
116 224 311 109 67 36 
116 225 310 121 66 27 
117 224 310 115 66 26 
116 226 308 107 65 35 
116 226 309 114 63 32 
118 224 308 107 66 32 
113 224 314 109 67 41 
113 224 315 105 68 46 
113 225 314 108 70 46 
113 225 315 109 68 39 
113 226 313 109 70 37 
113 227 312 100 67 37 
113 227 313 101 66 34 
112 226 315 102 65 36 
112 227 314 118 67 29 
112 227 315 104 64 33 
113 226 314 108 68 39 
113 226 315 108 66 35 
113 227 314 110 68 33 
114 224 313 110 71 46 
114 225 312 110 71 36 
114 225 313 110 69 39 
115 224 312 112 70 43 
115 224 313 110 72 48 
115 225 312 109 72 39 
114 224 314 109 71 50 
114 224 315 110 66 42 
114 225 314 112 69 43 
114 226 312 114 70 36 
114 226 313 113 68 34 
114 227 312 115 68 30 
112 224 317 100 68 43 
112 225 316 107 67 40 
112 225 317 104 65 38 
113 224 316 100 65 44 
113 224 317 98 68 48 
113 225 316 108 66 43 
112 224 318 100 74 53 
112 224 319 95 70 51 
112 225 318 102 72 47 
112 226 316 99 64 36 
112 226 317 100 67 40 
112 227 316 101 62 36 
112 227 317 104 63 34 
112 229 312 110 61 31 
112 229 313 104 62 32 
113 228 312 102 66 34 
113 228 313 103 64 33 
113 229 312 102 63 34 
113 229 313 114 59 29 
112 228 314 104 65 32 
112 228 315 105 62 29 
112 229 314 98 63 35 
113 228 314 98 66 34 
112 230 312 103 62 35 
112 230 313 103 63 35 
112 228 316 103 59 30 
112 233 305 100 74 52 
113 232 304 99 72 52 
113 232 305 103 71 49 
113 233 304 100 77 58 
113 233 305 99 74 54 
112 232 306 106 72 48 
112 232 307 103 72 48 
112 233 306 105 72 49 
112 233 307 104 72 47 
113 232 306 102 71 48 
113 232 307 101 69 45 
112 234 304 99 75 56 
112 234 305 100 74 52 
112 235 304 99 77 57 
112 235 305 100 75 54 
112 234 306 103 73 50 
112 234 307 103 72 48 
112 235 306 103 73 51 
114 232 304 98 75 56 
112 232 308 103 68 43 
112 232 309 104 68 41 
112 233 308 104 71 47 
112 233 309 105 70 44 
112 234 308 101 72 48 
111 221 321 83 59 36 
111 221 322 81 56 33 
111 221 323 78 54 30 
111 222 320 91 69 53 
111 222 321 83 60 38 
111 223 320 93 65 41 
111 223 321 84 62 42 
110 222 323 81 56 34 
110 223 322 81 57 37 
110 223 323 80 55 34 
111 222 322 80 56 32 
111 222 323 80 56 32 
110 223 324 81 56 35 
111 222 324 78 55 31 
111 223 324 80 59 38 
112 219 320 85 58 31 
112 219 321 84 58 31 
113 218 320 85 59 32 
113 218 321 86 60 36 
113 219 320 86 59 31 
113 219 321 84 58 32 
113 218 322 85 59 35 
113 219 322 84 59 35 
114 217 320 86 59 32 
114 217 321 84 55 28 
115 216 320 86 56 31 
115 217 320 85 56 30 
114 218 320 86 60 34 
114 218 321 85 58 32 
112 220 320 84 59 32 
112 220 321 83 57 31 
112 221 320 85 61 38 
112 221 321 83 59 34 
113 220 320 91 64 31 
112 220 322 83 58 34 
112 220 323 81 56 32 
112 221 322 83 58 34 
112 221 323 77 55 32 
113 220 322 83 57 35 
113 220 323 82 59 37 
113 221 323 83 65 46 
112 222 320 89 66 46 
113 222 323 95 81 68 
112 222 324 80 61 43 
112 223 324 88 72 59 
103 231 329 88 65 52 
102 231 331 82 64 47 
103 230 331 68 51 39 
103 231 330 84 62 44 
103 231 331 81 61 41 
102 231 332 93 77 62 
102 231 333 89 74 64 
103 230 332 69 52 41 
103 230 333 72 56 46 
103 231 332 69 51 37 
103 231 333 78 63 52 
103 231 334 92 80 72 
102 235 327 108 85 71 
103 234 326 110 87 69 
103 234 327 107 86 72 
103 235 326 110 81 61 
103 235 327 106 81 63 
103 239 323 122 59 9 
100 237 327 104 81 63 
101 236 327 104 78 61 
101 237 326 110 75 53 
101 237 327 108 78 59 
101 239 325 120 74 30 
100 238 327 115 84 63 
100 239 326 119 79 49 
100 239 327 117 86 62 
101 238 326 117 78 47 
101 238 327 116 82 60 
101 239 326 120 78 44 
102 237 325 117 73 28 
103 236 325 112 76 45 
103 237 325 119 75 29 
102 236 326 106 75 54 
102 236 327 104 76 59 
102 237 326 108 75 47 
103 236 326 109 76 52 
102 238 325 115 71 20 
102 239 324 121 70 13 
102 239 325 120 70 13 
103 238 324 122 69 17 
103 238 325 122 72 22 
103 239 324 121 62 8 
99 235 331 103 91 81 
99 235 332 99 86 74 
99 235 333 97 85 74 
99 237 329 113 95 82 
99 236 330 117 99 87 
99 236 331 109 94 84 
99 237 330 113 97 85 
99 237 331 115 98 85 
99 238 328 103 84 69 
99 238 329 113 95 81 
99 239 328 109 87 70 
99 239 329 111 94 81 
98 238 331 114 99 85 
98 239 330 121 105 91 
98 239 331 119 104 89 
99 238 330 114 99 87 
99 238 331 112 96 84 
99 239 330 116 101 89 
98 237 332 112 96 84 
98 237 333 112 96 83 
99 236 332 110 92 80 
99 236 333 105 89 75 
99 237 332 108 93 82 
99 237 333 109 94 81 
99 236 334 100 86 72 
99 236 335 99 88 77 
99 237 334 111 96 83 
99 237 335 111 98 87 
98 238 332 114 99 85 
98 238 333 110 95 82 
98 239 332 116 101 87 
98 239 333 112 98 86 
98 238 334 112 98 85 
98 239 334 113 99 87 
99 238 334 114 100 89 
99 238 335 118 105 93 
99 239 335 119 106 94 
101 233 330 104 78 59 
101 233 331 99 78 59 
101 234 329 110 89 76 
101 235 328 111 90 78 
101 235 329 111 91 79 
100 234 331 102 85 70 
100 235 330 112 95 83 
100 235 331 103 88 75 
101 234 330 113 91 75 
101 234 331 101 84 67 
101 235 330 115 93 77 
102 232 329 108 84 71 
102 233 329 97 80 69 
103 232 328 98 80 71 
103 232 329 103 80 69 
103 233 328 105 86 75 
103 233 329 107 85 74 
102 232 330 97 71 52 
102 232 331 87 67 47 
102 233 330 88 70 55 
103 232 330 83 70 60 
102 234 328 105 85 75 
102 234 329 108 87 75 
102 235 328 108 87 76 
103 234 328 101 83 73 
101 233 332 95 80 62 
101 233 333 95 82 68 
101 233 334 98 86 74 
100 234 332 86 73 61 
100 234 333 85 72 59 
100 235 332 95 81 67 
100 235 333 93 81 70 
101 234 332 99 84 67 
101 234 333 89 77 65 
100 235 334 90 80 72 
100 235 335 85 77 70 
101 234 334 95 85 75 
101 234 335 99 90 81 
101 235 335 91 82 74 
102 232 332 89 73 56 
102 232 333 86 72 58 
102 232 334 95 82 71 
102 233 334 99 87 76 
102 233 335 103 91 80 
103 232 334 93 81 71 
103 232 335 101 90 82 
103 233 335 106 93 82 
100 236 329 108 92 81 
100 237 328 109 87 71 
100 237 329 110 92 80 
101 236 328 107 86 71 
101 236 329 112 92 80 
101 237 328 108 81 63 
100 236 330 114 97 85 
100 238 328 111 85 67 
100 236 334 93 82 73 
100 236 335 89 80 73 
107 225 327 70 42 30 
107 227 325 90 70 54 
106 227 327 67 43 35 
107 226 326 75 52 33 
107 226 327 72 45 34 
107 227 326 80 60 47 
107 227 327 70 46 36 
107 229 323 100 76 62 
107 230 323 102 80 66 
107 231 322 103 76 57 
107 231 323 103 77 62 
105 230 326 110 95 84 
105 230 327 101 89 80 
105 231 326 104 83 71 
105 231 327 104 86 76 
106 229 325 103 86 74 
107 228 324 105 85 73 
107 228 325 94 75 60 
107 229 324 100 79 67 
107 229 325 100 82 71 
106 228 326 90 75 61 
106 228 327 87 71 60 
106 229 326 96 80 66 
106 229 327 88 72 59 
107 228 326 80 62 43 
106 230 325 110 85 69 
106 231 324 104 81 67 
106 231 325 113 93 79 
107 230 324 103 81 68 
107 230 325 100 79 66 
107 231 324 105 82 67 
106 230 326 110 93 81 
106 230 327 89 74 63 
106 231 326 108 89 77 
109 224 323 88 70 53 
109 225 322 93 75 60 
109 225 323 87 68 49 
109 226 321 91 71 55 
109 227 321 98 77 62 
108 226 323 101 87 74 
108 227 323 100 84 70 
109 226 322 102 84 68 
109 226 323 92 74 56 
109 227 322 101 80 63 
109 227 323 104 90 79 
110 224 321 91 75 60 
110 225 321 96 79 67 
111 224 320 96 73 57 
111 224 321 93 74 58 
111 225 320 95 72 56 
110 224 322 83 62 43 
110 224 323 80 58 38 
110 225 322 95 80 65 
110 226 320 102 80 66 
110 226 321 94 74 60 
110 227 320 97 70 50 
110 227 321 99 78 63 
108 225 324 79 59 36 
108 225 325 79 57 38 
109 224 324 79 56 39 
109 224 325 80 55 40 
109 225 324 80 59 39 
109 225 325 80 58 42 
108 225 326 77 52 37 
108 225 327 73 47 33 
109 224 326 77 56 39 
109 225 326 80 59 46 
109 225 327 81 58 45 
108 226 324 93 76 59 
108 226 325 81 61 44 
108 227 324 94 74 59 
108 227 325 92 74 59 
108 226 326 75 54 32 
110 224 324 82 57 40 
110 224 325 81 56 40 
111 224 325 88 69 56 
111 225 325 101 85 74 
110 224 326 76 57 41 
110 225 326 84 68 56 
110 225 327 99 75 59 
111 226 325 103 86 76 
110 226 327 100 83 74 
108 229 321 95 70 57 
109 228 321 100 76 59 
109 229 320 98 70 49 
109 229 321 97 72 55 
108 228 322 95 79 67 
108 228 323 95 78 65 
108 229 322 100 80 68 
108 229 323 99 78 65 
109 228 322 96 79 65 
108 230 321 93 65 51 
108 231 321 100 68 45 
109 230 320 97 64 39 
109 230 321 98 68 49 
109 231 320 101 63 39 
109 231 321 99 67 40 
108 230 322 100 74 62 
108 230 323 98 72 58 
108 231 322 100 74 58 
110 228 320 101 72 50 
110 228 321 96 72 54 
110 229 320 98 67 44 
108 228 324 102 84 71 
106 227 328 68 42 34 
106 227 329 67 42 31 
107 226 328 70 43 33 
107 226 329 67 44 29 
106 227 330 68 50 36 
106 227 331 86 72 63 
107 226 330 70 51 39 
107 227 330 77 60 49 
107 227 331 95 82 73 
105 228 329 67 44 33 
105 229 328 72 53 38 
105 229 329 68 48 34 
104 229 330 65 45 33 
104 229 331 70 53 42 
105 228 330 65 44 32 
105 228 331 75 61 51 
105 229 330 67 46 35 
105 229 331 73 58 47 
104 230 328 94 80 73 
104 230 329 81 63 55 
104 231 328 94 81 74 
104 231 329 84 66 58 
105 230 328 92 76 67 
104 230 330 70 53 42 
104 230 331 66 47 36 
106 228 328 69 46 35 
106 228 329 66 41 32 
106 229 328 75 58 44 
106 228 330 65 43 30 
106 228 331 82 67 58 
107 228 331 105 93 85 
104 229 332 78 64 51 
105 229 332 85 71 61 
105 229 333 98 87 76 
104 230 332 69 54 44 
104 230 333 83 70 59 
104 230 334 96 86 78 
104 231 334 96 85 76 
104 231 335 95 86 79 
105 230 334 100 90 82 
105 231 334 96 87 80 
106 228 332 100 88 79 
106 229 332 107 96 86 
106 229 333 108 97 88 
108 225 328 71 47 38 
109 225 328 79 61 56 
108 226 328 69 44 33 
108 226 329 77 59 48 
109 226 328 88 73 64 
108 226 330 83 67 55 
108 227 330 98 85 76 
105 235 323 116 70 37 
107 233 321 111 65 33 
106 233 323 110 81 61 
107 232 322 109 80 55 
107 232 323 109 81 62 
107 233 322 111 75 47 
107 233 323 112 82 59 
107 234 321 108 64 28 
107 235 320 111 56 21 
107 235 321 111 58 21 
106 234 323 113 77 51 
106 235 322 115 67 26 
106 235 323 115 71 34 
107 234 322 115 74 40 
107 235 322 113 65 24 
105 232 325 118 95 79 
105 233 324 120 93 71 
105 233 325 119 96 79 
104 232 327 106 88 77 
104 233 326 112 90 78 
104 233 327 112 92 78 
105 232 326 118 96 82 
105 232 327 116 94 82 
105 233 326 110 91 80 
104 234 325 117 89 69 
104 235 325 115 85 59 
105 234 324 114 86 63 
105 234 325 118 92 71 
105 235 324 115 80 50 
104 234 326 113 89 72 
104 234 327 111 90 73 
104 235 326 111 86 66 
106 232 324 107 86 72 
106 232 325 111 89 74 
106 233 324 112 85 67 
106 233 325 118 95 77 
107 232 324 108 87 74 
106 234 324 112 82 58 
106 235 324 111 75 48 
104 237 323 120 57 4 
105 236 323 118 64 22 
105 237 322 120 55 11 
105 237 323 118 59 3 
104 238 323 120 54 5 
104 239 323 121 54 4 
105 238 322 118 55 11 
105 238 323 119 55 6 
105 239 322 118 51 7 
106 237 321 116 54 12 
107 236 320 113 54 17 
107 236 321 115 52 14 
107 237 320 114 55 17 
107 237 321 116 53 15 
106 236 322 120 60 15 
106 236 323 120 64 17 
106 237 322 118 56 13 
106 237 323 116 58 15 
107 236 322 118 60 13 
106 238 320 115 53 15 
106 238 321 116 53 13 
106 239 320 115 51 16 
106 239 321 115 51 14 
107 238 320 115 55 16 
107 239 320 114 51 17 
106 238 322 118 56 12 
104 236 324 121 76 42 
104 236 325 114 78 47 
104 237 324 122 68 12 
105 236 324 121 75 42 
104 238 324 121 59 8 
108 232 320 106 60 33 
108 232 321 105 67 42 
108 233 320 101 58 31 
108 233 321 106 62 35 
109 232 320 103 60 35 
108 232 322 108 81 59 
108 234 320 103 58 29 
108 234 321 110 60 24 
108 235 320 109 57 23 
104 232 328 95 75 65 
104 232 335 93 83 77 
99 236 336 96 86 78 
99 237 336 104 93 83 
99 238 336 117 104 93 
99 239 336 123 109 97 
100 235 336 89 80 72 
101 234 336 104 92 82 
101 235 336 101 90 80 
101 235 337 107 94 83 
102 233 336 109 97 86 
103 233 336 104 93 84 
102 234 336 113 101 89 
102 234 337 116 104 92 
102 235 337 113 101 90 
103 234 336 108 97 87 
103 234 337 108 98 89 
103 235 337 107 97 88 
100 236 336 90 81 74 
100 236 337 92 82 74 
100 237 336 99 89 81 
100 237 337 93 84 76 
101 236 337 100 88 78 
101 237 337 94 84 75 
100 238 336 110 98 88 
100 238 337 110 99 88 
100 239 337 121 108 96 
101 238 337 103 92 83 
101 239 337 114 100 90 
101 239 338 114 100 88 
102 236 337 109 98 87 
103 236 337 113 100 90 
102 236 338 110 98 89 
102 237 338 104 92 82 
102 238 338 104 93 84 
102 239 338 103 92 83 
99 240 327 113 90 69 
99 241 327 113 92 69 
99 242 327 115 97 79 
99 243 327 124 106 89 
99 244 327 127 110 94 
103 240 323 116 60 17 
103 241 323 110 57 16 
102 243 323 95 70 46 
103 242 323 103 53 22 
103 243 322 108 70 47 
103 243 323 101 71 52 
101 240 325 120 72 33 
101 241 324 110 69 30 
101 241 325 116 77 41 
100 240 326 117 80 49 
100 240 327 116 88 62 
100 241 326 115 85 51 
101 240 326 121 77 43 
100 242 325 110 86 57 
100 243 325 110 89 66 
101 242 324 104 73 34 
101 242 325 108 79 45 
101 243 324 89 68 43 
101 243 325 95 76 48 
100 242 326 116 92 65 
100 243 326 121 102 82 
102 240 324 117 66 21 
102 241 324 109 63 22 
103 240 324 116 62 12 
103 241 324 110 57 10 
102 242 324 102 63 24 
102 243 324 93 71 47 
102 244 323 98 85 70 
102 245 323 109 96 84 
103 244 322 105 84 64 
103 244 323 101 85 66 
103 245 322 105 90 75 
103 245 323 109 96 81 
103 246 322 112 99 85 
103 246 323 117 103 89 
103 247 322 105 92 78 
103 247 323 114 99 85 
100 244 325 108 92 74 
101 244 324 90 78 66 
101 244 325 94 81 68 
101 245 324 96 85 75 
101 245 325 95 84 75 
100 244 326 121 105 89 
100 244 327 130 112 96 
100 245 326 113 100 88 
100 245 327 127 110 95 
101 246 324 102 90 77 
101 246 325 99 86 73 
101 247 325 104 89 75 
100 246 326 105 91 79 
100 246 327 116 100 87 
100 247 326 102 87 74 
100 247 327 106 91 79 
101 246 326 100 86 73 
101 247 326 102 87 72 
102 244 324 96 83 68 
102 245 324 100 88 76 
102 246 324 111 97 83 
102 247 324 116 101 86 
102 247 325 116 100 84 
99 240 328 108 86 68 
99 240 329 109 93 79 
99 241 328 109 93 77 
99 241 329 113 99 84 
98 240 330 123 106 93 
98 240 331 126 109 94 
98 241 330 121 106 94 
98 241 331 130 114 100 
99 240 330 119 103 90 
99 241 330 115 101 88 
99 242 328 109 93 80 
99 242 329 108 95 83 
99 243 328 114 99 85 
99 243 329 107 94 83 
98 242 330 122 107 95 
98 242 331 135 119 103 
99 242 330 110 98 87 
99 242 331 132 116 100 
99 243 330 109 97 86 
99 243 331 128 112 98 
98 240 332 122 106 92 
98 240 333 118 104 92 
98 241 332 132 117 102 
98 241 333 125 111 98 
98 240 334 111 99 88 
98 241 334 114 102 91 
99 240 334 102 91 82 
99 240 335 112 100 91 
99 241 334 106 94 83 
99 241 335 107 95 85 
98 242 332 136 120 105 
98 242 333 130 115 102 
99 243 332 136 120 105 
99 243 333 134 119 104 
98 242 334 121 108 95 
99 242 334 110 97 86 
99 242 335 107 95 85 
99 243 334 122 107 94 
99 243 335 108 96 87 
99 244 328 127 110 93 
99 244 329 113 99 86 
99 245 328 131 113 97 
99 245 329 121 106 90 
99 244 330 106 94 84 
99 244 331 120 105 93 
99 245 330 108 94 82 
99 245 331 112 96 84 
99 246 329 125 109 91 
99 246 330 117 102 87 
99 246 331 113 97 84 
99 247 331 111 95 83 
99 244 332 130 114 100 
99 244 333 134 117 103 
99 245 332 123 106 93 
99 245 333 132 115 100 
99 244 334 130 114 99 
99 244 335 115 101 89 
99 245 334 134 116 98 
99 245 335 121 104 89 
99 246 332 119 102 89 
99 246 333 130 112 97 
99 247 332 113 97 86 
99 247 333 128 110 94 
99 246 334 135 116 97 
99 246 335 131 112 92 
99 247 334 139 119 100 
100 245 328 131 113 97 
100 246 328 127 109 92 
100 246 329 129 112 94 
100 247 328 117 100 85 
100 247 329 128 110 93 
100 246 330 124 108 92 
100 247 330 125 108 92 
100 247 331 116 101 87 
100 247 332 111 96 85 
100 247 333 125 106 89 
100 246 335 128 109 89 
100 247 334 140 117 95 
100 247 335 137 113 88 
103 248 322 103 90 78 
103 248 323 114 99 85 
103 249 322 108 95 83 
103 249 323 112 97 84 
103 250 323 109 94 82 
103 251 323 106 92 80 
101 248 325 112 97 81 
100 248 327 100 87 76 
101 248 326 110 96 81 
101 248 327 98 86 76 
101 249 326 111 96 82 
101 249 327 96 84 75 
101 250 326 109 93 79 
101 250 327 101 87 76 
101 251 326 114 98 82 
101 251 327 109 95 80 
102 248 324 122 105 88 
102 248 325 119 102 85 
102 249 324 120 102 85 
102 249 325 118 102 85 
103 248 324 119 103 88 
103 249 324 115 99 83 
102 249 326 123 105 88 
102 250 325 118 100 83 
102 251 325 123 104 87 
103 250 324 115 98 83 
103 251 324 114 97 83 
102 250 326 118 101 84 
102 251 326 122 104 87 
103 252 323 105 93 81 
103 253 323 101 90 79 
101 252 327 112 97 82 
101 253 327 117 100 85 
101 254 327 119 101 85 
102 252 325 121 105 89 
102 253 325 118 103 88 
103 252 324 114 100 86 
103 252 325 120 106 91 
103 253 324 110 97 86 
103 253 325 118 104 91 
102 252 326 119 102 87 
102 253 326 118 102 85 
102 253 327 118 101 85 
102 254 325 116 101 87 
103 254 324 107 94 83 
103 254 325 111 98 86 
103 255 324 105 92 80 
103 255 325 115 100 85 
102 254 326 119 101 84 
102 254 327 120 101 84 
102 255 326 120 102 83 
102 255 327 122 102 79 
100 248 328 109 94 82 
100 248 329 126 109 92 
100 249 328 107 91 80 
100 249 329 124 107 90 
101 249 328 102 87 77 
100 248 330 128 111 94 
100 248 331 117 101 87 
100 249 330 132 114 96 
100 249 331 124 105 89 
100 250 329 123 104 88 
100 251 329 117 100 86 
101 250 328 102 88 76 
101 250 329 112 96 81 
101 251 328 103 88 76 
101 251 329 112 95 82 
100 250 330 132 113 94 
100 250 331 129 111 92 
100 251 330 128 110 92 
100 251 331 130 111 92 
101 251 330 120 102 88 
100 248 332 114 98 83 
100 248 333 122 102 84 
100 249 332 118 101 83 
100 249 333 121 98 74 
100 248 334 140 111 82 
100 248 335 144 111 73 
100 249 334 138 103 66 
100 249 335 151 101 58 
100 250 332 121 102 81 
100 250 333 124 93 63 
100 251 332 127 104 80 
100 251 333 130 95 60 
100 250 334 141 92 51 
100 250 335 156 91 42 
100 251 334 143 85 40 
100 251 335 156 84 34 
101 251 335 158 80 27 
100 252 329 113 97 83 
101 252 328 104 90 78 
101 252 329 108 92 79 
101 253 328 112 97 81 
101 253 329 110 92 74 
100 252 330 122 103 84 
100 252 331 130 109 83 
100 253 330 126 102 77 
100 253 331 129 102 74 
101 252 330 121 103 84 
101 252 331 129 108 82 
101 253 330 122 98 74 
101 253 331 129 101 68 
101 254 328 119 99 79 
101 254 329 116 91 67 
101 255 328 125 100 69 
101 255 329 125 93 60 
101 254 330 122 90 60 
101 254 331 130 91 57 
101 255 330 129 84 52 
101 255 331 134 85 51 
102 255 328 126 101 68 
100 252 332 130 104 73 
100 252 333 137 93 49 
101 252 332 133 103 70 
101 252 333 138 91 43 
101 253 332 135 97 61 
101 253 333 138 86 40 
100 252 334 146 80 28 
100 252 335 154 75 22 
101 252 334 147 77 24 
101 252 335 156 70 17 
101 253 334 148 75 20 
101 253 335 154 67 11 
101 254 332 137 89 52 
101 254 333 140 84 39 
101 255 332 139 83 45 
101 255 333 143 80 33 
101 254 334 149 74 14 
101 254 335 155 67 9 
101 255 334 149 73 13 
101 255 335 154 68 8 
105 240 321 119 53 11 
105 241 321 115 54 20 
104 240 322 119 52 7 
104 240 323 119 53 7 
104 241 322 117 56 16 
104 241 323 115 52 8 
105 240 322 119 53 5 
105 241 322 117 60 21 
104 242 321 112 62 32 
104 243 321 111 69 45 
105 242 320 115 61 32 
105 242 321 114 63 33 
105 243 320 112 63 38 
105 243 321 112 69 44 
104 242 322 113 63 29 
104 243 322 112 76 55 
106 240 320 113 52 15 
106 240 321 115 52 17 
106 241 320 114 53 17 
106 242 320 115 59 30 
106 243 320 112 60 36 
104 244 321 110 76 56 
104 245 321 102 83 66 
105 244 320 109 74 52 
105 244 321 114 81 59 
105 245 320 93 74 56 
105 245 321 105 81 61 
104 244 322 106 79 62 
104 245 322 104 86 72 
104 246 321 100 88 76 
104 247 321 96 86 76 
105 246 320 90 80 71 
105 246 321 94 84 74 
105 247 320 94 84 77 
104 246 322 104 91 76 
104 247 322 100 88 77 
106 244 320 108 71 48 
106 245 320 99 73 51 
106 246 320 90 83 77 
104 248 321 96 84 72 
104 249 320 104 89 75 
104 249 321 103 88 74 
105 248 320 98 85 74 
105 249 320 105 92 79 
104 248 322 98 86 75 
104 249 322 103 90 78 
104 250 321 107 92 78 
104 251 321 107 94 82 
105 250 320 107 93 80 
105 250 321 107 92 78 
105 251 320 109 94 80 
105 251 321 112 98 86 
104 250 322 104 91 78 
104 251 322 103 91 79 
104 252 321 107 95 82 
105 252 320 113 98 85 
105 252 321 112 99 85 
105 253 320 119 105 90 
105 253 321 118 103 90 
104 252 322 103 91 78 
104 252 323 102 91 79 
104 253 322 111 97 85 
104 253 323 107 94 82 
105 253 322 117 102 87 
105 254 321 123 108 94 
104 254 322 120 105 91 
104 254 323 114 100 88 
104 255 323 113 99 86 
105 254 322 122 107 92 
105 255 322 119 104 90 
105 255 323 117 102 88 
106 252 320 116 101 88 
106 253 320 116 101 88 
106 253 321 118 103 91 
106 254 320 113 99 88 
106 254 321 120 106 92 
106 255 321 119 104 90 
107 254 320 109 96 85 
107 255 320 110 97 85 
107 255 321 116 102 88 
106 255 322 117 101 86 
104 254 324 103 89 81 
104 255 324 108 93 80 
99 240 336 122 108 96 
99 241 336 119 105 92 
99 242 336 110 96 86 
99 243 336 104 92 83 
99 244 336 101 89 81 
100 240 337 129 114 101 
100 241 337 133 117 102 
101 240 337 128 113 100 
101 241 337 135 120 105 
101 240 338 122 108 95 
101 241 338 131 116 102 
100 242 336 119 104 91 
100 242 337 131 115 98 
100 243 336 110 96 86 
100 243 337 117 102 90 
100 243 338 128 110 94 
101 242 338 135 118 101 
101 243 338 132 113 94 
102 240 338 112 100 90 
102 241 338 117 103 90 
102 242 338 125 107 89 
102 243 338 133 109 85 
100 244 336 100 88 80 
100 244 337 109 94 82 
100 245 336 107 92 80 
100 245 337 106 88 71 
100 244 338 123 103 83 
100 245 338 120 95 71 
101 244 338 133 108 84 
101 245 338 131 98 71 
100 246 336 119 100 78 
100 246 337 111 87 63 
100 247 336 126 96 67 
100 247 337 121 81 52 
101 246 337 116 81 57 
101 247 337 127 80 53 
101 246 338 130 86 60 
101 247 338 134 81 56 
102 244 338 139 107 78 
100 248 336 140 95 57 
100 248 337 132 88 55 
100 249 336 152 87 39 
101 248 337 136 78 43 
101 249 337 145 70 15 
101 248 338 138 77 46 
101 249 338 146 68 13 
100 250 336 157 83 32 
101 250 336 157 80 19 
101 250 337 154 71 8 
101 251 336 159 77 18 
101 251 337 158 71 9 
102 250 337 154 68 8 
102 251 337 157 68 8 
101 252 336 161 71 12 
101 252 337 159 70 9 
101 253 336 160 69 9 
101 253 337 161 70 9 
101 254 336 159 69 9 
101 254 337 161 72 10 
101 255 336 160 66 10 
101 255 337 161 70 12 
102 252 337 158 68 8 
102 253 337 160 71 9 
102 254 337 160 71 11 
102 255 337 160 70 12 
112 224 324 93 78 67 
112 225 324 100 84 73 
87 256 298 124 108 100 
87 262 297 86 66 65 
87 263 297 80 63 57 
87 262 298 85 71 73 
87 262 299 88 77 79 
87 263 298 83 71 71 
87 263 299 84 74 72 
87 263 300 77 62 58 
87 266 295 67 51 39 
87 267 295 68 55 42 
86 268 295 61 51 40 
86 269 295 64 54 46 
87 268 295 65 52 40 
87 269 294 69 55 44 
87 269 295 67 53 41 
86 270 295 64 54 48 
86 271 295 66 55 47 
87 270 294 67 54 43 
87 270 295 67 54 44 
87 271 294 69 57 46 
87 264 296 70 54 41 
87 264 297 76 64 56 
87 265 296 68 53 44 
87 265 297 73 61 55 
86 265 298 76 63 57 
86 265 299 77 64 59 
87 264 298 80 68 60 
87 264 299 75 62 57 
87 265 298 76 63 54 
87 265 299 76 64 58 
86 266 297 72 59 56 
86 267 296 71 59 53 
86 267 297 75 62 61 
87 266 296 67 52 47 
87 266 297 69 55 52 
87 267 296 67 53 45 
86 266 298 77 64 61 
86 266 299 76 62 61 
86 267 298 75 64 64 
86 267 299 73 60 59 
87 264 300 73 60 51 
87 264 301 78 64 50 
87 265 300 76 65 56 
87 265 301 78 65 52 
87 265 302 78 63 53 
86 266 300 75 62 56 
86 266 301 73 62 51 
86 267 300 72 58 52 
86 267 301 89 78 69 
87 266 300 75 64 52 
87 266 301 76 65 56 
86 267 302 108 96 86 
87 266 302 90 79 70 
87 266 303 105 94 84 
87 267 302 107 96 86 
87 267 303 110 98 88 
85 268 297 66 58 53 
85 269 296 61 55 49 
85 269 297 62 54 47 
85 268 298 69 60 54 
85 268 299 72 60 54 
85 269 298 70 61 55 
85 269 299 89 78 70 
84 271 297 79 70 61 
85 270 296 63 57 51 
85 270 297 67 59 52 
85 271 296 62 55 49 
85 271 297 68 60 54 
84 270 298 85 74 64 
84 270 299 104 93 83 
84 271 298 94 83 72 
84 271 299 109 98 89 
85 270 298 80 70 61 
85 270 299 100 89 80 
86 268 296 68 58 49 
86 268 297 73 62 58 
86 269 296 65 57 50 
87 268 296 67 56 44 
86 268 298 72 61 57 
86 268 299 67 53 50 
86 270 296 65 58 54 
86 271 296 61 52 47 
85 268 300 85 74 68 
85 268 301 103 93 86 
85 269 300 104 93 84 
85 269 301 107 97 90 
84 270 300 111 100 91 
84 271 300 114 103 94 
84 271 301 115 104 94 
85 270 300 109 98 89 
85 270 301 104 94 86 
85 271 301 108 97 89 
85 270 302 100 91 84 
85 271 302 98 90 83 
86 268 300 81 69 63 
86 268 301 103 92 83 
86 268 302 111 100 89 
86 268 303 114 102 92 
86 269 302 108 97 89 
86 269 303 117 106 96 
87 268 302 113 101 89 
87 268 303 111 99 90 
86 270 302 103 94 88 
86 270 303 113 102 93 
86 271 303 102 93 84 
87 270 303 121 109 98 
87 271 303 113 100 92 
89 256 293 103 57 15 
89 257 293 101 58 16 
88 256 295 106 86 68 
88 257 294 102 78 58 
88 257 295 105 95 85 
89 256 294 105 67 38 
89 257 294 101 63 29 
89 258 293 96 59 19 
89 259 293 95 66 30 
88 258 294 102 84 68 
88 258 295 107 100 95 
88 259 294 101 87 76 
88 259 295 109 101 98 
89 258 294 98 65 34 
89 259 294 96 73 50 
90 256 292 98 60 12 
90 256 293 99 58 12 
90 257 292 97 61 16 
90 257 293 99 57 13 
91 256 292 96 62 16 
91 257 292 95 63 18 
90 258 292 96 64 12 
90 258 293 97 59 12 
90 259 292 94 66 20 
90 259 293 94 65 18 
91 258 292 94 65 16 
91 259 292 93 65 16 
89 260 293 95 75 51 
89 261 293 101 88 76 
88 260 294 100 88 81 
88 260 295 108 98 94 
88 261 294 105 95 90 
88 261 295 107 95 89 
89 260 294 97 83 71 
89 261 294 106 97 89 
89 262 293 107 97 88 
89 263 293 108 99 92 
88 262 294 105 96 92 
88 262 295 99 88 80 
88 263 294 99 91 86 
88 263 295 88 77 68 
89 262 294 107 99 93 
89 263 294 107 99 94 
90 260 292 92 67 29 
90 260 293 93 71 42 
90 261 292 93 71 42 
90 261 293 97 80 62 
91 260 292 92 65 16 
91 261 292 91 65 20 
90 262 292 93 74 47 
90 262 293 100 86 72 
90 263 292 93 75 51 
90 263 293 99 85 70 
91 262 292 91 67 27 
91 263 292 91 67 33 
92 256 291 94 61 20 
92 257 291 95 62 18 
93 256 291 95 62 27 
93 257 291 95 63 25 
92 258 291 95 63 16 
93 258 291 94 61 16 
93 259 291 97 61 15 
94 256 290 93 65 33 
94 256 291 110 64 22 
94 257 291 108 65 15 
95 256 290 93 64 32 
95 257 290 88 58 23 
94 258 291 95 58 19 
94 259 291 100 58 21 
95 258 290 98 56 16 
95 259 290 99 56 21 
95 259 291 97 57 26 
92 256 292 94 61 19 
92 257 292 94 62 17 
92 258 292 94 63 14 
92 259 292 94 63 13 
93 260 291 98 58 17 
93 261 291 109 57 12 
93 262 291 99 58 12 
93 263 291 98 60 9 
94 260 291 98 58 18 
94 261 291 98 58 10 
95 260 290 96 60 25 
95 260 291 98 59 23 
95 261 290 97 61 17 
95 261 291 97 60 14 
94 262 291 103 61 9 
94 263 291 102 62 6 
95 262 290 99 64 17 
95 262 291 99 64 13 
95 263 290 97 62 12 
95 263 291 98 63 6 
92 260 292 94 62 14 
92 261 292 94 60 11 
92 262 292 94 60 12 
92 263 292 93 62 13 
93 262 292 97 59 8 
93 263 292 96 60 9 
88 256 296 115 110 110 
88 256 297 126 123 123 
88 257 296 118 112 110 
88 257 297 123 111 103 
88 256 298 129 121 117 
88 256 299 122 99 88 
88 257 298 121 95 82 
88 257 299 119 76 62 
88 258 296 115 107 103 
88 258 297 119 99 89 
88 259 296 113 101 96 
88 259 297 115 85 75 
88 258 298 118 80 67 
88 258 299 118 71 57 
88 259 298 116 71 63 
88 259 299 111 66 57 
88 256 300 118 73 60 
88 256 301 118 61 47 
88 257 300 120 63 51 
88 257 301 113 63 47 
89 256 301 119 59 49 
89 256 302 113 61 47 
89 257 302 99 57 43 
89 257 303 92 60 54 
88 258 300 112 64 56 
88 258 301 100 60 53 
88 259 300 99 62 59 
88 259 301 93 65 62 
88 259 302 94 70 68 
89 258 302 90 56 55 
89 258 303 87 60 64 
89 259 302 90 68 67 
89 259 303 83 64 66 
90 256 303 98 58 54 
90 257 303 84 60 65 
91 256 303 86 54 58 
90 258 303 83 65 70 
90 259 303 75 62 67 
88 260 296 108 89 83 
88 260 297 104 73 65 
88 261 296 99 78 67 
88 261 297 90 62 57 
88 260 298 102 65 64 
88 260 299 92 62 64 
88 261 298 85 63 65 
