ply
format ascii 1.0
comment Created by CloudCompare v2.10.1 (Zephyrus)
comment Created 1/30/20 5:15 PM
obj_info Generated by CloudCompare!
element vertex 1931
property float x
property float y
property float z
property uchar red
property uchar green
property uchar blue
end_header
398 702 300 69 82 151 
398 702 301 78 97 158 
398 703 300 91 111 165 
398 703 301 119 140 188 
399 702 300 76 90 153 
399 702 301 68 89 150 
398 702 302 105 127 186 
398 702 303 121 148 199 
398 703 302 136 159 210 
398 703 303 154 175 221 
399 702 302 85 93 164 
399 702 303 92 117 180 
385 701 319 157 179 205 
384 702 319 169 186 210 
384 703 319 161 182 208 
385 702 319 150 176 204 
385 703 318 142 172 203 
385 703 319 152 177 204 
386 701 319 137 171 204 
387 700 319 155 184 219 
387 701 318 126 160 211 
387 701 319 142 177 216 
387 703 317 158 186 218 
386 702 318 136 175 212 
386 702 319 134 173 209 
386 703 318 136 174 209 
387 702 318 134 169 213 
387 703 318 140 175 212 
388 699 319 153 169 212 
389 698 319 127 142 194 
389 699 319 120 133 192 
390 697 319 133 140 193 
391 696 319 150 158 202 
391 697 319 144 148 195 
391 699 317 136 145 195 
390 698 319 127 136 192 
390 699 318 127 141 193 
390 699 319 115 126 188 
391 698 318 141 145 194 
391 698 319 139 144 194 
391 699 318 136 147 194 
390 703 315 119 143 202 
391 702 315 130 150 204 
391 703 314 161 181 217 
391 703 315 135 157 208 
389 701 317 157 180 214 
388 700 319 137 158 206 
388 701 318 105 137 196 
388 701 319 111 138 198 
389 700 318 114 135 192 
389 700 319 106 123 188 
389 701 318 131 157 203 
388 702 317 147 172 211 
388 703 317 159 182 216 
389 702 317 151 175 211 
389 703 316 143 166 207 
389 703 317 157 179 214 
388 702 318 120 151 201 
390 701 317 145 168 205 
391 700 317 135 151 198 
391 701 316 124 146 199 
391 701 317 130 152 197 
390 700 318 139 159 203 
390 701 318 155 176 212 
391 700 318 143 161 202 
390 702 316 124 150 199 
390 702 317 141 164 203 
390 703 316 117 143 197 
391 702 316 120 144 200 
393 693 319 117 147 203 
392 694 319 121 145 203 
392 695 319 140 161 206 
393 694 319 130 157 206 
393 695 319 147 171 208 
394 693 319 150 181 219 
395 692 319 147 175 225 
395 693 318 171 196 231 
395 693 319 155 186 223 
395 695 317 168 183 224 
394 694 319 149 177 212 
394 695 318 154 176 212 
394 695 319 149 173 207 
395 694 318 181 202 233 
395 694 319 157 185 219 
395 695 318 185 202 233 
396 691 319 122 149 218 
397 690 319 127 151 214 
397 691 319 112 140 212 
398 688 319 122 140 198 
398 689 319 125 147 205 
399 688 318 114 128 193 
399 688 319 118 131 193 
399 689 318 109 129 193 
399 689 319 110 129 193 
399 690 317 135 165 209 
399 691 317 144 173 216 
398 690 319 120 143 207 
398 691 318 104 129 204 
398 691 319 106 131 207 
399 690 318 114 140 198 
399 691 318 116 145 203 
399 693 315 153 167 213 
399 695 313 174 192 218 
398 695 315 144 164 219 
399 694 314 167 184 219 
399 694 315 158 175 220 
399 695 314 195 210 235 
399 695 315 171 189 229 
397 693 317 94 124 208 
396 692 319 134 162 221 
396 693 318 153 178 224 
397 692 318 99 125 207 
397 692 319 107 136 211 
397 693 318 99 126 207 
396 694 317 115 140 203 
396 695 317 125 147 211 
397 694 317 108 136 210 
397 695 316 136 157 225 
397 695 317 115 142 215 
396 694 318 151 173 219 
398 692 317 126 155 215 
398 693 316 162 184 229 
398 693 317 118 145 216 
399 692 316 170 188 221 
399 692 317 162 187 223 
399 693 316 166 182 221 
398 692 318 97 123 207 
398 694 316 160 180 231 
398 694 317 144 167 227 
398 695 316 133 154 220 
395 703 309 188 202 234 
394 703 311 153 165 211 
395 702 311 158 169 222 
395 703 310 177 189 230 
395 703 311 160 173 218 
399 699 304 117 126 176 
399 699 305 126 130 170 
399 699 306 125 131 168 
399 699 307 133 139 173 
399 697 311 185 195 216 
399 698 309 162 175 201 
399 699 308 162 171 196 
399 699 309 180 191 212 
398 699 311 182 196 222 
399 698 310 176 190 215 
399 698 311 185 197 221 
399 699 310 187 201 226 
399 699 311 185 198 223 
397 703 306 147 153 212 
397 703 307 144 151 207 
399 700 304 86 91 157 
399 700 305 112 112 169 
399 701 304 91 102 170 
399 701 305 138 152 198 
398 701 306 213 224 244 
398 701 307 193 206 226 
399 700 306 145 155 190 
399 700 307 174 184 207 
399 701 306 190 203 229 
399 701 307 203 211 230 
398 702 304 148 167 212 
398 702 305 179 195 230 
398 703 304 166 182 225 
398 703 305 161 176 220 
399 702 304 132 151 202 
399 702 305 145 165 205 
398 702 306 205 218 244 
398 702 307 181 193 222 
398 703 306 174 187 228 
398 703 307 155 161 209 
397 701 309 129 141 198 
396 701 311 154 166 218 
397 700 311 182 190 225 
397 701 310 136 149 204 
397 701 311 149 159 209 
396 703 309 185 195 233 
397 702 308 167 173 221 
397 702 309 142 151 207 
397 703 308 158 166 218 
397 703 309 162 170 220 
396 702 310 169 181 227 
396 702 311 163 176 227 
396 703 310 185 196 235 
397 702 310 145 156 211 
398 700 309 186 200 223 
398 701 308 198 209 232 
398 701 309 180 193 224 
399 700 308 200 208 226 
399 700 309 197 206 225 
398 700 310 174 191 221 
398 700 311 177 189 220 
398 701 310 157 172 213 
399 700 310 185 201 227 
398 702 308 178 186 224 
398 702 309 170 178 222 
394 699 315 159 165 212 
395 698 315 151 163 213 
395 699 314 163 172 218 
395 699 315 166 176 218 
393 697 317 141 144 197 
392 696 319 150 163 206 
392 697 318 142 143 194 
392 697 319 143 147 195 
393 696 318 147 163 204 
393 696 319 149 169 207 
393 697 318 143 149 197 
392 698 317 137 136 192 
392 699 317 134 138 193 
393 698 317 142 141 196 
393 699 316 136 138 195 
393 699 317 133 133 192 
392 698 318 140 140 193 
394 697 317 152 159 208 
395 696 317 146 161 214 
395 697 316 131 143 205 
395 697 317 139 151 208 
394 696 318 158 176 215 
394 697 318 157 169 212 
395 696 318 183 197 231 
394 698 316 142 145 200 
394 698 317 142 143 197 
394 699 316 141 145 200 
395 698 316 139 149 205 
392 701 315 139 148 202 
393 700 315 146 149 199 
393 701 314 152 155 202 
393 701 315 148 152 201 
392 702 313 173 181 216 
392 703 313 177 189 217 
393 702 313 169 173 213 
393 703 312 171 180 217 
393 703 313 177 183 219 
392 702 314 159 169 213 
392 702 315 142 153 207 
392 703 314 172 188 220 
393 702 314 161 163 208 
394 701 313 156 158 211 
395 700 313 168 178 228 
395 701 312 169 176 230 
395 701 313 174 180 230 
394 700 314 161 166 210 
394 700 315 159 163 209 
394 701 314 152 153 202 
395 700 314 161 172 217 
394 702 312 155 162 211 
394 702 313 154 156 207 
394 703 312 162 172 214 
395 702 312 157 165 221 
392 700 316 135 141 196 
392 700 317 133 143 196 
392 701 316 130 140 196 
393 700 316 138 141 197 
396 697 315 153 171 217 
397 696 315 131 152 210 
397 697 314 176 192 224 
397 697 315 149 171 214 
396 699 313 130 149 205 
397 698 313 182 194 221 
397 699 313 164 178 219 
396 698 314 152 169 217 
396 698 315 166 181 224 
396 699 314 136 153 205 
397 698 314 161 178 216 
398 697 313 191 198 221 
399 696 312 184 196 218 
399 696 313 193 207 228 
399 697 312 197 207 227 
399 697 313 196 205 227 
398 696 314 197 212 238 
398 696 315 137 156 212 
398 697 314 197 210 235 
399 696 314 214 226 245 
398 698 312 188 199 226 
398 698 313 184 192 217 
398 699 312 188 198 228 
398 699 313 177 188 221 
399 698 312 202 213 235 
396 696 316 130 149 216 
396 696 317 120 139 208 
396 697 316 141 156 215 
397 696 316 138 157 222 
396 700 312 136 147 208 
396 700 313 140 155 213 
396 701 312 152 161 218 
397 700 312 156 167 215 
397 700 313 142 156 210 
397 701 312 134 144 200 
398 700 312 194 201 234 
407 675 288 84 109 164 
405 677 288 129 158 211 
404 679 288 182 195 223 
405 678 288 166 189 226 
405 679 288 196 210 234 
405 679 289 195 205 221 
406 677 288 109 140 201 
407 676 288 105 122 179 
407 677 288 110 133 194 
407 677 289 114 138 197 
406 678 288 135 164 210 
406 678 289 158 181 217 
406 679 289 181 197 219 
407 678 289 142 167 209 
406 679 290 188 203 224 
407 678 290 138 158 201 
407 679 290 170 185 214 
407 679 291 170 182 208 
401 683 288 209 207 217 
402 681 288 222 219 227 
403 680 288 187 196 216 
403 681 288 220 218 227 
403 681 289 210 211 223 
402 682 288 217 214 223 
402 683 288 195 197 211 
402 683 289 172 178 199 
403 682 289 178 185 207 
403 683 289 148 160 190 
403 683 290 173 180 201 
400 684 288 181 184 197 
400 685 288 206 207 219 
401 684 288 185 188 201 
401 685 289 204 205 217 
400 686 288 182 188 203 
400 686 289 185 188 203 
400 687 288 124 139 175 
400 687 289 142 153 183 
401 686 289 195 198 209 
401 687 289 176 182 199 
401 687 290 185 189 202 
402 684 288 180 183 199 
402 684 289 171 179 200 
402 685 289 191 195 209 
403 684 289 165 175 202 
402 685 290 188 192 206 
403 684 290 189 194 210 
403 684 291 208 209 221 
403 685 290 199 201 214 
403 685 291 188 193 208 
402 686 290 178 183 198 
402 686 291 174 181 196 
402 687 290 192 194 204 
402 687 291 197 197 207 
403 686 291 172 179 196 
403 687 291 194 196 208 
403 686 292 176 183 200 
403 687 292 188 190 202 
403 687 293 173 178 191 
404 680 288 205 211 226 
404 680 289 202 209 223 
404 681 289 178 187 211 
405 680 289 184 194 212 
404 681 290 162 173 202 
405 680 290 189 198 214 
405 681 290 179 188 209 
405 681 291 191 197 211 
404 682 289 147 159 195 
404 682 290 162 172 198 
404 683 290 181 187 205 
404 683 291 208 208 219 
405 682 291 204 208 221 
405 683 291 207 209 223 
406 680 290 200 208 224 
406 680 291 202 208 221 
406 681 291 196 201 214 
407 680 291 191 199 216 
405 682 292 203 207 221 
405 683 292 185 190 209 
406 680 292 203 207 220 
406 681 292 202 205 217 
406 681 293 212 213 222 
407 680 292 192 199 217 
407 680 293 198 204 223 
407 681 292 213 215 226 
407 681 293 217 218 229 
407 681 294 199 205 219 
406 682 292 198 202 215 
406 682 293 199 202 213 
406 683 293 164 172 191 
407 682 293 201 202 213 
407 682 294 172 179 194 
407 683 294 175 182 197 
407 683 295 172 183 203 
404 684 291 207 208 219 
404 685 291 197 200 214 
404 684 292 173 181 202 
404 685 292 158 170 192 
404 685 293 157 170 192 
405 684 292 163 172 195 
405 684 293 148 158 184 
405 685 293 172 179 195 
405 685 294 193 193 201 
404 686 292 170 179 197 
404 686 293 175 182 198 
404 687 293 181 185 196 
405 686 293 190 191 201 
404 687 294 191 190 198 
405 686 294 198 196 202 
405 687 294 197 194 200 
405 687 295 195 198 208 
406 684 293 176 180 197 
406 684 294 191 194 204 
406 685 294 188 190 199 
406 685 295 159 168 192 
407 684 294 192 197 209 
407 684 295 153 165 192 
407 685 295 135 149 188 
406 686 294 191 192 201 
406 686 295 178 185 202 
406 687 295 193 199 213 
407 683 296 118 141 180 
405 687 296 195 200 213 
407 684 296 102 124 182 
407 684 297 108 131 194 
407 685 296 100 123 182 
407 685 297 84 117 185 
407 685 298 58 103 183 
406 686 296 148 168 196 
406 687 296 182 194 213 
406 687 297 161 183 216 
407 686 296 104 133 183 
407 686 297 98 134 188 
406 687 298 124 149 207 
406 687 299 103 132 210 
407 686 298 81 124 190 
407 686 299 103 138 210 
407 687 298 113 143 202 
407 687 299 99 130 209 
407 685 303 81 119 206 
407 686 300 116 143 218 
407 686 301 136 153 218 
407 687 300 106 131 211 
407 687 301 148 164 221 
406 687 303 165 184 222 
407 686 302 141 158 219 
407 686 303 123 148 217 
407 687 302 166 177 225 
407 687 303 158 178 224 
409 673 288 150 172 223 
408 674 288 117 137 200 
408 675 288 108 128 184 
408 675 289 117 133 187 
409 674 288 121 144 204 
409 674 289 128 148 205 
409 675 289 121 138 195 
409 675 290 141 158 202 
410 672 288 138 165 218 
410 673 288 142 167 216 
410 673 289 185 200 231 
411 672 288 127 151 214 
411 672 289 165 180 214 
411 673 289 178 194 225 
411 672 290 203 211 228 
411 673 290 206 213 231 
411 673 291 184 193 211 
410 674 289 163 178 218 
410 674 290 172 185 218 
410 675 290 174 191 219 
410 675 291 180 194 217 
411 674 290 178 188 216 
411 674 291 200 208 226 
411 675 291 216 223 239 
411 674 292 230 232 244 
411 675 292 212 218 232 
411 675 293 203 208 222 
408 676 288 91 107 168 
408 676 289 110 128 185 
408 677 289 120 139 195 
408 676 290 117 133 189 
408 677 290 119 136 193 
408 677 291 125 136 192 
409 676 290 125 138 193 
409 676 291 127 138 194 
409 677 290 111 128 186 
409 677 291 125 137 191 
408 678 290 122 139 193 
408 678 291 142 154 197 
408 679 291 156 169 199 
410 676 291 135 147 195 
409 677 292 141 154 195 
408 678 292 162 172 200 
408 679 292 163 172 202 
408 679 293 164 171 213 
409 678 292 160 169 198 
409 678 293 160 167 206 
409 679 293 161 167 211 
409 679 294 143 155 211 
409 679 295 134 146 204 
410 676 292 147 161 199 
410 676 293 160 172 205 
410 677 292 156 168 206 
410 677 293 164 176 213 
411 676 292 178 188 212 
411 676 293 187 197 218 
410 677 294 157 170 220 
411 676 294 200 210 233 
411 677 294 161 175 218 
411 677 295 172 187 230 
410 678 293 153 164 208 
410 678 294 137 151 211 
410 678 295 134 152 214 
410 679 295 132 145 208 
411 678 295 138 159 220 
412 672 289 182 192 223 
412 672 290 217 221 234 
412 672 291 188 196 214 
412 673 290 200 206 220 
412 673 291 185 193 210 
413 672 291 175 186 212 
412 673 292 194 202 219 
413 672 292 166 178 206 
413 672 293 208 212 225 
413 673 292 194 201 218 
413 673 293 214 216 228 
413 673 294 189 198 217 
412 674 292 211 215 229 
412 674 293 201 206 222 
412 675 292 210 214 227 
412 675 293 200 205 219 
413 674 293 209 213 228 
412 675 294 213 216 229 
412 675 295 215 222 239 
413 674 294 188 197 217 
413 674 295 171 182 216 
413 675 294 206 212 229 
413 675 295 199 208 232 
414 672 292 154 167 201 
414 672 293 201 204 218 
414 672 294 196 201 215 
414 672 295 154 162 200 
414 673 294 193 199 217 
414 673 295 155 163 203 
415 672 294 191 195 208 
415 672 295 167 176 202 
414 674 295 169 177 216 
412 676 294 220 225 239 
412 676 295 212 221 243 
412 677 295 203 214 243 
411 677 296 164 183 232 
411 677 297 147 172 230 
410 678 296 138 156 221 
410 679 296 124 137 205 
410 679 297 112 132 199 
411 678 296 132 155 221 
411 678 297 116 144 219 
411 679 297 110 138 213 
411 678 298 112 139 215 
411 678 299 88 116 188 
411 679 298 98 125 196 
411 679 299 91 113 183 
411 679 300 119 136 190 
411 679 301 107 126 185 
411 679 302 106 121 189 
411 679 303 103 120 193 
413 674 296 220 225 241 
413 675 296 219 225 245 
413 675 297 205 214 245 
413 675 298 168 180 232 
414 673 296 206 209 225 
414 673 297 235 233 242 
415 672 296 189 194 211 
415 672 297 224 225 236 
415 673 296 207 209 224 
415 673 297 230 231 241 
415 672 298 206 212 236 
415 673 298 208 212 231 
415 673 299 156 166 214 
414 674 296 231 232 243 
414 674 297 233 235 247 
414 675 297 201 211 239 
414 674 298 226 231 246 
414 674 299 220 229 250 
414 675 298 200 211 241 
414 675 299 194 205 243 
415 674 298 218 224 239 
415 674 299 198 208 236 
415 673 300 144 156 220 
415 673 301 196 203 239 
415 673 302 212 216 241 
415 673 303 181 187 218 
414 674 300 194 206 241 
414 675 300 175 184 230 
414 675 301 138 151 211 
415 674 300 173 185 232 
415 674 301 175 186 232 
414 675 302 89 114 192 
414 675 303 105 124 194 
415 674 302 157 170 222 
415 674 303 121 130 195 
412 676 296 200 211 238 
412 676 297 195 206 245 
412 677 296 187 201 236 
412 677 297 184 200 242 
413 676 296 213 222 245 
413 676 297 174 185 237 
412 676 298 116 136 220 
412 677 298 140 161 229 
412 677 299 93 118 196 
413 676 298 113 131 216 
413 676 299 102 121 206 
412 678 298 111 135 211 
412 678 299 95 121 192 
412 677 300 114 133 196 
412 677 301 121 139 195 
413 676 300 125 137 203 
413 676 301 124 140 197 
413 677 300 126 142 199 
413 677 301 119 138 194 
412 677 302 117 136 198 
412 677 303 117 140 204 
413 676 302 101 122 190 
413 676 303 128 146 205 
413 677 302 109 131 195 
413 677 303 118 140 203 
412 678 300 108 130 190 
412 678 301 118 136 192 
412 679 301 107 126 191 
412 678 302 127 145 204 
412 678 303 117 140 204 
412 679 302 111 129 197 
412 679 303 111 130 200 
414 676 301 123 138 199 
414 676 302 91 117 187 
414 676 303 121 140 199 
408 680 292 167 178 205 
408 680 293 164 176 211 
408 681 293 191 201 224 
408 680 294 155 173 209 
408 681 294 183 195 219 
408 681 295 147 167 199 
409 680 294 143 160 206 
409 680 295 134 148 200 
409 681 295 126 145 193 
408 682 294 169 178 195 
408 682 295 149 165 188 
408 683 295 174 187 207 
409 680 296 127 134 192 
409 681 296 97 121 176 
409 681 297 83 108 168 
409 681 298 85 100 157 
408 682 296 137 158 190 
408 683 296 142 162 191 
408 683 297 111 138 184 
409 682 296 116 140 182 
409 682 297 100 127 178 
409 683 297 106 131 181 
408 683 298 110 139 192 
409 682 298 85 106 163 
409 682 299 62 69 143 
409 683 298 106 131 184 
409 683 299 96 125 186 
410 680 296 115 124 182 
410 680 297 82 98 158 
410 681 297 92 110 163 
410 680 298 74 94 153 
410 680 299 73 92 147 
410 681 298 90 103 156 
410 681 299 70 82 135 
411 680 299 84 101 167 
409 682 300 92 108 173 
409 682 301 125 152 212 
409 683 300 107 137 199 
409 683 301 118 145 208 
409 682 302 132 159 220 
409 682 303 126 153 221 
409 683 302 125 152 217 
409 683 303 125 151 218 
410 680 300 84 97 151 
410 680 301 97 116 174 
410 681 300 72 83 143 
410 681 301 87 109 173 
411 680 300 103 120 170 
411 680 301 108 125 180 
410 680 302 92 117 183 
410 680 303 96 123 194 
410 681 302 96 125 195 
410 681 303 105 134 209 
411 680 302 100 116 183 
411 680 303 101 125 191 
410 682 300 70 84 153 
410 682 301 105 131 191 
410 682 302 113 142 209 
410 682 303 109 139 216 
408 684 296 102 131 178 
408 684 297 109 138 192 
408 684 298 101 131 194 
408 684 299 105 138 202 
408 685 298 80 115 187 
408 685 299 86 118 197 
408 684 300 121 151 211 
408 684 301 157 175 227 
408 685 300 129 152 216 
408 685 301 147 166 222 
409 684 300 115 148 207 
409 684 301 139 163 218 
408 684 302 112 136 211 
408 684 303 95 127 211 
408 685 302 118 143 212 
408 685 303 84 121 209 
402 677 319 218 218 227 
403 676 319 196 204 223 
403 677 318 201 206 222 
403 677 319 216 218 229 
402 678 319 215 215 225 
402 679 318 166 172 210 
402 679 319 208 212 225 
403 678 318 183 187 213 
403 678 319 208 209 223 
403 679 318 151 157 203 
405 672 319 105 138 197 
405 673 319 97 132 201 
404 674 319 100 128 205 
404 675 319 117 141 205 
405 674 318 105 135 207 
405 674 319 94 129 205 
405 675 318 122 146 209 
405 675 319 105 134 207 
407 672 317 111 138 201 
407 673 317 126 150 209 
406 672 318 116 144 207 
406 672 319 96 130 197 
406 673 318 127 153 213 
406 673 319 103 137 204 
407 672 318 111 138 199 
407 673 318 135 156 214 
406 674 317 143 161 215 
406 675 317 127 145 209 
407 674 316 125 145 211 
407 674 317 129 150 209 
407 675 316 106 135 206 
407 675 317 119 139 206 
406 674 318 123 148 210 
406 675 318 134 153 213 
405 679 315 179 192 219 
406 677 315 97 129 206 
407 676 315 122 153 214 
407 677 314 119 145 206 
407 677 315 110 140 209 
406 679 313 195 206 226 
407 678 313 169 187 222 
407 679 312 200 206 222 
407 679 313 197 208 229 
406 678 314 114 137 202 
406 678 315 104 132 200 
406 679 314 166 181 213 
406 679 315 164 179 212 
407 678 314 118 142 203 
405 676 317 136 148 208 
405 677 317 122 135 201 
404 676 318 179 190 221 
404 676 319 168 183 217 
404 677 318 173 179 212 
405 676 318 151 165 214 
404 678 317 133 144 203 
404 679 317 148 165 209 
405 678 316 149 171 219 
405 678 317 144 162 214 
405 679 316 190 205 230 
404 678 318 147 154 201 
404 679 318 124 132 194 
406 676 316 84 117 197 
406 676 317 110 131 203 
406 677 316 92 127 203 
407 676 316 97 131 205 
406 678 316 113 145 207 
406 681 311 148 154 198 
407 680 311 165 173 204 
407 681 310 194 203 222 
407 681 311 163 172 208 
407 682 309 186 191 214 
407 683 309 167 171 209 
406 682 311 165 178 210 
406 683 310 205 214 230 
406 683 311 186 198 220 
407 682 310 201 208 224 
407 682 311 174 187 216 
407 683 310 204 209 226 
407 685 304 113 137 213 
407 685 305 154 167 220 
407 684 306 212 217 233 
407 684 307 214 218 230 
407 685 306 198 206 228 
407 685 307 208 212 225 
406 687 304 205 216 233 
406 687 305 219 223 235 
407 686 304 146 168 220 
407 686 305 192 203 228 
407 687 304 190 206 229 
406 686 306 218 220 232 
406 686 307 207 212 228 
406 687 306 222 224 236 
406 687 307 205 211 229 
407 686 306 210 216 231 
405 684 311 184 192 211 
405 685 310 177 184 207 
405 685 311 186 192 208 
405 686 309 212 219 234 
405 687 308 197 205 223 
405 687 309 217 223 237 
404 687 311 182 189 221 
405 686 310 194 202 219 
405 686 311 203 209 225 
405 687 310 213 219 234 
405 687 311 200 206 228 
406 684 309 172 179 211 
406 685 308 183 193 218 
406 685 309 172 182 212 
407 684 308 184 193 219 
407 684 309 155 162 204 
407 685 308 184 194 219 
407 685 309 153 164 204 
406 684 310 203 207 227 
406 684 311 191 199 217 
406 685 310 176 182 210 
407 684 310 191 198 220 
406 686 308 188 198 218 
406 686 309 192 202 222 
406 687 308 195 203 221 
401 680 319 143 158 199 
401 681 319 109 130 192 
400 682 319 85 117 190 
400 683 319 79 113 191 
401 682 318 111 137 197 
401 682 319 103 130 196 
401 683 318 100 129 195 
401 683 319 85 118 193 
403 680 317 110 132 195 
403 681 317 125 149 203 
402 680 318 142 151 203 
402 680 319 167 177 211 
402 681 318 109 126 194 
403 680 318 110 124 192 
402 682 317 88 118 190 
402 683 317 125 154 208 
403 682 316 174 190 220 
403 682 317 121 149 202 
403 683 316 148 169 210 
403 683 317 124 153 206 
402 682 318 103 128 194 
402 683 318 112 140 201 
403 684 315 147 163 216 
403 685 314 133 150 217 
403 685 315 125 147 214 
403 687 313 114 131 208 
402 687 315 120 146 213 
403 686 314 117 140 212 
403 686 315 107 139 211 
403 687 314 117 141 212 
403 687 315 120 146 214 
400 684 319 82 118 192 
400 685 318 86 120 191 
400 685 319 117 142 198 
401 684 318 79 118 194 
401 684 319 69 110 189 
401 685 318 80 116 196 
401 686 317 118 145 209 
401 687 317 146 166 215 
400 686 318 110 134 194 
400 686 319 128 145 196 
400 687 318 127 147 202 
401 686 318 102 131 198 
402 684 317 119 145 209 
402 685 316 123 150 214 
402 685 317 107 135 207 
403 684 316 149 170 220 
403 684 317 136 164 215 
403 685 316 127 153 216 
402 684 318 104 134 204 
402 686 316 113 143 210 
402 686 317 122 150 211 
402 687 316 138 159 217 
402 687 317 148 169 220 
405 680 313 223 222 230 
405 681 313 220 219 229 
404 680 315 231 229 236 
404 681 315 229 228 236 
405 680 314 227 225 233 
405 680 315 223 223 232 
405 681 314 229 225 232 
405 681 315 232 229 235 
405 682 312 182 189 211 
405 682 313 208 210 223 
405 683 312 176 187 210 
405 683 313 182 190 208 
404 682 314 218 219 228 
404 682 315 215 218 230 
404 683 314 185 192 211 
404 683 315 173 183 213 
405 682 314 215 215 225 
405 683 314 199 202 217 
406 680 312 200 201 218 
406 680 313 215 217 228 
406 681 312 181 184 210 
406 681 313 214 214 226 
407 680 312 185 190 210 
407 680 313 210 214 226 
406 680 314 213 217 229 
406 682 312 172 180 206 
406 683 312 171 183 208 
404 680 316 214 222 235 
404 680 317 164 181 216 
404 681 316 217 223 237 
405 680 316 219 224 237 
404 682 316 199 209 227 
404 684 313 191 202 220 
404 685 313 197 208 232 
405 684 312 189 196 214 
405 684 313 183 192 210 
405 685 312 204 209 223 
404 684 314 167 179 211 
404 684 315 151 164 210 
404 685 314 157 172 223 
404 686 312 198 206 230 
404 686 313 160 170 219 
404 687 312 153 160 214 
404 687 313 119 131 208 
405 686 312 208 215 233 
404 686 314 137 152 215 
411 675 311 116 128 198 
411 679 304 102 120 195 
411 679 305 117 135 208 
410 679 306 119 136 210 
410 679 307 121 137 208 
411 678 306 122 140 213 
411 678 307 123 136 212 
411 679 306 126 144 216 
411 679 307 122 135 211 
409 679 309 191 199 220 
408 679 311 197 204 222 
409 678 311 201 210 229 
409 679 310 202 208 224 
409 679 311 207 214 230 
411 677 308 156 158 213 
411 677 309 164 169 216 
410 676 311 123 136 198 
410 677 310 150 159 206 
410 677 311 150 164 208 
411 676 310 149 158 210 
411 676 311 130 141 201 
411 677 310 156 165 210 
410 678 309 157 163 207 
410 679 308 141 156 208 
410 679 309 167 178 212 
411 678 308 135 139 209 
411 678 309 151 155 208 
411 679 308 132 141 206 
410 678 310 168 175 212 
410 678 311 185 196 221 
410 679 310 190 196 220 
413 675 306 192 203 225 
413 675 307 202 211 231 
415 672 305 197 202 224 
415 673 304 190 196 219 
415 673 305 191 198 219 
414 673 306 184 195 221 
414 673 307 188 198 225 
415 672 306 175 180 215 
415 672 307 186 193 224 
415 673 306 182 191 218 
415 673 307 182 191 224 
414 674 304 138 144 200 
414 674 305 196 204 226 
414 675 304 148 159 210 
414 675 305 193 201 229 
415 674 304 150 154 202 
415 674 305 182 189 219 
414 674 306 198 206 226 
414 674 307 200 208 229 
414 675 306 197 206 227 
414 675 307 199 209 227 
413 673 310 207 216 235 
413 673 311 195 209 232 
413 674 309 201 209 226 
413 675 308 206 214 231 
413 675 309 192 202 226 
412 674 311 152 169 214 
412 675 310 158 169 215 
412 675 311 127 142 202 
413 674 310 199 209 230 
413 674 311 186 199 229 
413 675 310 181 193 223 
414 672 309 201 208 226 
414 673 308 201 206 227 
414 673 309 201 207 223 
415 672 308 210 216 235 
415 672 309 198 206 227 
414 672 310 181 191 217 
414 672 311 171 186 213 
414 673 310 200 208 226 
414 674 308 203 210 226 
414 674 309 195 202 218 
412 677 304 115 140 206 
412 677 305 121 143 209 
413 676 304 151 167 218 
413 676 305 175 189 227 
413 677 304 129 150 210 
413 677 305 140 159 215 
412 676 307 164 171 222 
412 677 306 133 148 213 
412 677 307 136 142 211 
413 676 306 175 189 224 
413 676 307 184 196 227 
412 678 304 111 134 205 
412 678 305 116 136 209 
412 679 304 112 130 204 
412 678 306 119 137 211 
412 678 307 123 134 209 
414 676 304 146 161 211 
412 676 308 170 174 221 
412 676 309 172 178 221 
412 677 308 151 152 213 
413 676 308 185 194 224 
413 676 309 182 191 222 
412 676 310 158 168 215 
409 673 315 94 122 189 
409 675 313 110 137 201 
408 675 315 118 144 212 
409 674 315 101 127 199 
409 675 314 107 134 204 
409 675 315 105 133 206 
411 673 313 89 105 186 
410 672 315 69 92 175 
410 673 314 85 107 181 
410 673 315 84 108 182 
411 672 314 99 121 196 
411 672 315 96 117 194 
411 673 314 77 95 179 
410 675 313 102 125 198 
411 674 312 99 116 191 
411 674 313 94 112 189 
411 675 312 106 121 195 
411 675 313 104 122 197 
410 674 314 101 124 193 
410 675 314 97 122 198 
408 672 317 115 141 200 
408 673 316 97 127 197 
408 673 317 103 132 200 
409 672 316 89 118 182 
409 672 317 104 132 188 
409 673 316 96 125 192 
408 674 316 123 144 212 
408 675 316 121 144 214 
409 674 316 103 128 200 
408 677 313 177 194 228 
409 676 313 144 164 213 
409 677 312 180 196 227 
409 677 313 169 187 223 
408 676 314 140 164 217 
408 676 315 125 153 213 
408 677 314 145 168 216 
409 676 314 146 169 219 
408 678 312 187 199 221 
408 678 313 188 202 227 
408 679 312 193 202 220 
409 678 312 190 203 228 
410 676 312 117 135 200 
410 676 313 116 136 202 
410 677 312 154 171 215 
411 676 312 111 125 197 
412 672 313 129 152 212 
412 673 312 160 178 221 
412 673 313 121 140 203 
413 672 312 178 196 225 
413 672 313 169 189 229 
413 673 312 174 193 227 
412 672 314 111 136 205 
412 674 312 129 147 204 
412 674 313 107 124 194 
412 675 312 104 122 192 
414 672 312 192 206 229 
409 681 305 150 172 223 
409 681 306 171 189 224 
409 681 307 173 190 215 
408 683 305 134 149 209 
409 682 304 120 144 216 
409 682 305 143 162 218 
409 683 304 124 147 210 
409 683 305 131 147 207 
408 682 307 210 218 236 
408 683 306 187 196 230 
408 683 307 222 228 243 
409 682 306 190 205 233 
409 682 307 198 209 228 
409 683 306 172 185 225 
410 680 304 110 133 204 
410 680 305 115 137 211 
410 681 304 115 140 217 
410 681 305 124 147 216 
411 680 304 103 124 194 
411 680 305 114 134 206 
410 680 306 124 144 211 
410 680 307 159 175 220 
410 681 306 145 165 213 
408 680 309 200 205 220 
408 681 309 200 205 223 
409 680 308 198 209 228 
409 680 309 198 205 221 
409 681 308 194 203 223 
409 681 309 205 211 228 
408 680 310 194 201 218 
408 680 311 186 195 215 
408 681 310 198 204 222 
409 680 310 193 200 215 
408 682 308 184 191 218 
408 682 309 179 186 213 
408 683 308 189 196 223 
408 683 309 155 160 203 
409 682 308 183 193 217 
410 680 308 173 188 221 
410 680 309 187 200 223 
408 684 304 121 146 218 
408 684 305 136 153 218 
408 685 304 109 135 215 
408 685 305 133 150 217 
408 684 306 182 191 228 
408 684 307 221 225 237 
400 688 289 111 128 172 
400 689 289 86 114 165 
400 688 290 112 128 169 
400 689 290 84 109 166 
401 688 290 147 158 181 
401 688 291 138 151 177 
401 689 290 86 110 165 
401 689 291 97 119 169 
400 690 289 113 138 172 
400 690 290 108 133 171 
400 691 290 136 153 176 
400 691 291 132 148 173 
401 690 290 92 118 168 
401 690 291 92 117 169 
401 691 291 115 136 171 
402 688 291 181 185 198 
402 689 291 105 126 170 
401 690 292 94 119 165 
401 691 292 112 133 171 
401 691 293 116 137 178 
402 688 292 180 185 198 
402 689 292 126 142 177 
402 689 293 125 140 175 
403 688 292 181 184 196 
403 688 293 163 170 183 
403 689 293 134 147 174 
403 688 294 164 170 182 
403 689 294 159 169 190 
402 690 292 97 120 167 
402 690 293 114 127 173 
402 691 292 103 125 167 
402 691 293 121 132 176 
403 690 293 118 131 174 
402 691 294 149 158 200 
403 690 294 145 158 193 
403 690 295 173 187 224 
403 691 294 152 163 206 
403 691 295 155 168 222 
400 692 290 155 164 179 
400 692 291 161 171 189 
400 693 291 154 159 184 
400 694 291 134 137 176 
400 693 292 155 162 187 
401 692 292 122 143 175 
401 692 293 125 150 184 
401 693 292 151 162 187 
401 693 293 169 181 202 
401 692 294 127 149 186 
401 693 294 118 140 185 
401 693 295 79 108 183 
400 694 292 151 154 184 
400 694 293 155 159 186 
400 695 292 124 127 169 
400 695 293 133 140 174 
401 694 293 168 174 197 
400 695 294 123 135 181 
401 694 294 107 125 178 
401 694 295 67 101 182 
401 695 294 102 120 178 
401 695 295 112 133 200 
402 692 293 132 148 188 
402 692 294 125 141 191 
402 692 295 126 142 203 
402 693 294 78 107 174 
402 693 295 96 119 190 
404 688 293 173 177 188 
404 688 294 185 187 196 
404 688 295 207 207 215 
404 689 294 181 187 200 
404 689 295 216 221 234 
405 688 294 191 191 199 
405 688 295 200 200 209 
404 690 295 195 209 235 
403 690 296 159 175 228 
403 691 296 136 154 222 
403 691 297 137 155 225 
401 694 296 76 114 188 
401 694 297 88 124 196 
401 695 296 138 163 220 
401 695 297 111 142 216 
401 695 298 82 120 207 
401 695 299 91 127 207 
402 692 296 137 152 213 
402 692 297 108 127 200 
402 693 296 84 110 187 
402 693 297 85 110 191 
403 692 296 146 164 221 
403 692 297 130 150 214 
402 693 298 96 125 196 
402 693 299 105 132 200 
403 692 298 124 141 205 
403 692 299 136 150 205 
403 693 298 100 125 196 
403 693 299 110 134 202 
402 694 296 62 102 180 
402 694 297 80 115 194 
402 694 298 88 123 197 
402 694 299 99 132 203 
402 695 299 95 130 204 
401 695 300 89 127 199 
401 695 301 111 142 204 
401 695 302 119 142 204 
401 695 303 123 140 206 
403 692 300 152 171 217 
403 692 301 144 165 214 
403 693 300 109 137 207 
403 693 301 112 138 210 
403 692 302 132 153 213 
403 692 303 131 153 213 
403 693 302 119 145 215 
403 693 303 117 146 215 
402 694 300 100 133 206 
402 694 301 98 130 212 
402 695 300 86 125 200 
402 695 301 90 127 202 
402 694 302 78 118 206 
402 694 303 89 121 210 
402 695 302 88 120 199 
402 695 303 105 128 207 
404 689 296 225 236 253 
404 689 297 158 182 230 
405 688 296 211 216 229 
405 688 297 169 191 232 
405 689 296 223 234 252 
405 689 297 138 161 230 
405 688 298 133 160 228 
405 689 298 145 169 234 
405 689 299 203 219 247 
404 690 296 162 181 232 
404 690 297 118 136 223 
404 691 297 142 157 229 
404 690 298 164 181 235 
404 690 299 220 224 237 
404 691 298 180 192 234 
404 691 299 196 201 221 
405 690 298 176 193 238 
405 690 299 222 228 244 
406 688 297 158 183 223 
406 688 298 123 152 216 
406 688 299 107 142 215 
406 689 299 149 181 231 
405 689 300 231 237 251 
405 689 301 213 220 235 
405 689 302 157 169 207 
405 689 303 150 161 209 
404 691 300 199 202 216 
404 691 301 182 196 221 
405 690 300 223 223 231 
405 690 301 198 206 224 
404 690 303 120 137 202 
404 691 302 125 147 204 
404 691 303 114 132 205 
405 690 302 138 154 203 
405 690 303 129 145 204 
406 688 300 142 165 224 
406 688 301 199 212 243 
406 689 300 200 218 247 
406 689 301 221 230 247 
406 688 302 179 188 226 
406 688 303 171 185 221 
406 689 302 176 185 220 
406 689 303 166 176 215 
404 692 299 164 174 206 
404 692 300 173 186 214 
404 692 301 162 181 218 
404 692 302 129 150 208 
404 692 303 130 148 212 
400 696 293 116 124 167 
400 696 294 127 135 186 
400 696 295 149 158 214 
400 697 295 148 150 210 
400 696 296 172 186 230 
400 696 297 169 184 225 
400 697 296 175 178 223 
400 697 297 191 197 227 
401 696 296 162 180 229 
401 696 297 139 163 221 
400 697 298 189 197 223 
400 697 299 181 188 214 
401 696 298 115 142 212 
401 696 299 108 137 206 
400 698 298 153 158 194 
400 698 299 155 161 192 
400 697 300 181 188 213 
400 697 301 172 176 210 
401 696 300 121 146 207 
401 696 301 155 173 217 
400 697 302 154 155 203 
400 697 303 139 139 199 
401 696 302 158 169 213 
401 696 303 150 157 209 
400 698 300 153 157 191 
400 698 301 139 141 189 
400 699 301 129 136 189 
400 698 302 119 120 185 
400 698 303 110 114 184 
400 699 302 121 129 188 
400 699 303 116 125 185 
403 691 307 107 138 219 
403 689 311 85 117 205 
403 690 309 90 122 206 
403 691 308 112 137 214 
403 691 309 126 152 215 
402 691 310 155 179 229 
402 691 311 165 188 234 
403 690 310 96 128 208 
403 690 311 117 146 214 
403 691 310 135 161 218 
403 691 311 150 174 227 
401 695 304 156 171 227 
401 695 305 178 192 239 
401 694 307 170 184 236 
401 695 306 157 166 224 
401 695 307 132 139 209 
402 693 304 108 135 217 
402 693 305 135 161 229 
403 692 304 146 167 225 
403 692 305 146 169 231 
403 693 304 119 146 218 
403 693 305 127 154 226 
402 693 306 153 179 234 
402 693 307 181 202 246 
403 692 306 128 155 225 
403 692 307 135 162 227 
403 693 306 129 160 225 
402 694 304 123 147 224 
402 694 305 170 191 245 
402 695 304 132 152 219 
402 694 306 172 192 241 
402 694 307 187 204 247 
401 693 309 132 145 215 
401 692 311 101 123 203 
401 693 310 115 130 209 
401 693 311 97 117 202 
400 695 309 129 152 198 
401 694 308 140 152 218 
401 694 309 117 131 208 
401 695 308 120 131 206 
401 695 309 108 131 199 
400 695 310 124 143 192 
400 695 311 116 137 192 
401 694 310 97 117 201 
401 694 311 81 108 192 
401 695 310 101 125 193 
401 695 311 92 118 188 
402 692 308 164 186 233 
402 692 309 184 200 240 
402 693 308 174 191 238 
402 693 309 157 170 225 
403 692 308 145 168 225 
403 692 309 166 187 231 
402 692 310 161 180 231 
402 692 311 136 158 219 
402 693 310 126 143 214 
402 694 308 166 181 233 
405 689 304 210 216 235 
405 689 305 220 225 239 
405 688 306 218 223 238 
405 688 307 197 205 227 
405 689 306 195 205 231 
405 689 307 178 191 227 
404 690 304 155 164 216 
404 690 305 171 178 229 
404 691 304 147 158 220 
404 691 305 160 172 231 
405 690 304 183 191 224 
405 690 305 192 200 232 
404 690 306 143 158 222 
404 690 307 128 151 220 
404 691 306 125 149 222 
404 691 307 98 129 215 
405 690 306 172 185 226 
406 688 304 214 221 236 
406 688 305 230 232 242 
406 689 304 204 211 231 
406 688 306 223 227 240 
404 688 309 167 176 217 
404 689 308 148 164 216 
404 689 309 132 145 210 
405 688 308 196 205 227 
405 688 309 200 208 231 
405 689 308 177 189 227 
405 689 309 169 179 222 
404 688 310 157 164 214 
404 688 311 134 143 209 
404 689 310 102 121 206 
404 689 311 92 114 204 
405 688 310 194 202 226 
404 690 308 109 132 210 
404 690 309 93 118 205 
404 691 308 96 124 211 
404 690 310 83 113 204 
404 692 304 152 168 225 
404 692 305 162 178 234 
401 689 315 136 147 205 
401 691 313 127 135 205 
401 690 315 130 142 205 
401 691 314 125 138 205 
401 691 315 118 142 202 
402 689 313 157 174 223 
403 688 313 116 137 212 
403 689 312 106 135 210 
403 689 313 144 165 220 
402 688 314 148 167 220 
402 688 315 149 167 219 
402 689 314 155 171 220 
402 689 315 144 157 209 
403 688 314 129 151 214 
402 690 312 158 181 229 
402 690 313 153 168 221 
402 691 312 154 175 226 
402 691 313 136 147 211 
403 690 312 140 167 222 
403 690 313 161 182 231 
402 690 314 136 149 209 
402 690 315 134 144 206 
400 688 317 129 145 202 
400 689 317 116 137 198 
401 688 316 143 155 209 
401 688 317 140 155 207 
401 689 316 134 145 205 
401 689 317 126 140 203 
400 688 318 129 144 202 
400 689 318 108 127 193 
400 690 317 123 152 202 
400 691 316 133 163 205 
400 691 317 154 180 215 
401 690 316 119 140 202 
401 691 316 114 146 201 
402 688 316 151 167 217 
402 689 316 141 155 207 
400 693 313 103 128 189 
401 692 312 112 128 205 
401 692 313 115 125 200 
401 693 312 90 113 197 
401 693 313 96 117 192 
400 692 315 139 166 208 
400 693 314 128 151 196 
400 693 315 151 168 209 
401 692 314 116 136 198 
401 692 315 125 153 203 
401 693 314 114 138 193 
400 694 312 100 126 187 
400 694 313 114 139 192 
400 695 312 124 146 191 
400 695 313 151 173 206 
401 694 312 82 109 189 
400 694 314 141 163 202 
402 692 312 121 141 211 
402 692 313 119 130 206 
400 692 316 153 176 211 
404 688 312 104 120 206 
404 688 313 100 118 207 
404 689 312 86 116 204 
400 696 304 147 146 207 
400 696 305 120 120 192 
400 697 304 113 116 187 
400 697 305 131 139 193 
401 696 304 160 164 218 
401 696 305 148 149 212 
400 696 306 120 128 189 
400 696 307 144 151 199 
400 697 306 155 167 201 
400 697 307 170 179 201 
401 696 306 118 120 194 
401 696 307 115 115 193 
400 698 304 116 125 183 
400 698 305 157 164 198 
400 699 304 122 131 181 
400 699 305 145 151 183 
400 698 306 155 164 188 
400 698 307 145 150 174 
400 699 306 138 145 174 
400 696 308 162 176 208 
400 696 309 144 162 195 
400 697 308 160 170 190 
400 697 309 137 149 179 
401 696 308 113 131 194 
401 696 309 115 140 195 
400 696 310 139 153 187 
400 696 311 144 158 190 
400 697 310 148 161 189 
400 697 311 163 174 199 
400 698 308 142 150 176 
400 698 309 141 153 185 
400 698 310 160 175 201 
400 696 312 159 174 199 
400 696 313 168 186 211 
416 667 293 171 181 197 
416 666 295 56 93 127 
416 667 294 128 148 173 
416 667 295 96 121 154 
416 668 293 189 194 206 
416 669 293 171 181 198 
416 668 294 171 180 196 
416 668 295 153 167 187 
416 669 294 169 177 194 
416 669 295 173 182 199 
416 670 294 185 193 209 
416 670 295 177 186 205 
416 671 295 182 191 210 
416 666 296 62 95 123 
416 666 297 69 97 123 
416 667 296 66 101 138 
416 667 297 54 93 127 
417 667 296 75 108 148 
417 667 297 60 99 140 
416 666 298 82 105 128 
416 666 299 105 121 139 
417 666 299 105 122 142 
417 667 298 67 103 139 
417 667 299 81 110 144 
416 665 300 93 114 134 
416 665 301 68 98 123 
416 665 302 60 92 119 
416 665 303 64 93 119 
416 666 300 113 127 144 
416 666 301 93 113 134 
417 666 300 117 129 147 
417 666 301 97 114 135 
417 667 300 86 112 144 
417 667 301 93 117 144 
417 666 302 96 115 135 
417 666 303 98 117 137 
417 667 302 100 121 143 
417 667 303 109 129 150 
418 667 301 70 107 143 
418 667 302 82 113 140 
418 667 303 99 125 149 
416 668 296 135 153 179 
416 669 296 176 187 208 
417 668 296 114 138 171 
417 668 297 99 128 166 
417 669 296 168 182 207 
417 669 297 157 173 204 
417 668 298 93 125 168 
417 668 299 83 117 166 
417 669 298 140 161 205 
417 669 299 127 150 204 
416 670 296 186 195 217 
416 670 297 177 188 213 
416 671 296 193 201 219 
416 671 297 193 203 224 
417 670 297 166 179 210 
416 671 298 192 207 236 
416 671 299 148 173 220 
417 670 298 152 170 214 
417 670 299 138 160 215 
417 671 298 165 183 219 
417 671 299 139 165 219 
417 668 300 88 119 169 
417 669 300 128 148 204 
417 670 300 153 168 224 
417 670 301 184 195 234 
417 671 300 154 171 227 
417 671 301 219 226 248 
417 671 302 246 248 255 
417 671 303 245 247 254 
418 668 301 102 130 173 
418 669 300 122 145 196 
418 669 301 148 167 215 
418 668 302 88 119 160 
418 668 303 95 122 164 
418 669 302 149 168 219 
418 669 303 157 176 223 
418 670 301 179 193 233 
418 670 302 198 211 242 
418 670 303 203 217 243 
416 665 304 69 96 119 
416 665 305 69 90 111 
416 665 306 70 84 99 
416 665 307 54 73 91 
417 666 304 98 117 137 
417 666 305 89 107 127 
417 667 305 86 104 127 
416 666 306 64 81 97 
416 666 307 52 73 94 
417 666 306 61 82 103 
417 666 307 58 83 108 
417 667 306 70 91 114 
417 667 307 100 118 139 
418 667 304 113 133 155 
418 667 305 95 114 139 
418 667 306 74 93 124 
416 665 308 58 77 94 
416 666 308 74 94 114 
416 666 309 108 124 143 
416 667 309 151 165 183 
417 667 308 152 163 180 
417 667 309 158 170 189 
416 666 310 135 149 167 
416 666 311 170 177 191 
416 667 310 160 172 191 
416 667 311 186 191 203 
417 668 307 170 180 197 
417 669 306 209 216 234 
417 669 307 196 207 226 
416 671 305 208 212 238 
417 670 305 223 231 249 
417 671 304 240 245 254 
417 671 305 223 230 248 
416 671 306 201 205 234 
416 671 307 206 212 236 
417 670 306 222 228 246 
417 670 307 216 224 244 
417 671 306 211 218 241 
418 668 304 102 124 164 
418 668 305 98 122 158 
418 669 304 166 182 220 
418 669 305 184 199 223 
418 668 306 127 144 168 
418 668 307 178 188 205 
418 669 306 196 206 225 
418 670 304 217 227 247 
418 670 305 226 234 251 
416 669 309 177 190 214 
417 668 308 186 195 212 
417 668 309 178 189 208 
417 669 308 188 201 223 
417 669 309 184 197 218 
416 668 310 185 194 210 
416 668 311 204 207 220 
416 669 310 192 201 218 
416 669 311 212 216 228 
416 670 308 209 218 239 
416 670 309 180 190 220 
416 671 308 211 218 236 
416 671 309 179 189 219 
417 670 308 211 220 242 
416 670 310 170 180 211 
416 672 297 219 223 238 
416 672 298 191 201 232 
416 672 299 128 145 208 
416 672 300 133 148 216 
416 672 301 216 220 246 
416 673 300 148 157 221 
416 673 301 214 218 245 
417 672 300 162 176 227 
417 672 301 227 233 250 
416 672 302 243 242 251 
416 672 303 242 242 252 
416 673 302 235 236 250 
416 673 303 228 230 244 
417 672 302 244 244 252 
417 672 303 243 242 251 
416 672 304 239 240 251 
416 672 305 219 222 241 
416 672 306 183 185 220 
416 672 307 183 187 220 
384 643 320 114 95 74 
384 643 321 112 92 72 
385 643 320 112 93 73 
385 643 321 108 89 70 
384 642 322 108 90 72 
384 642 323 101 84 66 
384 643 322 105 87 69 
384 643 323 99 83 65 
385 643 322 103 86 68 
385 643 323 98 82 65 
384 642 324 95 79 62 
384 642 325 81 69 56 
384 643 324 93 78 62 
384 643 325 78 67 55 
385 643 324 90 75 59 
385 643 325 78 67 57 
384 642 326 72 66 60 
384 643 326 71 69 69 
384 643 327 87 94 103 
385 643 326 69 68 69 
385 643 327 85 93 103 
385 644 320 112 92 72 
385 644 321 109 91 71 
386 644 320 108 90 71 
386 644 321 105 87 68 
386 645 320 108 90 71 
387 645 320 104 87 68 
387 645 321 101 83 64 
386 644 322 101 84 66 
386 644 323 96 81 65 
387 645 322 96 80 62 
387 645 323 89 75 60 
385 644 326 75 80 87 
385 644 327 97 106 118 
386 644 324 87 74 61 
386 644 325 76 68 61 
387 645 324 83 72 60 
387 645 325 75 68 64 
386 644 326 74 75 79 
386 644 327 95 103 115 
386 645 326 82 87 95 
386 645 327 103 114 127 
387 645 326 82 86 92 
387 645 327 107 116 129 
387 646 327 118 128 142 
388 645 320 101 85 67 
388 645 321 97 81 64 
388 645 322 90 75 60 
388 645 323 83 70 57 
388 646 320 100 84 68 
388 646 321 96 80 64 
389 646 320 98 82 67 
389 646 321 94 79 65 
388 646 322 93 78 62 
389 646 322 86 72 59 
389 646 323 80 69 57 
390 647 320 93 79 65 
390 647 321 88 74 61 
391 647 321 87 74 62 
390 646 322 83 70 56 
390 646 323 77 67 57 
390 647 322 82 69 55 
390 647 323 77 66 56 
391 647 322 80 69 58 
391 647 323 76 67 58 
388 645 324 78 68 58 
388 645 325 72 67 63 
388 645 326 73 77 84 
388 646 325 69 67 67 
389 646 324 75 66 59 
389 646 325 69 66 64 
388 646 326 90 95 103 
388 646 327 121 129 142 
389 646 326 89 92 97 
389 646 327 129 135 146 
389 647 326 115 118 125 
389 647 327 135 144 156 
390 646 324 72 65 60 
390 646 325 67 64 62 
390 647 324 73 66 61 
390 647 325 77 75 75 
391 647 324 72 66 61 
391 647 325 85 84 85 
390 647 326 121 124 131 
390 647 327 142 149 161 
391 647 326 112 115 121 
384 643 328 109 120 135 
384 644 328 110 123 140 
384 644 329 113 128 147 
384 645 329 107 124 145 
385 644 328 111 124 140 
385 644 329 113 129 147 
385 645 329 112 128 149 
384 645 330 110 127 148 
385 645 330 108 125 146 
384 646 330 113 130 153 
384 646 331 115 132 156 
384 647 331 112 130 157 
385 646 330 115 131 154 
385 647 330 117 135 160 
385 647 331 112 132 160 
386 645 328 110 125 143 
386 645 329 114 131 151 
386 646 328 112 129 149 
386 646 329 112 130 151 
386 647 329 114 130 154 
387 646 328 119 133 151 
387 646 329 118 134 155 
387 647 329 120 135 157 
386 647 330 119 134 159 
388 646 328 124 137 155 
388 647 328 127 141 160 
389 647 328 130 143 160 
391 648 320 90 76 62 
391 648 321 85 73 59 
391 648 322 82 71 60 
391 648 324 72 68 66 
391 648 325 88 89 92 
390 648 326 141 145 155 
390 648 327 127 141 159 
391 648 326 123 132 144 
391 648 327 128 142 160 
391 649 327 103 128 154 
384 648 331 138 150 170 
384 649 331 175 177 187 
385 648 331 114 133 161 
385 649 331 148 158 175 
384 650 331 185 183 190 
384 651 331 184 182 189 
385 650 331 176 178 189 
385 651 331 184 183 192 
387 648 329 128 140 164 
386 648 330 120 136 161 
386 648 331 111 130 158 
386 649 330 122 138 162 
386 649 331 124 140 162 
387 648 330 130 143 165 
387 649 330 133 146 167 
386 650 330 143 155 174 
386 650 331 153 161 177 
386 651 330 168 174 187 
386 651 331 177 179 190 
387 650 330 138 150 170 
387 651 330 165 173 189 
384 651 332 184 182 189 
384 652 331 183 182 190 
384 653 331 183 182 190 
385 652 331 182 182 190 
385 653 331 181 180 188 
384 654 331 184 183 190 
384 655 331 184 184 192 
385 654 331 177 178 187 
385 655 331 170 174 188 
386 652 330 176 179 190 
386 652 331 178 179 189 
386 653 330 172 175 187 
386 653 331 176 177 186 
387 652 330 181 186 199 
387 653 330 174 180 195 
386 654 330 154 160 176 
386 654 331 164 167 180 
386 655 330 133 144 167 
386 655 331 142 151 172 
387 654 330 157 166 183 
387 655 330 155 164 182 
384 652 332 185 183 191 
384 653 332 183 183 190 
384 654 332 183 182 190 
384 655 332 185 184 191 
388 648 329 125 140 163 
388 649 329 130 143 168 
389 648 328 113 132 156 
389 648 329 113 132 160 
389 649 328 95 118 155 
389 649 329 101 121 159 
388 650 329 127 140 171 
388 651 329 126 145 175 
389 650 329 100 119 165 
389 651 329 105 128 171 
388 650 330 132 145 172 
388 651 330 142 158 181 
390 648 328 109 128 154 
390 649 328 94 120 154 
391 649 328 90 120 153 
390 650 328 89 115 161 
390 651 328 91 117 166 
390 651 329 97 122 171 
391 650 328 86 117 158 
391 651 328 84 111 162 
388 652 329 156 171 194 
388 653 329 157 170 192 
389 652 329 120 143 182 
389 653 329 129 149 185 
388 652 330 173 183 201 
388 653 330 167 177 194 
388 654 329 162 174 192 
388 655 329 171 180 198 
389 654 329 141 161 191 
389 655 329 139 159 191 
388 654 330 164 174 190 
388 655 330 175 182 197 
390 652 329 95 121 174 
390 653 329 90 117 175 
391 652 328 79 105 165 
391 653 328 83 111 172 
390 654 328 101 130 184 
390 654 329 103 131 183 
390 655 328 107 137 189 
390 655 329 112 141 188 
391 654 328 86 118 180 
391 655 328 103 135 190 
392 648 320 86 73 60 
392 648 321 83 71 57 
393 648 321 79 69 59 
393 649 320 81 71 62 
393 649 321 80 70 60 
392 648 322 80 69 59 
392 648 323 74 67 61 
393 648 322 77 68 60 
393 648 323 73 67 61 
393 649 322 76 68 60 
393 649 323 72 68 66 
394 649 320 80 70 61 
394 649 321 77 68 61 
394 649 322 75 67 61 
394 649 323 67 66 67 
394 650 320 80 69 60 
395 650 320 80 69 57 
395 650 321 78 68 58 
394 650 323 64 67 71 
395 650 322 74 66 60 
395 650 323 68 68 70 
392 648 324 73 70 69 
392 648 325 90 96 103 
393 648 324 67 65 65 
393 649 324 66 71 78 
393 649 325 82 94 108 
392 648 326 121 131 144 
392 649 326 118 131 147 
392 649 327 103 127 153 
393 649 326 98 118 137 
392 650 327 79 113 151 
392 651 327 87 117 166 
393 650 326 90 118 144 
393 650 327 83 116 151 
393 651 326 84 117 149 
393 651 327 83 117 160 
394 649 324 63 74 85 
394 649 325 72 92 111 
394 650 324 57 74 90 
394 650 325 72 98 121 
395 650 324 63 74 86 
395 651 324 66 84 100 
395 651 325 70 100 126 
394 650 326 82 113 140 
394 651 326 82 116 150 
395 651 326 74 108 140 
393 652 327 91 118 170 
393 653 327 79 103 161 
393 654 327 62 89 152 
393 655 327 87 116 168 
394 652 326 87 121 164 
394 652 327 85 120 167 
394 653 327 96 123 174 
395 652 326 79 116 153 
395 653 326 88 126 168 
395 653 327 91 128 173 
394 654 327 101 125 175 
