ply
format ascii 1.0
comment Created by CloudCompare v2.10.1 (Zephyrus)
comment Created 1/31/20 10:54 AM
obj_info Generated by CloudCompare!
element vertex 2109
property float x
property float y
property float z
property uchar red
property uchar green
property uchar blue
end_header
131 324 330 67 39 41 
131 325 330 67 39 44 
131 326 329 63 38 46 
131 327 329 59 38 42 
130 326 330 73 43 49 
130 326 331 91 45 51 
130 327 330 68 36 39 
130 327 331 80 35 41 
131 326 330 67 41 46 
131 327 330 63 40 42 
128 324 333 140 47 74 
128 325 333 140 42 75 
129 324 332 138 63 75 
129 324 333 141 54 73 
129 325 332 132 54 69 
128 326 332 135 49 73 
128 326 333 141 45 79 
128 327 333 139 44 75 
129 326 332 133 57 72 
129 327 332 121 49 64 
132 320 328 49 37 44 
132 320 329 48 42 47 
132 321 328 49 39 45 
132 321 329 49 41 47 
133 320 328 49 38 45 
132 321 330 54 43 46 
132 322 328 50 40 46 
132 322 329 50 42 48 
132 323 328 53 40 42 
132 322 330 54 41 45 
132 324 328 58 39 42 
132 325 328 61 37 44 
132 326 328 62 40 44 
132 327 328 61 40 42 
132 327 329 61 40 43 
133 327 328 62 42 44 
131 335 326 66 48 45 
131 335 327 65 45 43 
133 329 327 56 43 39 
134 328 327 64 42 40 
134 329 327 60 43 40 
133 332 327 63 48 49 
133 333 327 63 46 48 
132 334 327 65 50 47 
132 335 326 65 52 49 
132 335 327 66 49 45 
133 334 327 65 51 50 
133 335 327 64 51 52 
129 328 331 105 49 57 
129 330 331 82 30 39 
129 331 331 74 35 40 
130 328 331 73 36 38 
130 329 331 67 38 40 
131 328 330 61 41 41 
131 329 330 61 42 41 
131 330 329 59 40 42 
131 331 329 62 40 42 
130 330 331 67 36 41 
130 331 331 64 37 40 
131 330 330 57 42 41 
131 331 330 58 44 42 
128 328 332 132 53 73 
128 328 333 139 53 79 
128 329 332 124 47 68 
128 329 333 134 50 75 
129 328 332 112 49 62 
129 329 332 101 41 53 
128 330 332 115 29 57 
128 330 333 126 36 66 
128 331 332 111 19 53 
128 331 333 120 20 58 
129 330 332 103 28 48 
129 331 332 99 22 47 
128 330 334 128 35 67 
128 331 334 125 25 61 
129 332 331 72 38 42 
129 333 331 71 45 49 
129 334 330 64 36 43 
129 334 331 66 46 49 
129 335 330 68 40 42 
129 335 331 68 44 48 
131 332 329 63 41 40 
131 333 329 62 41 41 
130 332 330 60 42 42 
130 332 331 62 42 41 
130 333 330 62 41 43 
130 333 331 64 42 44 
131 332 330 60 41 42 
131 333 330 57 41 41 
130 334 329 70 42 45 
130 335 328 71 48 46 
130 335 329 70 44 43 
131 334 328 65 44 44 
131 334 329 67 39 43 
131 335 328 69 45 44 
130 334 330 69 40 46 
130 335 330 68 39 40 
128 332 332 108 30 59 
128 332 333 116 25 59 
128 333 332 103 49 68 
128 333 333 111 47 69 
129 332 332 95 34 53 
129 333 332 88 50 61 
128 334 332 86 63 70 
128 334 333 101 67 77 
128 335 332 79 62 66 
128 335 333 93 75 81 
129 334 332 79 57 63 
132 328 328 57 42 44 
132 328 329 61 42 43 
132 329 329 60 43 43 
133 328 328 57 44 42 
133 329 328 59 45 41 
132 330 329 60 43 42 
132 331 328 61 42 42 
132 331 329 57 40 41 
133 330 328 61 44 41 
133 331 328 61 43 44 
134 330 328 60 44 43 
132 332 328 63 42 41 
132 332 329 61 38 40 
132 333 328 66 47 45 
133 332 328 60 40 39 
133 333 328 65 45 43 
132 334 328 66 50 47 
131 336 324 65 50 50 
131 336 325 67 51 50 
131 337 324 66 56 56 
131 337 325 66 56 52 
130 336 327 67 48 46 
130 337 326 65 51 47 
130 337 327 66 54 49 
131 336 326 66 49 47 
131 336 327 64 46 43 
131 337 326 66 56 52 
131 337 327 63 46 43 
131 338 324 67 61 60 
131 338 325 66 59 58 
131 339 325 64 56 58 
130 338 326 65 56 52 
130 338 327 64 55 51 
130 339 326 66 55 51 
130 339 327 62 56 52 
131 338 326 65 56 54 
131 339 326 65 58 55 
130 340 327 58 52 50 
131 340 326 67 57 53 
131 340 327 62 51 49 
131 341 326 60 54 55 
131 341 327 62 53 52 
132 336 323 62 54 53 
132 336 324 62 51 52 
132 336 325 63 52 51 
132 337 324 63 57 57 
132 336 326 63 53 50 
132 338 325 63 58 58 
132 339 326 62 56 57 
129 336 329 69 44 43 
129 336 330 68 42 45 
129 336 331 71 43 46 
129 337 330 66 46 47 
129 337 331 73 44 48 
129 338 330 64 52 50 
129 338 331 72 45 50 
129 339 330 60 53 51 
129 339 331 66 50 50 
130 336 328 67 49 44 
130 336 329 67 48 45 
130 337 328 63 52 46 
130 337 329 64 48 47 
130 336 330 69 44 44 
130 338 328 62 53 52 
130 338 329 62 50 49 
130 339 328 62 51 51 
130 339 329 64 53 50 
128 336 332 82 51 59 
128 336 333 94 60 71 
128 337 332 89 39 57 
128 337 333 97 37 61 
129 336 332 79 42 49 
129 337 332 81 40 52 
128 338 332 91 38 57 
128 338 333 101 40 64 
128 339 332 81 41 55 
128 339 333 100 42 64 
129 338 332 82 42 53 
129 339 332 75 46 52 
129 340 330 61 52 52 
129 340 331 60 50 50 
129 341 330 62 48 49 
129 341 331 62 49 50 
129 342 331 65 50 47 
129 343 331 65 50 44 
130 340 328 62 51 50 
130 340 329 65 53 52 
130 341 328 65 51 49 
130 341 329 65 53 50 
131 341 328 61 51 50 
130 341 330 66 56 52 
130 342 329 66 53 50 
130 343 329 65 55 56 
131 342 328 67 54 53 
131 343 328 68 60 59 
131 343 329 63 57 58 
130 342 330 66 51 48 
130 343 330 67 53 52 
130 343 331 66 49 47 
128 340 332 70 48 53 
128 340 333 86 52 66 
128 341 332 62 55 58 
128 341 333 71 66 73 
129 340 332 65 51 54 
129 341 332 62 55 56 
128 342 332 63 55 56 
128 342 333 60 61 67 
128 343 332 63 56 57 
128 343 333 62 59 62 
129 342 332 64 55 53 
129 343 332 64 52 48 
129 344 331 65 53 50 
129 345 331 66 57 54 
130 344 330 68 58 58 
130 345 330 66 59 62 
128 344 332 64 53 52 
128 344 333 63 61 66 
129 344 332 63 51 48 
123 207 310 94 74 50 
123 207 311 89 68 41 
124 207 311 89 69 44 
123 207 312 86 65 36 
123 207 313 84 61 30 
124 207 312 86 65 37 
124 207 313 88 65 39 
125 207 313 93 71 52 
125 207 314 96 76 62 
126 207 313 96 80 67 
126 207 314 102 85 73 
127 207 314 106 91 80 
119 211 316 90 60 40 
119 211 317 88 56 38 
117 213 318 90 62 43 
117 214 318 87 55 34 
117 214 319 85 53 30 
117 215 319 85 53 30 
118 212 317 89 57 38 
118 213 317 89 60 39 
119 212 316 91 63 44 
119 212 317 87 55 37 
118 212 318 88 54 36 
118 213 318 88 59 39 
118 213 319 84 55 34 
119 212 318 85 54 34 
119 213 318 84 55 35 
119 213 319 88 60 44 
118 214 319 84 57 38 
119 214 319 92 67 52 
122 208 311 90 67 42 
122 209 311 95 77 60 
121 209 313 89 64 39 
121 209 314 92 68 48 
121 210 313 91 66 41 
120 210 314 91 64 42 
120 210 315 89 59 37 
120 211 314 91 64 40 
120 211 315 90 62 41 
121 210 314 90 63 40 
121 210 315 88 61 39 
122 208 312 86 64 37 
122 208 313 85 63 34 
123 208 313 85 63 33 
122 208 314 85 61 30 
122 209 314 86 61 33 
122 209 315 85 59 31 
123 208 314 85 61 31 
123 209 315 89 63 41 
122 210 315 86 59 31 
120 211 316 88 57 36 
120 211 317 85 55 32 
121 210 316 86 58 34 
121 211 316 86 55 30 
121 211 317 90 62 45 
121 211 318 92 66 50 
123 209 316 93 70 54 
122 210 316 88 62 41 
122 210 317 92 67 50 
122 211 317 93 70 58 
123 210 316 92 71 57 
123 210 317 94 76 68 
123 211 317 97 80 70 
122 211 318 95 77 68 
120 212 317 85 53 32 
120 212 318 88 59 42 
120 212 319 91 63 48 
120 213 318 89 61 45 
120 213 319 94 73 62 
121 212 318 93 72 62 
121 212 319 96 79 70 
121 213 319 99 84 74 
120 214 319 96 73 62 
121 214 319 103 90 80 
122 212 318 97 80 70 
122 212 319 96 80 69 
122 213 319 102 89 79 
123 212 318 100 88 78 
123 213 319 108 96 87 
122 214 319 112 101 90 
122 215 319 116 104 93 
123 214 319 114 102 90 
123 215 319 114 100 88 
124 208 314 92 69 48 
124 208 315 95 75 59 
124 209 315 97 77 63 
125 208 314 96 78 66 
125 208 315 100 83 74 
125 209 315 102 86 76 
126 208 314 105 89 78 
126 208 315 106 90 78 
126 209 315 106 92 80 
127 208 314 106 92 81 
127 208 315 108 95 84 
127 209 315 107 95 86 
127 210 315 106 96 87 
124 209 316 97 79 67 
125 209 316 102 86 76 
124 210 316 99 82 74 
124 210 317 95 80 72 
124 211 317 100 87 76 
125 210 316 102 88 79 
125 211 317 103 92 83 
126 209 316 105 92 82 
126 210 316 104 93 84 
126 211 316 104 94 86 
126 211 317 103 93 85 
127 210 316 106 95 87 
127 211 316 107 96 86 
124 212 317 101 91 83 
125 212 317 102 91 83 
124 212 318 102 91 83 
124 213 318 106 94 85 
124 213 319 109 97 87 
125 212 318 102 90 82 
125 213 318 104 91 82 
124 214 319 110 98 87 
124 215 319 111 97 83 
125 214 318 107 94 83 
125 215 318 111 94 81 
125 215 319 113 96 81 
126 212 317 103 92 84 
126 213 317 107 93 82 
127 212 316 108 95 85 
127 212 317 107 95 86 
127 213 317 111 97 83 
126 213 318 105 92 81 
127 214 317 115 97 81 
127 215 317 116 92 73 
126 214 318 112 96 82 
126 215 318 116 96 81 
127 214 318 117 98 82 
127 215 318 119 93 73 
123 216 319 112 96 82 
123 217 319 117 97 83 
123 218 319 122 99 82 
124 216 319 116 97 83 
124 217 319 121 98 83 
125 216 318 117 96 82 
125 216 319 119 96 82 
125 217 319 123 96 78 
124 218 319 123 97 78 
124 219 319 123 92 66 
125 218 319 126 95 69 
125 219 319 128 91 55 
126 216 318 120 93 76 
126 217 318 124 91 65 
126 217 319 125 94 69 
127 216 318 121 88 62 
127 217 318 127 86 48 
126 218 318 129 89 46 
126 218 319 129 93 55 
126 219 319 133 85 36 
127 218 318 133 81 29 
127 219 318 138 71 10 
127 219 319 138 75 13 
125 220 319 132 86 39 
126 220 319 137 78 14 
126 221 319 140 71 9 
127 220 319 143 68 8 
127 221 319 144 63 7 
126 222 319 142 64 3 
127 222 319 143 64 3 
127 223 319 142 67 2 
116 215 320 86 54 33 
117 215 320 87 60 42 
118 214 320 89 63 46 
118 215 320 95 72 57 
118 215 321 102 82 70 
119 214 320 98 76 63 
119 215 320 103 83 70 
119 215 321 106 90 77 
115 216 321 84 56 27 
115 217 321 82 57 27 
114 218 322 84 59 35 
114 219 322 84 64 45 
115 218 322 81 61 40 
115 219 322 86 70 54 
114 220 322 85 68 52 
114 220 323 88 70 52 
114 221 323 94 81 68 
115 220 322 98 85 74 
115 221 322 97 84 74 
115 221 323 96 83 72 
114 222 323 98 85 73 
114 223 323 101 85 73 
115 222 323 102 88 74 
115 223 323 108 91 77 
113 222 324 90 75 64 
113 223 324 97 81 71 
116 216 320 85 54 32 
116 216 321 84 59 38 
116 217 321 86 66 48 
117 216 321 93 74 62 
117 217 321 92 74 62 
117 218 321 94 79 65 
116 218 322 87 70 56 
116 219 322 93 80 68 
117 218 322 99 86 73 
117 219 322 103 91 79 
118 216 321 100 82 72 
118 217 321 99 84 75 
119 216 321 109 95 83 
119 217 321 113 99 88 
118 218 321 107 93 82 
118 219 321 113 100 87 
119 218 321 115 101 90 
119 219 321 114 100 87 
118 218 322 106 93 82 
118 219 322 109 96 84 
116 220 322 100 89 77 
116 221 322 105 91 78 
117 220 322 107 94 81 
117 221 322 108 93 79 
116 222 322 110 94 78 
116 223 322 110 89 75 
116 223 323 113 94 79 
117 222 322 108 89 76 
117 223 322 108 86 71 
118 220 321 112 96 82 
118 221 321 110 92 79 
119 220 321 115 97 84 
119 221 321 114 94 80 
118 220 322 112 97 83 
118 221 322 110 92 78 
119 222 321 113 90 74 
119 223 321 112 84 66 
118 222 322 109 88 75 
118 223 322 110 85 69 
119 223 322 110 85 69 
120 214 320 99 82 71 
120 215 320 108 96 84 
120 215 321 111 98 88 
121 214 320 106 94 83 
121 215 320 113 102 91 
122 215 320 115 103 92 
123 215 320 116 103 90 
120 216 320 112 101 92 
120 216 321 114 101 91 
120 217 320 111 99 89 
120 217 321 115 102 91 
121 216 320 111 100 89 
121 217 320 109 97 85 
120 218 321 112 99 86 
120 219 321 112 97 82 
121 218 320 110 94 80 
121 219 320 113 94 79 
121 219 321 114 95 80 
122 216 320 113 100 88 
122 217 320 111 96 83 
123 216 320 115 100 86 
123 217 320 113 97 82 
122 218 320 113 95 80 
122 219 320 115 94 78 
123 218 320 118 96 81 
123 219 320 120 94 74 
120 220 321 116 95 80 
120 221 321 114 91 75 
121 220 320 116 92 76 
121 220 321 115 93 77 
121 221 321 115 90 72 
120 222 321 115 88 69 
120 223 321 115 84 63 
121 222 321 117 88 62 
121 223 321 118 81 51 
122 220 320 117 92 73 
122 221 320 118 87 62 
123 220 320 120 88 61 
123 221 320 120 80 44 
122 222 320 119 81 45 
122 223 320 121 74 23 
122 223 321 121 74 23 
123 222 320 122 74 27 
123 223 320 128 69 9 
124 219 320 123 92 65 
124 220 320 124 86 52 
124 221 320 126 78 35 
125 220 320 129 80 33 
125 221 320 132 75 17 
124 222 320 131 72 18 
124 223 320 134 65 4 
125 222 320 136 70 4 
125 223 320 139 63 4 
126 221 320 137 72 4 
126 222 320 140 66 3 
126 223 320 141 62 4 
127 223 320 143 65 3 
111 225 326 97 81 71 
111 226 326 107 83 72 
111 226 327 106 82 70 
111 227 326 109 84 74 
111 227 327 108 85 74 
111 228 327 112 88 76 
111 229 327 110 83 70 
111 230 327 111 79 64 
111 231 327 118 78 60 
105 231 335 93 85 78 
107 228 332 103 92 84 
107 229 332 98 87 79 
107 229 333 97 86 77 
106 230 333 101 91 82 
107 230 333 94 84 75 
106 230 334 101 91 81 
106 231 334 100 89 81 
106 231 335 101 90 82 
107 230 334 94 83 74 
107 231 334 96 85 75 
109 226 329 95 81 71 
109 227 329 99 87 78 
108 227 331 103 92 83 
109 227 330 105 92 82 
110 226 328 97 84 74 
110 227 328 101 85 75 
110 227 329 101 86 76 
108 228 331 104 92 83 
109 228 330 103 90 79 
109 228 331 108 96 84 
109 229 331 107 95 83 
109 230 331 107 92 79 
109 231 331 106 87 75 
110 228 328 106 86 74 
110 228 329 104 85 73 
110 229 329 108 85 73 
111 228 328 109 87 74 
111 229 328 110 84 70 
111 229 329 108 84 72 
110 228 330 102 85 75 
110 229 330 107 89 75 
110 230 329 110 84 70 
110 231 329 111 84 67 
111 230 328 109 80 66 
111 230 329 108 82 69 
111 231 328 115 78 61 
111 231 329 111 81 65 
110 230 330 109 87 72 
110 230 331 108 90 76 
110 231 330 113 86 69 
110 231 331 109 86 72 
108 228 332 99 88 80 
108 229 332 101 89 80 
109 229 332 106 93 80 
108 230 333 96 82 73 
108 231 333 94 80 71 
109 230 332 104 90 78 
109 231 332 100 84 73 
109 231 333 94 80 72 
108 231 334 90 80 72 
105 232 335 97 88 79 
106 232 335 100 90 80 
106 233 335 96 86 79 
107 232 334 98 85 74 
107 232 335 96 86 77 
107 233 335 101 88 79 
107 234 335 114 97 84 
107 235 335 113 94 84 
111 232 328 122 80 51 
111 232 329 118 84 62 
111 233 328 125 74 29 
111 233 329 121 79 45 
110 232 330 115 86 69 
110 232 331 108 84 70 
110 233 330 118 85 62 
110 233 331 114 89 71 
111 232 330 117 86 66 
111 233 330 119 84 58 
111 234 328 131 71 10 
111 234 329 127 75 17 
111 235 329 133 73 4 
110 234 331 117 85 57 
110 235 331 121 81 44 
111 234 330 123 81 41 
111 235 330 128 75 10 
111 235 331 124 76 26 
108 232 333 98 81 72 
109 232 332 101 80 71 
109 232 333 96 78 69 
109 233 332 106 85 74 
109 233 333 109 87 77 
108 232 334 94 79 71 
108 233 334 108 88 78 
109 233 334 112 91 80 
109 234 333 115 93 81 
109 235 333 120 95 77 
108 234 334 115 95 84 
108 234 335 115 96 85 
108 235 334 119 98 87 
108 235 335 118 97 87 
109 234 334 118 96 85 
109 235 334 120 98 85 
110 232 332 103 81 70 
110 233 332 111 89 75 
110 234 332 114 89 72 
110 235 332 120 89 59 
110 235 333 120 93 71 
111 236 329 138 73 4 
111 237 329 138 72 3 
111 236 330 136 72 4 
111 236 331 131 73 8 
111 237 330 137 69 3 
111 237 331 136 68 3 
111 238 330 138 68 5 
111 238 331 138 69 3 
111 239 330 139 68 5 
111 239 331 139 69 6 
109 236 333 123 93 62 
108 236 335 120 97 82 
108 237 335 122 94 69 
109 236 334 124 97 72 
109 237 334 124 85 37 
108 238 335 123 87 51 
108 239 335 130 75 10 
109 238 334 132 79 13 
109 238 335 127 84 32 
109 239 334 137 73 6 
109 239 335 133 76 11 
110 236 332 128 82 31 
110 236 333 125 87 46 
110 237 332 132 72 6 
110 237 333 129 77 13 
111 237 332 133 70 6 
110 238 332 137 72 4 
110 238 333 136 74 3 
110 239 332 138 72 5 
110 239 333 139 71 6 
111 238 332 137 71 4 
111 239 332 139 70 5 
103 236 338 114 102 92 
103 237 338 118 105 94 
103 238 338 115 104 94 
103 239 338 105 94 86 
104 232 336 95 86 77 
104 233 336 95 86 79 
105 232 336 98 89 81 
105 233 336 93 85 77 
104 234 337 99 90 82 
104 235 337 103 92 83 
105 234 336 92 84 77 
105 234 337 92 83 77 
105 235 337 95 86 79 
106 233 336 94 85 78 
106 234 336 91 82 76 
106 235 336 92 84 78 
106 235 337 92 84 79 
107 234 336 107 92 79 
107 235 336 113 93 84 
104 236 337 110 98 87 
105 236 337 101 91 81 
105 237 337 109 98 89 
104 236 338 113 101 90 
104 237 338 117 105 95 
105 236 338 109 97 86 
105 237 338 115 102 93 
105 238 337 116 103 92 
104 238 338 116 104 95 
104 239 338 116 102 91 
105 238 338 116 103 92 
105 239 338 121 105 92 
106 236 336 101 84 73 
106 236 337 93 85 77 
106 237 337 99 84 76 
107 236 336 110 90 81 
107 237 336 110 89 77 
106 238 337 111 96 83 
106 239 337 120 102 83 
107 238 336 115 86 66 
107 238 337 111 86 71 
107 239 336 122 85 47 
107 239 337 122 90 60 
106 239 338 124 107 90 
108 238 336 120 86 58 
108 239 336 126 79 32 
111 240 331 140 71 5 
111 241 331 140 71 8 
111 242 331 140 73 6 
111 243 331 138 71 9 
108 240 335 136 64 4 
109 240 334 139 69 6 
109 240 335 136 68 3 
109 241 334 138 67 4 
109 241 335 137 63 4 
108 242 335 138 64 6 
108 243 335 138 70 7 
109 242 334 138 69 6 
109 242 335 137 67 5 
109 243 334 137 68 7 
109 243 335 137 68 6 
110 240 333 140 72 8 
110 241 333 140 74 5 
111 240 332 140 71 5 
111 241 332 140 73 5 
110 240 334 140 70 6 
110 241 334 139 70 5 
110 242 333 138 72 7 
110 243 333 138 70 9 
111 242 332 139 73 5 
111 243 332 138 72 4 
110 242 334 138 70 6 
110 243 334 137 68 9 
111 244 331 137 69 14 
111 245 330 134 77 46 
111 245 331 135 72 33 
111 247 329 134 81 61 
111 246 330 135 78 53 
111 246 331 134 74 44 
111 247 330 135 78 59 
111 247 331 136 75 53 
108 244 335 139 69 7 
108 245 335 140 66 4 
109 244 334 139 68 8 
109 244 335 138 68 9 
109 245 334 140 69 11 
109 245 335 141 68 10 
109 246 334 140 70 19 
109 246 335 141 69 12 
109 247 334 138 71 21 
109 247 335 140 70 12 
110 244 332 137 71 24 
110 244 333 138 70 12 
110 245 332 137 69 21 
110 245 333 137 68 9 
111 244 332 138 70 10 
111 245 332 137 72 29 
110 244 334 139 68 8 
110 246 332 134 69 29 
110 246 333 137 70 23 
110 247 332 136 73 46 
110 247 333 136 72 29 
111 246 332 134 70 35 
111 247 332 134 72 44 
111 248 329 116 84 68 
111 249 329 104 99 98 
111 248 330 127 82 66 
111 248 331 133 76 59 
111 249 330 108 88 80 
111 249 331 120 76 64 
111 250 329 103 103 109 
111 251 329 110 107 113 
111 250 330 103 96 96 
111 250 331 109 85 75 
111 251 330 105 101 105 
111 251 331 102 96 95 
108 248 335 139 70 15 
109 248 334 137 73 33 
109 248 335 137 70 14 
109 249 334 137 73 42 
109 249 335 136 69 26 
109 250 334 137 71 48 
109 250 335 137 66 38 
109 251 334 136 74 52 
109 251 335 138 69 44 
110 248 332 135 72 52 
110 248 333 136 73 44 
110 249 332 130 75 59 
110 249 333 136 76 57 
110 250 332 120 81 66 
110 250 333 132 79 62 
110 251 332 108 87 77 
110 251 333 121 81 65 
111 251 332 103 93 88 
110 250 334 137 75 56 
110 251 334 133 77 54 
111 252 329 110 101 104 
111 253 329 104 74 76 
111 252 330 110 102 105 
111 252 331 108 101 103 
111 253 330 108 88 88 
111 253 331 114 102 101 
111 254 329 105 47 58 
111 255 329 113 43 60 
111 254 330 105 68 68 
111 254 331 112 91 87 
111 255 330 112 45 58 
111 255 331 113 67 70 
109 252 334 124 80 63 
109 252 335 131 76 53 
109 253 334 113 91 84 
109 253 335 118 86 72 
109 254 335 111 93 86 
109 255 335 109 100 100 
110 252 332 105 94 92 
110 252 333 110 87 78 
110 253 332 111 102 103 
110 253 333 107 96 96 
111 252 332 105 98 98 
111 253 332 114 103 104 
110 252 334 119 80 64 
110 253 334 108 91 89 
110 254 332 116 104 102 
110 254 333 111 101 101 
110 255 333 119 100 97 
111 254 332 116 100 97 
111 255 332 117 87 85 
110 254 334 107 97 97 
110 255 334 113 102 102 
103 240 338 101 91 82 
103 241 338 106 93 83 
103 241 339 103 88 76 
103 242 338 112 93 73 
103 243 338 125 95 69 
102 245 338 141 98 67 
103 244 338 136 95 66 
103 245 338 142 93 61 
103 245 339 141 86 49 
102 246 338 144 92 60 
102 247 338 145 86 53 
103 246 338 146 89 52 
103 246 339 145 87 48 
103 247 338 149 86 39 
103 247 339 147 87 43 
102 248 338 147 76 29 
102 249 338 152 68 9 
103 248 338 152 79 18 
103 249 338 155 69 10 
102 250 338 155 66 10 
102 251 338 156 66 8 
103 250 338 156 65 10 
103 251 338 157 65 8 
102 252 338 157 67 8 
102 253 338 159 70 10 
103 252 338 158 67 8 
103 253 338 160 69 9 
102 254 338 160 71 11 
102 255 338 160 71 12 
103 254 338 161 70 9 
103 255 338 161 71 11 
104 240 338 108 94 81 
104 241 338 110 90 72 
105 240 338 122 104 84 
105 241 338 122 96 70 
104 242 338 110 83 60 
104 243 338 121 81 55 
105 242 338 123 89 61 
105 243 338 126 78 52 
106 240 337 127 102 72 
106 241 337 131 96 60 
107 240 336 129 81 24 
107 240 337 127 87 40 
107 241 336 135 73 17 
107 241 337 133 80 26 
106 240 338 128 107 81 
106 241 338 130 102 70 
106 242 337 137 82 41 
106 243 337 138 70 13 
107 242 336 138 67 11 
107 242 337 138 70 10 
107 243 337 139 68 9 
106 242 338 135 94 64 
106 243 338 134 82 50 
104 244 338 130 81 51 
104 245 338 137 82 45 
105 244 338 129 74 41 
105 245 338 136 75 38 
104 246 338 144 85 42 
104 247 338 149 84 31 
105 246 338 141 76 29 
105 247 338 147 77 16 
106 244 337 139 70 12 
107 244 336 140 70 8 
107 244 337 140 68 8 
107 245 337 140 67 9 
106 244 338 135 70 24 
106 245 338 136 72 33 
107 246 337 141 68 9 
107 247 337 141 66 11 
106 246 338 140 70 19 
106 247 338 144 68 8 
108 240 336 132 71 11 
108 241 336 137 65 11 
108 242 336 139 64 7 
108 243 336 139 69 8 
108 244 336 139 69 6 
108 245 336 141 68 8 
108 246 336 142 68 11 
108 247 336 141 67 10 
104 248 338 153 79 15 
104 249 338 156 70 10 
105 248 338 151 74 10 
105 249 338 153 71 9 
104 250 338 155 66 9 
104 251 338 156 65 8 
105 250 338 155 69 8 
105 251 338 155 67 8 
107 248 337 142 64 10 
107 249 337 143 63 12 
106 248 338 146 67 8 
106 249 338 148 67 7 
106 250 337 145 65 15 
106 251 337 146 68 21 
107 250 337 143 64 17 
107 251 337 143 65 24 
106 250 338 151 67 8 
106 251 338 151 68 11 
104 252 338 158 66 8 
104 253 338 159 67 8 
105 252 338 155 66 8 
105 253 338 157 65 8 
104 254 338 161 68 9 
104 255 338 162 70 11 
105 254 338 158 65 8 
105 255 338 159 66 11 
106 252 337 146 66 18 
107 252 337 143 65 31 
107 253 337 144 69 38 
106 252 338 148 67 21 
106 253 338 148 66 27 
107 254 337 142 70 42 
107 255 337 134 80 59 
106 254 338 148 67 37 
106 255 338 146 72 47 
107 254 338 144 70 45 
107 255 338 140 75 52 
108 248 336 140 66 11 
108 249 336 138 63 12 
108 250 336 138 61 27 
108 251 336 140 62 35 
108 252 336 139 66 39 
108 253 336 134 74 46 
108 253 337 137 72 45 
108 254 336 126 82 61 
108 254 337 134 76 52 
108 255 336 118 92 80 
108 255 337 127 83 67 
109 254 336 120 85 67 
109 255 336 112 95 90 
114 224 323 103 84 72 
114 225 323 107 82 67 
115 224 323 110 88 74 
115 225 323 111 82 67 
114 226 323 112 80 65 
114 227 323 114 80 65 
115 226 323 115 81 65 
115 227 323 116 78 60 
112 224 325 94 77 69 
112 225 325 100 83 73 
113 224 324 95 79 70 
113 225 324 100 82 70 
112 226 325 109 87 74 
112 227 325 111 86 73 
113 226 324 111 83 69 
113 227 324 116 84 69 
113 227 325 116 87 71 
112 226 326 111 87 75 
112 227 326 112 86 76 
114 224 324 100 82 71 
114 225 324 105 82 69 
114 226 324 113 82 68 
114 227 324 116 81 66 
115 228 323 120 78 53 
115 230 323 130 67 15 
112 228 325 122 89 73 
113 228 324 120 84 66 
113 228 325 122 87 68 
113 229 325 122 84 60 
112 228 326 116 88 74 
112 228 327 114 86 74 
112 229 326 118 85 69 
112 229 327 115 82 69 
113 230 325 124 80 46 
113 231 325 127 73 23 
112 230 326 119 80 61 
112 230 327 117 80 64 
112 231 326 121 75 41 
112 231 327 121 78 52 
113 230 326 121 82 59 
113 231 326 125 73 27 
114 228 324 118 80 59 
114 229 324 123 80 49 
115 228 324 120 79 52 
115 229 324 125 75 38 
114 230 324 128 77 35 
114 231 324 132 69 22 
114 231 325 130 69 13 
115 230 324 131 70 28 
115 231 324 135 64 9 
116 224 322 112 87 71 
116 224 323 112 86 72 
116 225 323 115 84 67 
117 224 322 112 83 68 
117 225 322 116 82 64 
117 225 323 117 83 64 
116 226 323 118 82 61 
116 227 323 120 79 51 
117 226 323 119 80 52 
117 227 323 120 74 35 
119 224 321 112 81 60 
118 224 322 114 82 64 
118 225 322 118 79 50 
119 224 322 118 80 55 
119 225 322 123 76 37 
118 226 322 121 75 35 
118 226 323 120 76 39 
118 227 323 122 73 25 
119 226 322 125 70 17 
119 227 322 130 66 5 
119 227 323 126 68 9 
116 228 323 121 73 33 
116 229 323 126 69 16 
117 228 323 124 68 12 
117 229 323 132 64 5 
116 230 323 133 63 7 
116 231 323 135 59 7 
117 230 323 135 62 7 
117 231 323 137 59 8 
118 228 323 128 65 6 
118 229 323 133 60 4 
119 228 323 132 63 5 
119 229 323 135 60 6 
118 230 323 135 60 5 
118 231 323 136 60 5 
119 230 323 136 60 4 
119 231 323 135 60 4 
116 230 324 132 64 10 
116 231 324 134 62 7 
113 232 325 133 67 9 
112 232 327 124 74 34 
112 233 327 128 67 12 
113 232 326 128 69 14 
113 233 326 134 64 5 
113 235 325 136 64 4 
112 234 327 133 65 5 
112 235 327 137 68 5 
113 234 326 135 64 4 
113 235 326 137 65 4 
113 235 327 137 68 5 
114 232 324 135 65 7 
114 232 325 136 64 6 
114 233 325 136 63 4 
115 232 324 137 65 7 
115 233 324 136 65 5 
114 234 325 136 65 4 
114 235 325 137 64 5 
115 234 324 134 61 5 
115 234 325 136 63 6 
115 235 324 135 59 6 
115 235 325 136 60 4 
112 236 327 140 71 9 
113 236 326 140 70 8 
113 236 327 140 72 9 
113 237 326 142 70 5 
113 237 327 141 73 4 
113 238 327 141 70 6 
113 239 327 141 70 11 
114 236 325 141 65 10 
114 237 325 141 65 12 
115 236 324 137 60 14 
115 236 325 138 62 13 
115 237 324 141 63 22 
115 237 325 140 62 16 
114 236 326 141 67 7 
114 237 326 142 68 6 
115 238 324 138 64 20 
115 238 325 139 65 13 
115 239 325 137 67 20 
114 238 326 142 70 5 
114 239 326 141 72 10 
114 239 327 141 71 6 
115 239 326 139 71 15 
116 232 323 137 62 6 
116 233 323 133 60 4 
117 232 323 137 61 9 
117 233 323 133 59 4 
116 234 323 131 58 3 
116 235 323 131 57 3 
117 234 323 130 56 3 
117 235 323 131 57 6 
118 232 323 135 60 6 
118 233 323 133 60 6 
119 232 323 134 61 4 
119 233 323 132 61 6 
118 234 323 130 57 5 
118 235 323 130 60 10 
119 234 323 129 60 8 
119 235 323 129 60 13 
116 232 324 137 65 5 
116 233 324 134 64 4 
116 234 324 133 61 4 
116 235 324 134 60 5 
117 236 323 133 61 11 
118 236 323 132 63 18 
118 237 323 134 67 28 
119 236 323 131 64 26 
119 237 323 132 69 40 
119 238 323 128 72 49 
119 239 323 120 76 59 
116 236 324 136 61 10 
116 237 324 137 61 16 
117 236 324 135 64 14 
117 237 324 135 64 20 
116 238 324 136 62 22 
116 239 324 133 65 29 
117 238 324 134 63 24 
117 239 324 130 66 37 
118 237 324 134 66 25 
118 238 324 130 66 38 
118 239 324 125 68 45 
119 239 324 117 80 66 
112 234 328 133 68 10 
112 235 328 137 70 11 
112 236 328 139 73 4 
112 236 329 139 74 4 
112 237 328 139 75 4 
112 237 329 139 73 4 
113 237 328 139 73 4 
112 238 328 138 72 4 
112 238 329 139 70 4 
112 239 329 139 69 4 
113 238 328 139 70 5 
113 239 328 139 70 15 
113 239 329 139 70 5 
112 238 330 139 68 4 
112 239 330 140 69 4 
120 224 321 119 78 49 
121 224 321 122 75 32 
121 225 321 128 70 13 
120 224 322 121 76 43 
120 225 322 126 72 26 
121 225 322 130 69 13 
120 226 322 132 68 9 
120 227 322 134 65 5 
121 226 322 135 67 8 
121 227 322 136 63 6 
122 224 321 128 70 10 
122 225 321 136 70 10 
123 224 320 135 66 6 
123 224 321 136 66 5 
123 225 321 140 66 8 
122 226 321 138 65 6 
122 227 321 139 64 4 
123 226 321 142 64 10 
123 227 321 140 64 4 
122 226 322 138 65 6 
122 227 322 138 62 5 
120 228 322 135 60 4 
120 229 322 136 60 5 
120 229 323 136 61 6 
121 228 322 137 60 4 
121 229 322 137 61 4 
120 230 323 138 64 5 
120 231 323 137 62 5 
121 230 322 138 63 5 
121 230 323 138 64 5 
121 231 322 139 64 10 
121 231 323 138 64 6 
123 228 321 142 56 4 
122 228 322 138 63 4 
122 229 322 139 62 4 
123 228 322 140 61 4 
123 229 322 140 64 4 
122 230 322 141 61 5 
122 231 322 140 63 11 
122 231 323 139 63 8 
123 230 322 140 62 5 
123 231 322 140 63 12 
124 224 320 140 66 10 
124 224 321 141 64 3 
124 225 321 143 64 7 
125 224 320 142 65 7 
125 225 320 143 63 5 
125 225 321 143 62 6 
124 226 321 144 62 9 
124 227 321 144 61 5 
125 226 321 143 62 8 
125 227 321 143 61 5 
126 224 320 144 65 5 
126 225 320 143 66 4 
127 224 320 143 66 4 
127 225 320 144 67 5 
126 226 320 143 67 3 
126 226 321 143 66 4 
126 227 321 142 65 5 
127 226 320 142 66 3 
127 227 320 142 65 3 
127 227 321 142 65 4 
124 228 321 146 57 5 
125 228 321 145 60 5 
125 229 321 147 61 6 
124 228 322 145 61 5 
124 229 322 142 65 7 
125 229 322 144 64 6 
124 230 322 141 67 12 
124 231 322 140 66 15 
125 230 322 141 66 12 
125 231 322 140 66 18 
126 228 321 142 64 5 
126 229 321 145 60 7 
127 228 321 141 64 5 
127 229 321 141 64 15 
126 230 321 143 60 9 
127 230 321 139 61 15 
127 231 321 137 69 35 
126 230 322 140 65 18 
126 231 322 140 67 23 
127 231 322 137 69 37 
120 232 323 136 62 7 
120 233 323 132 60 7 
121 232 323 136 62 6 
121 233 323 132 60 16 
120 234 323 129 58 11 
120 235 323 128 60 20 
121 234 323 128 59 17 
121 235 323 127 64 31 
122 232 322 138 62 12 
122 232 323 136 61 12 
122 233 323 134 61 22 
123 232 322 137 62 18 
123 233 322 134 62 24 
123 233 323 131 62 30 
122 234 323 128 62 30 
122 235 323 124 66 42 
123 234 323 127 66 44 
123 235 323 123 70 51 
120 236 323 129 67 37 
120 237 323 130 76 53 
121 236 323 129 72 47 
121 237 323 129 83 65 
120 238 323 125 82 64 
120 239 323 113 90 80 
121 238 323 122 93 80 
121 239 323 112 100 95 
122 236 323 125 77 60 
122 237 323 123 91 81 
123 236 323 120 84 71 
123 237 323 117 102 98 
122 238 323 117 103 97 
122 239 323 113 112 113 
123 238 323 114 114 117 
123 239 323 113 118 126 
123 239 324 109 117 127 
124 232 322 138 66 25 
124 233 322 133 65 33 
125 232 322 137 69 32 
125 233 322 133 72 45 
124 234 322 127 67 45 
124 234 323 126 68 46 
124 235 323 123 77 62 
125 234 322 124 78 61 
125 234 323 124 74 56 
125 235 322 119 93 82 
125 235 323 118 89 78 
127 232 321 133 75 51 
126 232 322 135 74 45 
126 233 322 128 82 64 
127 232 322 130 79 60 
127 233 322 124 93 82 
126 234 322 121 92 80 
126 235 322 116 105 101 
126 235 323 114 105 101 
127 234 322 118 103 100 
127 235 322 114 114 116 
124 236 323 116 94 88 
124 237 323 113 111 113 
125 236 323 112 107 108 
125 237 323 111 118 127 
124 238 323 112 119 127 
124 239 323 108 117 129 
125 238 323 108 118 130 
125 239 323 92 107 121 
126 236 323 111 116 122 
126 237 323 102 115 128 
127 236 322 110 116 125 
127 236 323 103 113 126 
127 237 323 88 105 121 
126 238 323 91 107 123 
126 239 323 68 90 110 
127 238 323 69 93 113 
127 239 323 59 84 105 
124 239 324 103 114 126 
113 240 327 140 72 13 
113 243 327 138 77 50 
115 240 325 135 70 30 
115 241 325 134 71 41 
114 240 326 138 73 21 
114 240 327 139 73 14 
114 241 326 137 76 40 
114 241 327 138 76 29 
115 240 326 137 75 33 
115 241 326 135 74 43 
115 242 325 131 73 50 
115 243 325 124 83 67 
114 242 326 137 77 49 
114 242 327 138 76 43 
114 243 326 135 79 58 
114 243 327 137 78 55 
115 242 326 134 75 52 
115 243 326 130 81 64 
113 244 327 135 81 63 
113 245 326 122 90 76 
113 245 327 129 85 69 
112 247 327 107 97 94 
113 246 326 114 93 83 
113 246 327 119 86 73 
113 247 326 100 103 108 
113 247 327 105 97 94 
115 244 325 113 93 84 
115 245 325 105 103 103 
114 244 326 130 85 69 
114 244 327 136 80 63 
114 245 326 117 94 84 
115 244 326 120 90 76 
114 246 325 104 103 106 
114 247 325 105 109 117 
115 246 325 102 106 112 
115 247 325 100 103 110 
114 246 326 107 99 97 
114 247 326 102 107 114 
116 240 324 130 68 39 
116 240 325 134 71 36 
116 241 324 123 72 51 
116 241 325 130 71 45 
117 240 324 124 72 50 
117 241 324 117 77 60 
116 242 324 120 81 65 
116 242 325 124 77 58 
116 243 324 113 94 86 
116 243 325 117 90 79 
117 242 324 112 89 77 
117 243 324 109 103 101 
118 240 324 117 77 59 
118 241 324 111 88 76 
119 240 324 110 89 80 
119 241 324 106 99 96 
118 242 324 108 98 93 
118 243 324 105 105 109 
119 242 324 105 105 106 
119 243 324 100 105 111 
116 244 324 107 108 109 
116 244 325 107 104 103 
116 245 324 103 108 114 
116 245 325 103 106 111 
117 244 324 106 108 112 
117 245 324 101 106 112 
116 246 324 95 100 108 
116 246 325 100 105 113 
116 247 324 73 76 85 
116 247 325 81 84 91 
117 246 324 84 91 98 
117 247 324 67 71 80 
118 244 324 98 102 109 
118 245 324 81 86 94 
119 244 324 79 85 94 
119 245 324 62 65 76 
118 246 324 65 69 78 
118 247 324 63 56 68 
119 246 324 60 55 66 
119 247 324 68 47 62 
112 240 329 140 70 5 
112 241 329 140 69 5 
113 240 328 139 71 8 
113 240 329 139 70 5 
113 241 328 139 73 18 
113 241 329 139 70 9 
112 240 330 140 70 5 
112 240 331 140 70 6 
112 241 330 140 69 5 
112 241 331 140 70 7 
112 242 329 140 68 12 
112 243 329 138 69 25 
113 242 328 138 73 27 
113 242 329 139 70 16 
113 243 328 138 74 39 
113 243 329 137 70 29 
112 242 330 140 68 7 
112 242 331 140 71 5 
112 243 330 140 68 14 
112 243 331 139 69 10 
112 244 328 136 77 54 
112 244 329 135 75 43 
112 245 328 133 78 61 
112 245 329 135 79 56 
113 244 328 137 78 55 
113 245 328 131 79 63 
112 244 330 136 72 30 
112 244 331 138 70 17 
112 245 330 134 77 47 
112 246 328 130 81 65 
112 246 329 134 80 60 
112 247 328 120 83 69 
112 247 329 128 82 63 
112 246 330 133 78 54 
112 248 327 101 105 111 
112 249 327 109 112 119 
113 248 326 107 113 121 
113 248 327 103 110 117 
113 249 326 104 106 112 
113 249 327 109 112 119 
112 250 327 109 109 115 
112 251 327 101 97 100 
113 250 326 85 82 86 
113 250 327 102 102 107 
113 251 326 77 58 63 
113 251 327 87 80 84 
114 248 325 105 107 113 
114 249 325 78 74 79 
115 248 325 80 77 84 
115 249 325 76 60 70 
114 248 326 108 113 119 
114 249 326 99 101 105 
114 250 325 72 58 65 
114 251 325 82 50 59 
115 250 325 82 53 64 
115 251 325 90 47 60 
114 251 326 81 46 55 
112 252 327 91 63 70 
112 253 327 101 44 58 
113 252 326 90 41 59 
113 252 327 89 57 67 
113 253 326 108 50 66 
113 253 327 102 45 61 
112 254 327 110 47 59 
112 255 327 121 64 72 
113 254 326 115 59 68 
113 254 327 114 54 65 
113 255 327 121 70 75 
114 252 325 99 44 60 
114 253 325 107 48 59 
115 252 325 100 47 60 
115 253 325 109 56 64 
114 252 326 91 43 58 
114 253 326 109 48 61 
114 254 325 111 61 63 
114 255 325 109 68 62 
115 254 325 111 70 67 
115 255 325 114 83 74 
114 254 326 115 62 68 
114 255 326 116 71 70 
116 248 324 72 55 72 
116 248 325 69 57 70 
116 249 324 82 52 68 
117 248 324 69 53 69 
117 249 324 84 46 65 
116 250 324 93 55 67 
116 251 324 99 55 64 
116 251 325 100 54 63 
117 250 324 93 48 59 
117 251 324 99 54 56 
118 248 324 73 47 63 
118 249 324 86 43 57 
119 248 324 82 47 59 
119 249 324 96 58 60 
118 250 324 93 48 54 
118 251 324 101 61 54 
119 250 324 104 69 61 
119 251 324 108 78 67 
116 252 324 105 60 64 
116 252 325 107 59 65 
116 253 325 110 62 66 
117 252 324 107 64 62 
117 253 324 110 69 65 
117 253 325 113 74 69 
116 254 325 114 80 73 
116 255 325 117 93 82 
117 254 325 116 86 76 
117 255 325 114 91 79 
118 252 324 104 67 58 
118 253 324 109 76 67 
119 252 324 108 80 69 
119 253 324 109 83 71 
118 254 324 111 84 73 
118 255 324 97 71 58 
118 255 325 102 78 63 
119 254 324 106 81 68 
119 255 324 100 73 60 
112 248 328 105 98 95 
112 248 329 111 91 79 
112 249 328 104 105 111 
112 249 329 106 102 101 
112 250 328 108 109 115 
112 251 328 110 108 112 
112 252 328 99 84 86 
112 252 329 105 88 90 
112 253 328 100 54 62 
112 253 329 104 69 72 
112 254 328 109 45 59 
112 254 329 107 48 59 
112 255 328 119 53 66 
112 255 329 117 48 63 
120 240 324 106 102 100 
120 241 324 104 105 108 
121 240 324 105 106 108 
121 241 324 101 107 113 
120 242 324 100 104 110 
120 243 324 85 92 100 
121 242 324 87 95 104 
121 243 324 63 75 86 
122 240 324 103 109 117 
122 241 324 91 100 111 
123 240 324 91 103 117 
123 241 324 64 82 97 
122 242 324 66 79 92 
122 243 324 54 65 80 
123 242 324 53 68 85 
123 243 324 57 60 79 
120 244 324 60 68 81 
120 245 324 61 60 74 
121 244 324 56 63 77 
121 245 324 67 61 74 
120 246 324 65 52 66 
120 247 324 75 48 64 
121 246 324 73 54 67 
121 247 324 79 51 63 
122 244 324 57 59 75 
122 245 324 65 53 68 
123 244 324 70 56 75 
123 245 324 78 53 69 
122 246 324 74 52 63 
122 247 324 85 58 63 
123 246 324 88 59 67 
123 247 324 96 69 65 
126 240 323 59 80 99 
127 240 323 62 78 96 
127 241 323 63 62 77 
127 242 323 72 56 70 
124 240 324 74 92 109 
124 241 324 49 69 87 
125 240 324 60 82 100 
125 241 324 57 70 87 
124 242 324 56 66 82 
124 243 324 69 65 79 
125 242 324 64 66 80 
125 243 324 79 67 77 
126 240 324 57 74 93 
126 241 324 62 69 84 
126 242 324 70 63 76 
126 243 324 82 60 68 
127 242 324 74 57 69 
127 243 324 92 64 68 
124 244 324 87 64 75 
124 245 324 101 71 76 
125 244 324 94 67 71 
125 245 324 109 78 74 
124 246 324 110 81 76 
124 247 324 109 82 70 
125 246 324 111 79 69 
125 247 324 112 82 71 
126 244 324 100 70 67 
126 245 324 111 76 64 
127 244 324 110 78 71 
127 245 324 119 85 70 
126 246 324 115 81 67 
126 247 324 118 87 75 
127 246 324 121 90 75 
127 247 324 114 82 68 
120 248 324 91 54 62 
120 249 324 104 71 64 
121 248 324 96 62 65 
121 249 324 105 72 64 
120 250 324 108 78 66 
120 251 324 105 79 66 
121 250 324 108 79 67 
121 251 324 104 75 64 
121 251 325 104 75 62 
122 248 324 99 70 68 
122 249 324 107 76 69 
122 249 325 108 80 71 
123 248 324 102 75 66 
123 248 325 109 83 72 
123 249 324 107 81 67 
123 249 325 110 85 74 
122 250 324 107 80 68 
122 250 325 104 75 65 
122 251 324 108 81 68 
122 251 325 112 87 74 
123 250 325 105 77 64 
123 251 325 113 89 76 
120 252 324 108 83 72 
120 253 324 108 85 73 
121 252 324 108 85 73 
121 253 324 106 83 70 
120 254 324 102 76 63 
120 255 324 103 77 66 
121 254 324 101 75 64 
121 255 324 109 84 72 
122 252 324 110 84 72 
122 252 325 114 89 78 
122 253 324 102 73 61 
123 252 324 109 81 69 
123 252 325 114 89 77 
123 253 324 109 79 70 
122 254 324 110 82 72 
122 255 324 119 96 84 
123 254 324 122 95 84 
123 255 324 123 98 86 
124 248 324 112 88 75 
124 248 325 114 90 77 
124 249 324 109 84 71 
124 249 325 107 81 68 
125 248 324 114 86 74 
125 248 325 108 79 65 
125 249 325 107 80 65 
124 250 325 108 83 70 
124 251 325 111 85 75 
125 250 325 112 86 72 
125 251 325 109 81 70 
126 248 324 112 80 69 
126 248 325 105 74 60 
126 249 325 110 83 69 
127 248 324 111 80 66 
127 248 325 111 82 67 
127 249 325 116 89 75 
126 250 325 115 90 75 
126 251 324 107 79 68 
126 251 325 114 87 73 
127 250 325 112 83 69 
127 251 324 113 85 72 
127 251 325 109 81 66 
124 252 324 109 81 70 
124 252 325 112 86 75 
124 253 324 114 86 76 
125 252 324 103 73 63 
125 252 325 101 72 62 
125 253 324 117 90 81 
124 254 324 126 101 90 
124 255 324 112 83 70 
125 254 324 119 94 84 
125 255 324 102 71 63 
126 252 324 105 75 66 
126 253 324 119 95 84 
127 252 324 121 97 84 
127 253 324 112 90 79 
126 254 324 107 81 73 
126 254 325 99 71 62 
126 255 324 102 73 67 
126 255 325 96 70 67 
127 254 324 93 67 64 
127 254 325 93 70 69 
127 255 325 100 82 83 
128 207 313 106 94 83 
128 207 314 106 93 83 
129 207 314 104 93 85 
142 213 299 101 37 12 
143 213 298 89 34 15 
143 213 299 96 33 14 
143 215 297 64 50 42 
142 214 299 95 34 16 
142 215 298 76 47 38 
142 215 299 86 42 24 
143 214 298 83 32 18 
143 215 298 74 43 32 
141 213 301 116 47 5 
140 212 303 127 51 0 
140 213 303 127 51 1 
141 212 302 122 49 3 
141 212 303 128 51 2 
141 213 302 121 48 2 
141 213 303 128 50 4 
141 214 301 113 43 7 
141 215 300 97 46 19 
141 215 301 107 44 11 
140 214 302 122 50 4 
140 214 303 125 51 3 
140 215 302 121 50 4 
140 215 303 123 50 2 
141 214 302 119 47 4 
141 215 302 115 49 6 
142 213 300 107 41 10 
142 213 301 112 44 8 
142 214 300 103 40 12 
142 215 300 96 43 20 
143 218 295 59 51 45 
143 219 295 60 43 40 
143 220 295 60 32 29 
143 221 295 58 25 20 
143 222 295 57 26 23 
141 217 299 76 65 58 
141 218 299 74 71 68 
141 219 298 68 60 55 
141 219 299 72 70 69 
143 216 296 61 56 56 
143 216 297 61 58 55 
143 217 296 63 58 54 
143 217 297 63 60 57 
142 216 298 69 57 50 
142 216 299 78 55 43 
142 217 298 68 62 58 
142 217 299 74 62 53 
143 216 298 63 57 53 
143 217 298 64 59 56 
142 218 297 64 61 58 
142 219 296 62 43 41 
142 219 297 64 52 47 
143 218 296 62 56 52 
143 218 297 63 61 59 
143 219 296 61 46 43 
142 218 298 68 66 64 
142 219 298 68 62 58 
141 216 300 89 54 34 
141 216 301 102 48 19 
141 217 300 84 63 53 
141 217 301 93 58 43 
140 216 302 118 50 7 
140 216 303 121 50 6 
140 217 302 108 53 28 
140 217 303 117 51 16 
141 216 302 111 47 9 
141 217 302 98 56 38 
140 219 301 81 78 77 
141 218 300 78 68 66 
141 218 301 83 68 61 
141 219 300 77 75 73 
141 219 301 81 74 71 
140 218 302 98 64 53 
140 218 303 109 60 42 
140 219 302 87 75 71 
140 219 303 95 74 67 
141 218 302 93 63 54 
141 220 297 65 44 41 
141 220 298 67 48 43 
141 220 299 74 64 58 
141 221 298 68 39 33 
141 221 299 71 48 40 
141 222 298 66 26 20 
141 222 299 70 36 30 
141 223 298 67 23 20 
141 223 299 66 30 25 
142 220 296 64 35 35 
142 220 297 66 42 38 
142 221 296 64 34 28 
142 221 297 68 37 33 
143 220 296 63 31 30 
143 221 296 62 27 22 
142 222 296 63 28 23 
142 222 297 64 28 22 
142 223 297 60 27 22 
143 222 296 60 25 24 
143 223 296 55 23 23 
143 223 297 53 24 23 
142 223 298 64 28 22 
140 220 300 78 68 61 
140 220 301 81 78 74 
140 221 300 78 66 57 
140 221 301 80 70 65 
141 220 300 76 70 66 
141 221 300 77 57 51 
140 220 302 86 84 83 
140 220 303 89 88 87 
140 221 302 87 81 77 
140 221 303 91 91 91 
140 222 300 77 51 40 
140 222 301 82 61 53 
140 223 300 75 26 19 
140 223 301 77 39 30 
141 222 300 74 43 35 
141 223 300 71 28 22 
140 222 302 86 70 65 
140 222 303 93 87 84 
140 223 302 88 58 51 
140 223 303 96 76 71 
134 209 311 109 91 75 
135 209 310 112 86 56 
135 209 311 114 86 57 
134 210 311 118 82 47 
135 210 311 125 72 23 
135 211 311 131 60 9 
135 212 311 135 58 7 
128 208 314 107 95 87 
128 208 315 107 95 87 
128 209 315 106 96 88 
129 208 314 107 96 88 
129 209 314 110 98 89 
129 209 315 110 98 89 
128 210 315 110 99 89 
128 211 315 109 97 86 
129 210 315 109 97 88 
129 211 315 108 96 84 
130 208 313 110 99 89 
131 208 313 112 101 91 
131 209 313 111 99 88 
130 208 314 111 100 90 
130 209 314 109 98 89 
131 209 314 109 98 88 
131 210 313 108 94 81 
130 210 314 108 96 87 
130 210 315 108 96 87 
130 211 314 112 97 82 
130 211 315 111 96 82 
131 210 314 108 94 81 
131 211 314 114 95 76 
128 211 316 108 95 85 
129 212 315 107 93 80 
130 212 315 112 94 77 
130 213 315 117 93 69 
131 212 314 115 89 64 
131 212 315 115 91 66 
131 213 315 119 83 46 
131 214 315 128 72 18 
128 212 316 107 93 82 
128 213 316 109 93 79 
128 213 317 112 94 78 
129 212 316 107 93 79 
129 213 316 112 93 74 
128 214 317 116 93 73 
128 215 317 122 91 63 
129 214 316 120 92 69 
129 214 317 119 92 68 
129 215 317 129 89 57 
130 213 316 119 92 67 
131 213 316 122 82 47 
130 214 316 126 85 49 
130 215 316 132 78 29 
130 215 317 133 77 24 
131 214 316 131 73 21 
131 215 316 139 69 8 
132 208 312 113 101 90 
132 208 313 112 100 89 
132 209 313 111 99 87 
133 209 312 111 96 80 
133 209 313 109 91 74 
132 210 313 110 93 76 
132 211 313 117 91 68 
133 210 312 114 88 61 
133 210 313 116 88 63 
133 211 313 120 84 51 
132 211 314 114 89 64 
134 209 312 111 90 70 
134 210 312 119 82 45 
134 211 312 127 74 24 
134 211 313 122 76 30 
133 212 313 125 71 19 
132 212 314 118 81 45 
132 213 314 126 70 13 
132 213 315 123 73 21 
133 212 314 122 75 28 
133 213 314 129 62 6 
132 214 315 137 66 7 
132 215 315 142 66 7 
133 214 314 137 61 8 
133 214 315 140 63 6 
133 215 314 142 64 6 
133 215 315 142 65 6 
134 212 312 131 66 8 
134 212 313 127 68 11 
134 213 312 136 58 5 
134 213 313 134 58 5 
135 212 312 134 59 4 
135 213 312 135 56 5 
134 214 313 137 58 4 
135 214 312 137 60 8 
135 214 313 138 61 4 
135 215 313 138 62 4 
134 214 314 137 58 4 
134 215 314 141 62 4 
132 215 316 142 66 7 
128 216 317 129 85 46 
129 216 317 135 80 35 
129 217 317 138 71 16 
128 216 318 128 85 48 
128 217 318 134 79 32 
129 217 318 138 70 18 
128 218 318 139 73 14 
128 219 318 142 67 6 
129 218 318 142 68 6 
129 219 318 144 66 6 
130 216 317 140 73 13 
130 217 317 144 69 6 
131 216 316 144 67 7 
131 217 316 147 67 5 
131 217 317 147 67 7 
130 218 317 146 67 7 
130 219 317 145 65 6 
131 218 316 146 65 6 
131 218 317 146 66 8 
131 219 317 145 67 10 
130 219 318 145 66 4 
128 220 318 144 64 5 
128 220 319 144 64 5 
128 221 319 144 62 4 
129 220 318 145 66 6 
129 221 318 144 64 4 
129 221 319 144 63 4 
128 222 319 143 63 3 
128 223 319 142 67 3 
129 222 319 143 62 4 
129 223 319 143 65 4 
130 220 317 144 66 3 
131 220 317 144 67 4 
131 221 317 143 66 4 
130 220 318 144 65 4 
130 221 318 143 65 4 
131 221 318 142 65 3 
130 222 318 143 66 4 
130 223 318 142 67 4 
130 223 319 144 63 4 
131 222 318 142 66 3 
131 223 318 141 67 5 
132 216 315 143 67 5 
133 216 314 143 65 4 
133 216 315 143 67 4 
133 217 315 143 67 4 
133 218 315 142 64 3 
135 216 313 137 63 5 
135 217 313 135 60 5 
134 216 314 140 66 4 
134 217 314 140 68 4 
134 217 315 141 68 4 
135 217 314 137 64 5 
135 218 313 134 56 3 
134 218 314 137 63 5 
134 218 315 139 64 5 
134 219 315 138 60 6 
135 218 314 136 60 3 
135 219 314 135 59 7 
132 216 316 144 67 5 
132 217 316 145 67 6 
133 217 316 144 68 5 
132 218 316 145 66 9 
132 219 316 144 64 13 
132 219 317 144 67 14 
133 218 316 143 64 7 
133 219 316 142 62 11 
134 219 316 139 61 9 
134 220 315 137 60 11 
134 221 315 134 60 7 
135 220 314 133 59 5 
135 220 315 134 60 9 
135 221 314 131 58 2 
135 221 315 132 60 6 
135 222 314 132 55 3 
135 222 315 132 58 3 
135 223 314 131 53 7 
135 223 315 132 55 8 
132 220 317 143 66 5 
132 221 317 142 66 4 
133 220 316 141 63 6 
133 221 316 139 66 3 
133 221 317 141 66 4 
132 222 317 141 66 4 
132 223 317 141 66 5 
133 222 316 139 66 4 
133 222 317 139 65 4 
133 223 316 136 63 5 
133 223 317 138 64 4 
132 223 318 140 66 5 
134 220 316 139 62 8 
134 221 316 136 62 3 
134 222 316 135 62 4 
134 223 316 134 60 5 
139 211 306 133 53 4 
139 211 307 135 56 5 
137 210 309 136 59 7 
137 211 309 136 57 5 
136 210 310 130 65 9 
136 211 310 136 57 6 
136 211 311 134 58 5 
137 210 310 135 63 10 
137 211 310 136 58 6 
138 210 308 135 55 5 
138 210 309 137 59 5 
138 211 308 136 56 5 
138 211 309 136 57 4 
139 212 306 132 51 3 
139 212 307 134 53 4 
139 213 306 132 49 0 
139 213 307 133 52 2 
139 214 306 131 49 1 
139 214 307 132 51 3 
139 215 306 129 49 1 
139 215 307 132 52 3 
137 213 309 136 57 5 
136 212 310 137 60 10 
136 212 311 135 57 6 
136 213 311 136 57 9 
137 212 310 136 58 7 
137 213 310 136 57 7 
136 214 311 136 58 7 
136 215 311 135 58 10 
137 214 310 135 57 4 
137 214 311 137 58 9 
137 215 310 135 57 6 
137 215 311 135 56 10 
138 212 308 135 54 4 
138 212 309 136 56 5 
138 213 308 132 53 3 
138 213 309 134 55 6 
139 212 308 135 54 4 
139 213 308 132 53 3 
138 214 308 132 54 6 
138 214 309 133 59 4 
138 215 308 132 52 8 
138 215 309 132 56 5 
139 214 308 132 52 7 
139 215 308 132 52 7 
138 215 310 134 56 7 
140 211 305 131 53 7 
140 211 306 132 53 8 
140 212 304 130 52 4 
140 212 305 132 51 5 
140 213 304 129 53 3 
140 213 305 131 51 4 
140 212 306 131 51 4 
140 213 306 130 49 0 
140 214 304 128 53 5 
140 214 305 130 51 5 
140 215 304 126 51 0 
140 215 305 127 49 1 
140 214 306 129 50 0 
140 215 306 128 49 2 
136 214 312 138 61 6 
136 215 312 136 59 7 
136 215 313 137 61 5 
139 216 306 128 50 2 
139 216 307 132 55 3 
139 217 306 128 49 4 
139 217 307 129 53 3 
139 218 305 122 47 19 
139 219 305 111 61 40 
139 218 306 126 48 12 
139 218 307 129 52 5 
139 219 306 120 50 21 
139 219 307 127 50 10 
137 216 310 133 53 7 
137 216 311 133 54 8 
137 217 310 133 57 2 
137 217 311 133 54 4 
137 218 310 133 58 3 
137 218 311 132 57 4 
137 219 310 131 54 3 
137 219 311 131 56 2 
138 216 308 133 55 3 
138 216 309 133 55 4 
138 217 308 132 55 4 
138 217 309 133 57 7 
139 216 308 133 56 4 
138 216 310 132 54 3 
138 217 310 133 57 10 
138 218 308 132 56 5 
138 218 309 133 57 4 
138 219 308 132 53 7 
138 219 309 132 55 6 
138 218 310 133 57 8 
138 219 310 132 54 4 
139 220 305 99 75 65 
139 221 304 93 93 94 
139 221 305 94 90 90 
138 220 307 120 63 36 
138 221 307 112 76 59 
139 220 306 109 68 46 
139 220 307 119 58 24 
139 221 306 100 85 79 
139 221 307 106 79 67 
139 222 304 96 95 96 
139 222 305 95 97 99 
139 223 304 101 88 83 
139 223 305 104 98 95 
138 222 307 101 88 83 
138 223 307 100 102 105 
139 222 306 96 95 97 
139 222 307 98 92 90 
139 223 306 103 103 103 
139 223 307 101 102 104 
137 220 310 131 53 2 
137 220 311 130 53 3 
137 221 310 128 51 7 
137 221 311 130 50 5 
137 222 310 122 54 19 
137 222 311 126 50 8 
137 223 310 108 78 68 
137 223 311 116 66 46 
138 220 308 127 53 14 
138 220 309 130 53 7 
138 221 308 117 65 41 
138 221 309 125 56 22 
138 220 310 131 53 5 
138 221 310 128 53 11 
138 222 308 106 78 66 
138 222 309 112 66 48 
138 223 308 100 97 97 
138 223 309 102 90 87 
138 222 310 118 58 34 
138 223 310 111 71 58 
140 216 304 125 50 2 
140 216 305 127 50 0 
140 217 304 122 50 9 
140 217 305 125 48 5 
140 216 306 128 50 0 
140 218 304 115 55 32 
140 218 305 121 48 16 
140 219 304 103 66 54 
140 219 305 112 56 36 
140 220 304 93 81 77 
140 220 305 99 78 70 
140 221 304 92 91 91 
140 222 304 96 92 91 
136 216 312 135 57 9 
