ply
format ascii 1.0
comment Created by CloudCompare v2.10.1 (Zephyrus)
comment Created 1/30/20 5:14 PM
obj_info Generated by CloudCompare!
element vertex 1988
property float x
property float y
property float z
property uchar red
property uchar green
property uchar blue
end_header
264 138 216 88 86 109 
264 138 217 88 87 110 
265 138 216 92 86 105 
265 138 217 93 86 105 
266 137 217 97 86 100 
267 137 217 100 85 96 
266 136 219 96 88 103 
266 137 218 96 87 102 
266 137 219 96 88 103 
267 136 219 99 87 100 
267 137 218 99 86 98 
267 137 219 99 87 99 
266 138 216 97 86 99 
266 138 217 96 86 100 
267 138 216 100 85 95 
267 138 217 100 85 96 
264 136 220 90 89 110 
264 136 221 90 90 111 
265 136 220 93 89 108 
265 136 221 92 90 109 
266 136 220 95 89 105 
266 136 221 95 89 106 
267 136 220 98 88 101 
267 136 221 98 89 103 
268 137 217 103 85 94 
269 137 217 105 84 91 
268 136 219 102 86 95 
268 137 218 103 85 94 
268 137 219 102 86 95 
269 136 219 105 85 92 
269 137 218 105 84 91 
269 137 219 105 84 92 
268 138 216 103 84 92 
268 138 217 103 85 93 
269 138 216 106 84 89 
269 138 217 106 84 91 
270 137 217 107 82 88 
271 137 217 109 82 86 
270 136 219 106 83 89 
270 137 218 107 82 88 
270 137 219 106 83 89 
271 136 219 108 81 87 
271 137 218 108 82 87 
270 138 216 108 83 87 
270 138 217 108 83 88 
271 138 216 109 82 85 
271 138 217 109 82 86 
268 136 220 102 87 97 
268 136 221 101 87 98 
269 136 220 105 86 93 
269 136 221 105 86 94 
270 136 220 107 84 90 
270 136 221 106 84 90 
271 136 220 108 81 87 
271 136 221 107 81 87 
256 146 207 118 107 97 
256 147 206 122 109 98 
256 147 207 124 110 98 
257 146 207 121 111 104 
257 147 206 128 115 105 
257 147 207 135 120 107 
258 146 207 127 115 106 
258 147 206 131 118 108 
258 147 207 134 119 108 
259 146 207 128 113 100 
259 147 207 130 116 107 
256 149 205 119 107 99 
257 149 205 122 109 100 
256 148 206 121 109 99 
257 148 206 127 115 104 
257 149 206 122 110 101 
256 150 205 121 107 94 
256 151 205 122 93 73 
257 150 205 120 106 95 
257 151 205 120 93 74 
258 149 205 127 114 104 
258 148 206 134 121 111 
258 149 206 129 116 107 
259 148 206 135 121 109 
259 149 206 131 117 106 
258 150 205 125 110 98 
258 151 205 123 101 84 
259 150 205 129 114 101 
259 151 205 126 107 90 
260 146 207 124 108 97 
260 147 207 125 110 101 
261 146 207 117 104 96 
261 147 207 120 106 99 
262 146 207 125 114 105 
262 147 207 128 117 109 
263 146 207 135 122 111 
263 147 207 137 125 115 
261 149 205 130 118 107 
260 148 206 129 114 103 
260 149 206 128 115 104 
261 148 206 127 113 103 
261 149 206 128 116 105 
260 150 205 126 113 103 
260 151 205 123 106 92 
261 150 205 127 115 105 
261 151 205 122 106 92 
262 149 205 126 115 106 
263 149 205 125 116 107 
262 148 206 130 118 108 
262 149 206 129 117 108 
263 148 206 132 120 110 
263 149 206 128 118 108 
262 150 205 123 113 104 
262 151 205 120 107 97 
263 150 205 118 110 104 
263 151 205 114 105 97 
256 152 205 126 75 36 
256 153 205 132 69 32 
257 152 205 128 83 49 
257 153 205 130 70 25 
256 154 205 136 58 6 
256 155 204 135 56 3 
256 155 205 136 55 3 
257 154 204 135 57 2 
257 154 205 134 62 7 
257 155 204 134 59 2 
257 155 205 140 55 2 
258 152 205 125 88 57 
258 153 205 129 73 32 
259 152 205 125 93 68 
259 153 205 127 79 41 
258 154 205 132 65 10 
258 155 204 134 61 1 
259 154 204 129 69 7 
259 154 205 130 70 18 
259 155 204 133 63 1 
256 157 203 138 58 3 
257 156 203 135 60 2 
257 157 203 138 58 3 
256 158 203 141 59 3 
256 159 203 139 59 3 
257 158 203 142 61 2 
257 159 202 141 62 2 
257 159 203 141 62 2 
258 156 203 135 62 0 
258 157 203 140 62 0 
259 156 203 134 63 2 
259 157 203 140 62 2 
258 158 203 147 65 0 
258 159 202 143 66 0 
259 158 203 145 60 0 
259 159 202 143 61 1 
259 159 203 145 65 0 
256 156 204 135 59 3 
257 156 204 134 61 1 
258 156 204 134 62 0 
260 152 205 123 94 75 
260 153 204 125 74 17 
260 153 205 123 82 49 
261 152 205 122 98 82 
261 153 204 121 80 44 
261 153 205 119 87 64 
260 154 204 127 70 8 
260 155 204 131 63 1 
261 154 204 125 70 14 
261 155 204 130 62 3 
262 152 205 120 100 85 
262 153 204 120 86 57 
262 153 205 121 96 76 
263 152 204 108 92 83 
263 152 205 113 97 86 
263 153 204 117 90 68 
262 154 204 124 71 21 
262 155 204 129 63 2 
263 154 204 123 78 43 
263 155 204 128 63 6 
260 156 203 134 62 2 
260 157 203 140 62 1 
261 156 203 134 59 3 
261 157 203 140 61 1 
260 158 203 145 60 1 
260 159 202 141 60 1 
260 159 203 142 60 1 
261 158 203 143 62 1 
261 159 203 140 62 1 
262 156 203 134 58 4 
262 157 203 139 61 0 
263 156 203 136 57 3 
263 157 203 139 59 2 
262 158 203 142 62 1 
262 159 203 140 58 3 
263 158 203 142 58 3 
263 159 203 139 58 2 
260 156 204 132 62 2 
261 156 204 131 60 3 
262 156 204 131 58 3 
263 156 204 133 58 3 
263 157 204 137 57 4 
264 146 207 127 112 100 
264 147 206 134 121 109 
264 147 207 134 118 106 
265 146 207 123 107 94 
265 147 206 130 114 103 
265 147 207 126 110 100 
267 145 207 113 109 105 
266 146 207 120 105 95 
266 147 206 121 106 98 
266 147 207 124 107 99 
267 146 207 118 107 99 
267 147 206 115 103 95 
264 149 205 127 117 108 
265 149 205 128 116 105 
264 148 206 135 122 111 
264 149 206 131 120 112 
265 148 206 133 119 106 
264 150 205 116 109 102 
264 151 205 110 103 97 
265 150 205 117 109 101 
265 151 204 112 104 98 
265 151 205 112 106 101 
266 149 205 117 102 88 
267 148 205 117 105 94 
267 149 205 123 109 96 
266 148 206 121 106 95 
267 148 206 115 104 94 
266 150 204 117 105 94 
266 150 205 116 103 89 
266 151 204 115 106 98 
267 150 204 123 109 98 
267 151 204 121 109 102 
268 145 207 112 109 105 
269 145 207 115 111 109 
268 146 207 118 110 103 
268 147 206 115 105 98 
269 146 207 121 115 110 
269 147 206 123 114 105 
270 145 207 120 113 111 
270 146 207 133 123 116 
270 147 206 133 124 116 
271 146 206 142 128 118 
271 146 207 133 121 112 
271 147 206 144 128 118 
268 148 205 126 112 100 
268 149 204 138 123 109 
268 149 205 132 118 105 
269 148 205 126 112 101 
269 149 204 139 124 110 
269 149 205 136 120 106 
268 148 206 117 105 94 
269 148 206 121 110 99 
268 150 204 136 121 110 
268 151 204 130 117 108 
269 150 204 139 125 114 
269 151 204 136 122 112 
270 148 205 128 114 104 
270 149 204 131 117 105 
270 149 205 133 116 103 
271 148 205 134 120 109 
271 149 204 125 111 100 
271 149 205 131 117 104 
270 150 204 132 119 109 
270 151 204 134 120 109 
271 150 204 119 107 97 
271 151 204 120 106 96 
264 152 204 108 95 87 
264 153 204 112 88 69 
265 152 204 113 101 92 
265 153 204 116 93 73 
264 154 204 122 79 51 
264 155 204 126 66 20 
265 154 204 123 85 55 
265 155 204 125 69 30 
266 152 204 122 111 102 
266 153 204 122 104 86 
267 152 204 126 114 106 
267 153 204 130 114 99 
266 154 204 126 95 66 
266 155 204 126 77 39 
267 154 204 128 104 81 
267 155 204 128 87 52 
264 158 203 139 57 3 
264 159 203 137 60 1 
265 158 203 136 60 0 
265 159 203 133 62 0 
266 159 203 130 64 1 
264 156 204 132 60 4 
264 157 204 136 55 5 
265 156 204 131 61 4 
265 157 204 135 62 1 
265 158 204 134 61 0 
265 159 204 133 62 0 
266 156 204 132 67 4 
266 157 204 134 64 0 
267 156 204 131 69 10 
267 157 204 133 62 1 
266 158 204 133 63 1 
266 159 204 131 63 2 
267 158 204 131 60 3 
267 159 204 129 61 2 
269 152 203 129 116 105 
269 153 203 129 116 104 
269 154 203 127 111 95 
270 152 203 128 115 103 
270 153 203 120 107 100 
271 152 203 119 106 97 
271 153 203 115 103 94 
270 154 203 118 103 93 
270 155 203 120 97 74 
271 154 203 111 97 88 
271 155 203 114 93 75 
268 152 204 130 117 107 
268 153 204 131 116 102 
269 152 204 132 118 108 
269 153 204 130 116 102 
268 154 204 127 108 90 
268 155 204 125 92 61 
269 154 204 129 112 95 
269 155 204 122 92 66 
270 152 204 133 119 107 
268 159 203 130 60 2 
269 158 203 132 55 4 
269 159 203 129 58 3 
270 156 203 119 76 39 
270 157 203 129 58 7 
271 156 203 118 82 48 
271 157 203 126 62 5 
270 158 203 131 56 4 
270 159 203 129 57 3 
271 158 203 132 62 2 
271 159 203 132 63 1 
268 156 204 128 69 16 
268 157 204 131 57 3 
269 156 204 124 70 26 
269 157 204 130 56 4 
268 158 204 131 58 3 
268 159 204 130 60 2 
269 158 204 132 55 4 
269 159 204 129 58 3 
270 156 204 123 65 20 
256 144 209 96 98 104 
256 145 208 108 102 99 
256 145 209 96 98 103 
257 144 209 100 96 100 
257 145 208 109 102 98 
257 145 209 100 97 101 
256 144 210 98 99 103 
256 144 211 103 102 103 
257 144 210 101 95 98 
258 144 209 104 97 100 
258 145 208 115 106 101 
259 144 209 109 101 102 
259 145 208 124 111 99 
259 145 209 114 105 102 
258 144 210 99 91 96 
259 144 210 104 99 102 
259 146 208 131 114 98 
260 144 209 111 105 104 
260 145 208 121 109 96 
260 145 209 112 104 104 
261 145 208 113 104 95 
261 145 209 103 99 98 
260 144 210 107 104 107 
261 144 210 99 100 106 
260 146 208 124 109 96 
261 146 208 114 104 95 
262 144 209 97 99 106 
262 145 208 114 107 100 
262 145 209 102 100 101 
263 144 209 103 102 108 
263 145 208 119 111 104 
263 145 209 108 105 106 
262 144 210 96 99 104 
263 144 210 100 98 104 
262 146 208 119 110 102 
263 146 208 126 115 105 
264 144 209 105 102 105 
264 145 208 112 106 102 
264 145 209 106 103 107 
265 144 209 105 101 101 
265 145 208 108 103 102 
265 145 209 108 105 107 
264 144 210 104 98 101 
265 144 210 102 94 97 
264 146 208 125 113 101 
266 144 209 104 99 97 
266 145 208 112 105 99 
267 144 209 101 94 91 
267 145 208 104 102 101 
266 144 210 102 92 91 
267 144 210 103 90 87 
268 144 209 99 89 85 
268 145 208 99 96 94 
269 144 209 108 90 89 
269 145 208 108 102 99 
270 144 209 116 90 89 
270 145 208 114 101 99 
271 144 208 116 98 91 
271 144 209 117 92 86 
271 145 208 118 104 96 
272 135 221 109 81 85 
273 135 220 109 81 83 
273 135 221 109 81 84 
272 134 223 110 82 85 
272 135 222 109 81 85 
272 135 223 109 81 85 
273 134 223 111 82 83 
273 135 222 110 82 84 
273 135 223 110 81 84 
274 135 220 110 82 83 
274 135 221 110 82 83 
275 135 220 111 83 83 
275 135 221 111 84 84 
274 134 223 111 82 83 
274 135 222 110 83 84 
275 134 222 111 84 84 
275 134 223 112 84 84 
275 135 222 111 84 84 
277 135 219 114 89 87 
278 135 219 115 91 88 
279 135 219 116 93 90 
276 135 220 112 86 85 
276 135 221 112 86 85 
277 135 220 114 88 87 
277 135 221 113 88 86 
276 134 222 113 87 85 
276 134 223 113 87 85 
276 135 222 112 86 85 
277 134 222 113 88 86 
277 134 223 114 88 86 
278 133 223 116 90 87 
279 133 223 117 93 88 
278 134 221 115 91 88 
278 135 220 115 91 88 
278 135 221 114 90 87 
279 134 221 117 93 89 
279 135 220 116 93 90 
279 135 221 116 93 89 
278 134 222 115 90 87 
278 134 223 115 90 87 
279 134 222 116 93 89 
279 134 223 117 93 88 
272 138 215 110 81 84 
272 139 214 111 81 84 
272 139 215 110 81 84 
273 138 215 111 81 84 
273 139 214 112 81 83 
273 139 215 112 81 83 
275 139 213 116 84 82 
274 138 215 113 82 83 
274 139 214 113 82 82 
275 138 215 114 84 83 
275 139 214 115 84 82 
272 141 211 118 79 81 
273 141 211 117 79 81 
272 143 209 118 88 81 
273 143 209 114 82 75 
272 142 211 123 79 82 
272 143 210 118 81 78 
273 142 211 119 79 80 
273 143 210 118 80 73 
274 141 211 117 81 80 
275 141 211 117 83 80 
274 143 209 112 83 74 
275 143 209 110 79 74 
274 142 211 117 81 79 
274 143 210 114 82 73 
275 142 210 116 83 76 
275 142 211 116 83 78 
275 143 210 115 83 74 
272 140 213 112 80 83 
272 141 212 115 79 82 
273 140 213 114 80 82 
273 141 212 116 79 81 
272 140 214 111 81 84 
273 140 214 113 81 83 
274 140 212 116 81 80 
274 140 213 115 81 81 
274 141 212 117 81 80 
275 140 212 117 83 80 
275 140 213 116 83 81 
275 141 212 117 83 80 
276 139 213 118 86 83 
277 139 213 119 89 85 
276 138 214 117 87 84 
276 138 215 116 87 85 
276 139 214 117 86 83 
277 138 214 118 89 86 
277 138 215 117 89 87 
277 139 214 118 89 85 
278 139 213 119 91 86 
279 139 213 121 94 89 
278 138 214 119 93 89 
278 138 215 118 91 88 
278 139 214 119 92 88 
279 138 214 120 95 91 
279 138 215 119 94 90 
279 139 214 121 95 91 
276 141 211 118 85 79 
277 141 211 119 88 82 
276 143 209 117 82 76 
277 143 209 119 87 79 
276 142 210 118 84 77 
276 142 211 118 84 78 
276 143 210 117 83 76 
277 142 210 119 88 81 
277 142 211 119 88 81 
277 143 210 119 87 80 
278 141 211 120 92 85 
279 141 211 121 95 88 
278 143 209 120 91 82 
279 143 209 120 95 86 
278 142 210 120 91 84 
278 142 211 120 92 85 
278 143 210 120 90 83 
279 142 210 121 95 88 
279 142 211 121 95 88 
276 140 212 117 85 81 
276 140 213 117 86 82 
276 141 212 118 85 81 
277 140 212 119 89 84 
277 140 213 119 89 84 
277 141 212 119 89 84 
278 140 212 120 91 86 
278 140 213 120 92 87 
279 140 212 121 95 89 
279 140 213 121 94 88 
272 137 217 110 81 85 
273 137 217 111 81 84 
272 136 218 109 81 86 
272 136 219 109 81 85 
272 137 218 109 81 85 
273 136 218 110 81 85 
273 136 219 110 81 84 
273 137 218 111 81 85 
272 138 216 110 81 84 
273 138 216 111 81 84 
274 137 217 112 82 84 
275 137 216 114 85 84 
275 137 217 113 84 84 
274 136 218 111 82 84 
274 136 219 110 81 83 
274 137 218 111 82 84 
275 136 218 112 84 84 
275 136 219 111 83 83 
275 137 218 113 84 84 
274 138 216 112 82 83 
275 138 216 113 83 83 
272 136 220 109 80 85 
273 136 220 109 81 84 
274 136 220 110 81 83 
275 136 220 111 82 83 
276 137 216 116 87 85 
276 137 217 114 86 85 
277 137 216 116 88 86 
277 137 217 115 88 86 
276 136 218 113 85 84 
276 136 219 113 86 85 
276 137 218 114 86 85 
277 136 218 114 87 86 
277 136 219 113 87 86 
277 137 218 115 87 86 
276 138 216 116 86 85 
277 138 216 117 89 86 
278 137 216 117 91 88 
278 137 217 116 91 88 
279 136 217 117 94 90 
279 137 216 118 93 89 
279 137 217 118 94 90 
278 136 218 115 90 88 
278 136 219 116 91 88 
279 136 218 117 93 90 
280 135 218 119 97 92 
280 135 219 118 96 91 
281 135 218 120 99 93 
281 135 219 119 98 92 
282 135 218 121 100 94 
282 135 219 120 100 93 
283 134 219 121 103 95 
283 135 218 122 103 96 
283 135 219 121 102 95 
280 133 223 118 95 89 
281 133 223 118 97 90 
280 134 220 118 96 91 
280 134 221 118 96 90 
280 135 220 117 95 91 
281 134 220 119 98 92 
281 134 221 119 97 91 
281 135 220 119 98 92 
280 134 222 118 95 90 
280 134 223 118 95 89 
281 134 222 118 97 90 
282 133 222 119 98 91 
282 133 223 119 98 91 
283 133 222 119 100 93 
283 133 223 119 100 92 
282 134 220 120 99 93 
282 134 221 119 99 92 
283 134 220 121 101 94 
283 134 221 120 100 93 
282 134 222 119 98 91 
283 134 222 119 99 92 
287 131 223 120 104 95 
285 135 217 126 108 99 
284 134 219 122 104 96 
284 135 218 124 105 97 
284 135 219 122 104 96 
285 134 218 124 107 98 
285 134 219 123 105 97 
285 135 218 124 107 98 
287 133 219 123 107 97 
286 135 216 128 111 101 
286 135 217 127 110 100 
287 135 216 128 111 101 
287 135 217 127 111 100 
286 134 218 125 108 98 
286 134 219 124 106 97 
286 135 218 126 109 99 
287 134 218 126 109 99 
287 134 219 124 107 98 
284 133 221 120 102 94 
285 133 220 121 104 96 
285 133 221 121 103 95 
284 132 223 120 102 93 
284 133 222 120 102 94 
284 133 223 120 101 93 
285 132 222 120 103 94 
285 132 223 120 103 94 
285 133 222 120 103 94 
284 134 220 121 103 95 
284 134 221 121 103 95 
285 134 220 122 104 96 
286 133 220 122 105 96 
286 133 221 121 104 95 
287 133 220 122 106 96 
287 133 221 121 105 95 
286 132 222 121 103 95 
286 132 223 120 103 95 
286 133 222 121 103 95 
287 132 222 121 104 95 
287 132 223 120 104 95 
287 133 222 121 104 95 
286 134 220 122 105 96 
280 137 215 121 97 92 
281 137 215 121 100 94 
280 139 213 123 100 94 
281 139 213 123 102 97 
280 138 214 121 99 94 
280 138 215 121 98 93 
280 139 214 122 99 94 
281 138 214 122 101 95 
281 138 215 122 100 95 
281 139 214 123 101 96 
282 137 215 123 102 96 
283 137 215 124 105 98 
282 139 213 124 104 99 
283 139 212 125 108 101 
283 139 213 125 106 100 
282 138 214 123 103 98 
282 138 215 123 103 97 
282 139 214 124 104 98 
283 138 214 125 106 100 
280 141 210 123 102 96 
280 141 211 122 99 93 
281 141 210 124 104 98 
281 141 211 124 103 97 
280 143 209 122 100 92 
281 143 209 123 105 98 
280 142 210 122 101 93 
280 142 211 122 98 91 
281 142 210 123 104 98 
282 140 211 125 107 100 
282 141 211 124 106 100 
283 140 211 126 109 103 
283 141 210 126 110 104 
283 141 211 126 109 103 
282 142 209 124 108 102 
282 143 209 124 108 103 
283 142 209 126 110 105 
283 143 208 125 113 109 
283 143 209 126 112 108 
282 142 210 124 107 101 
283 142 210 125 109 104 
280 140 212 122 98 93 
280 140 213 122 98 92 
281 140 212 124 103 97 
282 140 212 125 106 100 
283 140 212 126 108 101 
287 139 211 129 114 104 
284 137 214 127 109 101 
284 137 215 126 108 100 
285 136 215 127 110 101 
285 137 214 128 111 102 
285 137 215 127 109 101 
284 139 212 127 109 102 
284 139 213 127 109 102 
285 138 213 128 112 103 
285 139 212 128 112 103 
285 139 213 128 112 103 
284 138 214 127 109 101 
285 138 214 128 111 102 
286 136 215 128 111 102 
286 137 214 129 112 102 
286 137 215 129 112 102 
287 136 214 130 114 104 
287 136 215 129 113 103 
287 137 214 130 114 104 
286 138 213 129 113 103 
286 139 212 129 113 104 
286 139 213 129 112 103 
287 138 213 129 114 104 
287 139 212 129 114 104 
286 138 214 129 113 103 
287 138 214 129 113 103 
284 140 211 127 111 103 
284 141 210 126 111 105 
284 141 211 127 111 104 
285 140 211 128 112 104 
285 141 210 128 113 105 
285 141 211 128 112 104 
284 142 209 127 114 109 
284 143 208 127 117 114 
284 143 209 127 115 111 
285 142 209 128 114 107 
285 143 208 129 118 113 
285 143 209 128 115 109 
284 142 210 127 112 106 
285 142 210 127 113 106 
287 141 209 129 113 103 
286 140 211 129 113 104 
286 141 210 128 113 104 
287 140 211 129 114 104 
287 141 210 129 114 104 
286 142 209 128 114 105 
286 143 208 129 115 106 
286 143 209 128 115 106 
287 142 209 129 114 103 
287 143 208 129 114 104 
284 140 212 127 110 103 
280 136 217 118 96 92 
280 137 216 119 96 92 
280 137 217 119 96 92 
281 136 217 120 98 94 
281 137 216 121 99 94 
280 136 218 118 96 92 
281 136 218 120 99 93 
282 136 216 122 102 96 
282 136 217 122 101 95 
282 137 216 122 101 95 
283 136 216 123 104 97 
283 136 217 123 104 97 
283 137 216 124 105 98 
282 136 218 122 101 95 
283 136 218 123 103 96 
284 136 216 125 107 99 
284 136 217 125 106 98 
285 136 216 126 109 100 
285 136 217 126 108 99 
286 136 216 127 110 101 
287 136 216 128 112 102 
272 146 206 145 129 115 
272 146 207 135 123 111 
272 147 206 137 123 115 
273 146 206 138 124 112 
273 146 207 130 118 106 
273 147 206 128 119 112 
274 145 207 112 92 78 
275 145 207 113 90 82 
274 147 205 117 113 109 
275 147 205 116 112 109 
274 146 206 129 115 103 
274 146 207 118 105 93 
274 147 206 123 115 109 
275 146 206 120 108 98 
275 146 207 114 96 83 
275 147 206 118 112 108 
273 151 203 115 100 92 
274 151 203 126 111 97 
275 151 203 138 121 106 
272 148 205 125 112 104 
272 149 204 124 110 98 
272 149 205 128 113 100 
273 148 205 119 107 97 
273 149 204 122 107 97 
273 149 205 119 105 95 
272 150 204 115 102 94 
272 151 204 109 96 89 
273 150 204 121 106 97 
273 151 204 119 102 93 
274 148 205 117 104 94 
274 149 204 124 108 96 
275 148 205 117 109 102 
275 149 204 127 113 101 
274 150 204 130 113 101 
274 151 204 131 114 100 
275 150 204 138 120 105 
276 145 207 120 92 76 
277 145 207 126 95 72 
276 147 205 128 120 112 
277 147 205 136 125 115 
276 146 206 128 112 97 
276 146 207 126 102 84 
276 147 206 126 117 109 
277 146 206 135 113 95 
277 146 207 135 103 81 
277 147 206 135 123 112 
278 145 207 122 87 66 
279 145 207 121 89 73 
278 147 205 142 129 117 
279 147 205 139 123 109 
278 146 206 136 111 89 
278 146 207 130 93 73 
278 147 206 143 129 116 
279 146 206 125 98 77 
279 146 207 123 88 71 
276 151 203 136 121 108 
277 151 203 130 117 107 
278 150 203 127 115 106 
278 151 203 121 111 104 
279 150 203 118 106 98 
279 151 203 111 103 99 
276 148 205 129 117 107 
276 149 204 133 118 105 
277 148 204 131 119 111 
277 148 205 131 120 112 
277 149 204 132 118 107 
276 150 204 137 120 106 
277 150 204 135 120 106 
278 148 204 130 117 111 
278 148 205 137 123 113 
278 149 204 129 115 108 
279 148 204 132 117 106 
279 148 205 139 124 110 
279 149 204 124 110 102 
278 150 204 129 116 105 
279 150 204 120 107 99 
272 152 203 106 95 88 
272 153 203 105 94 87 
273 152 203 112 99 91 
273 153 203 109 98 91 
272 154 203 111 97 86 
272 155 203 115 97 80 
273 154 203 115 102 92 
273 155 203 123 106 90 
274 152 203 122 108 98 
274 153 203 119 107 97 
275 152 203 131 116 105 
275 153 203 126 114 103 
274 154 203 127 113 100 
274 155 203 132 115 100 
275 154 203 130 116 104 
275 155 202 133 117 103 
275 155 203 133 118 104 
272 156 203 119 88 57 
272 157 203 126 68 12 
273 156 203 125 100 72 
273 157 203 125 77 33 
272 158 203 132 63 2 
272 159 203 134 64 1 
273 158 203 130 66 2 
273 159 202 136 66 0 
273 159 203 134 65 0 
274 156 203 133 110 86 
274 157 202 127 89 56 
274 157 203 126 84 47 
275 156 202 132 113 93 
275 156 203 135 116 99 
275 157 202 128 95 64 
274 158 202 127 70 11 
274 158 203 126 68 13 
274 159 202 133 65 0 
275 158 202 126 73 24 
275 159 202 129 63 2 
276 152 203 132 118 107 
276 153 203 127 115 105 
277 152 203 128 116 106 
277 153 202 123 112 103 
277 153 203 125 113 103 
276 154 203 126 113 103 
276 155 202 128 115 102 
277 154 202 120 110 101 
277 155 202 120 108 99 
278 152 202 108 99 92 
278 152 203 116 106 100 
278 153 202 112 102 94 
278 153 203 116 106 98 
279 152 202 104 97 92 
279 152 203 106 100 95 
279 153 202 102 94 88 
278 154 202 106 98 91 
278 155 202 105 95 87 
279 154 202 98 90 85 
279 155 202 99 90 83 
276 156 202 129 112 94 
276 157 202 125 95 66 
277 156 202 116 100 85 
277 157 202 120 87 60 
276 158 202 124 73 27 
276 159 202 127 60 3 
277 158 202 121 68 24 
277 159 202 127 58 4 
278 156 202 105 90 76 
278 157 202 112 80 57 
279 156 202 107 93 80 
279 157 202 116 89 64 
279 158 201 124 75 37 
279 159 201 128 62 6 
278 158 202 120 64 25 
278 159 202 126 55 6 
279 159 202 125 57 6 
280 145 207 121 97 86 
281 145 207 121 104 96 
280 147 205 121 105 91 
281 147 205 116 104 93 
280 146 206 116 95 79 
280 146 207 121 94 80 
281 146 206 115 101 91 
281 146 207 119 101 92 
282 145 207 122 109 105 
283 145 207 123 112 109 
282 147 205 117 108 103 
283 147 205 121 112 108 
282 146 206 121 109 105 
282 146 207 121 109 105 
282 147 206 119 108 104 
283 146 206 121 109 107 
280 150 203 114 104 97 
280 151 203 111 103 96 
281 150 203 119 106 96 
281 151 203 119 107 98 
282 150 203 125 109 97 
282 151 202 131 116 104 
282 151 203 129 115 103 
283 150 203 130 115 103 
283 151 202 135 121 109 
283 151 203 135 119 109 
280 148 204 124 112 100 
280 148 205 125 111 96 
280 149 204 121 109 100 
281 148 204 119 107 97 
281 148 205 114 103 92 
281 149 204 116 105 97 
280 150 204 117 106 100 
282 148 204 117 106 97 
282 148 205 117 106 98 
282 149 204 118 105 94 
283 148 204 129 118 109 
283 148 205 122 112 104 
283 149 204 128 116 105 
284 145 207 124 113 109 
285 144 207 129 119 114 
285 145 207 129 118 111 
284 147 205 125 113 107 
285 147 205 126 109 98 
284 146 206 118 108 103 
285 146 206 124 109 99 
286 144 207 129 116 107 
286 145 207 129 115 106 
287 144 207 129 114 102 
287 145 206 126 110 96 
287 145 207 128 112 99 
286 146 205 126 106 87 
286 147 205 125 104 82 
287 146 205 125 105 86 
287 147 205 123 101 80 
286 146 206 128 112 97 
287 146 206 127 110 94 
284 149 203 129 120 113 
285 149 203 134 122 111 
284 150 202 124 113 106 
284 150 203 126 114 106 
284 151 202 127 115 105 
285 150 202 120 110 103 
285 150 203 123 112 104 
285 151 202 117 106 98 
286 149 203 132 115 101 
287 149 203 131 114 101 
286 150 202 123 109 98 
286 150 203 128 113 100 
286 151 202 117 104 96 
287 150 202 131 115 103 
287 150 203 131 114 102 
287 151 202 130 115 103 
284 148 204 137 126 118 
284 148 205 131 118 108 
284 149 204 133 123 115 
285 148 204 132 117 105 
285 149 204 136 123 111 
286 148 204 129 111 93 
286 149 204 133 114 99 
287 148 204 127 108 90 
287 149 204 130 112 98 
280 152 202 109 101 96 
280 152 203 106 99 95 
280 153 202 106 100 96 
281 152 202 121 109 99 
281 153 202 116 107 99 
280 154 202 100 93 87 
280 155 202 104 95 87 
281 154 202 113 103 95 
281 155 202 114 102 93 
282 152 202 129 115 104 
282 153 202 127 114 105 
283 152 202 132 117 107 
283 153 202 133 119 108 
282 155 201 124 111 103 
283 155 201 125 112 102 
282 154 202 125 113 102 
282 155 202 124 111 101 
283 154 202 132 118 106 
280 157 201 127 103 76 
281 156 201 125 109 95 
281 157 201 132 108 84 
280 156 202 117 104 91 
280 157 202 123 102 79 
281 156 202 120 107 97 
280 158 201 129 89 49 
280 159 201 131 75 18 
281 158 201 137 101 64 
281 159 201 133 84 36 
282 156 201 127 112 101 
282 157 201 133 111 90 
283 156 201 121 107 98 
283 157 201 124 104 86 
282 156 202 124 110 101 
282 158 201 135 102 72 
282 159 201 133 88 45 
283 158 201 129 100 70 
283 159 200 129 78 35 
283 159 201 130 88 48 
284 153 201 122 111 102 
285 153 201 112 102 93 
284 152 202 126 112 103 
284 153 202 128 116 106 
285 152 202 116 103 94 
285 153 202 113 102 94 
284 154 201 126 114 104 
284 155 201 115 103 96 
285 154 201 112 104 95 
285 155 201 103 94 87 
286 153 201 107 97 89 
287 152 201 125 112 101 
287 153 201 118 107 97 
286 152 202 112 99 91 
287 152 202 121 108 97 
286 154 201 104 96 89 
286 155 201 101 91 85 
287 154 201 116 104 95 
287 155 201 114 102 94 
284 156 201 107 96 90 
284 157 201 108 92 77 
285 156 201 97 87 81 
285 157 201 101 84 72 
284 158 201 118 89 61 
284 159 200 127 80 41 
285 158 200 112 83 57 
285 158 201 107 84 63 
285 159 200 125 76 39 
286 156 200 107 95 86 
286 156 201 99 89 82 
286 157 200 110 93 79 
287 156 200 121 108 96 
287 156 201 116 104 94 
287 157 200 127 110 94 
286 158 200 116 89 65 
286 159 200 126 82 49 
287 158 200 128 103 79 
287 159 200 131 93 58 
272 144 208 119 99 90 
272 144 209 121 93 85 
272 145 208 124 108 98 
273 144 208 117 97 86 
273 144 209 115 88 80 
273 145 208 121 108 96 
274 144 208 113 90 80 
274 144 209 112 86 77 
274 145 208 112 93 80 
275 144 208 111 84 81 
275 144 209 108 79 77 
275 145 208 113 88 83 
276 144 208 114 82 79 
276 144 209 116 82 78 
276 145 208 117 88 79 
277 144 208 119 87 75 
277 144 209 119 87 78 
277 145 208 119 87 68 
278 144 208 120 91 79 
278 145 208 119 86 70 
279 144 208 120 95 84 
279 145 208 120 91 78 
280 144 208 121 100 91 
280 145 208 120 98 87 
281 144 208 122 104 97 
282 144 208 123 109 103 
283 144 208 124 113 109 
284 144 208 128 119 117 
285 144 208 129 119 114 
286 144 208 129 116 107 
287 144 208 130 115 103 
256 133 227 102 99 110 
256 134 224 94 96 112 
256 134 225 97 97 111 
256 135 224 92 95 112 
257 134 224 93 95 112 
257 134 225 94 96 112 
257 135 224 91 94 113 
256 134 226 100 98 110 
256 134 227 101 99 110 
257 134 226 97 97 111 
257 134 227 99 98 110 
258 134 224 91 94 112 
258 134 225 92 94 112 
258 135 224 88 93 113 
259 134 224 89 93 113 
259 134 225 90 93 112 
259 135 224 87 92 113 
258 134 226 95 95 111 
258 134 227 97 97 111 
259 134 226 92 94 111 
259 134 227 95 95 111 
256 133 228 106 101 109 
256 133 229 110 102 108 
257 133 228 103 100 110 
257 133 229 107 102 109 
256 132 231 115 105 107 
256 133 230 112 104 107 
257 132 231 114 105 108 
257 133 230 111 103 108 
258 133 228 101 99 111 
258 133 229 106 101 110 
259 133 228 99 97 111 
259 133 229 103 100 111 
258 132 231 112 104 109 
258 133 230 109 102 109 
259 132 231 110 104 110 
259 133 230 107 102 110 
260 134 225 89 92 113 
260 135 224 86 91 113 
261 134 224 87 91 113 
261 134 225 89 92 112 
261 135 224 86 91 113 
260 134 226 91 93 112 
260 134 227 94 95 111 
261 134 226 90 92 112 
261 134 227 94 94 111 
263 133 227 97 94 109 
262 134 224 87 91 112 
262 134 225 89 91 112 
262 135 224 87 90 113 
263 134 224 89 90 111 
263 134 225 91 91 110 
263 135 224 88 89 111 
262 134 226 90 92 111 
262 134 227 95 94 111 
263 134 226 94 92 110 
263 134 227 96 93 110 
260 133 228 99 97 111 
260 133 229 103 100 111 
261 133 228 99 97 111 
261 133 229 103 99 111 
260 132 231 109 103 111 
260 133 230 106 101 111 
261 132 231 110 103 111 
261 133 230 106 101 111 
262 133 228 99 96 111 
262 133 229 103 99 111 
263 133 228 100 96 110 
263 133 229 104 98 110 
262 132 230 107 101 111 
262 132 231 110 103 111 
262 133 230 106 100 111 
263 132 230 108 100 110 
263 132 231 110 102 111 
263 133 230 106 99 110 
256 131 234 125 110 108 
256 131 235 129 113 109 
257 131 234 124 110 109 
257 131 235 128 113 110 
258 131 234 124 110 109 
258 131 235 128 113 110 
259 131 234 123 111 111 
259 131 235 127 113 111 
256 130 237 136 117 111 
256 131 236 132 115 110 
256 131 237 135 116 111 
257 130 237 137 118 112 
257 131 236 132 115 111 
257 131 237 136 117 112 
256 130 238 139 119 112 
256 130 239 141 121 113 
257 130 238 139 119 113 
257 130 239 141 121 114 
258 130 237 136 118 112 
258 131 236 132 115 111 
258 131 237 135 117 112 
259 130 237 135 118 113 
259 131 236 131 115 112 
259 131 237 134 117 113 
258 130 238 138 119 113 
258 130 239 140 120 114 
259 130 238 137 119 113 
259 130 239 140 121 114 
256 132 232 119 106 107 
256 132 233 122 109 107 
257 132 232 117 106 108 
257 132 233 121 108 108 
258 132 232 116 106 108 
258 132 233 120 108 109 
259 132 232 114 106 110 
259 132 233 120 109 110 
260 131 234 122 111 112 
260 131 235 126 113 112 
261 131 234 122 110 112 
261 131 235 125 113 113 
262 131 234 122 110 113 
262 131 235 125 112 114 
263 131 234 122 110 113 
263 131 235 125 112 113 
260 130 237 135 118 114 
260 131 236 130 115 113 
260 131 237 133 117 113 
261 130 237 132 117 115 
261 131 236 129 115 114 
260 130 238 137 119 114 
260 130 239 139 121 115 
261 130 238 136 119 115 
261 130 239 138 121 116 
262 130 237 132 117 115 
262 131 236 129 115 114 
262 131 237 132 117 115 
263 130 237 132 116 115 
263 131 236 128 114 114 
263 131 237 130 116 115 
262 130 238 135 119 116 
262 130 239 137 120 116 
263 130 238 134 118 116 
263 130 239 136 119 116 
260 132 232 114 106 111 
260 132 233 118 108 112 
261 132 232 114 106 112 
261 132 233 118 108 112 
262 132 232 114 105 111 
262 132 233 118 108 112 
263 132 232 114 105 111 
263 132 233 118 108 112 
265 133 227 101 94 107 
264 134 224 93 90 109 
264 134 225 93 91 108 
264 135 224 91 89 109 
265 134 224 94 90 107 
265 134 225 96 90 107 
265 135 224 93 89 108 
264 134 226 96 92 108 
264 134 227 98 93 108 
265 134 226 98 92 106 
265 134 227 100 93 106 
267 133 227 105 93 102 
266 134 224 96 89 104 
266 134 225 97 90 105 
266 135 224 95 89 105 
267 134 224 98 88 101 
267 134 225 100 89 101 
266 134 226 99 92 104 
266 134 227 102 93 105 
267 134 226 102 91 102 
267 134 227 103 92 102 
264 133 228 101 95 109 
264 133 229 105 98 109 
265 133 228 103 95 107 
265 133 229 106 98 108 
264 132 230 109 100 110 
264 132 231 111 102 110 
264 133 230 107 99 110 
265 132 230 110 100 109 
265 132 231 112 102 109 
265 133 230 108 99 108 
266 133 228 104 95 106 
266 133 229 107 97 106 
267 133 228 106 95 103 
267 133 229 109 97 104 
266 132 230 112 101 108 
266 132 231 113 102 109 
266 133 230 109 99 107 
267 132 230 113 100 106 
267 132 231 115 102 107 
267 133 230 112 99 105 
268 133 227 107 93 100 
269 133 227 107 91 98 
268 134 224 101 87 98 
268 134 225 102 88 98 
269 134 224 103 87 95 
269 134 225 104 88 96 
268 134 226 104 90 99 
268 134 227 106 92 100 
269 134 226 106 90 97 
270 133 227 109 91 95 
271 133 226 111 88 90 
271 133 227 112 90 92 
270 134 224 106 85 91 
270 134 225 107 87 93 
271 134 224 109 84 88 
271 134 225 109 85 89 
270 134 226 108 89 94 
271 134 226 110 88 91 
268 133 228 108 94 101 
268 133 229 111 98 103 
269 133 228 109 94 100 
269 133 229 113 98 101 
268 132 230 114 100 104 
268 132 231 116 102 105 
269 132 230 115 100 103 
269 132 231 118 102 104 
270 132 229 115 98 101 
270 133 228 112 94 98 
270 133 229 114 97 100 
271 132 229 118 97 96 
271 133 228 115 94 94 
271 133 229 115 96 98 
270 132 230 117 100 101 
270 132 231 119 102 102 
271 132 230 120 100 98 
271 132 231 122 102 100 
264 131 233 121 109 112 
265 131 233 121 108 111 
264 131 234 122 109 112 
264 131 235 125 111 113 
265 131 234 122 109 112 
265 131 235 125 110 112 
266 131 233 122 108 111 
267 131 233 121 107 108 
266 131 234 123 108 111 
266 131 235 125 110 112 
267 131 234 123 108 110 
267 131 235 125 110 111 
264 130 237 131 115 114 
264 131 236 128 113 114 
265 130 236 128 113 113 
265 130 237 130 114 114 
265 131 236 127 112 113 
264 130 238 133 117 116 
264 130 239 135 119 116 
265 130 238 132 116 115 
265 130 239 134 118 116 
267 129 239 134 117 116 
266 130 236 128 113 113 
266 130 237 130 114 114 
266 131 236 127 112 113 
267 130 236 129 112 112 
267 130 237 130 114 113 
267 131 236 127 111 112 
266 130 238 132 116 115 
266 130 239 133 117 116 
267 130 238 132 115 114 
267 130 239 134 117 116 
264 132 232 115 105 111 
264 132 233 119 108 112 
265 132 232 116 104 110 
265 132 233 120 107 111 
266 132 232 118 105 109 
266 132 233 120 107 110 
267 132 232 118 105 108 
267 132 233 121 106 109 
268 131 233 122 106 108 
269 131 232 122 105 105 
269 131 233 124 107 106 
268 131 234 125 108 108 
268 131 235 127 110 110 
269 131 234 126 109 108 
269 131 235 128 110 109 
270 131 232 124 105 104 
270 131 233 125 107 105 
271 131 232 125 104 101 
271 131 233 126 106 103 
270 131 234 127 109 107 
270 131 235 129 111 108 
271 130 235 132 111 107 
271 131 234 129 108 105 
271 131 235 130 110 107 
269 129 239 136 119 118 
268 130 236 130 113 112 
268 130 237 131 114 113 
268 131 236 129 111 111 
269 130 236 130 112 111 
269 130 237 132 115 113 
268 130 238 133 115 114 
268 130 239 134 117 116 
269 130 238 133 116 115 
269 130 239 135 118 118 
270 129 239 137 120 118 
271 129 239 137 120 119 
270 130 236 131 112 110 
270 130 237 133 115 113 
271 130 236 132 113 110 
271 130 237 134 116 114 
270 130 238 135 117 116 
270 130 239 136 119 117 
271 130 238 136 118 116 
271 130 239 137 119 118 
268 132 232 119 104 106 
269 132 232 120 104 105 
270 132 232 121 104 103 
271 132 232 123 103 101 
256 129 240 144 123 115 
256 129 241 146 124 115 
257 129 240 144 122 114 
257 129 241 146 123 115 
256 129 242 148 126 116 
256 129 243 149 126 117 
257 129 242 149 125 116 
257 129 243 150 126 117 
256 130 240 143 122 114 
257 130 240 143 122 114 
258 129 240 143 122 115 
258 129 241 145 124 115 
259 129 241 145 124 116 
258 129 242 148 125 116 
258 129 243 150 126 117 
259 129 242 148 125 116 
259 129 243 151 126 116 
258 130 240 142 121 114 
259 130 240 142 122 115 
259 130 241 144 123 116 
256 128 244 152 128 117 
256 128 245 153 128 118 
256 129 244 151 127 117 
257 128 244 154 128 117 
257 128 245 154 128 117 
257 129 244 152 127 117 
256 128 246 154 129 119 
257 128 246 156 128 117 
257 128 247 158 130 120 
258 128 244 153 128 117 
258 128 245 155 128 116 
258 129 244 152 127 116 
259 128 244 154 127 116 
259 128 245 154 127 116 
259 129 244 153 126 116 
259 129 245 154 127 116 
258 128 246 157 128 115 
258 128 247 159 130 117 
259 128 246 156 128 117 
259 128 247 158 130 118 
260 129 240 143 123 115 
260 129 241 145 124 116 
261 129 240 143 123 116 
261 129 241 144 123 117 
260 129 242 146 125 117 
260 129 243 149 125 116 
261 129 242 146 124 117 
261 129 243 148 125 117 
260 130 240 142 122 115 
261 130 240 141 122 116 
262 129 240 141 122 117 
262 129 241 143 123 117 
263 129 240 139 121 117 
263 129 241 141 122 117 
262 129 242 145 124 117 
262 129 243 146 125 117 
263 129 242 143 123 118 
263 129 243 145 124 118 
262 130 240 140 122 116 
263 130 240 138 121 117 
260 128 245 154 127 117 
260 129 244 151 126 116 
260 129 245 154 127 117 
261 129 244 149 126 118 
261 129 245 152 127 118 
260 128 246 155 128 117 
260 128 247 157 129 119 
261 128 246 155 128 118 
261 128 247 156 129 120 
261 129 246 153 127 118 
262 128 244 150 126 118 
262 128 245 151 126 118 
262 129 244 149 125 118 
263 128 244 149 125 119 
263 128 245 151 126 119 
263 129 244 148 125 119 
262 128 246 154 128 119 
262 128 247 156 129 121 
263 128 246 153 128 120 
263 128 247 155 129 121 
260 128 248 158 130 119 
260 128 249 159 131 121 
261 128 248 157 130 121 
261 128 249 159 131 122 
261 128 250 159 130 122 
262 128 248 157 130 121 
262 128 249 158 130 122 
263 128 248 157 130 122 
263 128 249 158 130 122 
262 128 250 159 130 122 
263 128 250 159 130 122 
264 129 240 138 121 117 
264 129 241 139 121 118 
265 129 240 136 120 117 
265 129 241 138 121 118 
264 129 242 142 122 118 
264 129 243 144 124 119 
265 129 242 140 122 119 
265 129 243 144 124 119 
264 130 240 136 120 117 
266 129 240 136 119 118 
266 129 241 137 120 119 
267 129 240 135 119 118 
267 129 241 137 120 119 
266 128 243 145 126 122 
266 129 242 139 122 119 
266 129 243 142 124 121 
267 128 243 144 126 123 
267 129 242 139 122 121 
267 129 243 142 125 123 
264 128 244 148 126 120 
264 128 245 151 127 121 
264 129 244 146 124 119 
265 128 244 148 126 121 
265 128 245 152 127 122 
264 128 246 153 128 121 
264 128 247 156 129 122 
265 128 246 154 128 122 
265 128 247 155 129 122 
266 128 244 148 126 122 
266 128 245 152 127 123 
267 128 244 148 126 123 
267 128 245 151 127 124 
266 128 246 154 128 123 
266 128 247 155 128 123 
267 128 246 153 128 123 
267 128 247 156 128 123 
268 129 240 136 120 119 
268 129 241 139 122 121 
269 129 240 137 120 120 
269 129 241 141 123 121 
268 128 243 145 126 123 
268 129 242 141 124 122 
268 129 243 143 125 123 
269 128 243 146 126 124 
269 129 242 143 125 124 
270 129 240 138 121 120 
270 129 241 141 124 123 
271 129 240 140 121 120 
271 129 241 143 123 122 
270 128 242 145 125 124 
270 128 243 146 126 125 
270 129 242 143 125 124 
271 128 242 145 125 124 
271 128 243 146 125 125 
271 129 242 145 124 123 
268 128 244 148 126 124 
269 128 244 149 127 125 
270 128 244 150 127 125 
271 128 244 148 126 125 
271 128 245 150 126 125 
264 128 248 157 129 122 
264 128 249 158 129 122 
265 128 248 156 129 122 
265 128 249 158 128 121 
264 128 250 159 128 120 
266 128 248 156 128 122 
266 128 249 158 128 121 
273 131 231 126 101 95 
274 131 231 127 101 94 
275 131 230 127 98 90 
275 131 231 128 100 92 
273 133 225 113 85 86 
272 133 226 112 87 88 
272 133 227 115 90 90 
273 133 226 114 87 87 
273 133 227 117 90 88 
272 134 224 110 83 86 
272 134 225 111 85 87 
273 134 224 111 83 84 
273 134 225 112 84 85 
274 133 225 113 85 84 
275 133 224 113 85 84 
275 133 225 114 85 84 
274 133 226 115 87 85 
274 133 227 118 90 87 
275 132 227 122 93 87 
275 133 226 116 87 85 
275 133 227 119 90 86 
274 134 224 112 83 83 
274 134 225 112 84 84 
275 134 224 113 84 84 
272 132 228 120 95 92 
272 132 229 121 97 94 
272 133 228 117 93 91 
273 132 228 121 95 91 
273 132 229 122 97 92 
273 133 228 119 93 89 
272 132 230 123 99 95 
272 132 231 124 101 97 
273 132 230 124 99 93 
273 132 231 124 100 95 
274 132 228 121 94 89 
274 132 229 123 96 91 
275 132 228 122 94 88 
275 132 229 124 96 89 
274 132 230 124 98 92 
274 132 231 126 100 93 
275 132 230 126 97 90 
276 131 230 128 99 90 
276 131 231 129 100 91 
277 131 230 128 99 90 
277 131 231 130 101 92 
278 131 229 127 99 91 
279 131 228 125 100 92 
279 131 229 126 101 92 
278 131 230 128 100 91 
278 131 231 130 102 93 
279 130 231 132 105 96 
279 131 230 129 102 93 
279 131 231 131 103 94 
276 133 224 114 87 85 
276 133 225 115 87 85 
277 133 224 115 89 86 
277 133 225 117 90 86 
276 132 227 122 92 87 
276 133 226 117 88 85 
276 133 227 120 91 86 
277 132 227 122 94 87 
277 133 226 119 91 86 
277 133 227 121 92 87 
276 134 224 114 87 85 
278 133 224 116 91 87 
278 133 225 117 91 87 
279 132 225 119 94 88 
279 133 224 117 93 88 
279 133 225 118 93 88 
278 132 226 120 93 87 
278 132 227 122 95 88 
278 133 226 119 92 87 
279 132 226 120 95 89 
279 132 227 122 97 90 
276 132 228 124 95 88 
276 132 229 126 96 89 
277 132 228 125 96 88 
277 132 229 126 97 89 
276 132 230 127 98 89 
278 132 228 124 96 89 
278 132 229 126 98 90 
279 132 228 124 98 91 
272 131 232 126 103 99 
272 131 233 128 106 101 
273 131 232 127 103 97 
273 131 233 129 106 100 
272 130 235 132 111 106 
272 131 234 130 108 103 
272 131 235 131 110 106 
273 130 235 133 110 105 
273 131 234 131 108 102 
274 131 232 128 102 96 
274 131 233 131 106 99 
275 131 232 130 102 94 
275 131 233 132 105 97 
274 130 234 133 109 101 
274 130 235 134 111 104 
274 131 234 132 108 101 
275 130 234 134 108 101 
275 130 235 135 110 103 
275 131 234 133 107 100 
272 129 239 138 120 118 
273 129 238 138 118 114 
273 129 239 140 119 116 
272 130 236 133 113 109 
272 130 237 135 115 112 
273 130 236 135 113 108 
273 130 237 136 115 111 
272 130 238 137 118 116 
273 130 238 137 117 114 
274 129 238 139 118 114 
274 129 239 141 118 115 
275 129 238 140 116 111 
275 129 239 143 117 112 
274 130 236 135 113 107 
274 130 237 137 115 110 
275 130 236 136 112 106 
275 130 237 138 114 109 
274 130 238 138 116 113 
276 130 233 134 106 97 
276 131 232 131 102 93 
276 131 233 133 105 96 
277 130 233 134 106 97 
277 131 232 132 103 94 
276 130 234 135 108 99 
276 130 235 136 109 102 
277 130 234 136 108 99 
277 130 235 138 110 101 
279 129 235 140 111 103 
278 130 232 134 105 95 
278 130 233 136 107 97 
278 131 232 132 104 95 
279 130 232 134 105 96 
279 130 233 136 107 98 
278 130 234 138 109 99 
278 130 235 139 110 101 
279 130 234 138 109 100 
279 130 235 140 110 102 
276 129 237 141 114 107 
277 129 237 142 113 105 
276 129 238 143 115 108 
276 129 239 145 116 109 
277 129 238 144 114 106 
277 129 239 146 115 107 
276 130 236 137 111 104 
276 130 237 139 113 106 
277 130 236 140 111 103 
277 130 237 141 112 104 
278 129 236 142 112 103 
278 129 237 144 113 104 
279 129 236 143 112 103 
279 129 237 146 113 104 
278 129 238 146 114 105 
278 129 239 148 115 106 
279 128 239 151 114 105 
279 129 238 149 113 105 
279 129 239 150 114 105 
278 130 236 141 111 102 
279 130 236 141 111 102 
281 131 227 124 101 93 
282 131 226 122 101 93 
282 131 227 123 101 93 
283 131 226 122 102 94 
283 131 227 123 103 94 
280 131 228 125 101 93 
280 131 229 127 102 93 
281 131 228 125 102 93 
281 131 229 127 103 95 
280 130 231 132 106 97 
280 131 230 129 104 95 
280 131 231 130 104 95 
281 130 230 128 104 96 
281 130 231 130 106 97 
281 131 230 128 104 96 
282 131 228 125 103 94 
282 131 229 126 104 96 
283 130 229 125 104 96 
283 131 228 124 103 95 
283 131 229 125 104 96 
282 130 230 127 105 97 
282 130 231 129 106 98 
282 131 230 127 104 96 
283 130 230 126 105 97 
283 130 231 128 106 99 
280 132 225 119 96 90 
280 133 224 118 96 89 
280 133 225 118 95 89 
281 132 225 119 97 91 
281 133 224 118 97 90 
280 132 226 121 98 91 
280 132 227 123 100 92 
281 132 226 121 99 92 
281 132 227 123 100 92 
282 132 224 119 98 91 
282 132 225 120 99 92 
282 133 224 119 98 91 
283 132 224 119 100 92 
283 132 225 120 101 93 
283 133 224 119 99 92 
282 132 226 121 100 92 
283 132 226 121 102 93 
285 131 225 121 103 95 
284 131 226 122 103 95 
284 131 227 123 103 95 
285 130 227 122 103 95 
285 131 226 121 103 95 
285 131 227 122 103 95 
286 131 224 120 103 95 
286 131 225 120 103 95 
287 131 224 120 103 95 
287 131 225 120 103 95 
286 130 227 121 103 95 
286 131 226 121 103 95 
286 131 227 121 103 95 
287 130 226 120 103 95 
287 130 227 120 103 95 
287 131 226 120 103 95 
285 129 231 125 107 102 
284 130 228 124 104 96 
284 130 229 124 105 97 
284 131 228 123 103 95 
285 130 228 122 104 96 
285 130 229 123 105 97 
284 130 230 125 105 99 
284 130 231 127 107 100 
285 130 230 124 106 99 
285 130 231 125 106 100 
286 129 231 124 107 101 
287 129 230 122 106 100 
287 129 231 123 106 101 
286 130 228 122 104 97 
286 130 229 122 104 98 
287 130 228 121 104 96 
287 130 229 121 104 98 
286 130 230 123 106 100 
287 130 230 121 105 99 
284 132 224 120 102 94 
284 132 225 121 102 94 
285 132 224 120 103 94 
285 132 225 121 103 95 
286 132 224 120 103 95 
287 132 224 120 103 95 
280 129 235 140 111 103 
281 129 234 136 110 103 
281 129 235 139 111 104 
280 130 232 133 107 98 
280 130 233 135 108 100 
281 130 232 132 107 99 
281 130 233 134 108 101 
280 130 234 137 110 102 
281 130 234 136 109 102 
282 129 233 133 109 103 
283 129 232 129 108 103 
283 129 233 131 109 104 
282 129 234 135 110 104 
282 129 235 137 111 105 
283 129 234 133 110 105 
283 129 235 135 111 106 
282 130 232 131 107 100 
282 130 233 133 108 102 
283 130 232 129 107 101 
283 130 233 131 108 102 
280 129 236 143 112 104 
280 129 237 146 113 105 
281 129 236 142 112 105 
281 129 237 144 112 105 
280 128 238 149 113 105 
280 128 239 150 113 105 
280 129 238 148 113 105 
281 128 238 147 113 105 
281 128 239 150 113 105 
281 129 238 147 113 105 
282 128 237 144 112 106 
282 129 236 140 112 106 
282 129 237 143 112 105 
283 128 236 139 111 106 
283 128 237 142 112 105 
283 129 236 138 111 106 
282 128 238 146 112 105 
282 128 239 149 112 105 
283 128 238 145 112 105 
283 128 239 147 112 105 
284 129 232 127 108 103 
284 129 233 130 109 104 
285 129 232 127 108 103 
285 129 233 129 109 104 
284 129 234 131 110 105 
284 129 235 134 110 105 
285 128 235 132 110 106 
285 129 234 130 110 105 
285 129 235 133 110 105 
284 130 232 127 108 102 
286 129 232 126 108 103 
286 129 233 128 109 104 
287 128 233 126 108 103 
287 129 232 124 107 102 
287 129 233 126 108 103 
286 128 235 132 110 105 
286 129 234 129 109 105 
286 129 235 131 110 105 
287 128 234 128 109 104 
287 128 235 131 109 104 
287 129 234 128 109 104 
284 128 236 138 111 105 
284 128 237 140 111 105 
284 129 236 136 111 106 
285 128 236 136 111 105 
285 128 237 139 111 105 
284 128 238 143 111 105 
284 128 239 145 111 105 
285 128 238 141 111 105 
285 128 239 144 111 104 
286 128 236 136 110 105 
286 128 237 138 110 104 
287 128 236 134 109 104 
287 128 237 137 110 104 
286 128 238 141 111 104 
286 128 239 143 110 103 
287 128 238 140 110 104 
272 129 240 141 121 119 
272 129 241 143 123 121 
273 129 240 141 121 118 
273 129 241 143 122 120 
272 128 242 144 124 123 
272 128 243 145 124 124 
272 129 242 144 124 122 
273 128 242 143 123 122 
273 128 243 145 124 123 
274 128 241 144 121 119 
274 129 240 142 120 117 
274 129 241 143 121 119 
275 128 241 148 119 114 
275 129 240 146 118 113 
275 129 241 145 120 117 
274 128 242 145 122 120 
274 128 243 145 123 122 
275 128 242 148 120 116 
275 128 243 150 120 117 
272 128 244 147 125 124 
273 128 244 147 124 124 
273 128 245 149 125 123 
274 128 244 148 123 121 
275 128 244 152 120 116 
276 128 240 149 118 111 
276 128 241 150 118 112 
276 129 240 148 117 110 
277 128 240 149 116 109 
277 128 241 151 117 110 
277 129 240 148 116 109 
276 128 242 151 118 113 
276 128 243 154 118 112 
277 128 242 153 117 110 
277 128 243 155 117 110 
278 128 240 151 115 107 
278 128 241 153 116 108 
278 129 240 149 115 107 
279 128 240 152 114 106 
279 128 241 155 114 106 
278 128 242 155 116 108 
278 128 243 156 116 108 
279 128 242 156 114 105 
279 128 243 158 114 106 
277 128 244 156 116 109 
280 128 240 153 113 105 
280 128 241 155 113 105 
281 128 240 152 113 105 
281 128 241 155 112 103 
280 128 242 156 113 104 
281 128 242 156 113 103 
282 128 240 152 112 104 
282 128 241 154 112 103 
283 128 240 150 112 103 
283 128 241 153 111 102 
284 128 240 148 111 103 
285 128 240 147 111 103 
256 160 203 138 59 3 
256 161 202 137 57 2 
256 161 203 136 59 1 
257 160 202 138 59 4 
257 161 202 134 55 4 
257 163 201 130 59 14 
256 162 202 138 58 4 
256 163 202 133 62 15 
257 162 202 135 54 5 
257 163 202 131 59 12 
258 160 202 137 63 0 
258 161 202 134 59 1 
259 160 202 136 63 0 
259 161 202 133 60 0 
258 163 201 129 58 11 
259 163 201 133 62 9 
258 162 202 134 56 4 
258 163 202 131 57 8 
259 162 202 134 55 4 
259 163 202 133 59 7 
256 164 201 122 72 33 
256 165 201 117 92 75 
257 164 201 122 66 23 
257 165 201 117 88 65 
256 164 202 126 66 21 
256 166 201 118 117 118 
256 167 201 121 124 129 
257 166 201 118 116 118 
257 167 201 121 125 132 
258 164 201 125 65 18 
258 165 201 119 82 47 
259 164 201 129 66 14 
259 165 201 121 77 34 
258 166 201 116 110 107 
258 167 201 119 124 132 
259 166 201 117 103 93 
259 167 201 117 121 127 
260 160 202 136 64 0 
260 161 202 133 60 1 
261 160 202 135 63 0 
261 160 203 135 62 1 
261 161 202 132 59 2 
261 161 203 132 60 1 
260 163 201 134 61 7 
260 162 202 134 53 4 
260 163 202 134 57 5 
261 162 202 134 53 5 
261 163 202 133 53 5 
262 160 203 135 58 2 
262 161 202 133 58 2 
262 161 203 132 57 2 
263 160 203 135 61 0 
263 161 202 132 59 2 
263 161 203 133 61 0 
262 162 202 134 57 2 
262 163 202 135 55 3 
263 162 202 133 60 2 
263 163 202 134 59 3 
260 164 201 130 62 11 
