ply
format ascii 1.0
comment Created by CloudCompare v2.10.1 (Zephyrus)
comment Created 2/3/20 11:52 AM
obj_info Generated by CloudCompare!
element vertex 2030
property float x
property float y
property float z
property uchar red
property uchar green
property uchar blue
end_header
74 493 299 81 108 137 
74 494 299 69 93 126 
74 495 299 79 98 125 
75 495 299 85 102 126 
74 492 300 115 137 160 
74 492 301 102 129 155 
74 493 300 99 124 151 
74 493 301 87 115 143 
74 492 302 90 119 148 
74 493 302 101 121 143 
74 493 303 123 133 148 
75 492 303 104 127 152 
75 493 303 138 143 154 
74 494 300 78 107 134 
74 494 301 91 114 138 
74 495 300 85 107 129 
74 495 301 133 140 151 
74 494 302 129 137 149 
74 494 303 155 150 151 
74 495 302 161 152 150 
74 495 303 161 146 134 
75 494 303 157 152 152 
75 495 303 164 144 128 
75 483 304 140 153 171 
75 483 305 120 141 165 
75 483 306 105 131 158 
75 483 307 118 140 165 
75 482 309 101 129 159 
75 483 308 117 140 166 
75 484 304 115 138 162 
75 484 305 117 141 168 
75 485 304 109 135 162 
75 485 305 109 136 163 
75 484 306 114 141 169 
75 484 307 103 132 161 
75 485 306 116 143 171 
75 485 307 115 142 169 
75 486 304 121 144 168 
75 486 305 124 146 170 
75 487 304 122 145 170 
75 487 305 107 135 163 
75 486 306 117 142 169 
75 486 307 111 140 169 
75 487 306 96 128 159 
75 487 307 105 134 166 
75 487 308 102 130 163 
76 483 308 110 136 164 
76 483 309 90 124 155 
76 482 310 94 125 159 
76 482 311 95 125 156 
76 483 310 87 122 154 
76 483 311 91 126 158 
76 484 308 99 131 160 
76 484 309 102 131 161 
76 485 308 117 143 170 
76 485 309 120 145 171 
76 484 310 105 134 164 
76 484 311 90 126 160 
76 485 310 85 120 155 
76 485 311 82 117 153 
76 486 308 119 144 172 
76 486 309 105 132 162 
76 487 308 99 126 159 
76 487 309 99 122 148 
76 486 310 69 96 131 
76 486 311 107 116 133 
76 487 310 143 144 150 
76 487 311 177 161 148 
76 482 312 80 113 145 
76 483 312 94 128 159 
76 483 313 103 133 162 
77 482 313 99 126 154 
77 483 313 107 136 164 
77 482 314 110 137 165 
77 482 315 104 135 165 
77 483 314 109 137 165 
77 483 315 102 133 164 
77 481 316 89 126 160 
77 481 317 65 113 154 
77 482 316 85 123 160 
77 482 317 60 105 153 
77 483 316 84 123 161 
77 483 317 71 115 159 
77 483 318 63 115 159 
78 481 317 61 110 154 
78 481 318 64 113 157 
78 481 319 67 118 159 
78 482 317 56 102 151 
78 482 318 65 109 155 
78 482 319 74 118 160 
78 483 318 69 117 159 
78 483 319 74 122 161 
76 484 312 96 131 164 
76 484 313 103 136 167 
76 485 312 107 134 161 
76 485 313 116 140 165 
77 484 313 105 136 167 
77 485 313 116 140 166 
77 484 314 102 135 167 
77 484 315 78 119 162 
77 485 314 102 131 161 
77 485 315 65 105 148 
76 486 312 157 153 153 
76 486 313 161 157 158 
76 487 312 193 167 142 
76 487 313 195 168 141 
77 486 314 141 138 141 
77 486 315 128 128 133 
77 487 314 189 161 132 
77 487 315 189 161 132 
77 484 316 49 103 156 
77 484 317 47 107 159 
77 485 316 50 98 147 
77 485 317 60 107 150 
77 484 318 51 112 160 
77 485 318 78 116 150 
77 486 316 129 130 136 
77 486 317 125 125 128 
77 487 316 192 164 137 
77 487 317 188 159 129 
77 486 318 140 136 135 
77 487 318 188 158 126 
78 484 318 57 115 161 
78 484 319 68 123 165 
78 485 318 92 123 152 
78 485 319 109 133 156 
78 486 318 164 154 150 
78 486 319 171 159 152 
78 487 318 190 161 129 
78 487 319 183 152 117 
75 488 304 109 135 162 
75 488 305 96 127 157 
75 489 304 105 132 158 
75 489 305 115 140 166 
75 488 306 114 141 171 
75 488 307 107 136 167 
75 489 306 96 128 158 
75 489 307 101 129 157 
75 490 304 94 126 154 
75 490 305 73 109 141 
75 491 304 89 121 151 
75 491 305 99 121 144 
75 490 306 61 94 123 
75 490 307 114 124 138 
75 491 306 130 133 142 
75 491 307 168 155 149 
75 488 308 96 127 157 
75 489 308 127 140 158 
75 490 308 161 155 156 
75 491 308 181 163 149 
75 491 309 184 163 146 
75 492 304 123 138 157 
75 492 305 145 148 157 
75 493 304 152 150 154 
75 493 305 162 151 145 
75 492 306 165 155 150 
75 492 307 175 154 135 
75 493 306 175 156 138 
75 493 307 183 158 133 
75 494 304 165 151 142 
75 494 305 173 151 132 
75 495 304 166 142 118 
75 495 305 179 154 128 
75 494 306 183 158 134 
75 494 307 189 163 137 
75 495 306 186 161 138 
75 495 307 180 156 134 
75 492 308 180 155 131 
75 492 309 177 151 126 
75 493 308 184 157 129 
75 493 309 180 153 124 
75 494 308 189 162 135 
75 494 309 188 161 133 
75 495 308 163 135 109 
75 495 309 169 139 109 
76 488 308 100 126 152 
76 488 309 123 136 152 
76 489 308 128 141 158 
76 489 309 164 159 161 
76 488 310 166 156 152 
76 488 311 182 156 130 
76 489 310 181 163 149 
76 489 311 186 159 133 
76 490 309 184 169 159 
76 491 309 185 161 139 
76 490 310 193 170 151 
76 490 311 191 166 143 
76 491 310 188 163 139 
76 491 311 189 165 144 
76 492 309 174 146 118 
76 492 310 177 151 124 
76 492 311 186 163 142 
76 493 310 183 157 131 
76 493 311 181 157 135 
76 495 309 179 150 120 
76 494 310 186 159 132 
76 494 311 170 144 118 
76 495 310 191 164 137 
76 495 311 189 163 138 
76 488 312 195 166 136 
76 488 313 199 168 137 
76 489 312 192 164 136 
76 489 313 192 164 136 
77 488 314 196 165 133 
77 488 315 193 160 126 
77 489 314 192 162 131 
77 489 315 191 160 125 
76 490 312 189 164 141 
76 490 313 185 158 132 
76 491 312 186 163 142 
76 491 313 180 155 131 
77 491 313 183 159 137 
77 490 314 187 158 127 
77 490 315 193 164 133 
77 491 314 186 160 135 
77 491 315 188 163 138 
77 488 316 197 164 130 
77 488 317 201 169 134 
77 489 316 195 164 131 
77 489 317 197 165 133 
77 488 318 199 167 132 
77 489 318 197 165 131 
77 490 316 193 164 135 
77 490 317 187 158 127 
77 491 316 183 157 132 
77 491 317 176 148 119 
77 490 318 188 160 130 
77 491 318 182 158 130 
78 488 318 194 162 125 
78 488 319 187 156 119 
78 489 318 197 168 135 
78 489 319 193 166 134 
78 490 318 190 165 135 
78 490 319 179 153 122 
78 491 319 155 116 90 
76 492 312 186 164 144 
76 492 313 186 163 143 
76 493 312 183 160 139 
76 493 313 185 162 142 
77 492 313 187 163 143 
77 493 313 187 164 144 
77 492 314 187 164 144 
77 492 315 184 162 142 
77 493 314 186 164 143 
77 493 315 186 163 142 
76 494 312 177 152 128 
76 494 313 180 155 131 
76 495 312 185 158 132 
76 495 313 182 155 129 
76 494 314 181 156 132 
76 495 314 178 151 124 
77 494 314 186 163 140 
77 494 315 189 165 142 
77 495 314 171 143 116 
77 495 315 176 150 122 
77 492 316 181 158 136 
77 492 317 183 160 136 
77 493 316 185 162 141 
77 493 317 187 165 143 
77 492 318 179 156 128 
77 493 318 184 161 135 
77 494 316 190 166 143 
77 494 317 190 169 146 
77 495 316 182 158 132 
77 495 317 183 162 139 
77 494 318 177 150 124 
77 495 318 162 121 102 
78 492 319 140 78 65 
78 493 318 163 129 101 
78 493 319 143 64 67 
78 494 318 156 99 79 
78 494 319 146 48 61 
78 495 318 149 63 64 
78 495 319 149 32 60 
75 496 299 91 105 127 
75 497 299 90 103 129 
75 498 299 77 97 128 
75 499 299 70 94 128 
74 496 300 102 114 130 
74 496 301 147 144 145 
74 497 300 106 114 127 
74 497 301 154 144 139 
75 497 300 99 108 127 
75 497 301 121 123 131 
74 496 302 170 151 135 
74 496 303 171 146 121 
74 497 302 181 157 134 
74 497 303 183 155 127 
75 496 303 172 146 119 
74 498 301 172 153 138 
75 498 300 93 105 128 
75 498 301 133 128 128 
75 499 300 85 101 129 
75 499 301 127 123 123 
74 498 302 185 159 133 
74 498 303 188 159 128 
74 499 302 189 161 132 
74 499 303 191 161 129 
75 499 302 181 155 130 
75 500 299 70 93 128 
75 500 300 77 93 126 
75 500 301 110 110 120 
75 501 300 68 91 125 
75 501 301 91 99 117 
74 500 303 192 162 130 
75 500 302 173 149 127 
75 500 303 191 161 130 
75 501 302 154 137 123 
75 501 303 185 157 128 
75 502 300 60 89 124 
75 502 301 80 97 121 
75 503 300 68 103 131 
75 503 301 79 104 130 
75 502 302 134 124 120 
75 502 303 178 152 125 
75 503 302 105 107 116 
75 503 303 166 145 126 
76 499 299 66 93 128 
76 500 299 60 88 125 
76 501 299 73 101 132 
76 502 299 73 108 139 
76 503 299 83 118 148 
76 502 300 65 98 129 
76 503 300 75 110 139 
75 504 301 82 108 133 
75 505 301 88 112 136 
75 504 302 90 104 121 
75 504 303 139 130 125 
75 505 302 92 111 130 
75 505 303 115 118 125 
75 506 301 83 111 137 
75 506 302 84 109 134 
75 506 303 94 107 123 
75 507 302 73 103 130 
75 507 303 86 105 125 
75 508 303 93 111 130 
76 504 299 74 114 148 
76 505 299 59 98 144 
77 504 299 66 110 146 
77 505 299 57 101 144 
77 506 299 60 99 143 
77 507 299 61 98 140 
78 507 298 63 95 138 
76 504 300 65 103 138 
76 504 301 72 106 135 
76 505 300 67 103 141 
76 505 301 81 111 139 
76 506 300 71 107 144 
76 506 301 79 111 141 
76 507 300 65 106 142 
76 507 301 80 113 144 
77 507 300 58 102 141 
76 507 302 73 104 133 
77 508 299 45 90 137 
77 509 299 57 97 138 
78 508 298 64 97 140 
78 509 298 76 113 147 
78 509 299 72 110 145 
78 510 299 71 109 145 
78 511 299 68 108 144 
79 511 298 81 118 147 
76 508 301 74 109 143 
76 509 301 55 95 135 
77 508 300 59 99 140 
77 508 301 75 109 145 
77 509 300 52 95 140 
77 509 301 52 94 138 
76 508 302 69 101 132 
76 508 303 92 112 133 
76 509 302 62 96 132 
76 509 303 87 109 132 
77 510 300 61 99 144 
77 510 301 59 94 143 
77 511 300 54 95 140 
77 511 301 59 99 144 
76 510 302 57 95 134 
76 510 303 78 103 133 
76 511 302 57 96 134 
76 511 303 60 93 130 
77 510 302 47 89 136 
77 511 302 55 94 137 
78 510 300 62 101 144 
78 511 300 60 100 141 
75 496 304 178 151 123 
75 496 305 184 159 135 
75 497 304 184 156 129 
75 497 305 185 160 137 
75 496 306 184 161 141 
75 496 307 171 148 126 
75 497 306 182 159 138 
75 497 307 168 142 117 
74 498 304 185 156 126 
74 499 304 189 159 128 
75 498 304 184 156 127 
75 498 305 183 157 132 
75 499 304 186 157 128 
75 499 305 185 158 130 
75 498 306 170 145 119 
75 498 307 157 128 97 
75 499 306 174 147 119 
75 499 307 163 133 100 
75 496 308 150 120 89 
75 496 309 155 124 91 
75 497 308 172 145 116 
75 498 308 180 152 124 
75 499 308 182 152 121 
75 499 309 192 162 131 
74 500 304 190 161 129 
74 500 305 188 158 128 
74 501 304 186 156 124 
75 500 305 189 160 131 
75 501 304 185 154 121 
75 501 305 182 151 120 
75 500 306 185 158 132 
75 500 307 168 140 110 
75 501 306 188 160 133 
75 501 307 187 161 135 
75 502 304 184 154 123 
75 502 305 178 147 113 
75 503 304 188 161 133 
75 503 305 188 159 130 
75 502 306 183 153 122 
75 502 307 190 163 134 
75 503 306 186 157 127 
75 503 307 188 159 129 
75 500 308 169 138 104 
75 500 309 189 159 127 
75 501 308 180 151 122 
75 501 309 181 151 119 
75 502 308 191 164 135 
75 502 309 176 145 112 
75 503 308 192 163 134 
75 503 309 184 154 123 
76 496 309 177 148 118 
76 497 309 184 156 129 
76 496 310 188 160 134 
76 496 311 185 159 133 
76 497 310 185 158 133 
76 497 311 168 141 116 
76 498 309 186 159 132 
76 499 309 190 162 133 
76 498 310 183 158 134 
76 498 311 166 137 106 
76 499 310 179 151 123 
76 499 311 161 129 94 
76 500 309 194 164 133 
76 501 309 191 161 130 
76 500 310 192 163 134 
76 500 311 176 145 109 
76 501 310 195 165 135 
76 501 311 194 164 132 
76 502 309 160 128 92 
76 502 310 180 149 116 
76 502 311 197 165 131 
76 503 310 165 131 95 
76 503 311 184 149 110 
76 496 312 181 154 126 
76 496 313 184 156 128 
76 497 312 163 134 106 
76 497 313 181 154 127 
76 496 314 181 154 126 
76 497 314 188 161 134 
77 496 314 178 150 120 
77 496 315 180 153 123 
77 497 314 187 159 130 
77 497 315 186 159 129 
76 498 312 172 143 113 
76 498 313 185 158 131 
76 499 312 181 150 119 
76 499 313 191 162 134 
76 498 314 191 165 138 
76 499 314 193 165 138 
77 498 314 190 163 135 
77 498 315 182 154 124 
77 499 314 190 163 136 
77 499 315 177 148 115 
77 496 316 176 152 123 
77 496 317 163 138 111 
77 497 316 179 153 124 
77 497 317 156 108 91 
77 496 318 140 73 59 
77 497 318 143 41 58 
77 498 316 160 118 86 
77 498 317 147 60 59 
77 499 316 156 114 72 
77 499 317 147 81 51 
77 498 318 148 21 61 
77 499 318 138 39 37 
78 496 318 141 39 53 
78 496 319 150 16 63 
78 497 318 142 25 52 
78 497 319 151 9 61 
78 498 319 150 1 60 
78 499 319 141 16 46 
76 500 312 170 137 99 
76 500 313 188 158 127 
76 501 312 174 140 105 
76 501 313 166 132 93 
77 500 313 193 164 134 
77 501 313 182 150 115 
77 500 314 195 166 138 
77 500 315 191 163 134 
77 501 314 194 164 134 
77 501 315 191 162 132 
76 502 312 194 162 128 
76 502 313 185 151 115 
76 503 312 197 163 127 
76 503 313 194 161 126 
77 502 313 183 150 113 
77 503 313 191 159 123 
77 502 314 190 158 125 
77 502 315 185 155 122 
77 503 314 188 157 125 
77 503 315 182 152 120 
77 500 316 187 159 129 
77 500 317 185 160 132 
77 501 316 189 161 131 
77 501 317 188 161 134 
77 500 318 174 148 118 
77 501 318 191 167 142 
77 502 316 178 147 112 
77 502 317 184 156 125 
77 503 316 175 146 115 
77 503 317 181 153 125 
77 502 318 190 164 137 
77 503 318 188 162 136 
78 500 319 159 118 91 
78 501 319 188 166 142 
78 502 318 191 165 141 
78 502 319 191 168 145 
78 503 318 190 164 141 
78 503 319 191 166 143 
75 504 304 186 161 137 
75 504 305 195 166 136 
75 505 304 173 151 132 
75 505 305 190 160 128 
75 504 306 192 163 134 
75 504 307 186 156 125 
75 505 306 191 160 128 
75 505 307 191 161 129 
75 506 304 153 137 124 
75 506 305 186 156 124 
75 507 304 140 130 123 
75 507 305 188 160 130 
75 506 306 189 156 120 
75 506 307 194 162 128 
75 507 306 196 163 127 
75 507 307 195 162 127 
75 504 308 184 153 121 
75 504 309 194 162 129 
75 505 308 189 158 125 
75 505 309 193 160 123 
75 504 310 195 164 129 
75 505 310 193 160 122 
75 506 308 194 163 129 
75 506 309 190 158 121 
75 507 308 193 162 129 
75 507 309 186 154 116 
75 506 310 187 153 114 
75 507 310 181 146 106 
75 508 304 127 126 128 
75 508 305 181 156 131 
75 509 304 123 125 131 
75 509 305 168 148 132 
75 508 306 193 160 123 
75 508 307 192 159 121 
75 509 306 194 163 129 
75 509 307 192 160 126 
75 510 305 164 144 126 
75 510 306 189 159 128 
75 510 307 191 160 127 
75 511 306 182 155 128 
75 511 307 193 164 133 
75 508 308 190 157 120 
75 508 309 180 148 112 
75 509 308 188 155 120 
75 509 309 188 158 128 
75 508 310 163 130 91 
75 509 310 175 145 113 
75 510 308 188 158 126 
75 510 309 189 159 128 
75 511 308 192 163 132 
76 504 310 194 161 126 
76 504 311 192 158 120 
76 505 310 192 159 121 
76 505 311 192 159 120 
76 506 310 187 153 113 
76 506 311 188 154 113 
76 507 310 183 149 109 
76 507 311 188 155 116 
76 509 304 107 119 133 
76 510 304 91 106 128 
76 510 305 119 115 117 
76 511 304 75 93 126 
76 511 305 109 106 112 
76 511 306 167 145 123 
76 508 310 165 131 93 
76 508 311 177 145 109 
76 509 310 175 146 114 
76 509 311 169 136 100 
76 510 309 192 163 135 
76 511 308 192 162 132 
76 511 309 188 158 127 
76 510 310 191 163 136 
76 510 311 188 159 129 
76 511 310 188 159 129 
76 511 311 190 161 130 
76 504 312 192 158 120 
76 504 313 187 153 116 
76 505 312 190 156 118 
76 505 313 188 154 118 
77 504 314 180 149 116 
77 504 315 183 155 126 
77 505 314 182 152 121 
77 505 315 185 159 134 
76 506 312 185 151 111 
76 506 313 183 150 113 
76 507 312 190 157 121 
76 507 313 185 153 118 
76 506 314 183 152 120 
76 507 314 184 154 122 
77 506 314 189 161 133 
77 506 315 189 165 142 
77 507 314 187 160 133 
77 507 315 190 165 143 
77 504 316 184 158 131 
77 504 317 189 163 141 
77 505 316 188 163 140 
77 505 317 190 165 143 
77 504 318 191 166 143 
77 506 316 189 165 143 
77 506 317 190 165 143 
77 507 316 189 164 140 
77 507 317 183 156 130 
78 504 318 190 165 143 
78 504 319 185 159 135 
78 505 318 190 166 143 
78 505 319 188 163 139 
78 506 317 190 165 141 
78 507 317 185 158 130 
78 506 318 192 166 142 
78 506 319 192 166 141 
78 507 318 188 160 132 
78 507 319 190 162 133 
76 508 312 189 157 124 
76 508 313 190 160 129 
76 509 312 184 153 119 
76 509 313 189 159 128 
76 508 314 189 161 132 
76 509 314 189 160 132 
77 508 314 190 163 137 
77 508 315 190 165 140 
77 509 314 188 161 135 
77 509 315 186 159 133 
76 510 312 187 157 125 
76 510 313 188 158 127 
76 511 312 190 160 129 
76 511 313 189 159 128 
76 510 314 188 160 131 
76 511 314 188 158 128 
77 510 314 189 161 134 
77 510 315 185 158 130 
77 511 314 189 159 128 
77 511 315 191 162 133 
77 508 316 191 165 139 
77 509 316 185 157 128 
77 510 316 183 154 123 
77 511 316 192 163 134 
78 508 317 192 165 137 
78 509 316 188 160 130 
78 509 317 192 163 134 
78 508 318 192 164 135 
78 508 319 191 161 130 
78 509 318 195 166 136 
78 509 319 194 164 132 
78 510 316 184 153 121 
78 510 317 190 159 126 
78 511 316 191 162 131 
78 511 317 190 160 128 
78 510 318 195 164 132 
78 510 319 188 157 124 
78 511 318 192 162 132 
78 511 319 183 151 118 
80 479 328 134 27 72 
80 479 329 131 53 92 
81 479 329 130 82 112 
81 479 330 124 115 135 
81 479 331 119 131 152 
82 479 331 116 134 155 
82 479 332 116 136 156 
83 479 332 120 136 154 
83 479 333 122 131 144 
84 479 333 124 120 120 
85 479 333 144 132 123 
85 479 334 156 139 123 
86 479 334 149 125 101 
87 479 334 149 121 90 
87 479 335 152 124 92 
88 479 335 170 142 112 
89 479 336 177 148 118 
89 479 337 177 149 118 
90 479 337 166 137 106 
90 479 338 154 123 88 
91 479 338 154 122 84 
91 479 339 167 138 105 
91 479 340 174 144 112 
92 479 340 178 149 117 
92 479 341 175 145 112 
92 478 342 178 149 118 
92 479 342 169 138 104 
93 479 342 169 137 105 
78 480 321 99 129 156 
78 481 320 71 121 161 
78 481 321 79 126 163 
79 480 322 105 130 155 
79 480 323 119 133 150 
79 481 322 89 130 164 
79 481 323 101 131 160 
78 482 320 77 122 162 
78 482 321 84 128 164 
78 483 320 78 123 160 
78 483 321 86 128 163 
79 482 322 88 129 164 
79 482 323 93 131 162 
79 483 322 79 124 160 
79 483 323 76 122 158 
79 480 324 139 134 141 
79 481 324 116 124 146 
79 481 325 122 104 125 
79 482 324 103 131 159 
79 482 325 119 128 152 
79 483 324 87 127 161 
79 483 325 98 132 162 
78 484 320 76 125 164 
78 484 321 86 127 163 
78 485 320 118 137 158 
78 485 321 122 139 156 
78 485 322 144 148 154 
79 484 322 94 127 160 
79 484 323 92 116 151 
79 485 322 126 126 144 
79 485 323 122 82 120 
78 486 320 175 160 149 
78 486 321 175 163 151 
78 487 320 182 153 116 
78 487 321 175 145 112 
78 486 322 167 154 141 
78 487 322 162 131 99 
79 486 322 152 107 104 
79 486 323 145 50 75 
79 487 322 146 68 49 
79 487 323 148 21 47 
79 484 324 96 120 153 
79 484 325 96 125 157 
79 485 324 122 86 124 
79 485 325 117 104 135 
79 486 324 143 27 79 
79 486 325 138 47 92 
79 487 324 152 0 52 
79 487 325 152 2 50 
78 488 320 180 151 113 
78 488 321 156 102 69 
78 489 320 172 140 101 
78 489 321 150 65 54 
79 488 322 146 38 48 
79 488 323 150 1 52 
79 489 322 149 12 51 
79 489 323 153 2 55 
78 490 320 154 99 62 
78 490 321 147 35 52 
78 491 320 145 50 50 
78 491 321 148 17 64 
78 490 322 147 13 57 
78 491 322 144 6 55 
79 490 322 148 5 55 
79 490 323 152 4 61 
79 491 322 146 5 56 
79 491 323 150 10 65 
79 488 324 152 2 57 
79 488 325 150 1 54 
79 489 324 155 10 62 
79 489 325 153 6 62 
79 490 324 155 14 67 
79 490 325 153 11 63 
79 491 324 154 16 73 
79 491 325 152 16 67 
79 490 326 152 5 62 
79 491 326 152 13 66 
78 492 320 146 20 60 
78 492 321 149 11 65 
78 493 320 148 20 67 
78 493 321 150 12 68 
78 492 322 142 3 51 
78 493 322 147 12 61 
79 492 323 150 10 66 
79 493 323 151 14 68 
78 494 320 148 12 67 
78 494 321 151 5 69 
78 495 320 150 4 70 
78 495 321 150 1 70 
78 494 322 152 7 69 
78 494 323 153 12 69 
78 495 322 151 4 68 
78 495 323 152 13 69 
79 494 323 153 17 71 
79 495 323 153 19 70 
79 492 324 153 19 71 
79 492 325 150 13 64 
79 493 324 155 28 75 
79 493 325 151 15 67 
79 492 326 150 10 63 
79 493 326 149 3 63 
79 494 324 156 27 75 
79 494 325 156 20 74 
79 495 324 155 23 73 
79 495 325 155 17 71 
79 494 326 150 8 65 
79 495 326 150 13 63 
78 496 320 154 6 74 
78 496 321 151 5 70 
78 497 320 155 11 73 
78 497 321 153 18 73 
78 496 322 148 2 64 
78 497 322 151 16 67 
79 496 323 144 3 54 
79 497 323 143 3 51 
78 498 320 154 12 67 
78 498 321 155 17 71 
78 499 320 151 15 65 
78 499 321 156 10 74 
78 498 322 156 26 74 
78 498 323 155 20 73 
78 499 322 156 6 71 
78 499 323 156 9 70 
79 498 323 151 11 67 
79 499 323 155 9 67 
79 496 324 149 12 61 
79 496 325 153 11 65 
79 497 324 146 0 54 
79 497 325 151 2 59 
79 496 326 148 0 56 
79 497 326 150 1 59 
79 498 324 150 0 60 
79 498 325 150 0 56 
79 499 324 152 2 60 
79 499 325 148 3 49 
79 498 326 151 1 62 
79 499 326 149 5 55 
78 500 320 148 75 67 
78 500 321 145 38 57 
78 501 320 171 145 118 
78 501 321 149 105 77 
78 500 322 148 19 52 
78 500 323 151 28 37 
78 501 322 150 91 54 
78 501 323 162 107 61 
79 500 323 151 42 31 
79 501 323 169 122 73 
78 502 320 189 167 145 
78 502 321 186 163 139 
78 503 320 191 164 138 
78 503 321 192 164 135 
78 502 322 182 154 121 
78 502 323 181 148 105 
78 503 322 190 160 127 
78 503 323 182 148 109 
79 502 323 180 146 101 
79 503 323 182 148 107 
79 500 324 152 62 34 
79 500 325 153 80 43 
79 501 324 176 135 87 
79 501 325 182 150 108 
79 500 326 151 79 47 
79 501 326 182 155 120 
79 502 324 182 148 103 
79 502 325 189 157 119 
79 503 324 187 153 113 
79 503 325 194 161 125 
79 502 326 191 164 133 
79 502 327 192 167 138 
79 503 326 195 164 132 
79 503 327 195 165 133 
78 504 320 177 148 118 
78 504 321 185 153 119 
78 505 320 187 158 130 
78 505 321 187 156 124 
78 504 322 186 153 117 
78 504 323 182 148 110 
78 505 322 190 158 123 
78 505 323 194 161 125 
79 504 323 185 151 114 
79 505 323 197 163 128 
78 506 320 193 165 139 
78 506 321 192 163 134 
78 507 320 192 163 135 
78 507 321 191 162 132 
78 506 322 191 159 125 
78 506 323 195 161 124 
78 507 322 183 150 114 
78 507 323 185 149 110 
79 506 323 198 164 127 
79 507 323 190 155 116 
79 504 324 190 157 120 
79 504 325 197 165 131 
79 505 324 200 167 132 
79 505 325 201 169 136 
79 504 326 196 164 130 
79 504 327 198 164 128 
79 505 326 195 161 125 
79 505 327 195 160 120 
79 506 324 201 168 133 
79 506 325 203 171 137 
79 507 324 197 163 126 
79 507 325 201 168 134 
79 506 326 200 167 133 
79 506 327 197 164 127 
79 507 326 199 168 135 
79 507 327 195 164 131 
78 508 320 190 160 128 
78 508 321 188 157 125 
78 509 320 189 157 124 
78 509 321 189 159 126 
78 508 322 173 137 98 
78 508 323 167 131 89 
78 509 322 188 159 129 
78 509 323 176 144 111 
79 508 323 167 131 88 
78 510 320 179 147 111 
78 510 321 181 150 116 
78 511 320 168 132 94 
78 511 321 169 136 98 
78 510 322 187 158 128 
78 510 323 188 161 134 
78 511 322 178 148 118 
78 511 323 186 159 133 
79 508 324 174 139 98 
79 508 325 187 154 119 
79 509 324 169 135 98 
79 509 325 176 144 107 
79 508 326 193 162 131 
79 508 327 182 151 121 
79 509 326 190 160 129 
79 509 327 188 158 129 
78 510 324 189 162 135 
79 510 324 186 158 129 
79 510 325 181 151 120 
79 511 324 188 160 133 
79 511 325 185 156 126 
79 510 326 185 156 126 
79 510 327 188 161 133 
79 511 326 181 153 125 
79 511 327 182 156 131 
79 506 328 197 163 127 
79 507 328 189 159 126 
79 508 328 180 151 120 
79 509 328 186 159 130 
79 509 329 188 161 134 
79 510 328 190 164 138 
79 510 329 191 164 140 
79 511 328 185 161 139 
79 511 329 187 163 141 
80 480 325 145 92 100 
80 481 325 132 71 103 
80 480 326 142 33 53 
80 480 327 146 5 46 
80 481 326 138 26 73 
80 481 327 146 7 61 
80 482 325 129 122 144 
80 483 325 104 136 161 
80 482 326 133 103 129 
80 482 327 140 78 112 
80 483 326 111 137 159 
80 483 327 127 137 154 
80 484 325 95 129 159 
80 485 325 110 116 142 
80 484 326 97 133 162 
80 484 327 107 139 163 
80 485 326 105 123 149 
80 485 327 102 130 156 
80 486 325 134 69 101 
80 487 325 151 9 55 
80 486 326 128 90 117 
80 486 327 121 111 135 
80 487 326 149 20 70 
80 487 327 139 36 82 
80 480 328 148 10 54 
80 480 329 144 25 69 
80 481 328 152 10 60 
80 481 329 155 7 63 
81 480 330 132 65 98 
81 480 331 123 106 128 
81 481 330 147 30 78 
81 481 331 134 65 95 
80 482 328 143 47 92 
80 482 329 150 23 77 
80 483 328 137 128 143 
80 483 329 144 104 125 
80 482 330 154 20 73 
80 483 330 144 49 89 
81 482 330 152 17 66 
81 482 331 145 36 80 
81 483 330 144 46 87 
81 483 331 147 26 81 
82 480 331 121 119 140 
82 481 331 132 83 108 
82 480 332 114 126 146 
82 481 332 117 110 131 
83 480 332 115 132 151 
83 480 333 117 133 150 
83 481 332 113 127 146 
83 481 333 114 128 147 
82 482 332 127 76 102 
82 483 332 124 51 88 
82 483 333 113 75 94 
83 482 332 119 106 127 
83 482 333 111 116 136 
83 483 333 109 101 117 
80 484 328 118 141 160 
80 484 329 133 139 155 
80 485 328 101 133 158 
80 485 329 112 138 160 
81 484 330 143 114 133 
81 484 331 143 78 108 
81 485 330 132 143 159 
81 485 331 142 124 140 
80 486 328 109 122 145 
80 486 329 108 125 150 
80 487 328 130 68 105 
80 487 329 119 79 116 
81 487 329 114 105 136 
81 486 330 109 135 159 
81 486 331 129 141 157 
81 487 330 108 119 147 
81 487 331 111 134 158 
82 484 332 126 43 79 
82 484 333 110 52 77 
82 485 332 135 81 105 
82 485 333 118 43 73 
83 484 333 107 82 100 
83 485 333 112 58 87 
82 486 332 139 122 138 
82 486 333 133 73 101 
82 487 332 125 137 155 
82 487 333 133 119 136 
83 486 333 116 54 87 
83 487 333 130 93 114 
83 487 334 121 62 96 
84 480 333 127 134 144 
84 481 333 118 130 144 
85 480 333 145 138 136 
85 480 334 147 138 132 
85 481 334 135 133 135 
84 482 333 110 124 141 
84 483 333 102 110 128 
84 482 334 106 120 138 
84 483 334 103 114 132 
85 482 334 120 125 135 
85 483 334 111 119 133 
86 480 334 144 123 100 
86 481 334 153 136 121 
87 480 335 147 118 84 
87 481 335 157 132 103 
86 482 334 143 134 129 
86 482 335 157 139 122 
86 483 334 130 127 128 
86 483 335 150 136 123 
87 482 335 167 143 119 
87 483 335 163 141 117 
84 484 333 100 100 119 
84 484 334 99 102 121 
84 485 334 99 96 114 
85 484 334 104 113 129 
85 485 334 100 111 128 
84 486 334 106 91 113 
84 487 334 109 81 109 
85 486 334 100 111 128 
85 487 334 99 107 124 
85 487 335 99 109 127 
86 484 334 114 119 130 
86 484 335 132 125 122 
86 485 334 109 116 129 
86 485 335 120 116 121 
87 484 335 143 114 94 
87 485 335 124 89 94 
86 486 335 111 115 128 
86 487 335 105 115 130 
87 486 335 123 87 104 
80 488 326 150 4 51 
80 488 327 148 6 50 
80 489 326 149 3 57 
80 489 327 149 6 49 
80 490 326 151 6 61 
80 490 327 151 6 56 
80 491 326 152 13 64 
80 491 327 150 8 61 
80 492 327 148 3 59 
80 493 327 150 7 65 
80 494 327 150 2 62 
80 495 326 149 12 61 
80 495 327 150 6 64 
80 488 328 147 9 67 
80 488 329 138 30 80 
80 489 328 151 6 53 
80 489 329 152 17 67 
81 488 329 131 57 97 
81 489 329 147 25 77 
81 488 330 126 90 121 
81 488 331 119 117 143 
81 489 330 143 58 96 
81 489 331 132 90 118 
80 490 328 151 5 58 
80 490 329 155 11 66 
80 491 328 149 4 61 
80 491 329 153 8 64 
81 490 330 155 32 79 
81 490 331 144 51 92 
81 491 330 157 19 71 
81 491 331 154 29 76 
81 489 332 121 97 126 
81 490 332 135 77 111 
81 491 332 146 39 82 
82 488 332 111 128 151 
82 488 333 118 134 151 
82 489 332 111 115 140 
82 489 333 111 124 145 
83 488 333 127 121 133 
83 489 333 125 129 141 
83 488 334 124 91 113 
83 489 334 125 118 130 
82 490 332 122 94 123 
82 490 333 113 112 136 
82 491 332 134 58 96 
82 491 333 121 80 109 
83 491 333 109 107 128 
83 490 334 118 125 138 
83 491 334 110 116 135 
80 492 328 147 5 57 
80 492 329 150 9 60 
80 493 328 153 21 72 
80 493 329 154 32 76 
80 492 330 153 7 59 
80 493 330 153 32 74 
81 492 330 152 11 59 
81 492 331 152 13 61 
81 493 330 151 19 66 
81 493 331 150 10 60 
80 494 328 154 18 73 
80 494 329 158 44 86 
80 495 328 153 19 73 
80 495 329 155 27 77 
80 494 330 156 40 81 
80 495 330 153 23 73 
81 494 330 153 32 75 
81 494 331 150 14 67 
81 495 330 154 22 75 
81 495 331 151 7 67 
81 492 332 148 19 63 
81 493 332 150 12 59 
81 494 332 150 6 62 
81 494 333 152 13 66 
81 495 332 151 15 68 
81 495 333 153 15 74 
82 492 333 133 50 85 
82 493 333 143 34 73 
82 492 334 117 88 113 
83 492 334 111 103 124 
83 493 334 119 84 108 
83 493 335 105 103 123 
82 494 333 148 24 70 
82 495 333 150 16 75 
82 494 334 141 41 78 
82 495 334 142 27 74 
83 494 334 118 73 101 
83 494 335 103 93 115 
83 495 334 129 51 83 
83 495 335 110 80 101 
84 488 334 104 68 101 
84 489 334 116 95 116 
84 489 335 101 73 105 
85 488 335 97 99 121 
85 489 335 94 92 119 
84 490 334 119 117 132 
84 490 335 110 109 127 
84 491 335 113 124 137 
85 490 335 89 96 120 
85 491 335 97 113 130 
86 488 335 101 112 129 
86 489 335 94 109 128 
84 492 335 108 119 135 
84 493 335 104 114 131 
85 492 335 104 119 136 
85 493 335 102 118 135 
84 494 335 100 110 128 
84 495 335 99 103 123 
88 480 335 160 130 96 
88 481 335 159 130 96 
88 482 335 167 140 110 
87 485 336 123 51 60 
86 487 336 113 114 127 
87 486 336 126 69 93 
87 487 336 128 86 108 
85 491 336 91 110 130 
86 488 336 109 116 129 
86 489 336 106 119 133 
87 488 336 127 99 117 
87 488 337 133 86 107 
87 489 336 124 121 131 
87 489 337 134 99 116 
86 490 336 98 115 132 
86 491 336 97 117 136 
87 490 336 122 126 136 
87 490 337 130 118 131 
87 491 337 127 122 136 
85 492 336 93 113 132 
85 493 336 96 115 133 
84 495 336 100 111 130 
85 494 336 99 116 134 
85 495 336 99 117 136 
86 492 336 89 113 135 
86 492 337 107 125 143 
86 493 336 89 114 136 
86 493 337 106 125 143 
87 492 337 124 129 143 
87 493 337 124 127 143 
87 492 338 137 103 123 
87 493 338 132 112 130 
86 494 336 86 111 134 
86 494 337 100 121 141 
86 495 336 87 112 136 
86 495 337 96 119 141 
87 494 337 125 127 143 
87 495 337 116 124 142 
87 494 338 135 108 126 
87 495 338 123 118 136 
88 480 336 170 140 108 
88 481 336 166 136 101 
89 480 336 175 146 113 
89 480 337 177 147 115 
89 481 336 172 143 109 
89 481 337 177 148 116 
88 482 336 169 142 111 
88 483 336 158 129 90 
89 482 336 170 142 109 
89 482 337 176 149 119 
89 483 336 165 137 101 
89 483 337 163 135 97 
90 480 337 169 140 110 
90 481 337 179 151 123 
90 480 338 161 132 100 
90 481 338 174 147 119 
91 480 338 147 115 75 
91 480 339 147 114 76 
91 481 338 162 133 102 
91 481 339 161 131 98 
90 482 338 178 152 123 
90 483 338 175 149 117 
91 482 339 177 150 120 
91 483 339 176 149 114 
91 480 340 166 134 98 
91 481 340 167 136 101 
91 482 340 178 151 119 
91 483 340 170 138 100 
88 484 336 140 78 50 
88 485 336 135 25 46 
89 484 337 137 66 43 
89 485 337 144 17 63 
89 484 338 142 81 64 
89 485 338 143 24 62 
88 486 336 136 24 56 
88 486 337 143 13 57 
88 487 337 145 31 74 
89 486 337 146 6 65 
89 486 338 146 12 69 
89 487 338 149 25 70 
90 484 338 152 111 79 
90 484 339 155 112 75 
90 485 338 137 27 49 
90 485 339 136 22 35 
91 484 339 157 113 76 
91 485 339 139 23 38 
90 486 338 145 12 67 
90 486 339 143 6 59 
90 487 339 144 10 61 
91 484 340 152 92 61 
91 485 340 142 27 43 
91 485 341 145 28 50 
90 487 340 141 3 55 
91 486 340 142 1 54 
91 486 341 144 6 56 
91 487 340 140 0 51 
91 487 341 142 6 55 
91 487 342 147 13 66 
92 480 340 175 144 109 
92 480 341 178 147 112 
92 481 340 174 143 108 
92 481 341 176 145 110 
92 480 342 176 145 111 
92 481 342 179 150 119 
93 480 342 175 146 114 
92 482 340 177 147 116 
92 482 341 169 141 107 
92 483 341 152 107 70 
92 482 342 171 144 111 
92 483 342 154 105 74 
92 484 341 144 49 52 
92 485 341 147 19 58 
92 484 342 148 43 62 
92 485 342 151 19 72 
92 486 342 150 17 69 
92 487 342 149 16 66 
88 488 337 144 32 75 
88 489 337 143 62 93 
88 488 338 146 19 67 
88 489 338 146 31 69 
89 488 338 147 14 65 
89 488 339 145 11 62 
89 489 338 145 10 59 
89 489 339 144 2 59 
88 490 337 139 97 116 
88 490 338 148 46 83 
88 491 338 144 58 88 
89 490 338 149 21 70 
89 490 339 146 3 61 
89 491 338 149 23 70 
89 491 339 145 7 59 
90 488 339 143 12 61 
90 489 339 144 4 60 
89 491 340 143 2 53 
90 488 340 140 2 52 
90 489 340 144 7 61 
90 489 341 148 24 69 
91 488 341 143 7 58 
91 489 341 148 22 69 
91 488 342 145 4 63 
91 489 342 148 19 67 
90 490 340 144 4 60 
90 490 341 148 18 68 
90 491 340 146 4 62 
90 491 341 147 13 69 
91 490 341 149 23 72 
91 490 342 149 26 73 
91 491 342 150 26 74 
88 492 338 145 51 78 
88 493 338 143 62 84 
88 493 339 145 32 58 
89 492 339 144 11 54 
89 493 339 145 15 58 
88 494 338 142 69 92 
88 494 339 145 38 59 
88 495 338 140 83 104 
88 495 339 144 48 71 
89 494 339 145 25 56 
89 495 339 145 32 61 
89 492 340 143 2 50 
89 493 340 147 11 64 
89 494 340 146 13 62 
89 494 341 149 23 69 
89 495 340 145 18 62 
89 495 341 147 17 66 
90 492 340 144 4 56 
90 492 341 146 9 65 
90 493 341 147 15 68 
90 492 342 147 17 68 
90 493 342 147 10 68 
91 492 342 148 23 71 
91 493 342 146 10 66 
90 494 341 150 29 72 
90 495 341 148 20 68 
90 494 342 150 29 74 
90 495 342 147 22 69 
91 494 342 149 24 71 
92 488 342 146 5 59 
80 496 326 146 0 49 
80 496 327 147 3 56 
80 497 327 151 17 64 
80 498 326 152 0 67 
80 498 327 155 24 74 
80 499 326 152 6 64 
80 499 327 154 6 71 
80 500 326 148 68 46 
80 500 327 140 36 35 
80 501 326 171 141 107 
80 501 327 165 134 99 
80 502 327 192 166 138 
80 503 327 195 166 134 
80 496 328 152 13 67 
80 496 329 152 12 66 
80 497 328 154 28 73 
80 497 329 153 19 71 
80 496 330 150 9 61 
80 497 330 147 2 57 
80 497 331 146 4 56 
81 496 331 150 15 62 
81 497 331 149 17 61 
80 498 328 157 36 79 
80 498 329 155 31 80 
80 499 328 154 10 71 
80 499 329 148 25 62 
80 498 330 147 0 61 
80 498 331 148 7 67 
80 499 330 143 29 48 
80 499 331 145 33 54 
81 498 331 148 6 65 
81 499 331 148 33 61 
81 496 332 155 37 77 
81 496 333 155 43 83 
81 497 332 154 37 74 
81 497 333 156 46 83 
81 498 332 153 20 77 
81 498 333 154 29 77 
81 499 332 152 31 70 
81 499 333 151 20 71 
82 496 333 150 27 77 
82 497 333 153 36 80 
82 496 334 144 22 67 
82 497 334 147 25 68 
83 496 334 138 28 66 
83 496 335 117 62 83 
83 497 335 126 42 74 
82 498 333 154 33 80 
82 498 334 149 19 67 
82 499 334 145 14 63 
83 498 335 127 32 66 
83 499 335 127 23 58 
80 500 328 139 23 37 
80 500 329 151 92 63 
80 501 328 151 111 70 
80 501 329 173 144 108 
80 500 330 163 124 89 
80 500 331 165 128 96 
80 501 330 185 160 129 
80 501 331 185 160 131 
81 500 331 156 103 76 
80 502 328 184 157 127 
80 502 329 183 155 123 
80 503 328 190 161 129 
80 503 329 176 145 112 
80 502 330 190 164 136 
80 502 331 190 164 136 
80 503 330 182 152 123 
80 503 331 191 163 135 
81 500 332 157 101 79 
81 500 333 142 60 52 
81 501 332 174 143 111 
81 501 333 162 126 90 
80 503 332 194 165 136 
81 502 332 189 162 133 
81 502 333 192 163 133 
81 503 332 196 167 137 
81 503 333 196 166 135 
81 502 334 190 161 129 
81 503 334 193 162 129 
82 500 334 144 74 60 
82 500 335 136 86 60 
82 501 334 172 140 106 
82 501 335 176 152 124 
83 500 335 125 75 65 
83 501 335 164 144 125 
82 502 334 188 159 127 
82 502 335 187 160 131 
82 503 334 188 158 124 
82 503 335 188 158 128 
84 496 335 102 97 119 
80 504 327 197 165 130 
80 504 328 193 161 125 
80 504 329 165 130 92 
80 505 328 195 161 123 
80 505 329 188 157 124 
80 504 330 156 122 84 
80 504 331 181 151 120 
80 505 330 184 154 124 
80 505 331 177 148 117 
80 506 328 196 163 128 
80 506 329 196 166 136 
80 507 328 193 162 129 
80 507 329 193 164 136 
80 506 330 194 167 141 
80 506 331 190 163 138 
80 507 330 194 167 141 
80 507 331 192 165 140 
80 504 332 188 159 129 
80 505 332 163 129 98 
81 504 332 191 161 131 
81 504 333 194 164 133 
81 505 332 165 132 101 
81 505 333 185 153 120 
81 504 334 183 151 118 
81 505 334 188 158 126 
80 506 332 181 152 124 
80 507 332 190 163 136 
81 506 332 177 146 114 
81 506 333 184 153 121 
81 507 332 188 160 132 
81 507 333 188 159 129 
81 506 334 193 163 133 
81 507 334 192 164 135 
82 504 334 169 135 102 
82 504 335 180 149 115 
82 505 334 185 154 121 
82 505 335 190 161 130 
82 506 334 196 167 138 
82 506 335 193 165 135 
82 507 335 191 162 133 
80 508 329 186 158 129 
80 509 329 187 159 130 
80 508 330 192 165 139 
80 508 331 191 164 137 
80 509 330 188 160 132 
80 509 331 187 159 131 
80 510 329 190 163 138 
80 511 329 187 163 141 
80 510 330 186 158 130 
80 510 331 185 157 129 
80 511 330 189 163 138 
80 511 331 185 158 131 
80 508 332 185 156 125 
80 509 332 184 156 126 
80 509 333 182 153 124 
81 508 333 174 143 110 
81 509 333 175 146 114 
81 508 334 190 162 134 
81 509 334 187 161 135 
80 510 332 186 159 132 
80 510 333 190 163 137 
80 511 332 184 158 131 
80 511 333 188 161 134 
81 510 333 190 164 138 
81 510 334 189 165 141 
81 510 335 188 162 138 
81 511 334 191 165 140 
81 511 335 192 166 141 
82 508 335 191 162 134 
82 509 335 186 159 131 
82 510 335 188 160 133 
82 511 335 193 165 137 
83 499 336 112 52 82 
83 500 336 114 79 84 
83 501 336 144 131 122 
83 502 336 166 149 132 
83 503 336 169 149 131 
84 496 336 97 108 129 
84 497 336 100 103 124 
85 496 336 94 116 137 
85 497 336 93 116 136 
85 497 337 87 114 137 
84 498 336 100 101 123 
84 499 336 97 99 122 
85 498 336 96 115 135 
85 498 337 88 113 137 
85 499 336 94 111 133 
85 499 337 91 113 136 
86 496 337 93 118 140 
86 497 337 91 117 141 
86 497 338 102 123 144 
87 496 338 126 111 129 
87 497 338 125 117 135 
86 498 337 91 116 141 
86 499 337 91 117 141 
86 498 338 105 123 144 
86 499 338 107 123 145 
87 498 338 125 117 136 
87 498 339 139 92 115 
87 499 338 127 121 140 
87 499 339 140 97 122 
84 500 336 96 103 120 
84 501 336 108 115 126 
85 500 337 91 114 137 
85 501 337 89 114 139 
84 502 336 117 121 129 
84 502 337 107 118 131 
84 503 336 134 128 126 
84 503 337 103 115 129 
85 502 337 86 113 139 
85 503 337 81 110 138 
86 500 337 93 118 142 
86 501 337 88 115 142 
86 500 338 107 124 144 
86 501 338 111 127 146 
87 500 338 128 126 141 
87 500 339 133 118 129 
87 501 338 134 138 148 
87 501 339 149 140 137 
86 502 337 88 114 143 
86 502 338 107 124 145 
86 503 338 108 125 146 
87 502 338 135 140 149 
87 502 339 160 152 147 
87 503 339 163 150 142 
87 502 340 174 157 141 
87 503 340 176 155 136 
83 504 336 170 149 131 
83 505 336 165 145 128 
82 507 336 189 160 131 
83 506 336 167 148 131 
83 507 336 162 146 133 
82 508 336 187 159 131 
82 509 336 185 157 128 
83 508 336 155 143 133 
83 509 336 162 145 133 
83 509 337 126 126 130 
82 510 336 186 159 132 
82 511 336 183 160 139 
83 510 336 143 136 133 
83 510 337 100 114 130 
83 511 336 132 131 135 
83 511 337 101 117 135 
84 504 336 134 128 128 
84 504 337 99 113 130 
84 505 336 126 123 126 
84 505 337 93 110 129 
85 504 337 76 108 137 
85 505 337 73 106 136 
84 506 336 120 121 126 
84 506 337 100 113 128 
84 507 337 97 113 130 
85 506 337 70 105 136 
85 507 337 70 106 137 
85 506 338 89 115 142 
85 507 338 105 124 146 
86 504 338 115 129 147 
86 504 339 156 146 142 
86 505 338 113 128 147 
86 505 339 151 141 138 
87 504 339 166 150 138 
87 505 339 164 145 128 
86 506 338 122 133 149 
86 506 339 159 148 144 
86 507 338 131 137 149 
86 507 339 166 153 145 
87 506 339 165 146 131 
87 504 340 181 155 130 
87 505 340 176 148 120 
87 505 341 182 153 122 
87 506 340 176 150 122 
87 506 341 182 153 123 
87 507 340 183 157 131 
87 507 341 184 156 128 
84 508 337 87 109 132 
84 509 337 82 107 132 
85 508 338 99 119 142 
85 509 338 109 125 143 
84 510 337 82 109 136 
84 511 337 79 110 138 
84 511 338 99 120 142 
85 510 338 122 131 145 
85 511 338 139 139 146 
85 511 339 173 155 141 
86 508 338 134 137 148 
86 508 339 168 152 142 
86 509 339 169 153 140 
86 510 339 174 156 141 
86 511 339 182 158 135 
86 508 340 183 155 129 
86 509 340 182 155 127 
87 508 340 181 153 123 
87 508 341 177 147 115 
87 509 340 182 154 124 
87 509 341 181 152 121 
87 508 342 172 141 108 
87 509 342 182 153 123 
86 510 340 184 156 129 
86 511 340 185 157 130 
87 510 340 184 156 127 
87 510 341 186 158 130 
87 511 341 186 158 130 
87 510 342 188 161 134 
87 511 342 188 160 134 
88 496 339 142 55 76 
88 497 339 143 63 85 
88 498 339 144 69 94 
88 499 339 146 71 100 
88 496 340 141 27 61 
88 497 340 143 32 63 
89 496 340 141 14 56 
89 496 341 143 5 57 
89 497 340 142 18 61 
89 497 341 141 4 54 
89 497 342 141 5 51 
88 498 340 147 35 74 
88 499 340 148 44 84 
89 498 341 147 25 69 
89 499 341 148 24 71 
89 498 342 146 14 63 
89 499 342 147 20 63 
90 496 342 145 15 62 
90 497 342 144 6 56 
90 498 342 145 9 60 
90 499 342 147 7 63 
88 500 339 141 98 104 
88 500 340 142 66 80 
88 500 341 144 52 63 
88 501 340 157 130 112 
88 501 341 161 128 99 
89 500 341 145 54 58 
89 501 341 153 106 77 
89 500 342 144 61 49 
89 501 342 166 132 96 
88 502 340 176 157 137 
88 502 341 180 156 129 
88 503 340 181 157 132 
88 503 341 183 156 128 
88 503 342 182 154 124 
89 502 342 182 155 124 
89 503 342 184 154 123 
88 504 341 182 153 122 
88 505 341 184 155 126 
88 504 342 170 139 109 
88 505 342 183 156 127 
89 504 342 172 141 108 
89 505 342 179 151 122 
88 506 341 185 156 126 
88 506 342 185 158 130 
88 507 342 184 157 129 
88 508 342 184 155 126 
88 509 342 186 158 129 
88 510 342 188 161 134 
88 511 342 188 161 134 
167 495 342 129 129 135 
170 493 339 122 122 128 
171 493 339 122 124 131 
170 494 339 116 121 130 
171 494 339 109 116 128 
171 495 339 103 111 128 
168 492 341 127 127 134 
168 493 341 121 122 130 
169 493 340 123 124 131 
169 493 341 126 127 134 
168 492 342 114 117 126 
168 493 342 116 117 126 
168 494 341 141 140 145 
168 495 341 142 140 145 
169 494 340 131 132 139 
169 494 341 138 138 145 
169 495 340 123 124 130 
169 495 341 132 132 138 
168 494 342 131 130 136 
168 495 342 138 135 140 
170 493 340 120 121 129 
170 494 340 123 125 134 
170 495 340 112 116 127 
173 494 337 91 102 123 
172 494 338 98 108 125 
172 494 339 103 113 128 
172 495 338 89 100 124 
172 495 339 89 100 124 
173 494 338 91 102 122 
173 495 338 93 103 127 
174 494 337 95 106 126 
174 495 337 98 109 129 
175 494 337 96 108 128 
175 495 337 97 108 128 
174 495 338 99 109 130 
167 496 342 123 124 133 
171 496 339 90 99 122 
171 497 339 96 105 126 
168 496 341 123 124 133 
168 497 341 105 111 126 
169 496 340 106 109 121 
169 496 341 114 116 125 
169 497 341 98 105 124 
168 496 342 123 125 134 
168 497 342 107 112 125 
168 498 341 99 106 126 
169 498 341 89 98 121 
169 499 341 90 99 120 
168 498 342 106 112 128 
168 499 342 100 107 124 
169 499 342 97 104 121 
170 496 340 100 107 123 
170 497 340 90 97 120 
171 496 340 96 103 124 
171 497 340 92 100 124 
170 498 340 91 99 123 
170 499 340 98 107 128 
170 499 341 94 103 125 
171 498 340 98 105 128 
171 499 340 97 106 127 
169 500 341 98 106 125 
169 501 341 97 106 124 
168 500 342 99 106 121 
168 501 342 104 110 124 
169 500 342 103 109 125 
169 501 342 103 110 125 
168 502 342 102 109 124 
169 502 342 104 112 125 
169 503 342 109 115 128 
170 500 340 96 105 124 
170 500 341 93 104 122 
170 501 341 94 105 121 
171 500 340 91 103 121 
171 500 341 88 101 118 
171 501 341 97 108 123 
170 502 341 101 111 126 
171 502 341 104 114 127 
170 502 342 105 114 127 
170 503 342 110 117 129 
171 503 342 105 114 127 
172 496 339 90 100 125 
172 497 339 98 108 129 
173 496 338 96 106 131 
173 497 338 90 103 126 
173 497 339 87 102 123 
172 498 339 97 109 127 
172 499 339 94 107 124 
173 498 339 90 105 122 
173 499 339 101 112 128 
175 496 337 92 105 125 
174 496 338 92 103 127 
174 497 338 88 103 122 
175 496 338 88 102 123 
175 497 338 93 106 124 
174 498 338 95 108 123 
174 498 339 97 108 123 
174 499 339 110 117 130 
175 498 338 107 116 129 
175 499 339 119 123 132 
172 499 340 96 107 125 
174 500 339 115 122 133 
175 500 339 124 127 136 
172 500 340 97 109 125 
172 501 340 108 116 129 
172 501 341 105 114 127 
173 500 340 108 118 132 
173 501 340 121 126 136 
172 502 341 114 121 132 
172 503 341 113 120 131 
173 502 341 132 135 142 
173 503 341 128 131 139 
172 503 342 114 120 131 
173 503 342 124 128 136 
174 500 340 119 125 136 
174 501 340 131 133 141 
175 500 340 128 130 138 
175 501 340 135 135 141 
174 502 340 140 139 145 
174 502 341 137 138 144 
174 503 341 125 127 135 
175 502 340 141 140 145 
175 502 341 138 137 142 
175 503 341 124 125 133 
170 504 342 117 122 132 
171 504 342 120 124 134 
172 504 342 125 128 137 
173 504 342 128 130 137 
174 504 342 129 131 138 
175 504 342 127 130 138 
176 495 337 95 108 127 
177 495 336 97 112 130 
177 495 337 100 113 130 
178 495 336 108 119 133 
178 495 337 105 117 132 
179 495 336 123 129 141 
184 496 335 161 157 159 
186 497 335 154 151 154 
187 497 335 155 153 156 
188 497 335 152 151 157 
189 497 335 131 136 146 
176 496 337 100 111 128 
176 497 337 108 117 130 
177 496 337 102 113 128 
177 497 337 111 118 131 
176 497 338 107 116 129 
177 497 338 123 127 136 
176 498 338 122 126 136 
176 499 338 142 140 145 
176 499 339 139 138 143 
177 498 338 139 139 145 
177 499 338 151 148 151 
177 499 339 156 151 152 
178 496 337 108 117 131 
178 497 337 116 121 132 
179 496 337 128 133 143 
179 497 337 126 129 137 
178 497 338 124 128 137 
178 498 338 145 144 148 
178 499 338 158 153 154 
178 499 339 161 155 154 
179 498 338 147 145 148 
179 499 338 161 155 155 
179 499 339 164 157 156 
176 500 339 149 145 147 
177 500 339 160 153 152 
178 500 339 166 158 155 
179 500 339 169 161 158 
176 500 340 144 142 146 
176 501 340 151 147 149 
177 501 340 163 155 153 
176 502 340 153 148 150 
176 502 341 151 147 149 
176 503 341 141 141 146 
177 502 340 164 157 155 
177 502 341 163 156 156 
177 503 341 156 153 155 
178 501 340 169 160 157 
179 501 340 173 164 161 
178 502 340 167 159 156 
178 502 341 166 158 157 
178 503 341 159 154 156 
179 502 340 170 162 159 
179 502 341 168 160 159 
179 503 341 158 153 154 
180 496 336 148 148 153 
180 496 337 145 145 150 
180 497 337 137 137 142 
181 496 336 152 149 152 
181 497 337 142 141 146 
180 498 337 143 141 145 
181 498 337 144 143 147 
180 498 338 154 150 152 
180 499 338 162 155 156 
180 499 339 164 157 156 
181 498 338 152 149 151 
181 499 338 159 154 154 
182 496 336 142 141 146 
182 497 336 137 137 142 
182 497 337 140 139 145 
183 496 336 143 142 146 
183 497 336 132 133 140 
183 497 337 134 135 141 
182 498 337 143 143 149 
183 498 337 135 136 143 
183 499 337 130 132 138 
182 499 338 143 142 147 
183 499 338 128 129 135 
180 500 339 168 160 159 
180 501 339 172 165 163 
181 500 339 161 156 156 
181 501 339 160 156 157 
182 500 339 147 145 150 
182 501 339 142 141 146 
183 500 338 133 133 139 
183 500 339 135 135 140 
183 501 339 135 134 139 
180 501 340 175 167 165 
181 501 340 162 157 158 
180 502 340 173 165 164 
180 503 341 157 154 156 
181 502 340 160 157 159 
181 503 341 143 144 150 
182 501 340 140 140 145 
183 501 340 131 132 137 
182 502 340 133 135 142 
182 503 341 116 122 133 
183 502 340 124 128 135 
183 503 341 112 120 131 
176 504 342 131 133 141 
177 504 342 144 144 149 
178 504 342 147 145 149 
179 504 342 146 143 146 
180 504 342 141 140 143 
181 504 342 132 134 140 
182 504 341 118 123 134 
183 504 341 124 130 140 
182 504 342 132 134 142 
183 504 342 134 137 147 
184 496 336 153 150 154 
184 497 336 137 138 144 
185 497 336 144 142 147 
184 498 336 136 136 142 
184 498 337 139 139 144 
184 499 337 149 147 150 
185 498 336 135 135 140 
185 498 337 144 143 147 
185 499 337 158 154 155 
184 499 338 146 144 147 
185 499 338 166 159 159 
186 497 336 144 143 147 
187 497 336 143 143 148 
186 498 336 133 134 139 
186 499 337 157 151 152 
187 498 336 131 132 139 
187 499 336 142 140 144 
187 499 337 156 151 151 
184 500 338 157 152 153 
184 500 339 152 148 149 
184 501 339 154 149 149 
185 500 338 167 159 157 
185 501 338 168 159 155 
185 501 339 167 158 155 
185 502 339 165 157 154 
186 500 337 164 156 152 
187 500 337 161 153 150 
186 500 338 166 157 154 
186 501 338 166 157 153 
186 501 339 166 157 152 
187 500 338 163 154 150 
187 501 338 161 153 149 
187 501 339 164 154 150 
186 502 339 166 157 153 
187 502 339 163 155 151 
184 502 340 143 140 143 
184 503 340 151 149 152 
184 503 341 126 129 137 
185 502 340 163 156 154 
185 503 340 161 156 156 
185 503 341 156 153 156 
186 502 340 165 156 152 
186 503 340 159 154 153 
186 503 341 141 141 145 
187 503 340 159 153 152 
188 497 336 140 142 150 
189 497 336 123 129 141 
188 498 336 128 131 139 
188 499 336 143 142 146 
188 499 337 154 150 151 
189 498 336 116 122 133 
189 499 336 134 137 144 
189 499 337 148 146 150 
190 498 336 102 113 127 
190 499 336 122 127 137 
190 499 337 124 129 138 
191 498 336 97 110 126 
191 499 336 105 116 129 
191 499 337 101 112 126 
188 500 337 157 151 149 
189 500 337 151 147 149 
188 501 338 156 149 147 
189 501 338 150 146 147 
188 502 338 156 149 147 
188 502 339 159 152 149 
189 502 338 149 145 146 
189 502 339 150 145 146 
189 503 339 146 144 147 
190 500 337 131 134 141 
191 500 337 97 109 123 
190 501 338 126 130 138 
191 501 338 90 105 121 
190 502 338 122 127 136 
190 502 339 119 124 133 
190 503 339 113 120 130 
