ply
format ascii 1.0
comment Created by CloudCompare v2.10.1 (Zephyrus)
comment Created 1/31/20 5:55 PM
obj_info Generated by CloudCompare!
element vertex 2057
property float x
property float y
property float z
property uchar red
property uchar green
property uchar blue
end_header
243 635 224 82 89 98 
243 634 226 70 77 86 
240 632 228 113 120 129 
241 632 228 117 123 133 
241 632 229 119 124 133 
242 632 228 103 110 120 
243 632 228 64 77 90 
243 632 229 74 85 97 
243 633 228 60 72 84 
244 633 226 72 76 83 
244 633 227 72 76 83 
245 633 226 67 70 76 
245 633 227 70 72 78 
244 634 224 71 77 85 
244 634 225 72 77 84 
244 635 224 69 76 85 
245 634 224 67 71 79 
245 634 225 68 71 77 
245 635 224 66 70 76 
244 634 226 72 76 84 
245 634 226 70 73 79 
246 633 227 61 65 70 
246 634 225 66 68 73 
246 635 224 66 68 73 
246 635 225 64 67 72 
247 635 225 58 63 70 
246 634 226 62 66 72 
246 634 227 60 64 70 
246 635 226 62 66 72 
247 634 226 57 63 71 
247 634 227 58 63 71 
247 635 226 58 64 71 
244 632 228 68 75 83 
244 632 229 69 76 85 
244 633 228 67 74 83 
245 632 228 70 73 80 
245 632 229 68 73 80 
245 633 228 68 71 77 
246 632 229 60 65 72 
246 633 228 59 64 70 
247 632 229 58 63 70 
247 633 228 58 63 69 
247 633 229 58 64 70 
246 632 230 62 67 74 
247 632 230 59 64 70 
247 634 228 59 64 70 
246 636 224 61 64 70 
247 636 224 57 61 68 
247 636 225 59 64 70 
247 637 224 56 61 66 
248 631 230 61 65 71 
248 631 231 62 65 71 
249 630 231 59 62 67 
249 631 231 60 62 67 
250 630 231 48 63 75 
250 631 230 46 70 88 
250 631 231 51 69 84 
251 631 230 38 77 108 
251 631 231 45 82 114 
253 631 229 20 66 109 
252 630 231 13 64 114 
252 631 230 12 62 113 
252 631 231 13 63 115 
253 630 231 19 60 118 
253 631 230 20 63 114 
253 631 231 19 62 118 
254 631 229 27 79 114 
255 631 229 43 78 111 
254 630 231 17 66 115 
254 631 230 19 71 111 
254 631 231 15 64 114 
255 630 231 30 61 103 
255 631 230 27 67 105 
248 627 236 60 67 75 
248 627 237 59 67 76 
249 627 236 61 62 66 
249 627 237 62 65 71 
248 626 239 57 66 75 
248 627 238 57 67 77 
249 626 238 63 68 74 
249 626 239 59 66 74 
249 627 238 60 67 75 
250 627 236 52 56 70 
250 627 237 53 59 69 
251 627 236 34 70 98 
251 627 237 42 68 90 
250 626 238 57 64 73 
250 626 239 57 63 70 
250 627 238 55 62 72 
251 626 238 36 69 94 
251 626 239 40 64 86 
251 627 238 41 71 93 
248 629 233 62 65 70 
249 629 233 62 60 64 
248 628 234 63 65 72 
248 628 235 60 65 73 
248 629 234 62 65 72 
249 628 234 58 56 61 
249 628 235 58 58 62 
249 629 234 60 58 62 
248 630 232 63 66 70 
248 631 232 62 66 72 
249 630 232 61 62 66 
250 629 233 46 60 75 
251 629 232 16 74 117 
251 629 233 32 76 108 
250 628 234 46 56 70 
250 628 235 49 56 70 
250 629 234 46 58 72 
251 628 234 34 74 104 
251 628 235 34 72 103 
251 629 234 35 75 106 
250 630 232 49 69 84 
251 630 232 40 80 111 
254 627 235 28 58 103 
255 627 235 52 48 88 
252 625 239 43 73 105 
253 625 239 32 68 111 
252 627 236 18 71 113 
252 627 237 22 72 109 
253 626 237 25 52 107 
253 627 236 13 67 113 
253 627 237 20 62 110 
252 626 238 30 72 109 
252 626 239 31 71 106 
253 626 238 22 58 109 
253 626 239 14 59 109 
254 625 239 16 33 98 
255 625 239 53 43 100 
254 626 237 37 50 97 
254 627 236 26 63 103 
254 627 237 32 58 100 
255 626 237 59 52 89 
255 627 236 53 54 88 
254 626 238 29 40 99 
255 626 238 60 47 96 
252 629 232 11 66 117 
252 629 233 12 71 118 
253 629 232 9 60 118 
253 629 233 10 65 118 
252 628 234 12 74 117 
252 628 235 12 71 114 
252 629 234 15 73 117 
253 628 234 8 68 117 
253 628 235 13 69 115 
253 629 234 10 68 117 
252 630 232 12 64 114 
253 630 232 13 57 116 
254 629 232 12 66 118 
254 629 233 11 63 113 
255 628 233 37 43 85 
255 629 232 34 58 101 
255 629 233 22 52 98 
254 628 234 16 64 110 
254 628 235 20 66 111 
254 629 234 10 65 114 
255 628 234 42 49 90 
255 628 235 46 50 92 
254 630 232 19 68 118 
255 630 232 29 66 111 
248 635 225 57 63 69 
249 635 225 49 57 65 
248 634 226 59 65 73 
248 634 227 57 64 71 
248 635 226 56 63 71 
249 634 226 49 59 69 
249 634 227 50 60 69 
249 635 226 50 58 67 
250 633 227 41 66 85 
251 633 227 27 73 109 
250 635 225 44 67 88 
251 634 225 24 70 114 
251 635 224 32 75 108 
251 635 225 36 76 108 
250 634 226 41 66 89 
250 634 227 41 61 79 
250 635 226 42 58 73 
251 634 226 31 72 108 
251 634 227 36 72 100 
248 633 228 55 62 71 
248 633 229 56 63 71 
249 633 228 53 61 69 
249 633 229 56 63 70 
248 632 230 60 65 71 
249 632 230 57 62 67 
248 634 228 55 63 72 
249 634 228 52 61 70 
250 632 229 50 69 84 
250 633 228 44 66 83 
250 633 229 51 71 87 
251 632 228 26 76 115 
251 632 229 36 77 111 
251 633 228 34 77 109 
251 633 229 44 78 104 
250 632 230 48 66 80 
251 632 230 39 76 106 
248 636 224 56 60 66 
248 636 225 58 63 69 
248 637 224 56 59 65 
249 636 224 51 57 63 
249 636 225 51 58 65 
249 637 224 51 56 61 
250 636 224 51 69 86 
250 636 225 49 71 90 
250 637 224 48 60 71 
252 633 226 17 67 110 
252 633 227 16 68 112 
253 632 227 50 81 115 
253 633 226 46 80 110 
253 633 227 50 82 113 
252 634 225 24 70 108 
252 635 224 25 74 110 
252 635 225 22 70 112 
253 634 225 41 77 108 
253 635 224 39 79 112 
252 634 226 20 67 109 
253 634 226 34 71 106 
254 632 227 48 84 112 
254 633 226 54 88 115 
254 633 227 48 85 113 
255 633 226 48 78 105 
255 633 227 38 75 103 
254 634 224 40 79 111 
254 634 225 50 85 113 
254 635 224 42 78 111 
255 634 224 35 68 100 
255 634 225 40 69 98 
255 635 224 40 68 99 
252 632 228 18 67 112 
252 632 229 14 64 112 
252 633 228 10 69 115 
253 632 228 36 75 111 
253 632 229 16 63 110 
252 632 230 12 65 112 
254 632 228 35 81 112 
254 632 229 25 77 113 
255 632 228 44 77 107 
255 632 229 51 78 110 
240 624 241 122 125 131 
240 625 240 124 129 137 
240 625 241 124 128 135 
241 625 240 117 122 129 
241 625 241 122 125 133 
240 624 242 126 127 133 
240 624 243 124 125 128 
241 624 242 125 128 135 
241 624 243 127 130 136 
242 625 240 115 120 128 
242 625 241 117 121 129 
243 625 240 118 124 134 
243 625 241 123 127 136 
242 624 242 120 124 131 
242 624 243 123 127 134 
243 624 242 124 129 138 
243 624 243 122 127 136 
243 625 242 124 129 138 
242 624 244 125 130 138 
243 624 244 121 126 135 
244 625 240 98 108 120 
244 625 241 106 115 127 
245 625 240 84 95 108 
245 625 241 86 96 109 
244 624 242 120 127 138 
244 624 243 117 123 135 
244 625 242 111 119 130 
245 624 242 103 110 122 
245 624 243 102 110 121 
245 625 242 92 102 114 
244 626 240 94 105 117 
245 626 240 84 95 108 
246 625 240 80 88 99 
246 625 241 83 91 102 
247 625 241 62 69 78 
246 624 242 87 95 106 
246 624 243 90 99 111 
246 625 242 85 94 104 
247 624 243 70 78 88 
247 625 242 67 74 83 
247 625 243 63 71 80 
246 626 240 73 81 92 
247 626 240 60 67 75 
244 624 244 113 119 129 
245 624 244 105 113 124 
246 624 244 94 103 114 
246 624 245 94 102 113 
247 624 244 76 83 93 
247 624 245 78 85 95 
248 625 241 61 67 75 
249 625 240 62 66 72 
249 625 241 62 66 72 
248 624 243 58 66 75 
248 625 242 60 66 74 
248 625 243 59 66 75 
249 624 242 60 65 72 
249 624 243 61 65 71 
249 625 242 62 66 72 
248 626 240 60 66 74 
249 626 240 60 66 73 
250 625 240 60 63 69 
250 625 241 59 62 68 
251 625 240 46 62 78 
251 625 241 46 64 80 
250 624 242 58 60 67 
250 624 243 61 62 68 
250 625 242 61 63 68 
251 624 242 50 67 82 
251 624 243 51 65 78 
251 625 242 51 59 67 
250 626 240 59 63 69 
248 624 244 60 68 77 
248 624 245 60 69 79 
249 624 244 62 67 74 
249 624 245 58 65 75 
250 624 244 63 65 70 
251 624 244 54 63 73 
252 624 241 58 91 116 
252 625 240 48 77 106 
252 625 241 47 80 104 
253 624 241 64 102 129 
253 625 240 39 80 115 
253 625 241 50 92 122 
252 624 242 61 91 115 
252 624 243 62 92 116 
253 624 242 73 108 134 
253 624 243 77 110 138 
254 624 241 47 88 122 
254 625 240 23 59 106 
255 624 241 37 80 115 
255 625 240 34 58 103 
254 624 242 67 107 137 
254 624 243 79 116 147 
255 624 242 58 103 134 
255 624 243 74 115 146 
252 624 244 57 84 106 
253 624 244 82 111 139 
224 651 207 74 49 54 
225 651 207 82 42 32 
226 651 207 97 84 76 
227 651 207 119 116 116 
224 652 206 79 44 45 
224 652 207 76 46 48 
224 653 206 83 51 54 
225 652 207 81 39 27 
225 653 206 85 46 38 
224 654 205 82 53 51 
224 655 205 87 48 43 
225 655 205 88 55 51 
224 654 206 86 53 55 
225 654 206 88 54 50 
226 652 207 96 83 77 
226 653 206 89 74 68 
226 653 207 91 86 82 
227 652 207 118 116 118 
227 653 207 114 114 117 
226 655 205 101 92 90 
227 655 205 123 123 128 
226 654 206 96 87 86 
226 655 206 99 95 95 
227 654 206 113 114 118 
227 655 206 119 120 124 
228 652 207 126 124 126 
228 653 207 125 124 127 
229 652 207 120 120 123 
229 653 207 115 116 120 
228 655 205 125 125 130 
228 654 206 125 125 129 
228 654 207 125 125 129 
228 655 206 123 124 128 
229 654 207 111 113 119 
229 655 206 112 114 119 
230 653 207 106 109 115 
231 653 207 121 122 126 
230 654 207 101 105 112 
230 655 206 111 113 119 
230 655 207 110 113 119 
231 654 207 119 120 125 
231 655 206 121 122 126 
231 655 207 119 120 125 
232 653 207 125 124 129 
232 654 207 123 123 128 
232 655 206 121 122 126 
232 655 207 121 122 126 
233 654 207 113 114 118 
233 655 206 112 113 118 
233 655 207 109 110 115 
234 654 207 116 115 118 
234 655 206 118 117 121 
234 655 207 116 115 118 
235 654 207 124 123 127 
235 655 207 124 124 129 
236 654 207 119 119 124 
236 655 207 113 114 120 
237 654 207 111 112 116 
237 655 207 107 107 112 
238 655 207 114 114 119 
239 655 207 116 115 120 
224 642 215 73 100 123 
224 643 214 71 96 121 
224 643 215 74 99 123 
225 642 215 74 94 112 
225 643 215 74 87 99 
226 643 215 76 55 58 
227 643 215 84 51 54 
224 646 211 72 99 123 
224 647 210 69 94 116 
224 647 211 67 93 116 
225 646 211 66 77 90 
225 647 210 65 70 79 
225 647 211 62 73 85 
226 646 211 77 47 39 
226 647 210 74 53 45 
226 647 211 81 58 49 
227 647 211 104 96 91 
224 644 213 73 101 126 
224 645 212 75 101 126 
224 645 213 74 101 126 
225 644 213 69 78 88 
225 645 212 70 69 77 
225 645 213 73 69 78 
224 644 214 70 96 120 
225 644 214 70 72 80 
224 646 212 75 101 126 
225 646 212 69 58 63 
226 644 213 85 36 26 
226 645 213 86 39 36 
227 644 213 84 53 37 
227 645 213 89 64 50 
226 644 214 80 40 38 
227 644 214 82 49 40 
226 646 212 85 42 34 
227 646 212 92 74 62 
228 643 214 88 85 86 
228 643 215 79 69 72 
229 643 214 104 109 116 
229 643 215 97 104 113 
230 642 215 123 127 136 
230 643 214 122 125 133 
230 643 215 116 122 131 
231 642 215 126 128 135 
231 643 214 123 126 132 
231 643 215 124 127 134 
228 647 211 119 118 121 
229 647 211 108 112 119 
230 647 211 111 114 120 
231 647 211 123 124 128 
228 644 213 95 88 83 
228 645 212 108 103 100 
228 645 213 103 97 92 
229 644 213 114 115 119 
229 645 212 122 122 126 
229 645 213 120 120 124 
228 644 214 82 73 67 
229 644 214 107 111 116 
228 646 212 116 114 114 
229 646 212 121 121 126 
230 644 213 123 125 131 
230 645 212 123 124 129 
230 645 213 123 125 131 
231 644 213 123 125 130 
231 645 212 124 125 130 
231 645 213 125 126 130 
230 644 214 121 125 132 
231 644 214 123 125 130 
230 646 212 119 121 127 
231 646 212 124 125 129 
224 640 217 76 100 129 
224 641 216 70 94 123 
224 641 217 72 98 127 
225 640 217 74 101 127 
225 641 216 67 93 115 
225 641 217 72 99 123 
224 640 218 76 101 130 
225 640 218 77 104 132 
224 642 216 70 94 120 
225 642 216 70 89 106 
226 640 217 70 92 110 
226 641 216 68 71 81 
226 641 217 67 81 94 
227 641 217 77 44 46 
226 640 218 70 88 105 
227 640 218 74 56 66 
226 642 216 70 65 72 
226 643 216 79 52 56 
227 642 216 80 39 43 
227 643 216 83 49 61 
228 641 217 90 40 34 
229 641 217 96 86 82 
228 640 218 91 38 42 
228 640 219 87 34 44 
228 641 218 91 43 39 
229 640 218 94 79 70 
229 640 219 99 81 72 
229 641 218 95 82 75 
228 642 216 79 60 63 
229 642 216 89 95 102 
230 641 217 125 125 129 
231 641 216 125 129 136 
231 641 217 127 130 137 
230 640 218 127 125 128 
230 640 219 127 125 126 
230 641 218 124 123 126 
231 640 218 130 132 137 
231 641 218 128 130 137 
230 642 216 119 124 131 
231 642 216 126 129 136 
224 648 209 62 77 93 
224 649 209 56 65 80 
225 649 209 68 49 49 
224 648 210 67 84 102 
225 648 210 67 62 65 
224 650 208 66 58 66 
225 650 208 78 41 35 
226 649 209 86 71 62 
227 649 209 117 114 114 
226 648 210 86 72 63 
227 648 210 119 116 117 
227 649 210 125 123 125 
226 650 208 87 62 49 
226 650 209 92 79 70 
226 651 208 96 79 69 
227 650 208 118 114 112 
227 650 209 118 114 114 
227 651 208 121 116 116 
228 649 209 114 114 117 
229 649 209 102 106 114 
228 648 210 120 120 124 
228 648 211 121 121 124 
228 649 210 116 116 120 
229 648 210 98 104 113 
229 648 211 103 109 116 
229 649 210 97 103 111 
228 650 208 122 121 123 
228 650 209 119 118 120 
228 651 208 126 123 125 
229 650 209 112 114 120 
229 651 208 122 121 124 
230 649 209 114 114 118 
231 649 209 124 122 122 
230 648 210 107 110 116 
230 648 211 107 110 117 
230 649 210 111 112 117 
231 648 210 124 123 126 
231 648 211 123 123 127 
231 649 210 124 122 123 
230 650 209 120 119 122 
230 651 208 123 121 124 
231 650 209 124 121 121 
231 651 208 126 123 125 
231 651 209 125 122 123 
228 652 208 126 124 127 
229 652 208 123 123 126 
230 652 208 117 117 121 
231 652 208 124 123 126 
231 653 208 122 122 126 
232 642 215 106 113 123 
232 643 214 106 112 121 
232 643 215 106 113 123 
233 642 215 102 112 124 
233 643 214 111 117 125 
233 643 215 104 113 124 
234 642 215 119 124 132 
234 643 214 123 125 131 
234 643 215 119 123 130 
235 642 215 122 124 132 
235 643 214 121 123 129 
235 643 215 121 124 130 
232 647 211 116 116 122 
233 647 211 108 110 116 
234 647 211 119 119 123 
235 647 211 124 124 128 
232 644 213 118 121 126 
232 645 212 124 125 130 
232 645 213 121 123 128 
233 644 213 121 122 128 
233 645 212 123 123 127 
233 645 213 122 123 128 
232 644 214 114 117 125 
233 644 214 116 119 126 
232 646 212 123 124 129 
233 646 212 119 120 125 
234 644 213 126 125 129 
234 645 212 124 124 127 
234 645 213 124 124 127 
235 644 213 123 123 128 
235 645 213 124 124 128 
234 644 214 124 125 130 
235 644 214 121 122 128 
234 646 212 123 123 126 
234 647 212 123 122 125 
235 646 212 124 124 128 
235 647 212 124 123 127 
236 642 215 107 113 123 
236 643 214 108 113 121 
236 643 215 106 113 122 
237 642 215 105 111 120 
237 643 214 109 114 123 
237 643 215 110 116 125 
238 643 215 120 124 132 
239 643 215 111 116 125 
236 647 211 116 117 121 
237 647 211 113 114 119 
236 645 213 123 123 128 
237 644 213 117 120 126 
237 645 213 121 122 127 
236 644 214 114 117 124 
237 644 214 115 118 125 
236 646 212 124 123 127 
236 647 212 119 119 123 
237 646 212 120 121 126 
237 646 213 121 121 126 
237 647 212 117 117 122 
238 645 213 120 122 127 
239 645 213 117 119 126 
238 644 214 118 121 128 
238 644 215 120 123 130 
239 644 214 111 115 122 
239 644 215 108 113 121 
239 645 214 113 117 124 
238 646 212 120 121 126 
238 646 213 120 122 127 
238 647 212 119 120 125 
239 646 212 119 120 126 
239 646 213 119 121 126 
239 647 212 118 119 125 
232 641 216 119 124 132 
232 641 217 122 125 132 
233 640 217 128 128 133 
233 641 217 125 126 131 
232 640 218 128 129 134 
233 640 218 129 129 134 
232 642 216 109 115 125 
233 642 216 111 117 126 
234 640 217 131 131 135 
234 641 217 130 130 134 
235 640 217 129 130 135 
235 641 216 131 131 136 
235 641 217 130 131 136 
234 640 218 129 130 135 
235 640 218 125 127 133 
234 642 216 127 128 133 
235 642 216 128 129 134 
236 640 217 127 129 136 
236 641 216 122 124 131 
236 641 217 126 128 134 
237 640 217 127 128 135 
237 641 216 121 124 131 
237 641 217 125 127 133 
236 640 218 127 129 136 
237 640 218 128 129 135 
236 642 216 114 118 126 
237 642 216 114 119 127 
238 641 217 127 128 133 
239 640 217 121 123 129 
239 641 217 123 124 130 
238 640 218 127 128 134 
239 640 218 123 125 132 
238 642 216 123 125 132 
239 642 216 115 119 126 
232 649 209 110 109 110 
232 648 210 113 113 118 
232 648 211 115 116 121 
232 649 210 107 107 110 
233 648 210 103 105 110 
233 648 211 105 107 112 
233 649 210 104 105 109 
232 650 209 112 110 112 
232 651 208 123 122 124 
232 651 209 117 116 118 
233 650 209 112 111 114 
233 651 208 122 122 125 
233 651 209 118 118 121 
234 648 210 114 114 118 
234 648 211 114 114 118 
234 649 210 116 116 120 
235 648 211 121 122 127 
235 649 210 120 121 126 
234 650 209 121 120 123 
234 651 208 122 120 123 
234 651 209 122 121 124 
235 650 209 120 120 124 
235 651 209 122 121 125 
234 650 210 122 121 125 
235 650 210 120 121 126 
232 652 208 125 124 127 
232 653 208 125 124 128 
233 652 208 122 121 125 
233 653 208 119 119 122 
234 652 208 120 119 122 
234 653 208 119 117 120 
235 652 208 123 122 125 
235 653 208 124 122 125 
235 654 208 124 124 127 
236 648 211 110 113 119 
236 649 210 107 111 118 
237 648 211 104 107 113 
237 649 210 102 105 112 
237 649 211 102 106 112 
236 650 209 114 116 121 
236 651 209 120 121 125 
237 651 209 119 119 124 
236 650 210 110 113 120 
237 650 210 109 111 117 
238 648 211 117 118 123 
238 649 210 117 118 123 
238 649 211 117 118 123 
239 648 211 117 119 125 
239 649 210 118 120 126 
239 649 211 115 117 124 
238 651 209 117 117 122 
239 651 209 101 105 113 
238 650 210 118 118 123 
238 651 210 116 117 122 
239 650 210 104 108 115 
239 651 210 102 106 114 
236 652 208 124 123 126 
236 653 208 123 122 125 
237 652 208 123 122 125 
237 652 209 122 121 124 
237 653 208 121 119 122 
236 654 208 122 121 125 
237 654 208 115 115 118 
238 652 208 118 117 121 
238 652 209 118 118 122 
238 653 208 117 116 119 
239 652 209 103 106 112 
239 653 208 108 109 114 
239 653 209 102 105 111 
238 654 208 114 114 117 
238 655 208 117 117 121 
239 654 208 108 109 114 
239 655 208 108 108 113 
224 658 203 108 94 94 
224 659 203 129 125 125 
225 658 203 119 111 110 
225 659 203 129 126 127 
226 659 203 120 120 124 
227 659 203 116 117 122 
224 656 204 84 41 35 
224 656 205 85 43 40 
224 657 204 84 54 49 
225 656 204 91 71 62 
225 656 205 89 63 55 
225 657 204 102 86 84 
224 658 204 105 90 90 
225 658 204 119 109 108 
226 656 205 116 110 109 
226 657 204 123 117 118 
226 657 205 127 125 126 
227 656 205 127 126 129 
227 657 204 132 130 133 
227 657 205 130 128 131 
226 658 204 129 125 126 
226 659 204 128 126 128 
227 658 204 130 128 131 
227 659 204 123 122 127 
224 660 203 136 132 134 
225 660 203 125 125 129 
226 660 203 112 113 118 
227 660 203 113 113 118 
228 656 205 125 124 128 
228 657 204 130 128 130 
228 657 205 128 126 128 
229 656 205 118 118 121 
229 657 205 127 125 127 
228 658 204 130 128 131 
228 659 204 128 126 130 
229 658 204 131 129 131 
229 659 204 132 130 133 
230 656 205 121 121 124 
230 657 205 128 126 128 
231 656 205 126 125 129 
231 657 205 131 129 132 
230 656 206 119 120 124 
231 656 206 123 123 127 
230 658 204 129 127 129 
230 658 205 130 127 130 
230 659 204 123 121 124 
231 658 204 134 131 134 
231 658 205 134 132 135 
231 659 204 129 128 131 
228 660 203 128 127 130 
229 660 203 132 129 133 
230 660 203 108 108 112 
231 660 203 117 116 120 
229 660 204 132 130 133 
230 660 204 112 112 116 
231 660 204 125 123 127 
232 656 205 124 123 127 
232 657 205 128 127 130 
233 657 205 123 123 126 
232 656 206 122 122 126 
233 656 206 116 116 120 
232 658 204 135 132 134 
232 658 205 132 130 133 
232 659 204 136 133 135 
233 658 205 130 128 131 
233 659 204 134 132 134 
234 657 205 126 125 128 
234 656 206 121 120 124 
234 657 206 127 126 129 
235 656 206 126 126 131 
235 657 206 126 126 131 
234 658 205 130 128 131 
234 659 204 130 129 133 
234 659 205 132 130 133 
235 658 205 127 126 131 
235 659 205 130 128 132 
235 658 206 124 125 130 
232 660 204 136 133 136 
233 660 204 133 131 134 
234 660 204 127 126 130 
235 660 204 133 130 132 
235 660 205 134 131 133 
236 656 206 112 114 121 
236 656 207 107 110 116 
236 657 206 113 116 121 
237 656 207 105 107 112 
237 657 206 112 113 117 
236 658 205 121 122 127 
236 659 205 128 127 131 
237 659 205 129 128 131 
236 658 206 119 120 126 
237 658 206 122 121 125 
237 659 206 129 127 130 
238 656 207 118 118 122 
238 657 206 120 120 124 
238 657 207 119 120 124 
239 656 207 106 108 114 
239 657 207 100 104 112 
238 659 205 128 126 129 
239 659 205 119 119 125 
238 658 206 123 122 125 
238 659 206 124 123 127 
239 658 206 99 103 111 
239 659 206 110 112 119 
236 660 205 135 132 134 
237 660 205 130 128 131 
238 660 205 128 126 129 
239 660 205 120 120 125 
240 643 215 89 98 109 
241 643 215 87 92 100 
242 643 215 89 92 98 
240 645 213 108 112 118 
240 644 214 96 101 109 
240 644 215 81 90 101 
240 645 214 102 106 113 
241 644 214 92 95 101 
241 644 215 88 93 100 
241 645 214 90 93 99 
240 646 212 111 113 120 
240 646 213 104 107 113 
240 647 212 92 96 103 
241 646 213 87 89 95 
241 647 212 75 79 85 
241 647 213 76 79 84 
242 644 214 81 84 90 
242 644 215 85 88 94 
242 645 214 78 81 86 
243 644 214 69 73 80 
243 644 215 62 69 77 
243 645 214 67 71 78 
242 646 213 77 79 84 
242 647 212 78 80 84 
242 647 213 78 79 83 
243 647 213 68 71 76 
242 646 214 77 79 85 
243 646 214 69 72 79 
244 644 215 55 61 69 
244 645 214 58 63 70 
245 644 215 58 61 67 
245 645 214 56 60 67 
245 645 215 56 61 67 
244 647 213 54 60 66 
245 647 213 52 58 65 
244 646 214 58 63 69 
244 647 214 58 62 69 
245 646 214 54 58 65 
245 647 214 51 57 64 
246 644 215 56 59 64 
246 645 215 55 58 64 
247 644 215 49 53 59 
247 645 215 50 54 58 
246 646 214 54 57 63 
246 646 215 54 57 62 
246 647 214 50 54 61 
247 646 214 53 55 60 
247 646 215 51 54 58 
247 647 214 54 56 60 
247 647 215 52 54 57 
240 640 217 112 115 122 
240 641 217 103 108 116 
241 641 217 101 104 111 
240 640 218 116 119 126 
241 640 218 109 112 118 
240 642 216 89 97 108 
240 643 216 81 91 102 
241 642 216 87 94 103 
241 643 216 87 92 101 
242 641 217 95 97 103 
243 641 217 74 78 85 
242 640 218 97 98 103 
242 640 219 91 94 99 
242 641 218 91 93 99 
243 640 218 77 80 87 
243 640 219 75 80 87 
243 641 218 82 85 91 
242 642 216 92 95 101 
242 643 216 91 94 100 
243 642 216 70 76 84 
243 642 217 62 68 76 
243 643 216 66 73 81 
244 641 217 61 65 72 
245 641 217 59 62 68 
244 640 218 65 69 75 
244 640 219 65 70 76 
244 641 218 63 66 72 
245 640 218 60 64 69 
245 640 219 61 64 69 
245 641 218 60 63 68 
244 642 216 53 60 69 
244 642 217 56 62 70 
244 643 216 53 60 68 
245 642 216 58 62 68 
245 642 217 57 61 67 
245 643 216 58 62 67 
246 641 217 61 63 68 
247 641 217 58 61 67 
246 640 219 62 64 69 
246 641 218 61 64 69 
247 640 219 60 63 69 
247 641 218 56 60 66 
247 641 219 58 61 67 
246 642 216 61 64 69 
246 642 217 61 63 68 
246 643 216 57 61 66 
247 642 216 55 59 65 
247 642 217 55 59 65 
247 643 216 52 56 63 
246 640 220 61 63 69 
247 640 220 58 60 68 
247 640 221 57 59 67 
245 644 216 56 61 67 
247 644 216 50 55 60 
240 648 211 87 94 102 
240 649 211 77 85 95 
241 648 211 63 73 83 
241 649 211 73 77 84 
240 651 209 88 93 101 
240 650 210 83 89 98 
240 650 211 68 77 88 
240 651 210 84 88 97 
241 650 210 76 80 87 
241 650 211 75 79 86 
241 651 210 79 82 89 
242 649 211 74 75 80 
242 650 210 74 77 83 
242 650 211 71 74 79 
242 651 210 69 72 78 
243 650 211 61 63 69 
243 651 210 60 63 68 
243 651 211 60 63 69 
240 648 212 88 93 101 
241 648 212 74 78 84 
242 648 212 77 78 82 
242 649 212 75 76 80 
243 648 212 67 69 73 
243 648 213 62 66 71 
243 649 212 62 65 70 
243 650 212 57 61 66 
240 652 209 90 94 102 
240 653 209 88 91 98 
241 652 209 80 83 90 
241 653 209 76 79 85 
241 652 210 77 80 87 
240 654 208 81 85 91 
240 654 209 79 83 89 
240 655 208 73 78 85 
241 654 208 64 68 75 
241 654 209 68 72 77 
241 655 208 67 70 76 
242 653 209 68 72 78 
242 652 210 70 73 79 
242 653 210 64 67 73 
243 652 210 61 63 69 
243 653 210 59 62 69 
242 654 209 67 70 77 
242 655 208 66 70 78 
242 655 209 65 70 77 
243 654 209 57 62 70 
243 655 209 50 57 66 
243 654 210 56 60 67 
244 650 211 54 58 64 
244 651 211 54 57 64 
245 651 211 49 56 63 
246 651 211 47 54 63 
244 648 213 53 58 65 
244 649 212 52 57 64 
244 649 213 50 56 63 
245 648 213 49 55 63 
245 649 213 48 54 63 
244 650 212 52 57 65 
245 650 212 49 55 62 
245 650 213 47 54 63 
245 651 212 49 54 62 
246 648 213 46 51 60 
246 649 213 46 51 59 
247 649 213 53 55 60 
246 648 214 49 53 60 
246 649 214 49 53 60 
247 648 214 54 56 59 
247 649 214 53 55 60 
246 650 212 48 54 62 
246 650 213 47 52 60 
246 651 212 47 55 63 
247 650 212 52 56 62 
247 650 213 53 55 60 
247 651 212 53 56 63 
244 652 210 53 57 64 
244 652 211 51 56 63 
244 653 210 51 57 65 
245 652 211 50 57 65 
245 653 210 52 58 68 
245 653 211 53 59 67 
244 654 209 50 57 66 
244 655 209 51 59 69 
245 655 209 52 61 72 
244 654 210 50 57 66 
245 654 210 51 60 70 
246 652 211 47 56 66 
246 653 210 49 59 69 
246 653 211 48 57 67 
247 652 211 52 56 63 
247 653 211 51 55 63 
246 655 209 49 59 70 
247 655 209 47 55 64 
246 654 210 51 60 71 
247 654 210 50 56 64 
247 655 210 49 55 64 
248 644 215 47 51 56 
248 645 215 49 52 56 
249 645 215 45 52 63 
248 646 215 50 52 56 
248 647 214 51 53 57 
248 647 215 49 51 55 
249 646 215 46 55 66 
249 647 214 51 63 76 
249 647 215 49 61 73 
250 645 215 54 77 96 
251 645 215 62 93 118 
250 646 215 61 84 104 
250 647 214 67 91 112 
250 647 215 66 87 107 
251 646 215 63 93 118 
251 647 214 63 90 116 
251 647 215 63 91 117 
252 645 215 58 87 111 
253 645 215 60 86 109 
252 646 215 65 93 115 
252 647 214 65 91 114 
253 646 215 67 91 113 
253 647 214 70 95 117 
254 645 215 71 97 119 
255 645 215 72 99 122 
254 646 215 70 95 119 
254 647 214 71 97 121 
254 647 215 71 97 121 
255 646 215 72 96 119 
255 647 214 73 97 120 
255 647 215 72 95 118 
248 640 219 53 53 61 
248 641 218 50 52 59 
248 641 219 51 53 59 
249 640 219 48 54 62 
249 641 218 45 50 59 
249 641 219 47 52 60 
248 642 217 49 52 60 
248 643 216 50 55 61 
249 642 217 47 52 61 
249 643 216 44 51 62 
249 643 217 45 51 62 
250 640 219 49 68 84 
250 641 218 56 72 87 
250 641 219 46 61 73 
251 640 219 53 83 107 
251 641 218 70 93 114 
251 641 219 61 88 110 
250 642 217 57 74 90 
250 643 216 51 72 90 
250 643 217 44 63 79 
251 642 217 71 96 117 
251 643 216 62 93 118 
251 643 217 66 92 115 
248 640 220 52 53 61 
248 640 221 51 52 61 
249 640 220 48 53 61 
249 640 221 47 52 60 
250 640 220 46 64 78 
251 640 220 55 83 107 
248 644 216 48 52 58 
249 644 216 45 51 61 
250 644 216 55 75 93 
251 644 216 61 91 116 
251 645 216 62 92 117 
252 640 219 30 70 100 
252 641 218 50 82 108 
252 641 219 40 76 103 
253 640 219 37 75 103 
253 641 218 54 84 109 
253 641 219 48 81 107 
252 642 217 57 87 111 
252 643 216 64 94 119 
252 643 217 62 91 115 
253 642 217 53 81 105 
253 643 217 57 82 106 
254 640 219 58 90 118 
254 641 218 63 93 118 
254 641 219 62 92 119 
255 640 219 67 96 122 
255 641 218 69 96 122 
255 641 219 68 94 120 
254 642 217 68 95 119 
254 643 217 63 86 111 
255 643 217 68 94 118 
254 642 218 67 96 121 
255 642 218 70 96 121 
252 640 220 29 69 101 
253 640 220 34 75 103 
254 640 220 56 91 119 
255 640 220 68 96 122 
252 644 216 62 90 114 
253 644 216 63 89 111 
254 644 216 67 90 114 
254 644 217 67 88 113 
254 645 216 72 99 122 
255 644 216 70 95 119 
255 644 217 69 93 117 
255 645 216 72 98 121 
248 648 214 49 52 57 
248 649 214 48 52 58 
249 648 214 50 63 76 
249 649 214 47 61 77 
248 650 213 46 52 59 
248 651 212 50 52 61 
248 651 213 48 51 59 
249 650 213 49 65 83 
249 651 212 52 74 93 
249 651 213 49 69 87 
250 649 213 73 102 127 
251 649 213 68 98 124 
250 648 214 71 94 115 
250 649 214 71 95 117 
251 648 214 66 94 120 
251 649 214 67 97 123 
250 650 213 72 98 123 
250 651 212 73 102 129 
250 651 213 72 100 125 
251 650 213 67 97 124 
251 651 212 66 99 126 
251 651 213 64 96 124 
248 652 211 46 53 64 
248 653 211 46 53 64 
249 652 211 60 81 100 
249 653 211 63 85 105 
248 655 209 47 59 74 
249 655 209 72 96 118 
248 654 210 46 57 69 
248 655 210 46 57 71 
249 654 210 67 90 111 
249 655 210 68 92 113 
250 652 211 74 104 131 
250 653 211 74 105 131 
251 652 211 71 102 130 
251 653 211 74 106 134 
250 655 209 75 106 134 
251 655 209 76 107 135 
250 654 210 75 104 132 
250 655 210 75 105 133 
251 654 210 75 104 132 
251 655 210 76 104 133 
248 652 212 48 53 63 
249 652 212 59 81 101 
250 652 212 76 105 130 
251 652 212 69 101 128 
252 649 213 67 95 119 
253 649 213 64 92 117 
252 648 214 58 86 111 
252 649 214 65 91 116 
253 648 214 65 92 116 
252 650 213 63 92 118 
252 651 212 64 95 122 
252 651 213 58 90 118 
253 650 213 69 98 123 
253 651 212 67 96 122 
253 651 213 66 96 123 
254 649 213 70 97 122 
255 649 213 73 99 122 
254 648 214 70 97 121 
254 649 214 68 95 120 
255 648 214 73 99 122 
255 649 214 72 98 122 
254 650 213 72 100 124 
254 651 212 72 100 123 
254 651 213 72 101 125 
255 650 213 73 100 123 
255 651 212 72 99 122 
255 651 213 73 99 122 
252 652 211 72 103 130 
252 653 211 76 107 133 
253 652 211 79 106 130 
253 653 211 77 106 130 
252 655 209 78 107 134 
252 654 210 79 108 134 
252 655 210 78 108 134 
253 654 210 76 104 130 
253 654 211 75 103 128 
253 655 210 79 108 133 
254 652 211 76 103 126 
254 653 211 79 105 128 
255 653 211 76 103 126 
254 654 210 72 98 124 
254 654 211 74 101 126 
254 655 210 75 103 128 
255 654 210 70 96 122 
255 654 211 74 99 123 
255 655 210 76 102 125 
252 652 212 72 101 127 
253 652 212 76 103 128 
254 652 212 74 100 124 
255 652 212 72 100 123 
240 656 207 75 81 89 
240 657 207 71 77 86 
241 657 207 80 83 89 
240 658 206 78 84 94 
240 658 207 74 80 90 
240 659 206 90 95 103 
241 658 206 87 90 96 
241 658 207 83 87 93 
241 659 206 89 92 99 
242 657 207 68 73 81 
243 657 207 53 62 72 
242 658 207 72 77 85 
242 659 206 82 85 92 
243 658 207 54 63 73 
243 659 206 56 64 75 
243 659 207 55 64 75 
240 660 205 103 105 111 
241 660 205 95 98 104 
241 660 206 91 93 99 
242 660 206 83 86 93 
243 660 206 62 68 79 
244 658 207 52 62 73 
244 659 207 49 60 72 
245 658 207 51 62 74 
245 659 207 50 62 74 
246 658 207 46 56 69 
246 659 207 49 60 71 
247 658 207 46 55 66 
247 659 207 50 58 69 
244 660 206 51 59 71 
244 660 207 47 59 71 
245 660 206 53 65 77 
245 660 207 51 63 75 
246 660 206 53 63 74 
246 660 207 51 61 72 
247 660 207 50 57 68 
248 658 207 58 75 91 
248 659 207 48 66 84 
249 658 207 82 107 130 
249 659 207 73 98 121 
250 659 207 79 108 134 
251 659 207 81 108 133 
248 660 207 47 60 76 
249 660 207 55 77 100 
250 660 207 78 103 126 
251 660 207 90 115 138 
252 660 207 92 119 144 
240 656 208 71 76 83 
241 656 208 73 76 82 
241 657 208 78 81 87 
242 656 208 65 70 77 
242 657 208 61 68 76 
243 656 208 50 58 67 
243 657 208 51 60 70 
244 656 208 53 62 72 
244 656 209 52 61 71 
244 657 208 53 62 73 
245 656 208 51 61 72 
245 656 209 52 62 73 
245 657 208 49 60 72 
245 658 208 50 61 73 
246 656 209 47 56 68 
246 657 208 42 53 66 
247 656 209 42 51 62 
247 657 208 41 51 63 
246 658 208 45 56 70 
247 658 208 42 52 65 
248 656 209 47 60 75 
248 657 208 51 68 82 
249 656 209 77 101 122 
249 657 208 82 108 131 
248 658 208 56 72 87 
249 658 208 83 109 132 
250 656 209 79 108 135 
250 657 208 77 107 135 
251 656 209 77 106 134 
251 657 208 77 106 134 
251 657 209 77 105 133 
250 658 208 77 108 135 
250 659 208 80 107 134 
251 658 208 79 108 135 
251 659 208 81 109 135 
252 656 209 78 108 134 
252 657 208 76 104 132 
252 657 209 77 106 133 
253 656 209 79 109 134 
253 657 209 78 108 134 
253 656 210 79 109 134 
252 658 208 78 105 133 
252 659 208 83 111 136 
253 658 208 81 111 137 
253 658 209 81 111 137 
253 659 208 81 111 137 
254 656 209 77 106 132 
254 657 209 75 104 131 
254 656 210 76 105 130 
254 657 210 75 103 129 
255 656 210 80 106 128 
255 657 210 80 106 128 
254 658 209 74 104 131 
254 659 208 77 109 136 
254 659 209 76 107 133 
255 658 209 81 107 130 
255 659 209 84 109 131 
255 658 210 87 110 131 
252 660 208 89 117 142 
253 660 208 84 114 140 
254 660 208 77 109 137 
255 660 208 84 111 135 
255 660 209 94 116 137 
246 607 256 69 80 93 
247 606 256 69 83 97 
247 606 257 73 87 101 
247 607 256 68 80 94 
247 607 257 69 82 95 
247 607 258 68 82 96 
251 603 262 67 85 103 
248 605 258 70 85 101 
249 605 259 68 83 100 
248 606 258 73 88 102 
248 607 258 67 81 95 
248 607 259 63 79 94 
249 606 259 69 85 100 
249 607 259 63 80 95 
249 605 260 68 83 101 
249 606 260 69 86 101 
249 606 261 67 84 99 
249 607 260 64 80 95 
249 607 261 66 80 94 
249 607 262 64 79 93 
250 604 260 68 81 99 
250 604 261 68 83 102 
250 605 260 68 83 101 
250 605 261 68 85 103 
251 604 261 67 85 103 
251 604 262 67 86 104 
251 604 263 67 86 104 
251 605 262 66 85 102 
251 605 263 65 82 98 
250 606 260 70 87 103 
250 606 261 69 85 101 
250 606 262 65 82 98 
250 606 263 61 77 91 
250 607 262 66 80 93 
250 607 263 63 76 89 
251 606 262 65 83 100 
251 606 263 64 80 96 
252 603 263 66 84 102 
252 604 263 66 85 103 
252 605 263 65 82 99 
251 605 264 65 81 97 
250 607 264 59 71 82 
251 606 264 60 76 90 
251 606 265 52 67 79 
251 607 264 57 71 84 
251 607 265 50 62 73 
251 607 266 49 61 72 
252 603 264 65 82 100 
253 602 264 67 83 101 
253 602 265 66 83 100 
253 603 264 65 81 100 
253 603 265 65 81 100 
253 603 266 64 81 99 
254 601 266 67 82 101 
255 601 267 68 84 102 
254 602 265 66 83 101 
254 602 266 67 84 102 
254 602 267 68 85 102 
254 603 266 66 82 100 
254 603 267 67 83 100 
255 602 267 69 85 102 
255 603 267 68 85 101 
255 601 268 68 85 102 
255 602 268 70 85 100 
255 603 268 67 82 96 
252 604 264 65 83 101 
252 604 265 64 81 99 
252 605 264 63 78 94 
252 605 265 61 74 90 
253 604 265 65 81 98 
253 605 265 63 77 93 
252 605 266 56 70 85 
253 604 266 65 80 96 
253 604 267 62 73 87 
253 605 266 59 72 87 
253 605 267 56 67 80 
252 606 264 60 76 91 
252 606 265 55 70 84 
252 606 266 52 65 78 
252 606 267 51 63 74 
252 607 266 48 59 68 
252 607 267 48 56 65 
253 606 267 49 61 73 
254 604 267 65 80 95 
252 607 268 43 50 57 
253 606 268 48 58 68 
253 607 268 46 54 62 
253 607 269 46 52 58 
254 604 268 59 72 84 
254 605 268 55 65 75 
254 605 269 51 59 67 
255 604 268 61 74 87 
255 604 269 49 59 69 
255 605 269 47 54 61 
254 606 268 52 61 70 
254 606 269 45 52 59 
254 607 269 44 47 52 
255 606 269 45 49 54 
254 607 270 44 48 53 
254 607 271 46 48 52 
255 606 270 45 49 53 
255 607 270 47 49 53 
255 607 271 45 48 52 
243 611 256 74 76 80 
241 613 256 62 65 69 
241 614 256 60 63 68 
241 614 257 60 62 67 
241 615 256 69 70 75 
241 615 257 74 75 79 
242 612 256 73 75 79 
242 612 257 65 68 73 
242 613 256 59 61 65 
242 613 257 58 61 67 
243 612 256 76 79 84 
243 612 257 65 67 72 
243 613 257 56 59 65 
243 613 258 49 54 60 
243 613 259 50 55 61 
242 614 257 59 62 67 
242 615 257 70 71 76 
242 614 258 59 62 68 
242 615 258 71 72 77 
243 614 258 61 64 69 
243 614 259 58 62 68 
243 615 258 73 74 79 
243 615 259 74 76 81 
243 613 260 53 59 65 
243 614 260 58 62 68 
243 615 260 64 67 71 
245 609 256 75 83 92 
244 610 256 76 81 89 
244 611 256 74 77 83 
244 611 257 68 71 76 
245 610 256 75 81 89 
245 610 257 71 78 87 
245 611 257 68 73 79 
244 611 258 63 66 70 
245 610 258 68 75 83 
245 611 258 63 66 72 
245 611 259 57 60 65 
246 608 256 73 84 96 
246 608 257 75 85 97 
246 609 256 72 82 92 
246 609 257 73 82 92 
247 608 257 72 83 95 
246 609 258 72 80 91 
246 609 259 69 78 88 
247 608 258 69 81 93 
247 608 259 64 77 90 
247 609 258 67 77 87 
247 609 259 65 75 85 
246 610 258 72 80 89 
246 610 259 65 72 80 
245 611 260 47 50 54 
245 611 261 38 35 39 
247 609 260 60 70 81 
247 609 261 54 62 72 
246 610 260 60 65 72 
246 610 261 54 59 65 
246 611 260 53 57 62 
246 611 261 47 50 55 
247 610 260 59 66 75 
247 610 261 54 59 65 
246 611 262 47 43 45 
246 611 263 52 45 46 
247 610 262 51 55 61 
247 610 263 45 49 54 
247 611 263 48 43 45 
244 612 257 60 63 68 
244 612 258 56 59 64 
244 612 259 46 50 54 
244 613 259 48 52 59 
244 615 259 82 83 87 
244 612 260 43 45 50 
244 612 261 48 49 53 
244 613 260 47 51 57 
244 613 261 51 54 60 
245 612 260 46 44 48 
245 612 261 46 42 47 
245 613 261 51 55 61 
245 612 262 46 40 45 
245 613 262 51 53 59 
245 613 263 55 58 64 
244 614 260 57 61 67 
244 614 261 56 60 66 
244 615 260 75 77 82 
244 615 261 77 79 84 
245 614 261 63 66 71 
245 615 261 84 87 93 
245 614 262 64 67 72 
245 614 263 64 66 71 
245 615 262 89 92 97 
246 612 262 51 42 47 
246 612 263 50 41 44 
246 613 263 48 47 52 
246 614 263 70 72 77 
246 615 262 91 92 97 
246 615 263 97 99 104 
247 615 263 105 106 110 
247 610 264 49 48 51 
247 611 264 47 41 40 
247 611 265 49 45 46 
247 611 266 49 45 42 
246 612 264 50 47 49 
246 612 265 49 49 50 
246 613 264 54 56 61 
246 613 265 54 55 59 
247 612 265 48 48 49 
247 613 265 56 57 62 
247 612 266 48 49 51 
247 612 267 47 49 53 
247 613 266 58 58 62 
246 614 264 74 77 81 
246 614 265 64 65 69 
246 615 264 95 97 102 
247 614 265 75 76 80 
247 615 264 99 101 106 
247 615 265 94 95 100 
247 614 266 79 80 84 
241 616 256 79 81 85 
242 616 256 88 89 93 
242 616 257 88 90 94 
242 617 256 97 97 102 
243 616 257 101 103 109 
243 617 256 95 99 106 
243 617 257 105 108 115 
242 616 258 88 90 95 
243 616 258 96 98 103 
244 617 256 96 102 110 
244 617 257 104 109 117 
245 617 257 112 116 123 
244 616 258 104 107 114 
244 616 259 96 99 106 
244 617 258 108 112 119 
245 616 259 105 109 116 
245 617 258 113 116 123 
245 617 259 112 115 121 
244 618 256 89 94 100 
245 618 256 108 111 117 
245 618 257 110 113 120 
246 617 259 114 116 123 
247 617 259 107 112 120 
246 618 256 117 120 127 
246 618 257 114 118 126 
246 619 256 115 120 129 
247 618 257 106 113 122 
247 619 256 111 116 126 
247 619 257 109 115 124 
246 618 258 113 117 124 
246 618 259 113 116 123 
247 618 258 103 110 120 
247 618 259 104 110 118 
244 616 260 91 94 101 
245 616 260 101 105 112 
245 616 261 99 102 108 
245 617 260 109 111 118 
246 616 261 106 108 114 
246 617 260 110 113 119 
247 616 261 109 111 116 
247 617 260 109 113 120 
247 617 261 109 112 118 
246 616 262 104 106 111 
247 616 262 109 110 116 
247 616 263 107 109 114 
247 616 264 105 107 112 
248 608 259 62 75 89 
248 608 260 61 74 88 
248 608 261 57 69 81 
248 609 261 52 63 74 
249 608 260 63 76 89 
249 608 261 59 73 87 
248 608 262 52 63 75 
248 609 262 51 61 71 
248 609 263 49 56 64 
249 608 262 57 69 81 
249 608 263 55 66 76 
249 609 263 49 56 65 
248 610 263 47 49 53 
250 608 263 62 73 84 
248 609 264 47 51 57 
249 608 264 52 61 70 
249 609 264 51 58 67 
249 609 265 49 52 57 
249 609 266 49 50 53 
248 610 264 46 47 49 
248 610 265 49 48 50 
248 611 265 52 52 54 
248 610 266 50 51 52 
248 611 266 50 49 51 
248 611 267 51 50 51 
249 610 266 50 50 52 
249 610 267 52 52 53 
249 611 267 52 54 57 
250 608 264 56 66 76 
250 608 265 51 58 65 
251 608 265 50 58 67 
250 608 266 50 53 58 
250 609 266 51 52 56 
250 609 267 52 53 56 
251 608 266 51 55 62 
251 608 267 49 51 56 
251 609 267 51 56 62 
250 610 267 53 56 61 
249 611 268 50 52 56 
251 609 268 52 55 60 
250 610 268 53 55 60 
250 611 268 51 54 58 
250 611 269 52 54 58 
251 610 268 55 55 56 
251 610 269 51 54 59 
251 611 269 52 53 56 
248 612 267 48 50 54 
248 613 267 60 62 66 
248 615 264 104 106 112 
248 615 265 98 101 106 
249 615 265 102 106 113 
248 614 266 91 92 96 
248 614 267 82 83 87 
248 615 266 96 99 104 
249 614 267 91 94 100 
249 615 266 98 102 109 
249 615 267 96 101 107 
250 615 266 99 104 112 
250 615 267 96 101 108 
251 615 267 91 97 106 
248 612 268 51 52 54 
248 613 268 66 66 70 
249 612 268 53 52 55 
249 613 268 72 72 74 
248 614 268 77 79 84 
249 614 268 80 83 88 
250 612 269 59 58 60 
250 613 269 76 77 80 
251 612 269 62 62 64 
251 613 269 77 79 83 
250 614 268 89 93 99 
250 614 269 83 86 92 
251 614 268 93 97 104 
251 614 269 83 85 90 
251 615 268 93 98 106 
252 608 267 47 54 61 
252 608 268 47 52 59 
252 608 269 46 48 52 
252 609 268 49 52 58 
252 609 269 48 51 56 
253 608 269 45 50 56 
252 609 270 46 50 56 
253 608 270 45 49 54 
253 609 270 46 48 53 
253 609 271 46 47 51 
252 610 269 48 51 55 
252 610 270 47 50 55 
252 611 270 51 52 56 
253 610 270 47 50 56 
253 610 271 45 47 52 
253 611 270 52 53 59 
254 608 271 45 46 51 
254 609 271 47 47 51 
255 608 271 46 48 52 
255 609 271 47 48 52 
254 610 271 46 49 55 
254 611 270 53 57 66 
254 611 271 49 52 60 
255 610 271 47 50 54 
255 611 270 49 53 60 
255 611 271 50 53 58 
252 615 267 87 94 104 
253 615 267 86 92 101 
255 615 265 55 57 61 
254 615 267 74 80 89 
255 615 266 57 60 64 
255 615 267 60 63 69 
252 613 269 79 81 87 
253 613 269 78 82 89 
252 612 270 63 64 67 
252 613 270 75 78 82 
253 612 270 62 64 70 
253 613 270 76 78 84 
252 614 268 87 93 101 
252 614 269 86 90 98 
252 615 268 88 94 103 
253 614 269 76 83 92 
253 615 268 79 88 97 
254 613 269 71 75 82 
255 613 269 60 64 71 
254 612 270 57 62 70 
254 613 270 67 72 79 
255 612 270 51 56 63 
255 613 270 54 60 67 
254 614 268 71 75 83 
254 614 269 73 78 86 
254 615 268 69 76 84 
255 614 268 63 65 72 
255 615 268 64 65 72 
248 619 256 115 119 127 
248 619 257 111 116 125 
249 619 256 109 113 121 
249 619 257 111 115 124 
248 618 258 108 114 123 
248 618 259 105 112 121 
249 618 258 111 116 124 
249 618 259 112 117 125 
250 619 256 80 88 99 
250 619 257 86 95 105 
251 619 256 64 74 85 
251 619 257 69 78 89 
250 618 258 88 97 107 
250 618 259 95 101 111 
251 618 258 72 81 92 
251 618 259 78 87 97 
248 617 260 109 114 122 
248 617 261 109 115 122 
249 617 261 108 114 122 
248 616 262 108 112 119 
248 616 263 107 110 117 
248 617 262 108 113 121 
249 616 263 102 108 117 
249 617 262 102 108 118 
249 617 263 96 104 113 
248 618 260 107 113 122 
249 618 260 112 117 126 
250 617 261 102 108 117 
251 617 260 90 96 105 
251 617 261 90 96 106 
250 616 263 98 105 114 
250 617 262 100 106 115 
250 617 263 99 105 115 
251 617 262 92 99 108 
251 617 263 96 103 112 
250 618 260 103 108 117 
251 618 260 84 91 101 
252 618 257 55 65 76 
252 619 256 54 65 76 
252 619 257 57 67 79 
253 618 257 52 59 68 
253 619 256 53 60 68 
253 619 257 51 60 70 
252 618 258 62 72 83 
252 618 259 69 79 90 
253 618 258 52 61 71 
253 618 259 56 64 74 
255 617 259 47 54 63 
254 618 256 51 58 67 
254 618 257 53 58 66 
254 619 256 54 60 67 
255 618 256 35 54 70 
255 618 257 44 55 67 
254 618 258 53 57 66 
254 618 259 54 58 67 
255 618 258 46 55 65 
255 618 259 50 56 64 
252 617 260 70 81 92 
252 617 261 70 81 93 
253 617 260 57 65 75 
253 617 261 56 66 76 
252 617 262 74 85 97 
252 617 263 81 91 102 
253 617 262 56 67 78 
253 617 263 65 74 84 
252 618 260 69 80 91 
253 618 260 58 67 77 
254 617 260 55 59 66 
254 617 261 51 57 64 
255 617 260 51 55 62 
255 617 261 51 53 59 
254 616 263 60 64 69 
254 617 262 51 58 67 
254 617 263 58 64 72 
255 616 262 52 54 58 
255 616 263 56 57 60 
255 617 262 54 56 59 
255 617 263 57 58 61 
254 618 260 56 60 68 
248 616 264 105 108 115 
248 616 265 103 106 112 
249 616 264 102 107 116 
249 616 265 101 105 113 
250 616 264 101 107 116 
250 616 265 101 106 115 
251 616 264 98 104 113 
251 616 265 95 102 111 
251 617 264 99 105 114 
250 616 266 97 103 111 
251 616 266 91 98 107 
252 616 264 85 94 105 
252 616 265 84 93 104 
252 617 264 84 93 105 
253 616 264 71 79 89 
253 616 265 74 82 92 
253 617 264 75 84 95 
252 616 266 82 92 103 
252 616 267 84 92 103 
253 616 266 79 86 96 
253 616 267 83 90 98 
254 616 264 64 70 78 
254 616 265 68 74 82 
255 616 264 57 58 61 
255 616 265 62 65 70 
254 616 266 73 79 87 
255 616 266 65 69 76 
269 607 255 106 119 135 
271 605 255 96 114 134 
270 607 254 100 114 131 
270 607 255 102 116 133 
271 606 254 94 112 131 
271 606 255 96 114 133 
271 607 254 97 113 131 
271 607 255 96 113 132 
278 607 247 74 99 122 
279 607 247 84 106 126 
273 603 255 58 96 130 
275 603 253 73 103 130 
274 603 254 69 103 131 
274 603 255 72 103 132 
275 602 255 69 100 126 
275 603 254 68 101 129 
275 603 255 64 99 127 
273 607 251 63 96 122 
275 607 249 60 91 116 
274 606 251 70 98 125 
274 607 250 72 99 123 
274 607 251 73 100 125 
275 606 251 66 96 122 
275 607 250 66 94 119 
275 607 251 73 100 124 
273 605 253 73 104 130 
272 604 255 78 107 132 
272 605 254 89 112 134 
272 605 255 90 113 135 
273 604 254 60 98 128 
273 604 255 60 98 128 
273 605 254 81 108 133 
272 606 253 93 112 132 
272 607 252 75 101 123 
272 607 253 95 112 131 
273 606 253 87 110 132 
273 607 252 76 102 126 
273 607 253 92 112 132 
272 606 254 90 111 133 
272 607 254 93 111 130 
274 604 253 53 94 124 
274 605 252 49 89 121 
274 605 253 59 95 125 
275 604 252 80 106 132 
275 604 253 71 102 129 
275 605 252 62 95 123 
274 604 254 59 98 128 
274 606 252 66 97 125 
279 603 251 70 102 129 
276 601 255 78 104 128 
277 601 255 73 103 129 
276 603 252 76 101 124 
276 603 253 76 102 126 
277 602 253 76 101 125 
277 603 252 76 102 125 
277 603 253 76 102 125 
276 602 254 75 102 127 
276 602 255 76 103 129 
276 603 254 68 100 127 
277 602 254 71 100 125 
278 601 254 77 106 131 
278 601 255 81 110 135 
279 600 255 97 118 140 
279 601 254 88 113 136 
279 601 255 92 116 139 
278 602 253 72 102 129 
278 603 252 74 102 127 
278 603 253 73 101 126 
279 602 253 80 108 133 
279 603 252 74 104 130 
278 602 254 74 104 130 
279 602 254 87 112 136 
276 605 251 85 107 128 
277 604 251 76 100 123 
277 605 250 68 95 118 
277 605 251 74 99 122 
276 606 249 73 98 121 
276 607 248 84 105 126 
276 607 249 68 96 120 
277 606 249 73 98 120 
277 607 248 80 102 124 
277 607 249 75 99 122 
276 606 250 72 98 122 
276 606 251 67 95 120 
276 607 250 68 95 119 
277 606 250 70 97 120 
278 605 249 70 95 118 
279 605 249 69 95 120 
278 604 251 75 101 125 
278 605 250 70 96 120 
278 605 251 75 100 123 
279 604 250 66 98 125 
279 604 251 70 100 127 
279 605 250 70 97 122 
278 606 248 75 99 121 
278 606 249 66 93 117 
278 607 248 80 102 124 
279 606 248 74 98 121 
279 606 249 70 95 119 
279 607 248 84 105 126 
276 604 252 80 104 128 
276 605 252 84 107 131 
277 604 252 75 101 124 
286 599 255 57 98 131 
287 599 254 74 108 137 
287 599 255 58 98 132 
280 607 246 85 105 126 
280 607 247 81 103 125 
281 606 247 77 101 124 
281 607 246 81 102 123 
281 607 247 78 102 123 
283 605 247 60 94 122 
282 606 247 73 100 124 
282 607 246 75 99 122 
282 607 247 77 101 124 
283 606 246 69 99 124 
283 606 247 57 91 119 
283 607 246 71 98 122 
284 605 247 65 99 127 
285 605 247 74 104 130 
284 607 245 71 99 123 
285 607 245 62 94 121 
284 606 246 83 109 133 
284 606 247 69 101 128 
284 607 246 83 108 131 
285 606 246 88 112 135 
285 606 247 88 113 137 
285 607 246 78 104 129 
286 605 247 91 114 137 
287 605 247 83 109 133 
286 607 245 53 92 121 
287 607 244 43 87 118 
287 607 245 55 93 122 
286 606 246 72 102 128 
286 606 247 86 110 134 
287 606 246 70 102 128 
287 606 247 72 103 129 
280 603 251 69 103 130 
281 603 251 56 99 130 
282 603 250 68 104 135 
282 603 251 56 99 131 
283 602 251 72 106 135 
283 603 250 84 112 138 
283 603 251 72 107 135 
280 600 255 102 120 140 
280 601 254 107 125 144 
280 601 255 102 121 141 
281 600 255 106 123 142 
281 601 254 106 124 144 
280 602 252 85 112 137 
280 602 253 100 121 142 
280 603 252 77 108 134 
281 602 252 78 109 136 
281 602 253 87 114 138 
281 603 252 66 103 134 
282 601 253 92 117 141 
283 601 253 61 101 132 
282 600 254 104 125 145 
282 600 255 105 124 144 
283 600 254 95 119 143 
283 600 255 98 120 141 
283 601 254 82 111 138 
282 602 252 61 101 132 
282 602 253 70 105 133 
283 602 252 51 97 130 
283 602 253 46 94 129 
280 605 248 67 96 122 
280 605 249 66 96 122 
281 604 249 68 101 129 
281 605 248 74 102 127 
281 605 249 72 102 129 
280 604 250 63 98 126 
280 604 251 65 101 129 
280 605 250 68 97 124 
281 604 250 58 98 129 
281 604 251 52 96 127 
280 606 248 75 100 123 
281 606 248 78 102 125 
282 604 249 79 109 135 
282 605 248 80 107 132 
283 604 248 81 109 134 
283 604 249 89 114 139 
283 605 248 64 96 124 
282 604 250 64 102 133 
283 604 250 82 111 137 
285 603 249 73 104 131 
284 602 251 77 111 139 
284 603 250 88 115 140 
284 603 251 82 112 138 
285 602 250 91 118 142 
285 602 251 86 115 141 
285 603 250 87 114 138 
285 603 251 87 115 140 
287 601 251 80 112 139 
286 603 249 54 94 124 
287 603 249 52 94 124 
286 602 250 94 119 144 
286 602 251 88 115 140 
286 603 250 73 105 133 
287 602 250 54 92 124 
287 602 251 72 105 134 
287 603 250 47 91 123 
284 601 253 51 95 128 
285 601 252 81 111 137 
285 601 253 69 105 134 
284 600 254 62 98 130 
284 600 255 82 111 138 
284 601 254 58 98 131 
285 600 254 51 95 129 
285 600 255 63 101 133 
285 601 254 52 96 130 
284 602 252 65 104 134 
285 602 252 80 110 136 
286 601 252 85 114 139 
286 601 253 81 111 138 
287 600 253 85 113 138 
287 601 252 85 114 141 
287 601 253 86 113 138 
