ply
format ascii 1.0
comment Created by CloudCompare v2.10.1 (Zephyrus)
comment Created 1/31/20 6:09 PM
obj_info Generated by CloudCompare!
element vertex 2122
property float x
property float y
property float z
property uchar red
property uchar green
property uchar blue
end_header
232 958 301 119 99 82 
232 959 300 123 101 81 
232 959 301 123 104 88 
232 958 302 114 96 83 
232 958 303 103 84 72 
232 959 302 107 86 73 
232 959 303 97 77 65 
234 956 300 99 80 63 
234 956 301 106 88 74 
234 956 302 92 74 61 
236 953 297 77 60 50 
237 952 296 78 62 50 
237 952 297 80 64 54 
237 953 296 81 67 57 
237 953 297 78 62 54 
236 952 298 88 72 59 
236 952 299 107 91 78 
236 953 298 88 70 56 
236 953 299 112 96 83 
237 952 298 85 69 57 
236 954 297 75 58 49 
236 955 296 83 70 61 
236 955 297 73 57 49 
237 954 296 82 67 59 
237 954 297 78 63 56 
237 955 296 85 71 63 
236 954 298 85 67 52 
238 952 296 85 70 59 
238 952 297 79 62 51 
236 952 300 107 91 78 
236 952 301 91 76 64 
236 952 302 76 59 48 
236 956 296 85 70 60 
229 947 319 96 75 59 
230 945 319 104 80 64 
231 944 318 107 80 64 
231 944 319 107 82 66 
231 945 318 103 75 62 
231 945 319 104 79 63 
231 946 317 95 70 59 
231 947 317 90 70 59 
230 946 318 99 77 61 
230 946 319 102 81 65 
230 947 318 94 73 59 
230 947 319 96 74 60 
231 946 318 97 73 59 
231 947 318 92 71 59 
231 951 315 87 71 58 
229 948 319 89 68 54 
229 949 319 86 67 52 
228 951 319 91 73 60 
229 950 319 87 70 56 
229 951 318 88 71 59 
229 951 319 91 74 62 
231 948 317 88 68 56 
231 949 316 84 65 53 
231 949 317 85 65 53 
230 948 318 88 68 55 
230 948 319 90 69 58 
230 949 318 84 66 53 
230 949 319 85 66 54 
231 948 318 89 69 56 
230 950 317 84 69 57 
230 951 317 86 69 59 
231 950 316 84 68 56 
231 950 317 85 69 57 
231 951 316 86 70 58 
231 951 317 86 70 60 
230 950 318 84 68 56 
230 951 318 86 69 58 
231 954 311 86 69 59 
231 955 310 86 70 59 
231 955 311 88 71 61 
231 957 307 81 63 55 
231 958 305 77 57 46 
231 959 304 81 61 50 
231 959 305 76 57 48 
230 959 306 84 69 60 
230 959 307 82 67 56 
231 958 306 79 63 54 
231 958 307 83 67 57 
231 959 306 82 67 59 
231 959 307 84 69 58 
229 959 309 78 57 44 
228 959 311 85 69 58 
229 958 310 85 68 54 
229 958 311 83 65 51 
229 959 310 82 64 50 
229 959 311 81 65 52 
230 957 309 82 67 55 
231 956 309 80 64 52 
231 957 308 82 66 57 
231 957 309 81 66 55 
230 956 311 90 74 65 
230 957 310 82 64 51 
230 957 311 87 70 59 
231 956 310 84 68 56 
231 956 311 88 72 63 
231 957 310 83 66 55 
230 958 308 82 66 55 
230 958 309 80 63 51 
230 959 308 81 65 54 
230 959 309 78 60 48 
231 958 308 82 67 56 
230 958 310 81 63 49 
227 953 319 90 70 58 
226 955 319 90 70 56 
227 954 319 91 71 59 
227 955 318 89 70 58 
227 955 319 90 69 57 
227 957 315 80 62 53 
227 959 313 76 59 47 
226 959 315 79 65 54 
227 958 314 78 59 49 
227 958 315 80 62 52 
227 959 314 77 60 50 
227 959 315 80 65 54 
224 957 319 91 73 60 
225 956 319 94 74 60 
225 957 318 94 77 64 
225 957 319 91 72 58 
224 959 317 96 79 64 
225 958 317 96 80 67 
225 959 316 87 68 58 
225 959 317 92 74 62 
224 958 318 89 73 57 
224 958 319 89 72 58 
224 959 318 92 76 62 
225 958 318 93 77 63 
225 958 319 89 70 54 
226 957 317 82 64 54 
227 956 317 85 67 55 
227 957 316 83 65 56 
227 957 317 84 66 57 
226 956 318 87 66 56 
226 956 319 91 71 59 
226 957 318 89 70 60 
226 957 319 94 74 65 
227 956 318 85 66 54 
227 957 318 83 66 55 
226 958 316 81 65 56 
226 958 317 82 64 53 
226 959 316 80 63 52 
226 959 317 82 64 52 
227 958 316 83 66 58 
229 954 315 79 60 47 
229 955 314 80 63 48 
229 955 315 78 61 47 
231 953 312 85 68 59 
231 953 313 87 69 59 
230 953 315 83 65 52 
231 952 314 90 73 61 
231 952 315 89 72 60 
231 953 314 88 70 58 
231 953 315 86 68 55 
230 955 312 87 71 61 
230 955 313 84 68 56 
231 954 312 87 70 61 
231 954 313 85 69 57 
231 955 312 89 72 63 
230 954 314 83 66 52 
230 954 315 82 64 51 
230 955 314 84 68 54 
231 954 314 83 65 52 
229 952 317 85 66 56 
229 953 316 81 61 51 
229 953 317 84 64 53 
228 952 318 90 73 62 
228 952 319 92 74 63 
228 953 318 90 72 60 
228 953 319 90 70 60 
229 952 318 87 69 57 
229 953 318 87 69 56 
228 954 317 85 67 52 
228 955 316 82 66 52 
228 955 317 85 68 54 
229 954 316 80 61 49 
229 954 317 82 63 49 
229 955 316 81 64 51 
228 954 318 89 71 59 
228 954 319 89 70 59 
228 955 318 89 72 59 
230 952 316 85 67 57 
230 952 317 87 68 59 
230 953 316 83 63 53 
231 952 316 88 72 61 
229 956 313 85 67 55 
229 957 312 81 60 48 
229 957 313 83 64 51 
228 956 315 85 69 58 
228 957 314 85 68 55 
228 957 315 85 69 58 
229 956 314 82 65 51 
229 956 315 82 67 54 
229 957 314 83 65 50 
228 958 313 86 69 57 
228 959 312 84 69 58 
228 959 313 82 66 55 
229 958 312 81 63 50 
229 958 313 83 65 51 
228 958 314 81 63 53 
228 959 314 76 58 47 
230 956 312 88 72 63 
230 956 313 87 70 60 
230 957 312 86 67 58 
228 956 316 84 68 55 
228 956 317 85 68 54 
228 957 316 85 67 56 
235 945 309 85 67 55 
235 944 310 86 68 57 
235 944 311 89 71 60 
235 945 310 84 65 54 
235 945 311 85 66 54 
235 946 309 83 65 52 
235 947 308 81 64 53 
235 947 309 83 65 54 
234 946 311 86 69 56 
234 947 310 82 64 53 
234 947 311 86 69 57 
235 946 310 84 66 55 
235 946 311 85 67 54 
235 947 310 84 67 55 
235 948 307 79 62 50 
235 949 307 80 63 53 
235 951 304 106 90 75 
235 951 305 91 74 58 
235 950 306 83 66 55 
235 950 307 82 66 59 
235 951 306 78 61 52 
235 951 307 78 63 54 
233 950 311 89 73 61 
233 951 310 87 71 57 
233 951 311 85 69 56 
234 949 309 89 73 64 
235 948 308 79 62 51 
235 948 309 82 64 56 
235 949 308 83 67 55 
235 949 309 86 69 60 
234 948 310 85 68 60 
234 948 311 85 69 58 
234 949 310 91 76 67 
234 949 311 89 74 63 
235 948 310 81 64 56 
234 950 309 87 72 62 
234 951 308 86 71 58 
234 951 309 88 73 61 
235 950 308 83 67 54 
235 950 309 85 69 57 
235 951 308 83 67 54 
234 950 310 92 77 67 
234 950 311 90 75 64 
234 951 310 90 74 63 
237 944 305 91 71 59 
237 945 304 86 66 54 
237 945 305 89 71 59 
236 944 307 82 62 49 
236 945 306 84 66 51 
236 945 307 82 64 50 
237 944 306 94 77 64 
237 944 307 87 68 55 
237 945 306 91 75 61 
236 947 305 92 75 60 
237 946 304 85 69 56 
237 946 305 91 75 63 
237 947 304 82 65 52 
237 947 305 87 69 55 
236 946 306 85 68 52 
236 946 307 90 74 62 
236 947 306 93 77 63 
236 947 307 86 71 58 
237 946 306 89 73 58 
238 944 304 92 69 56 
238 945 304 89 67 55 
236 944 308 81 61 49 
236 944 309 82 65 52 
236 945 308 86 68 57 
236 945 309 85 68 55 
236 944 310 86 68 58 
236 946 308 84 66 55 
236 946 309 84 67 54 
236 947 308 82 65 53 
236 948 304 81 58 46 
236 948 305 96 76 63 
236 949 304 85 65 52 
236 949 305 106 88 74 
237 948 304 79 60 47 
236 948 306 99 83 71 
236 948 307 85 69 57 
236 949 306 91 74 61 
236 949 307 78 60 48 
236 950 304 96 79 63 
236 950 305 106 89 74 
236 951 304 102 85 70 
236 951 305 109 92 76 
236 950 306 91 74 60 
233 944 314 99 79 68 
233 944 315 104 84 72 
233 945 314 99 80 70 
233 945 315 103 85 74 
233 947 313 89 71 60 
232 947 315 83 62 52 
233 946 314 96 77 68 
233 946 315 93 74 63 
233 947 314 83 63 51 
233 947 315 83 62 51 
234 944 312 90 71 58 
234 944 313 93 74 61 
234 945 312 87 67 54 
234 945 313 92 72 59 
235 944 312 91 74 61 
235 945 312 85 66 53 
234 944 314 97 76 64 
234 945 314 94 73 62 
234 946 312 90 73 60 
234 946 313 95 78 66 
234 947 312 88 73 60 
234 947 313 91 76 64 
232 944 317 107 82 67 
232 945 316 101 78 64 
232 945 317 99 73 58 
233 944 316 105 84 69 
233 945 316 102 82 68 
232 944 318 110 85 70 
232 946 316 94 72 61 
232 946 317 94 70 59 
232 947 316 87 66 56 
232 947 317 91 70 59 
233 948 313 84 65 55 
233 949 312 87 71 59 
233 949 313 83 64 53 
232 948 315 83 63 52 
232 949 314 82 64 53 
232 949 315 83 64 53 
233 948 314 80 60 49 
233 948 315 81 60 48 
233 949 314 82 63 52 
232 951 313 85 69 56 
233 950 312 86 69 57 
233 950 313 83 65 52 
233 951 312 81 64 50 
233 951 313 83 67 54 
232 950 314 82 65 52 
232 950 315 82 66 52 
232 951 314 84 67 53 
232 951 315 85 69 56 
233 950 314 84 67 54 
234 948 312 86 70 58 
234 948 313 89 72 61 
234 949 312 87 72 60 
232 948 316 84 64 54 
232 949 316 84 66 53 
233 955 304 80 63 53 
233 955 305 92 77 64 
233 954 307 86 70 54 
233 955 306 97 82 68 
233 955 307 96 80 66 
234 953 305 74 56 52 
235 952 304 100 83 70 
235 952 305 80 61 52 
235 953 304 90 72 65 
235 953 305 76 57 53 
234 952 306 77 62 56 
234 952 307 79 64 54 
234 953 306 76 60 54 
234 953 307 83 68 57 
235 952 306 76 60 55 
234 954 304 82 65 59 
234 954 305 73 55 50 
234 955 304 76 58 51 
234 955 305 82 66 56 
234 954 306 86 70 60 
234 954 307 88 73 60 
234 955 306 92 77 64 
233 952 309 82 66 49 
233 953 308 82 66 50 
233 953 309 83 67 52 
232 952 311 85 69 59 
232 953 310 83 65 53 
232 953 311 83 65 54 
233 952 310 82 63 50 
233 952 311 82 64 52 
233 953 310 84 66 54 
232 954 309 82 64 51 
232 955 308 86 69 59 
232 955 309 81 64 52 
233 954 308 88 73 59 
233 954 309 89 74 62 
233 955 308 92 76 66 
232 954 310 80 62 48 
232 954 311 83 65 55 
232 955 310 84 67 55 
234 952 308 85 70 57 
234 952 309 85 70 56 
234 953 308 85 70 56 
232 957 304 103 87 73 
232 957 305 90 71 56 
233 956 304 92 77 64 
233 956 305 102 86 71 
233 957 304 104 89 76 
233 957 305 101 84 69 
232 956 306 85 63 48 
232 956 307 84 63 53 
232 957 306 81 61 48 
232 957 307 82 62 53 
233 956 306 97 79 64 
233 956 307 88 69 57 
232 958 304 93 73 62 
232 958 305 83 63 50 
232 958 306 77 58 48 
232 956 308 82 64 55 
232 956 309 79 62 52 
232 952 312 83 67 56 
232 952 313 82 65 53 
232 953 312 81 64 54 
232 953 313 84 66 55 
233 952 312 85 68 58 
232 952 314 83 65 52 
232 953 314 88 71 60 
193 957 343 99 82 68 
193 959 341 100 83 69 
193 958 342 97 80 66 
193 958 343 97 79 64 
193 959 342 99 82 68 
194 957 343 97 79 66 
194 959 341 100 83 71 
195 959 341 85 66 55 
194 958 342 99 81 68 
194 958 343 95 77 64 
194 959 342 99 81 70 
195 958 342 85 67 53 
195 958 343 86 67 53 
195 959 342 84 65 53 
196 959 341 92 73 58 
197 959 341 101 83 71 
196 958 342 91 72 57 
196 958 343 92 73 59 
196 959 342 90 71 56 
197 958 342 100 82 68 
197 958 343 103 84 70 
197 959 342 99 82 68 
198 959 341 106 87 72 
199 959 341 115 94 78 
198 958 342 106 88 73 
198 958 343 109 90 75 
198 959 342 106 87 72 
199 958 343 112 92 76 
199 959 342 112 92 76 
200 959 341 114 95 78 
201 959 341 113 94 77 
200 958 343 113 94 78 
200 959 342 113 93 77 
201 958 343 113 94 77 
201 959 342 113 93 77 
202 958 343 115 94 76 
202 959 342 112 91 72 
203 958 343 117 95 76 
203 959 342 117 96 76 
205 957 343 105 81 63 
205 959 341 115 95 75 
204 958 343 110 87 67 
204 959 342 116 95 75 
205 958 342 110 89 69 
205 958 343 107 85 65 
205 959 342 113 93 72 
206 957 343 105 83 68 
207 957 342 98 80 65 
207 957 343 103 84 69 
206 959 341 101 82 62 
207 959 341 95 76 57 
206 958 342 104 84 66 
206 958 343 107 87 69 
206 959 342 104 85 65 
207 958 342 97 78 60 
201 958 344 117 97 80 
202 958 344 117 96 77 
223 942 333 143 108 93 
223 943 332 136 101 85 
223 943 333 140 105 88 
215 955 335 83 62 51 
215 959 331 81 60 52 
213 958 335 96 78 65 
213 959 334 93 75 60 
213 959 335 90 70 59 
215 957 333 77 56 46 
214 956 335 81 65 53 
214 957 334 89 74 62 
214 957 335 93 77 64 
215 956 334 77 54 47 
215 956 335 78 57 47 
215 957 334 79 60 52 
214 958 333 93 77 65 
214 959 332 94 78 64 
214 959 333 97 81 66 
215 958 332 79 58 50 
215 958 333 81 63 53 
215 959 332 84 67 54 
215 959 333 89 73 58 
214 958 334 95 78 65 
214 958 335 96 80 66 
214 959 334 98 79 63 
223 947 327 106 82 67 
223 948 326 102 79 65 
223 948 327 101 78 63 
223 949 326 102 78 66 
223 949 327 98 74 61 
222 951 325 98 75 64 
223 950 325 105 81 69 
223 951 324 104 83 69 
223 951 325 101 79 67 
222 950 327 98 75 61 
222 951 326 100 77 65 
222 951 327 100 77 61 
223 950 326 102 79 68 
223 950 327 98 75 63 
223 951 326 100 76 67 
219 949 335 89 67 52 
219 951 332 82 64 50 
219 951 333 82 64 52 
218 951 335 84 66 53 
219 950 334 88 67 54 
219 950 335 85 63 49 
219 951 334 83 64 53 
219 951 335 84 64 51 
223 944 330 120 85 69 
223 944 331 125 91 75 
223 945 330 116 83 68 
223 945 331 119 86 72 
223 946 329 114 85 72 
223 947 328 107 79 67 
223 947 329 105 77 66 
222 946 331 112 81 69 
222 947 330 101 73 59 
222 947 331 101 73 59 
223 946 330 111 80 66 
223 946 331 114 82 69 
223 947 330 106 77 64 
221 945 334 113 78 62 
221 945 335 112 78 63 
221 946 333 103 73 58 
221 947 332 98 70 56 
221 947 333 100 71 57 
220 947 334 102 78 60 
220 947 335 105 82 67 
221 946 334 103 72 56 
221 946 335 103 74 58 
221 947 334 100 73 57 
221 947 335 102 78 61 
222 944 333 128 93 77 
222 945 332 117 83 68 
222 945 333 116 81 65 
223 944 332 131 96 81 
223 944 333 134 99 83 
223 945 332 121 87 72 
222 944 334 131 95 78 
222 945 334 115 81 64 
222 946 332 110 78 65 
222 946 333 107 77 62 
222 947 332 104 75 63 
221 948 331 95 69 54 
221 949 330 93 68 50 
221 949 331 95 71 53 
221 950 329 92 71 51 
221 951 328 99 76 56 
221 951 329 97 76 58 
220 951 330 91 71 56 
220 951 331 86 67 51 
221 950 330 92 70 51 
221 950 331 92 71 53 
221 951 330 94 74 57 
221 951 331 90 70 53 
222 948 329 97 70 58 
222 949 328 95 70 55 
222 949 329 93 67 51 
223 948 328 100 73 61 
223 948 329 100 72 61 
223 949 328 97 71 58 
222 948 330 96 67 54 
222 948 331 94 67 53 
222 949 330 92 66 49 
222 950 328 93 70 51 
222 950 329 91 67 48 
222 951 328 96 74 54 
220 949 333 97 75 58 
221 948 332 97 72 57 
221 948 333 98 74 57 
221 949 332 98 75 59 
221 949 333 99 77 59 
220 948 334 100 75 58 
220 948 335 99 74 61 
220 949 334 95 73 57 
220 949 335 93 70 56 
221 948 334 99 74 55 
220 950 332 93 72 57 
220 950 333 91 71 56 
220 951 332 85 66 50 
220 951 333 84 64 50 
221 950 332 95 74 59 
220 950 334 90 69 55 
219 955 327 87 68 54 
219 959 322 105 85 66 
219 959 323 103 83 65 
217 959 326 121 99 82 
217 959 327 116 94 77 
219 956 325 98 77 58 
219 957 325 97 78 63 
218 957 326 97 76 61 
218 957 327 102 83 66 
219 956 326 91 71 55 
219 956 327 89 71 54 
219 957 326 93 72 59 
219 957 327 94 74 59 
218 958 325 102 81 62 
218 959 325 110 89 68 
219 958 324 99 79 63 
219 958 325 98 78 63 
219 959 324 101 81 63 
219 959 325 100 81 63 
218 958 326 106 84 67 
218 958 327 114 93 75 
218 959 326 119 97 79 
221 955 323 90 68 58 
223 952 323 101 81 64 
223 953 323 100 80 65 
223 955 321 89 70 57 
222 954 323 97 77 66 
222 955 322 91 71 60 
222 955 323 92 72 62 
223 954 322 94 73 61 
223 954 323 97 77 63 
223 955 322 92 73 61 
221 953 325 105 82 66 
220 953 327 102 78 60 
221 952 326 104 79 62 
221 952 327 104 80 62 
221 953 326 108 84 68 
221 953 327 106 81 63 
220 955 325 105 81 64 
221 954 324 98 77 62 
221 954 325 105 82 66 
221 955 324 97 75 61 
221 955 325 103 80 63 
220 954 326 105 79 62 
220 954 327 98 74 56 
220 955 326 99 75 57 
220 955 327 90 68 52 
221 954 326 110 86 69 
222 952 325 98 76 63 
222 953 324 98 80 67 
222 953 325 101 80 66 
223 952 324 100 81 66 
223 952 325 97 76 63 
223 953 324 101 82 69 
222 952 326 102 79 64 
222 954 324 96 77 64 
220 957 323 97 76 62 
221 956 323 88 66 54 
221 957 322 84 64 55 
221 957 323 90 69 56 
220 959 321 97 77 60 
221 958 321 82 63 55 
221 959 320 82 65 55 
221 959 321 85 66 55 
220 958 323 97 76 62 
220 959 322 99 79 62 
220 959 323 100 80 63 
221 958 322 85 65 55 
221 959 322 90 68 57 
222 956 321 87 67 56 
222 957 321 85 66 55 
223 956 321 86 68 53 
223 957 320 84 66 53 
223 957 321 84 66 52 
222 956 322 87 68 57 
222 957 322 85 66 57 
222 958 321 83 66 56 
222 959 320 85 68 58 
222 959 321 84 68 58 
223 958 320 85 68 57 
220 956 324 101 79 61 
220 956 325 102 80 61 
220 957 324 102 80 64 
220 957 325 101 80 63 
221 956 324 95 73 57 
220 958 324 100 81 64 
219 952 331 83 67 53 
219 953 330 85 67 54 
219 953 331 86 70 57 
218 955 329 93 76 58 
219 954 329 88 69 54 
219 955 328 89 72 56 
219 955 329 90 73 57 
218 954 331 91 74 57 
218 955 330 96 78 61 
218 955 331 99 81 63 
219 954 330 87 70 56 
219 954 331 88 72 57 
219 955 330 90 73 56 
217 953 335 91 74 56 
217 955 332 100 82 61 
217 955 333 98 80 63 
216 954 335 103 86 73 
216 955 334 100 82 68 
216 955 335 96 77 63 
217 954 334 94 76 59 
217 954 335 99 81 65 
217 955 334 100 83 67 
218 953 333 89 73 59 
219 952 332 82 66 52 
219 952 333 83 66 54 
219 953 332 87 72 58 
219 953 333 87 71 58 
218 952 334 84 67 54 
218 952 335 88 71 58 
218 953 334 88 70 55 
218 953 335 89 72 56 
219 952 334 82 65 53 
218 954 332 93 76 58 
218 954 333 92 75 57 
218 955 332 97 79 59 
218 955 333 94 76 56 
218 954 334 88 70 52 
217 957 329 113 93 72 
216 957 331 98 78 64 
217 956 330 108 88 68 
217 956 331 107 87 67 
217 957 330 112 92 73 
217 957 331 105 86 70 
216 959 329 89 67 55 
217 958 328 116 95 77 
217 958 329 113 93 75 
217 959 328 109 88 73 
217 959 329 102 81 68 
216 958 330 92 71 56 
216 958 331 84 62 51 
216 959 330 80 58 49 
216 959 331 77 54 48 
217 958 330 106 86 68 
218 956 328 96 77 58 
218 956 329 100 82 62 
218 957 328 108 88 68 
218 957 329 109 89 68 
219 956 328 94 76 59 
218 956 330 105 85 66 
218 956 331 105 85 66 
218 958 328 113 93 74 
216 956 333 91 71 59 
216 957 332 88 67 56 
216 957 333 81 60 50 
217 956 332 106 88 71 
217 956 333 104 87 72 
217 957 332 101 83 68 
216 956 334 90 69 57 
216 958 332 80 58 48 
220 952 329 95 74 57 
220 953 328 94 72 54 
220 953 329 87 65 49 
221 952 328 101 78 59 
221 952 329 99 78 62 
221 953 328 101 77 59 
220 952 330 87 67 53 
220 952 331 84 66 52 
220 953 330 84 65 52 
220 954 328 89 67 50 
220 954 329 87 67 52 
220 955 328 88 69 54 
209 955 342 96 77 61 
211 955 341 90 71 58 
210 955 342 96 78 63 
211 955 342 92 73 58 
211 957 339 94 75 63 
210 959 339 99 80 66 
211 958 338 96 79 66 
211 958 339 97 79 65 
211 959 338 97 80 66 
211 959 339 99 81 67 
209 957 341 94 74 58 
208 956 342 95 75 60 
208 957 342 95 76 63 
209 956 342 95 76 58 
209 957 342 95 75 60 
208 958 341 93 73 59 
208 959 341 93 72 58 
209 958 341 94 74 59 
209 959 340 95 75 60 
209 959 341 93 73 61 
208 958 342 93 73 59 
210 956 341 99 81 65 
210 957 341 98 80 64 
211 956 340 93 75 61 
211 956 341 94 76 63 
211 957 340 98 80 66 
211 957 341 99 82 69 
210 956 342 98 80 64 
210 958 340 99 80 65 
210 958 341 97 78 61 
210 959 340 98 79 64 
211 958 340 101 84 69 
213 954 339 91 75 64 
213 955 338 90 75 64 
213 955 339 92 76 64 
214 953 339 84 63 52 
215 952 339 97 77 67 
215 953 338 89 67 59 
215 953 339 90 68 58 
214 955 337 80 62 49 
215 954 337 84 63 52 
215 955 336 79 58 47 
215 955 337 79 57 44 
214 954 338 82 63 53 
214 954 339 86 69 58 
214 955 338 85 67 57 
215 954 338 84 61 52 
213 953 340 91 72 60 
212 954 341 91 72 61 
212 955 340 87 69 56 
212 955 341 88 68 57 
213 954 340 92 76 64 
213 954 341 95 78 67 
213 955 340 90 74 62 
214 952 340 91 71 59 
214 953 340 87 67 55 
215 952 340 97 78 65 
213 956 337 92 76 63 
213 957 336 96 80 65 
213 957 337 92 74 60 
212 956 338 87 67 56 
212 956 339 87 68 56 
212 957 338 87 66 55 
212 957 339 90 70 60 
213 956 338 91 74 62 
213 956 339 90 73 60 
213 957 338 89 69 57 
212 958 337 84 64 52 
212 959 336 83 63 52 
212 959 337 87 68 55 
213 958 336 92 74 61 
213 958 337 89 71 58 
213 959 336 87 67 57 
212 958 338 89 69 57 
212 959 338 91 74 61 
214 956 336 86 68 56 
214 956 337 87 71 59 
214 957 336 95 79 65 
215 956 336 79 59 49 
212 956 340 88 69 56 
217 951 337 87 67 54 
216 951 339 101 82 65 
217 951 338 90 71 57 
217 951 339 97 77 60 
219 948 337 99 75 61 
219 949 336 91 68 53 
219 949 337 96 74 58 
218 950 337 92 71 57 
218 951 336 88 71 57 
218 951 337 90 71 58 
219 950 336 88 67 52 
219 950 337 93 72 56 
219 951 336 87 69 55 
218 950 338 95 75 61 
220 947 336 103 80 65 
220 948 336 97 71 58 
220 948 337 98 73 57 
220 949 336 93 69 55 
216 953 336 98 81 66 
216 953 337 96 78 66 
217 952 336 90 72 55 
217 952 337 88 69 53 
217 953 336 93 75 58 
217 953 337 94 75 61 
216 952 338 98 80 66 
216 952 339 101 82 69 
216 953 338 96 76 66 
217 952 338 92 73 60 
216 954 336 99 81 69 
216 954 337 95 77 66 
216 955 336 89 69 58 
218 952 336 90 73 58 
216 952 340 105 86 73 
227 943 325 125 97 81 
226 943 327 126 97 78 
227 942 327 129 99 84 
227 943 326 125 97 80 
227 943 327 126 97 79 
231 939 322 107 82 65 
231 939 323 110 83 68 
229 939 326 120 92 75 
229 939 327 125 96 80 
231 936 325 121 94 79 
231 937 325 118 90 74 
230 936 327 121 91 71 
230 937 327 122 93 73 
231 936 326 119 92 75 
231 936 327 121 93 74 
231 937 326 116 86 68 
230 939 325 116 89 72 
231 938 324 113 84 67 
231 938 325 119 91 75 
231 939 324 112 84 68 
231 939 325 116 89 72 
230 938 326 120 92 74 
230 938 327 126 98 79 
230 939 326 119 91 74 
230 939 327 127 99 81 
231 938 326 117 89 70 
229 942 323 116 90 75 
229 943 322 115 91 74 
229 943 323 117 91 75 
231 941 321 105 84 67 
230 940 323 110 84 68 
230 941 323 113 88 72 
231 940 322 106 79 62 
231 940 323 108 80 64 
231 941 322 106 81 64 
231 941 323 109 83 66 
230 943 320 110 88 75 
230 943 321 109 85 72 
231 942 320 108 87 71 
231 942 321 107 85 70 
231 943 320 113 92 78 
231 943 321 109 87 73 
230 942 322 110 86 70 
230 942 323 115 91 75 
230 943 322 112 88 72 
231 942 322 107 83 69 
229 940 325 118 91 74 
229 941 325 119 91 75 
228 940 327 127 97 81 
228 941 326 125 97 81 
228 941 327 128 98 83 
229 940 326 122 94 77 
229 940 327 125 96 79 
229 941 326 123 95 79 
228 942 325 121 94 79 
228 943 324 119 91 76 
228 943 325 123 95 81 
229 942 324 117 91 75 
229 942 325 120 94 78 
229 943 324 118 91 76 
228 942 326 126 98 83 
228 942 327 130 100 86 
230 940 324 114 87 71 
230 940 325 116 89 73 
230 941 324 117 90 75 
230 941 325 117 89 73 
231 940 324 112 85 68 
227 939 330 144 112 93 
227 939 331 147 114 97 
225 941 331 143 109 94 
225 943 329 132 100 86 
224 942 331 137 104 88 
224 943 330 129 96 83 
224 943 331 132 98 82 
225 942 330 134 99 86 
225 942 331 137 103 89 
225 943 330 131 97 86 
226 941 329 136 101 84 
227 940 329 137 102 84 
227 941 328 133 101 85 
227 941 329 136 101 84 
226 940 330 141 104 89 
226 940 331 146 111 95 
226 941 330 138 102 87 
226 941 331 145 109 95 
227 940 330 141 105 89 
226 942 328 135 105 88 
226 942 329 136 104 87 
226 943 328 131 101 83 
226 943 329 136 106 89 
227 942 328 133 102 86 
227 942 329 136 104 87 
226 942 330 134 99 85 
224 941 332 138 101 84 
225 941 332 140 103 87 
224 942 332 139 103 87 
224 942 333 142 106 92 
224 943 332 136 101 84 
228 939 329 136 105 85 
229 938 328 134 105 88 
229 938 329 135 105 85 
229 939 328 131 101 84 
229 939 329 133 101 82 
228 938 330 140 109 90 
228 939 330 142 111 92 
229 938 330 138 107 88 
230 937 328 128 99 80 
230 937 329 130 100 80 
230 938 328 132 103 87 
228 940 328 133 101 85 
228 940 329 134 101 84 
228 941 328 133 101 85 
229 940 328 130 99 83 
233 933 322 128 104 88 
233 935 321 114 88 74 
233 934 322 123 98 81 
233 934 323 126 103 85 
233 935 322 124 99 84 
233 935 323 133 111 95 
234 932 320 146 124 109 
234 933 320 138 115 100 
234 933 321 148 127 115 
235 932 320 143 121 106 
234 933 322 142 121 109 
234 934 320 134 111 97 
234 934 321 133 109 98 
234 935 320 119 95 83 
234 935 321 118 93 81 
234 934 322 132 110 97 
232 935 324 138 118 103 
232 935 325 126 103 87 
233 934 324 129 109 92 
233 936 321 107 81 65 
233 937 320 102 78 62 
233 937 321 106 81 64 
232 936 323 127 101 85 
232 937 322 114 86 70 
232 937 323 117 88 73 
233 936 322 119 93 77 
233 936 323 128 103 87 
233 937 322 110 84 67 
232 938 321 111 86 73 
232 939 321 106 82 69 
233 938 320 103 82 68 
233 938 321 107 85 69 
233 939 320 105 82 70 
233 939 321 106 82 70 
232 938 322 113 86 72 
232 938 323 114 85 71 
232 939 322 109 84 68 
232 939 323 112 85 70 
234 936 320 104 79 65 
234 936 321 107 81 67 
234 937 320 99 76 62 
234 938 320 100 78 64 
232 936 324 132 109 93 
232 936 325 127 102 87 
232 937 324 119 91 75 
232 938 324 113 83 66 
232 940 320 100 76 65 
232 940 321 104 79 66 
232 941 320 101 80 64 
232 941 321 102 80 63 
233 940 320 99 74 62 
232 940 322 105 81 64 
232 942 320 106 86 69 
227 945 323 121 93 82 
226 947 323 106 78 66 
227 946 323 111 83 71 
227 947 322 103 76 62 
227 947 323 104 77 63 
225 944 327 126 97 80 
225 945 326 126 97 80 
225 945 327 125 95 79 
225 946 325 115 84 67 
225 947 324 110 81 67 
225 947 325 110 82 66 
224 946 327 115 86 70 
224 947 326 110 83 67 
224 947 327 110 83 67 
225 946 326 118 87 70 
225 946 327 119 89 73 
225 947 326 113 84 67 
226 945 325 126 98 83 
227 944 324 129 101 90 
227 944 325 129 101 87 
227 945 324 126 98 87 
227 945 325 130 102 90 
226 944 326 130 102 84 
226 944 327 128 99 80 
226 945 326 128 99 82 
227 944 326 130 103 87 
226 946 324 113 83 69 
226 946 325 116 87 70 
226 947 324 110 82 67 
227 946 324 115 86 73 
225 948 323 104 78 66 
225 949 323 99 75 60 
224 950 323 104 83 66 
224 951 323 104 84 68 
225 950 322 97 77 61 
225 950 323 100 79 62 
225 951 322 99 79 66 
225 951 323 101 81 66 
227 948 321 95 74 59 
227 949 321 95 74 60 
226 948 323 102 76 64 
226 949 322 97 76 63 
226 949 323 97 74 61 
227 948 322 99 76 63 
227 948 323 102 75 63 
227 949 322 96 76 62 
226 950 321 99 78 67 
226 951 321 96 77 64 
227 950 321 94 72 59 
227 951 320 90 69 59 
227 951 321 91 68 56 
226 950 322 98 77 64 
226 951 322 98 78 66 
224 948 325 105 81 67 
224 949 324 101 77 63 
224 949 325 104 80 68 
225 948 324 106 80 65 
225 948 325 107 80 66 
225 949 324 101 76 63 
224 948 326 105 81 66 
224 950 324 105 82 68 
224 950 325 107 83 70 
224 951 324 104 83 68 
229 944 321 110 85 70 
229 945 320 108 86 70 
229 945 321 112 87 73 
228 944 322 118 92 76 
228 944 323 122 95 82 
228 945 322 116 90 76 
228 945 323 121 94 82 
229 944 322 114 89 73 
229 944 323 118 92 76 
229 945 322 115 90 76 
228 946 321 107 83 70 
228 947 321 100 77 63 
229 946 320 105 83 68 
229 946 321 109 85 72 
229 947 320 97 76 61 
228 946 322 108 82 68 
228 946 323 113 84 72 
228 947 322 103 78 65 
230 944 320 107 84 68 
230 944 321 107 82 66 
230 945 320 106 84 67 
230 946 320 105 84 69 
228 944 324 124 95 83 
228 944 325 124 96 83 
228 948 320 92 72 57 
228 948 321 96 75 62 
228 949 320 90 70 55 
228 949 321 95 74 59 
229 948 320 92 71 58 
228 950 320 90 71 57 
228 951 320 90 70 59 
224 944 329 123 90 77 
224 945 328 120 90 75 
224 945 329 120 89 76 
225 944 328 126 96 79 
225 944 329 127 96 82 
225 945 328 122 92 76 
224 944 330 122 88 74 
224 944 331 126 92 75 
224 945 330 118 85 71 
224 946 328 116 86 72 
224 946 329 116 87 73 
224 947 328 111 83 68 
226 944 328 126 97 77 
225 953 321 96 74 61 
224 952 322 98 78 64 
224 952 323 101 80 64 
224 953 322 97 76 63 
225 952 322 98 77 66 
225 953 322 96 74 63 
224 954 321 95 74 63 
224 955 321 92 74 61 
225 954 321 97 77 63 
225 955 320 102 84 68 
225 955 321 98 79 64 
224 954 322 94 73 62 
226 952 321 96 77 62 
226 953 320 95 75 61 
226 953 321 98 79 62 
227 952 320 91 70 60 
227 952 321 90 68 57 
227 953 320 91 70 59 
226 952 322 98 78 66 
226 954 320 99 80 65 
226 954 321 103 84 67 
226 955 320 101 81 66 
227 954 320 96 76 62 
224 956 320 90 71 57 
224 956 321 87 68 53 
224 957 320 89 70 57 
225 956 320 99 80 66 
226 956 320 98 78 63 
228 952 320 89 69 60 
213 967 319 119 100 85 
215 967 316 101 78 65 
215 967 317 99 78 63 
214 966 319 100 82 67 
214 967 318 100 81 65 
214 967 319 104 85 70 
215 966 318 103 83 68 
215 966 319 99 80 66 
215 967 318 99 80 64 
211 969 319 87 65 53 
215 968 314 90 62 50 
215 968 315 93 69 58 
212 968 319 105 81 67 
212 969 318 98 77 62 
212 969 319 99 76 65 
213 968 318 113 96 81 
213 968 319 112 90 73 
213 969 318 106 86 69 
214 968 316 93 74 60 
214 968 317 97 79 64 
215 968 316 97 75 63 
215 968 317 96 77 62 
214 968 318 103 85 69 
218 967 311 89 69 56 
219 967 310 89 67 55 
219 967 311 88 68 54 
221 967 306 90 70 55 
221 967 307 100 82 66 
223 966 305 83 61 51 
222 967 306 82 59 47 
222 967 307 88 68 54 
223 966 306 84 63 55 
223 966 307 79 58 46 
223 967 306 81 58 50 
221 965 311 104 86 69 
220 967 309 99 79 66 
221 966 309 104 85 68 
221 967 308 102 83 66 
221 967 309 102 82 65 
220 966 311 95 75 62 
220 967 310 97 76 65 
220 967 311 91 71 58 
221 966 310 103 84 69 
221 966 311 104 85 70 
221 967 310 103 83 71 
223 965 309 90 73 58 
222 965 310 106 89 72 
222 965 311 105 88 72 
223 964 311 101 85 72 
223 965 310 100 84 71 
223 965 311 104 88 75 
222 966 308 95 77 63 
222 966 309 107 89 74 
222 967 308 104 85 71 
223 966 308 81 62 49 
223 966 309 95 77 64 
222 966 310 105 87 69 
219 963 317 109 89 68 
218 963 319 131 108 84 
219 962 319 127 106 84 
219 963 318 121 100 78 
219 963 319 130 108 85 
217 967 312 105 85 69 
217 967 313 109 88 70 
216 967 314 107 76 58 
216 967 315 107 78 61 
217 966 314 120 98 78 
217 966 315 124 101 80 
217 967 314 114 90 71 
217 967 315 116 90 69 
219 965 313 97 78 65 
218 965 315 114 92 73 
219 964 315 102 83 66 
219 965 314 100 81 67 
219 965 315 105 84 67 
218 966 313 104 84 66 
218 967 312 98 79 67 
218 967 313 102 82 67 
219 966 312 93 74 62 
219 966 313 96 76 64 
219 967 312 91 73 61 
218 966 314 110 89 70 
218 966 315 121 99 78 
217 965 317 128 104 84 
216 965 318 108 82 67 
216 965 319 104 80 66 
217 964 318 125 99 77 
217 964 319 122 95 74 
217 965 318 119 92 71 
217 965 319 113 85 67 
216 966 317 110 81 64 
216 967 316 107 79 64 
216 967 317 108 83 67 
217 966 316 123 97 78 
217 966 317 118 88 68 
216 966 318 107 83 67 
216 966 319 103 81 66 
217 966 318 112 82 63 
218 964 317 131 109 86 
218 965 316 126 104 83 
218 965 317 131 108 86 
219 964 316 108 88 70 
219 964 317 117 96 75 
219 965 316 115 94 74 
218 964 318 133 109 86 
218 964 319 132 108 85 
221 963 315 92 77 66 
223 961 315 88 70 58 
222 963 313 92 76 60 
223 963 313 95 79 64 
222 962 315 88 72 59 
222 963 314 90 75 62 
222 963 315 95 81 71 
223 962 314 90 72 58 
223 962 315 86 68 54 
223 963 314 86 69 52 
220 961 319 96 77 59 
221 960 319 83 65 55 
221 961 318 83 64 53 
221 961 319 86 68 55 
220 962 317 89 71 55 
220 963 316 87 69 58 
220 963 317 92 73 56 
221 962 317 82 63 51 
221 963 316 84 67 56 
221 963 317 81 63 52 
220 962 318 97 78 60 
220 962 319 105 86 66 
220 963 318 101 81 61 
221 962 318 83 64 52 
222 961 317 89 72 62 
223 960 317 94 78 65 
223 961 316 89 71 58 
223 961 317 95 79 67 
222 960 318 85 67 57 
222 960 319 84 66 57 
222 961 318 82 63 54 
223 960 318 91 75 62 
222 962 316 92 76 66 
222 962 317 88 71 61 
220 965 313 94 76 63 
221 964 313 101 86 75 
221 965 312 104 87 72 
221 965 313 103 86 74 
220 964 314 91 75 62 
220 964 315 92 75 62 
220 965 314 93 75 63 
221 964 314 97 82 71 
221 964 315 90 74 63 
220 966 312 93 74 60 
220 966 313 91 72 59 
221 966 312 103 86 71 
222 964 312 100 83 69 
222 964 313 97 81 68 
222 965 312 102 84 69 
223 964 312 101 84 71 
223 964 313 100 84 71 
222 964 314 99 85 74 
220 964 316 93 75 61 
216 968 312 99 74 59 
216 968 313 96 68 52 
217 968 312 104 83 68 
217 968 313 105 81 63 
216 968 314 98 68 50 
216 968 315 100 71 56 
232 963 285 160 125 89 
233 962 285 168 132 96 
233 963 285 165 130 93 
232 963 286 164 130 97 
232 963 287 143 113 84 
233 962 286 171 137 104 
233 962 287 159 128 96 
233 963 286 166 133 100 
233 963 287 151 119 87 
234 961 285 162 127 88 
235 960 285 166 132 96 
235 961 285 169 134 95 
234 961 286 178 143 108 
234 961 287 167 135 102 
235 960 286 179 145 111 
235 960 287 170 138 104 
235 961 286 179 145 109 
235 961 287 168 136 102 
234 962 285 168 133 94 
234 962 286 175 140 105 
234 962 287 169 137 103 
236 960 286 176 144 111 
236 960 287 169 138 103 
227 963 294 90 69 54 
227 963 295 98 75 58 
225 965 294 93 68 48 
225 965 295 102 78 58 
226 964 293 83 63 51 
227 964 292 80 61 48 
227 964 293 85 66 52 
226 964 294 90 67 52 
226 964 295 101 75 57 
226 965 294 91 65 48 
226 965 295 102 77 58 
227 964 294 87 67 52 
227 964 295 98 74 57 
231 963 289 105 85 69 
230 963 290 83 65 50 
230 963 291 76 57 45 
231 962 291 85 67 52 
231 963 290 93 76 61 
231 963 291 82 63 48 
228 963 293 90 73 59 
229 963 292 76 59 46 
229 963 293 88 72 58 
228 963 294 90 70 57 
228 963 295 95 72 58 
229 962 294 93 76 62 
229 962 295 94 73 58 
229 963 294 92 73 59 
231 961 293 85 70 58 
230 961 294 90 74 63 
230 961 295 93 75 61 
231 960 295 85 69 57 
231 961 294 83 68 57 
231 961 295 83 67 54 
230 962 292 81 64 51 
230 962 293 85 69 57 
230 963 292 77 59 45 
230 963 293 78 61 48 
231 962 292 83 64 50 
231 962 293 85 70 58 
230 962 294 91 76 64 
228 964 291 80 63 54 
229 964 290 78 60 50 
229 964 291 74 56 45 
230 964 288 103 81 59 
230 964 289 96 78 63 
231 964 288 118 94 72 
231 964 289 104 83 65 
230 964 290 84 67 55 
230 964 291 74 56 45 
228 964 292 80 62 49 
228 964 293 87 70 56 
229 964 292 79 62 49 
227 963 296 107 83 63 
227 963 297 110 88 72 
227 963 298 94 73 59 
225 965 296 101 78 59 
225 965 297 83 59 44 
225 965 298 81 58 44 
226 964 296 111 87 69 
226 964 297 102 79 63 
226 965 296 106 83 64 
226 965 297 89 65 49 
227 964 296 111 88 70 
227 964 297 100 78 62 
226 964 298 83 62 50 
226 964 299 83 63 53 
226 965 298 82 60 47 
226 965 299 85 64 52 
227 964 298 85 65 53 
227 964 299 82 61 52 
225 965 300 91 73 61 
225 965 301 88 71 58 
225 965 302 88 69 57 
225 965 303 94 75 62 
224 966 301 85 65 51 
225 966 300 91 72 60 
225 966 301 85 67 54 
224 966 302 89 68 53 
224 966 303 89 66 49 
225 966 302 90 70 57 
225 966 303 91 69 54 
226 965 300 89 71 59 
226 965 301 88 71 57 
227 964 300 84 66 55 
227 964 301 90 73 60 
226 964 303 93 75 64 
226 965 302 88 70 57 
226 965 303 93 75 62 
227 964 302 87 71 57 
227 964 303 90 73 60 
229 961 296 98 75 60 
229 961 297 111 87 65 
229 961 298 117 95 76 
229 961 299 96 75 60 
228 962 296 101 77 57 
228 962 297 113 91 72 
228 963 296 105 81 60 
228 963 297 110 88 70 
229 962 296 98 74 57 
229 962 297 110 86 64 
228 962 298 107 86 69 
228 962 299 84 65 54 
228 963 298 92 71 57 
228 963 299 80 61 51 
229 962 298 108 88 71 
229 962 299 90 71 57 
230 960 297 106 83 63 
230 961 296 98 78 63 
230 961 297 103 80 63 
231 960 296 97 80 66 
231 960 297 104 84 68 
231 961 296 95 77 64 
230 960 298 118 94 71 
230 960 299 122 100 81 
230 961 298 121 98 77 
230 961 299 107 85 66 
231 960 298 112 89 67 
231 960 299 121 98 77 
229 961 300 81 60 49 
229 961 301 78 60 51 
229 961 302 80 64 52 
228 962 300 76 58 49 
228 963 300 77 58 48 
228 963 301 86 68 57 
229 962 300 76 57 47 
229 962 301 78 62 52 
228 963 302 87 70 58 
228 963 303 89 73 61 
229 962 302 82 64 53 
229 962 303 84 68 57 
230 960 300 108 85 68 
230 960 301 85 60 49 
230 961 300 85 62 48 
230 961 301 77 56 47 
231 960 300 126 105 88 
231 960 301 92 67 57 
230 960 302 81 64 54 
230 960 303 79 62 50 
230 961 302 80 64 53 
230 961 303 79 62 50 
231 960 302 86 66 56 
231 960 303 82 64 54 
228 964 302 90 74 61 
228 964 303 89 72 59 
233 961 289 111 87 65 
232 961 291 88 71 56 
233 960 291 84 66 47 
233 961 290 99 80 63 
233 961 291 89 71 55 
232 962 289 108 85 65 
232 963 288 125 99 74 
232 963 289 110 89 72 
233 962 288 133 105 80 
233 962 289 110 86 62 
233 963 288 139 111 86 
232 962 290 100 82 67 
232 962 291 91 75 61 
233 962 290 103 82 65 
234 960 289 107 84 62 
234 961 288 142 113 85 
234 961 289 120 96 73 
235 960 288 148 119 86 
235 960 289 124 98 76 
234 960 290 102 83 66 
234 960 291 97 80 65 
234 961 290 104 83 65 
235 960 290 104 82 66 
235 960 291 101 85 72 
232 961 292 88 70 57 
232 961 293 91 76 65 
233 960 292 85 68 52 
233 960 293 97 82 70 
233 961 292 89 72 57 
232 960 294 83 68 57 
232 960 295 80 65 53 
232 961 294 83 68 58 
233 960 294 92 78 67 
233 960 295 79 64 53 
232 962 292 87 69 55 
234 960 292 85 67 51 
234 960 293 89 72 58 
236 960 288 153 123 89 
232 960 296 86 70 59 
227 963 305 87 71 57 
226 963 307 92 75 61 
227 963 306 88 71 57 
227 963 307 86 70 55 
225 963 309 79 64 55 
225 963 310 70 53 44 
225 963 311 72 54 44 
227 961 309 86 71 61 
227 960 311 71 55 44 
227 961 310 79 62 53 
227 961 311 72 55 47 
226 963 308 87 70 56 
226 963 309 84 69 59 
227 962 308 85 69 56 
227 962 309 85 69 58 
227 963 308 90 73 60 
227 963 309 87 70 59 
226 962 310 79 65 57 
226 962 311 70 54 47 
226 963 310 75 61 54 
227 962 310 77 61 52 
227 962 311 73 58 51 
225 965 304 88 67 49 
225 965 305 96 77 62 
224 965 307 88 71 61 
225 964 306 102 84 72 
225 964 307 91 73 61 
225 965 306 98 80 68 
225 965 307 90 73 61 
224 966 304 91 69 55 
224 966 305 88 67 54 
225 966 304 89 67 49 
225 966 305 92 70 55 
224 966 306 86 67 57 
224 966 307 84 66 57 
226 964 304 91 73 60 
226 964 305 91 73 57 
226 965 304 92 73 58 
226 965 305 88 69 50 
227 964 304 90 72 60 
227 964 305 88 71 56 
226 964 306 99 82 69 
226 964 307 95 77 64 
224 964 309 74 55 41 
224 965 308 80 63 52 
224 965 309 76 59 45 
225 964 308 86 70 59 
225 964 309 77 61 50 
225 965 308 87 72 61 
224 964 310 80 62 50 
224 964 311 87 71 59 
224 965 310 84 66 54 
225 964 310 72 54 41 
225 964 311 77 57 46 
226 964 308 87 69 56 
229 961 304 85 70 61 
229 961 305 88 74 66 
228 961 307 76 61 47 
229 960 307 80 63 52 
229 961 306 84 69 60 
229 961 307 78 61 48 
228 962 305 86 71 61 
228 963 304 88 72 60 
228 963 305 88 72 60 
229 962 304 90 75 66 
229 962 305 88 73 64 
228 962 306 82 66 53 
228 962 307 79 62 48 
228 963 306 84 68 54 
229 962 306 85 69 60 
230 960 304 76 58 49 
230 960 305 83 68 61 
230 961 304 81 65 56 
230 961 305 87 73 66 
231 960 304 76 57 48 
231 960 305 76 58 50 
230 960 306 84 69 61 
230 960 307 82 66 56 
228 960 309 81 63 51 
228 961 308 76 59 45 
228 961 309 83 67 55 
229 960 308 78 61 47 
229 960 309 78 58 45 
229 961 308 76 60 45 
228 960 310 83 67 56 
228 960 311 81 65 55 
229 960 310 81 63 50 
228 962 308 78 60 45 
230 960 308 80 64 51 
225 961 313 82 65 56 
224 961 314 91 74 64 
224 961 315 94 77 67 
225 960 315 81 63 53 
225 961 314 83 66 57 
225 961 315 85 68 58 
224 962 313 92 75 63 
224 963 312 91 74 62 
224 963 313 94 77 64 
225 962 312 73 56 47 
225 962 313 83 66 56 
225 963 312 80 62 52 
224 962 314 93 77 66 
226 960 313 77 60 52 
226 961 312 73 57 49 
226 961 313 75 58 50 
227 960 312 72 55 44 
227 960 313 76 59 49 
227 961 312 72 56 47 
226 960 314 79 62 53 
226 960 315 78 62 52 
226 961 314 79 61 53 
227 960 314 80 64 55 
226 962 312 72 55 46 
226 962 313 73 56 45 
224 960 316 94 76 65 
224 960 317 95 78 65 
224 961 316 94 76 65 
225 960 316 88 70 60 
225 960 317 92 74 62 
224 964 312 94 78 66 
228 960 312 78 62 51 
193 963 335 112 92 78 
193 965 331 119 100 83 
193 967 328 110 90 72 
193 967 329 110 91 73 
193 966 330 117 98 81 
193 966 331 118 99 82 
193 967 330 108 89 72 
194 967 329 89 70 55 
194 966 331 93 76 60 
194 967 330 89 72 58 
194 967 331 96 79 63 
195 966 331 86 67 52 
195 967 330 104 84 69 
195 967 331 99 80 64 
193 965 332 118 99 82 
193 965 333 117 98 82 
193 964 334 114 95 80 
193 964 335 112 92 78 
193 965 334 115 96 80 
193 966 332 116 98 81 
194 965 333 99 81 66 
195 965 333 93 74 59 
194 964 334 106 85 69 
194 964 335 103 83 68 
194 965 334 98 79 64 
195 964 335 98 77 63 
195 965 334 93 73 58 
195 965 335 97 76 61 
194 966 332 97 79 62 
195 966 332 93 73 57 
195 966 333 92 72 57 
196 967 330 128 106 88 
196 967 331 125 105 87 
197 967 330 106 85 67 
197 967 331 92 76 61 
198 967 331 89 72 60 
199 967 331 110 88 71 
196 964 335 109 89 71 
196 965 334 112 91 72 
196 965 335 110 89 71 
197 964 335 99 81 64 
197 965 334 92 75 60 
197 965 335 95 78 62 
196 966 332 119 99 81 
196 966 333 116 96 77 
196 967 332 121 101 82 
197 966 332 96 78 61 
197 966 333 89 73 58 
197 967 332 89 73 60 
197 966 334 76 62 50 
198 964 335 81 59 49 
198 965 334 79 60 50 
198 965 335 80 59 49 
199 964 335 109 87 72 
199 965 334 109 88 72 
199 965 335 109 88 73 
198 966 333 80 64 54 
198 967 332 85 68 58 
199 966 333 110 89 72 
199 967 332 112 88 71 
198 966 334 80 62 52 
199 966 334 110 88 73 
193 969 324 100 79 63 
193 969 325 98 78 62 
193 968 326 104 85 67 
193 968 327 104 84 68 
193 969 326 93 76 59 
193 970 324 91 72 57 
194 969 325 89 68 50 
194 968 327 89 68 51 
194 969 326 93 71 51 
194 969 327 94 71 50 
195 969 326 111 87 67 
195 969 327 115 90 69 
194 970 324 95 74 54 
194 970 325 98 76 55 
195 970 324 101 77 58 
195 970 325 105 81 62 
195 970 326 108 84 66 
196 969 326 104 81 65 
196 969 327 107 84 68 
197 969 327 99 82 69 
196 970 325 98 77 65 
197 970 325 98 80 66 
196 970 326 101 79 66 
197 970 326 99 82 68 
197 970 327 102 83 67 
198 969 327 104 82 64 
199 969 327 96 70 49 
198 970 325 94 70 49 
198 970 326 99 75 54 
198 970 327 103 79 61 
199 970 326 88 65 48 
199 970 327 90 65 48 
193 968 328 101 82 65 
194 968 328 90 69 51 
194 968 329 87 67 49 
195 968 328 116 93 73 
195 968 329 116 94 77 
195 968 330 118 96 80 
196 968 328 119 96 78 
196 968 329 116 94 76 
196 969 328 109 87 71 
197 968 329 94 77 63 
197 969 328 98 81 68 
197 969 329 96 79 67 
196 968 330 124 103 84 
197 968 330 92 75 60 
198 968 329 97 80 65 
198 969 328 104 82 64 
198 969 329 102 81 64 
199 969 328 99 74 55 
199 969 329 108 83 64 
198 968 330 95 76 61 
199 968 330 111 88 70 
199 968 331 115 92 75 
200 967 331 100 76 55 
201 967 331 73 55 44 
202 967 331 86 71 61 
203 967 331 101 80 63 
200 964 335 112 91 73 
200 965 334 111 89 70 
200 965 335 111 90 72 
201 964 335 86 67 53 
201 965 334 80 61 48 
201 965 335 81 63 49 
200 966 333 106 83 63 
200 967 332 101 77 56 
201 966 333 77 60 47 
201 967 332 75 57 46 
200 966 334 109 86 67 
201 966 334 78 60 47 
202 964 335 80 63 51 
202 965 334 80 63 52 
202 965 335 81 64 52 
203 964 335 98 77 62 
203 965 334 98 77 62 
203 965 335 98 77 62 
202 966 333 82 66 56 
202 967 332 83 68 58 
203 966 333 98 78 62 
203 967 332 98 78 63 
202 966 334 80 64 53 
203 966 334 98 77 62 
204 967 331 120 95 73 
205 967 330 130 106 84 
205 967 331 127 103 81 
206 967 329 104 83 63 
207 967 328 88 70 56 
207 967 329 85 67 52 
206 966 331 107 87 69 
206 967 330 111 91 71 
206 967 331 120 99 81 
207 966 330 86 67 52 
207 966 331 86 65 50 
207 967 330 87 68 52 
204 964 335 119 97 78 
204 965 334 120 98 79 
204 965 335 119 97 79 
205 964 335 120 98 77 
205 965 334 124 102 81 
205 965 335 122 100 80 
204 966 333 123 99 79 
204 967 332 122 98 78 
205 966 332 127 104 83 
205 966 333 127 104 82 
205 967 332 127 102 80 
204 966 334 122 99 80 
205 966 334 124 101 78 
206 965 333 106 85 65 
207 965 332 84 62 48 
207 965 333 90 69 51 
206 964 335 112 92 74 
206 965 334 112 91 70 
207 964 334 93 72 55 
207 964 335 97 77 62 
207 965 334 93 71 52 
206 966 332 112 91 72 
206 966 333 113 92 72 
207 966 332 87 66 50 
201 970 325 86 69 58 
200 970 326 77 61 53 
200 970 327 78 60 49 
201 970 326 81 67 59 
201 970 327 78 64 57 
203 969 327 120 94 70 
202 970 325 112 86 63 
203 970 325 142 111 81 
202 970 326 102 79 60 
202 970 327 93 73 58 
203 970 326 133 104 76 
203 970 327 128 101 75 
205 969 325 135 112 90 
204 969 327 140 112 83 
205 969 326 139 114 89 
205 969 327 139 113 88 
204 970 325 147 114 82 
205 970 324 139 114 90 
205 970 325 142 116 91 
204 970 326 144 114 83 
205 970 326 145 117 88 
206 969 325 110 90 72 
207 969 324 96 74 61 
207 969 325 94 73 57 
206 968 327 108 87 69 
206 969 326 110 91 71 
206 969 327 116 95 75 
207 968 326 91 70 56 
207 968 327 93 74 60 
207 969 326 94 74 57 
206 970 324 110 89 71 
206 970 325 117 97 80 
207 970 324 99 78 63 
200 968 329 98 75 57 
200 969 328 81 61 47 
200 969 329 86 64 47 
201 969 328 74 60 52 
201 969 329 74 59 50 
200 968 330 92 70 51 
200 968 331 99 75 56 
201 968 330 73 58 47 
201 968 331 73 56 45 
202 969 328 90 71 57 
202 969 329 89 73 61 
203 968 329 117 93 73 
203 969 328 115 90 67 
203 969 329 104 81 61 
202 968 330 88 73 63 
202 968 331 85 70 60 
203 968 330 101 78 60 
203 968 331 89 69 54 
204 968 329 131 105 81 
204 969 328 136 110 84 
204 969 329 130 104 80 
205 968 328 134 110 89 
205 968 329 134 109 86 
205 969 328 137 111 86 
204 968 330 123 98 75 
205 968 330 129 104 79 
206 968 328 109 88 70 
206 968 329 116 94 75 
207 968 328 89 72 56 
193 960 339 104 87 74 
193 961 338 104 86 73 
193 961 339 105 87 74 
193 962 337 104 86 72 
193 963 336 110 90 75 
193 963 337 107 87 73 
193 962 338 104 86 72 
194 960 339 107 88 76 
194 961 339 103 83 70 
195 961 339 92 71 58 
194 962 337 107 88 74 
194 963 336 108 88 75 
194 963 337 107 87 73 
195 963 336 97 77 61 
195 963 337 96 77 60 
194 962 338 105 86 72 
195 962 338 91 70 53 
193 960 340 103 86 73 
194 960 340 103 85 74 
194 960 341 97 79 66 
195 960 340 89 71 57 
195 960 341 86 67 53 
195 964 336 98 78 63 
196 961 339 98 78 62 
197 961 339 103 85 70 
196 963 336 108 88 71 
196 963 337 105 85 69 
197 963 337 100 81 66 
196 962 338 102 81 65 
196 962 339 103 84 67 
197 962 338 101 82 66 
197 962 339 102 84 68 
198 961 339 96 76 60 
199 961 339 113 93 75 
198 963 337 85 63 52 
199 963 337 110 88 73 
198 962 338 88 68 55 
198 962 339 92 71 56 
199 962 338 109 88 72 
199 962 339 112 91 73 
196 960 340 94 75 59 
196 960 341 93 74 59 
197 960 340 102 84 70 
197 960 341 101 84 70 
198 960 340 101 81 65 
198 960 341 103 84 69 
199 960 340 115 95 77 
199 960 341 114 94 76 
196 964 336 109 89 72 
197 964 336 99 82 66 
198 964 336 83 61 50 
199 964 336 109 87 71 
200 961 339 114 94 77 
201 961 339 109 89 74 
200 963 337 113 91 75 
201 963 337 96 77 64 
200 962 338 110 89 72 
200 962 339 115 94 76 
201 962 338 101 81 66 
201 962 339 99 80 66 
201 963 338 97 78 63 
202 961 339 106 84 64 
203 961 339 117 95 74 
202 963 337 93 74 60 
203 963 337 109 88 70 
202 962 338 99 79 62 
202 962 339 100 79 61 
202 963 338 98 79 63 
203 962 338 117 96 77 
203 962 339 112 90 70 
203 963 338 114 92 73 
200 960 340 113 93 75 
200 960 341 113 94 77 
201 960 340 110 91 75 
201 960 341 111 91 74 
202 960 340 110 89 69 
202 960 341 110 88 69 
202 961 340 111 88 67 
203 960 340 121 98 77 
203 960 341 120 98 77 
203 961 340 119 96 75 
200 964 336 115 92 75 
201 964 336 93 74 60 
202 964 336 86 68 55 
203 964 336 104 83 66 
204 961 339 123 101 82 
205 961 339 120 100 81 
204 963 337 120 98 77 
205 963 337 119 97 75 
204 962 338 123 101 82 
204 963 338 121 99 79 
205 962 338 119 98 79 
205 963 338 119 97 76 
206 961 339 109 89 72 
207 961 338 96 74 59 
207 961 339 96 75 58 
206 963 336 110 90 72 
206 963 337 114 94 75 
207 963 336 100 80 62 
207 963 337 101 81 63 
206 962 338 112 91 73 
207 962 338 100 80 62 
204 960 340 122 100 80 
204 960 341 121 100 79 
204 961 340 122 100 79 
205 960 340 119 99 79 
205 960 341 118 98 78 
205 961 340 119 99 80 
206 960 340 105 86 67 
206 960 341 106 87 68 
206 961 340 110 91 73 
207 960 340 94 74 57 
207 960 341 96 77 57 
204 964 336 120 98 78 
205 964 336 119 96 76 
206 964 336 115 94 76 
207 964 336 101 81 64 
211 967 322 99 78 63 
211 967 323 105 86 71 
209 967 325 99 75 58 
208 967 327 100 75 67 
209 966 327 104 80 62 
209 967 326 99 73 56 
209 967 327 102 75 60 
210 965 327 108 90 73 
211 965 326 97 79 64 
211 965 327 99 81 66 
210 966 325 110 91 75 
210 967 324 109 92 78 
210 967 325 108 89 74 
211 966 324 101 83 70 
211 966 325 102 84 68 
211 967 324 106 88 74 
211 967 325 108 90 75 
210 966 326 108 89 72 
210 966 327 109 89 71 
211 966 326 103 86 69 
213 963 326 111 93 81 
213 963 327 104 85 72 
215 961 327 91 73 63 
214 963 325 100 83 68 
215 962 325 92 74 62 
215 963 324 95 76 66 
215 963 325 90 72 57 
214 962 327 100 82 68 
214 963 326 105 87 74 
214 963 327 107 90 77 
215 962 326 91 73 61 
215 962 327 91 74 62 
213 965 323 118 99 82 
212 967 321 103 77 64 
213 966 321 121 101 84 
213 967 320 118 98 81 
213 967 321 117 95 79 
212 966 323 98 73 61 
212 967 322 99 75 60 
212 967 323 97 76 63 
213 966 322 115 95 79 
213 966 323 110 88 73 
213 967 322 109 86 70 
214 965 321 104 86 70 
215 964 321 96 78 64 
215 965 320 98 79 65 
215 965 321 96 78 63 
214 964 323 96 78 62 
214 965 322 106 88 71 
214 965 323 106 88 72 
215 964 322 97 79 66 
215 964 323 95 77 65 
215 965 322 98 80 65 
214 966 320 104 86 70 
214 966 321 109 91 74 
214 967 320 109 90 74 
215 966 320 93 74 60 
212 965 325 98 77 63 
213 964 325 114 95 81 
213 965 324 112 92 76 
213 965 325 105 82 67 
212 964 326 98 77 64 
212 964 327 96 77 65 
212 965 326 98 77 66 
212 965 327 97 78 67 
213 964 326 104 83 70 
213 964 327 98 76 64 
212 966 324 99 77 65 
212 966 325 99 78 65 
213 966 324 103 80 65 
214 964 324 103 85 70 
214 964 325 107 89 74 
215 964 324 90 71 55 
211 963 329 94 75 57 
210 963 331 104 84 67 
211 962 331 93 74 60 
211 963 330 95 76 62 
211 963 331 100 80 66 
209 963 333 102 82 65 
208 963 335 97 75 60 
209 963 334 104 83 66 
209 963 335 101 81 65 
211 961 334 103 85 70 
211 961 335 101 83 67 
210 963 332 100 80 61 
210 963 333 97 77 57 
211 962 332 93 75 59 
211 962 333 101 84 66 
211 963 332 101 83 67 
210 962 334 97 78 58 
210 962 335 101 82 65 
