ply
format ascii 1.0
comment Created by CloudCompare v2.10.1 (Zephyrus)
comment Created 1/31/20 5:40 PM
obj_info Generated by CloudCompare!
element vertex 2138
property float x
property float y
property float z
property uchar red
property uchar green
property uchar blue
end_header
182 153 270 86 76 68 
182 153 271 85 75 67 
183 153 270 86 76 68 
183 153 271 85 75 67 
182 154 268 88 78 69 
182 154 269 87 77 68 
182 155 268 88 78 69 
182 154 270 86 76 67 
182 154 271 85 75 67 
180 156 265 91 81 71 
180 156 266 90 80 71 
180 156 267 89 79 69 
181 156 266 91 80 71 
181 156 267 90 80 70 
180 156 268 88 77 68 
180 156 269 86 75 66 
180 157 269 86 75 64 
180 156 270 85 74 65 
180 156 271 84 74 65 
180 157 270 85 74 64 
180 157 271 84 74 64 
186 151 265 96 85 76 
187 151 265 96 85 76 
186 151 266 96 85 76 
186 151 267 93 83 74 
187 150 267 93 82 74 
187 151 266 96 85 76 
187 151 267 93 83 74 
186 151 268 90 80 71 
186 151 269 87 78 69 
187 150 268 89 79 70 
187 150 269 87 78 69 
187 151 268 90 80 71 
187 151 269 88 78 70 
186 151 270 86 77 68 
186 151 271 84 75 67 
187 150 270 85 76 68 
187 150 271 84 74 67 
187 151 270 86 76 68 
191 147 265 90 80 71 
191 147 266 89 79 71 
191 145 271 86 77 69 
190 147 269 86 77 68 
191 146 269 86 76 68 
191 147 268 86 76 68 
191 147 269 86 76 68 
190 147 270 85 76 68 
190 147 271 85 75 68 
191 146 270 86 76 69 
191 146 271 86 76 69 
191 147 270 85 76 68 
191 147 271 84 74 67 
188 150 265 98 86 77 
188 151 265 98 86 77 
189 150 265 98 86 77 
188 150 266 97 85 76 
188 150 267 93 82 74 
189 150 266 96 84 76 
189 150 267 92 81 72 
190 148 265 94 83 74 
190 149 265 96 84 75 
191 148 265 92 81 73 
190 148 267 87 77 69 
190 149 266 92 81 72 
190 149 267 89 79 70 
191 148 266 89 79 70 
191 148 267 87 77 68 
191 149 266 90 80 71 
190 150 265 97 85 76 
190 150 266 95 84 75 
189 149 268 88 78 70 
189 149 269 86 77 68 
188 149 270 85 76 68 
188 149 271 83 74 66 
189 148 271 83 74 66 
189 149 270 86 76 68 
189 149 271 83 74 67 
188 150 268 90 79 71 
188 150 269 87 78 69 
189 150 268 90 80 71 
188 150 270 85 76 68 
188 150 271 83 74 66 
190 148 268 87 77 69 
190 148 269 86 77 68 
190 149 268 88 78 69 
190 148 270 86 76 68 
190 148 271 84 75 67 
184 153 265 95 84 75 
185 152 265 95 84 75 
185 153 265 95 84 75 
184 152 267 91 81 72 
184 153 266 93 83 74 
184 153 267 90 80 71 
185 152 266 94 83 74 
185 152 267 93 82 74 
185 153 266 94 84 74 
186 152 265 96 85 76 
186 152 266 95 84 75 
184 152 268 89 80 71 
184 152 269 88 78 69 
184 153 268 89 79 70 
184 153 269 88 78 69 
185 152 268 90 80 71 
185 152 269 88 78 69 
184 152 270 86 76 68 
184 152 271 85 76 67 
184 153 270 86 77 68 
185 152 270 86 77 68 
185 152 271 85 75 67 
183 151 277 81 73 66 
182 151 279 84 75 67 
183 150 278 82 73 66 
183 150 279 83 74 67 
183 151 278 82 73 66 
183 151 279 84 75 67 
183 147 282 89 79 70 
183 147 283 89 79 71 
183 146 284 90 80 72 
183 146 285 92 83 73 
183 147 284 90 80 71 
183 147 285 91 82 73 
183 146 286 98 87 78 
183 147 286 98 88 79 
183 147 287 103 92 81 
181 150 282 90 80 71 
181 150 283 92 81 72 
181 151 282 91 81 72 
181 151 283 92 82 73 
183 148 281 88 79 70 
183 149 280 86 77 69 
183 149 281 88 79 70 
182 148 283 88 79 70 
182 149 282 89 79 70 
182 149 283 89 80 71 
183 148 282 89 79 70 
183 148 283 89 79 70 
183 149 282 89 79 70 
182 150 281 89 79 70 
182 151 280 86 76 68 
182 151 281 88 78 70 
183 150 280 86 77 69 
183 150 281 88 78 70 
183 151 280 85 76 68 
182 150 282 89 80 71 
182 150 283 90 80 71 
181 151 284 94 84 75 
182 148 284 88 79 70 
182 149 284 89 79 70 
182 149 285 89 80 71 
183 148 284 89 80 71 
183 148 285 89 80 72 
183 149 285 89 79 71 
183 148 286 95 85 78 
183 148 287 100 89 79 
183 149 286 92 83 76 
183 149 287 95 85 77 
182 150 284 92 81 72 
182 150 285 95 85 75 
182 151 284 96 86 76 
182 151 285 99 88 79 
182 150 286 99 89 81 
182 151 286 99 89 80 
183 150 286 99 89 82 
183 150 287 100 91 82 
183 151 286 102 92 83 
183 151 287 103 93 84 
177 159 272 86 73 63 
177 159 273 87 74 65 
177 159 274 89 76 67 
177 159 275 89 77 69 
179 157 272 84 73 64 
179 157 273 84 74 66 
179 156 274 83 74 66 
179 156 275 84 75 68 
179 157 274 85 75 67 
179 157 275 87 76 68 
178 158 272 85 74 64 
178 158 273 86 74 65 
178 159 272 85 73 64 
179 158 272 85 73 64 
178 158 274 87 75 67 
178 158 275 89 77 69 
177 159 276 89 77 70 
179 156 276 83 75 69 
179 156 277 80 72 67 
179 157 276 86 77 69 
179 157 277 82 73 67 
179 156 278 74 67 61 
179 156 279 78 70 62 
179 157 278 81 72 64 
179 157 279 80 72 64 
178 158 276 90 78 70 
178 158 277 87 77 70 
178 159 276 90 79 72 
178 159 277 91 81 73 
178 158 278 88 78 70 
178 159 278 91 79 72 
178 159 279 89 78 71 
179 158 278 88 78 70 
179 158 279 84 75 69 
179 159 279 91 80 72 
180 155 272 83 73 65 
180 155 273 82 73 65 
181 154 272 84 74 66 
181 154 273 82 73 66 
181 155 272 83 74 65 
181 155 273 82 73 65 
180 155 274 81 72 65 
180 155 275 82 73 66 
181 154 274 82 73 66 
181 154 275 81 72 65 
181 155 274 82 73 66 
181 155 275 81 72 65 
182 153 272 84 75 66 
182 153 273 82 73 66 
183 153 272 84 74 66 
183 153 273 83 74 66 
182 153 274 82 73 66 
182 153 275 81 72 65 
183 152 274 82 73 66 
183 152 275 81 73 66 
183 153 274 82 73 66 
183 153 275 82 73 66 
182 154 272 84 74 66 
182 154 273 82 73 66 
182 154 274 82 73 66 
182 154 275 81 73 66 
181 153 276 80 71 65 
181 153 277 80 72 65 
181 153 278 82 73 66 
181 153 279 83 74 66 
180 155 276 80 73 67 
180 155 277 78 71 65 
181 154 276 79 71 65 
181 154 277 80 71 65 
181 155 276 79 71 65 
180 154 278 82 73 66 
180 154 279 84 75 68 
180 155 278 81 72 66 
180 155 279 82 74 67 
181 154 278 80 72 65 
181 154 279 83 74 67 
182 152 277 81 72 66 
182 153 276 81 72 65 
182 153 277 81 72 65 
183 152 276 80 72 65 
183 152 277 81 72 65 
183 153 276 81 72 65 
182 152 278 83 74 66 
182 152 279 84 75 67 
182 153 278 82 73 66 
182 153 279 84 75 67 
180 156 272 83 73 64 
180 156 273 82 73 65 
180 157 272 83 73 64 
180 157 273 82 73 65 
180 156 274 81 72 65 
180 156 277 75 68 62 
180 156 278 77 70 63 
180 156 279 81 73 66 
179 155 280 86 76 69 
179 156 280 82 74 67 
179 156 281 88 78 70 
179 157 280 82 75 68 
179 157 281 89 80 72 
179 158 280 88 79 71 
179 159 280 92 83 74 
181 152 280 86 77 69 
181 152 281 89 79 71 
181 153 280 85 76 68 
181 153 281 89 79 70 
181 152 282 90 80 72 
181 152 283 91 82 73 
181 153 282 91 80 72 
181 153 283 89 80 72 
180 154 280 86 77 69 
180 154 281 95 84 76 
180 155 280 86 78 70 
180 155 281 96 86 77 
181 154 280 85 75 67 
181 154 281 96 85 76 
181 154 282 97 86 77 
181 154 283 94 85 78 
181 155 282 100 90 80 
181 155 283 100 89 80 
182 152 280 86 76 68 
182 152 281 88 78 70 
181 152 284 91 82 73 
181 153 284 88 80 73 
181 154 284 94 85 77 
182 152 284 91 82 74 
182 152 285 95 86 78 
182 153 284 87 79 71 
182 153 285 90 82 74 
182 152 286 96 87 79 
182 153 286 88 79 73 
183 152 286 99 89 80 
183 152 287 102 92 83 
183 153 286 90 81 74 
183 153 287 95 84 76 
182 154 284 91 83 75 
182 154 285 88 79 73 
182 155 284 96 86 78 
182 155 285 93 83 75 
182 154 286 87 78 71 
182 155 286 90 79 72 
183 154 286 89 79 70 
183 154 287 92 80 69 
183 155 286 93 79 68 
183 155 287 94 79 67 
180 156 281 92 82 73 
180 157 281 93 82 74 
181 156 282 99 89 79 
181 156 283 99 88 79 
181 157 282 96 85 77 
181 157 283 98 88 79 
180 158 281 89 80 73 
180 159 280 95 85 76 
180 159 281 92 82 75 
181 158 281 91 82 76 
181 159 281 93 83 75 
181 158 282 93 84 77 
181 159 282 94 85 76 
182 156 283 98 87 79 
182 157 283 96 86 78 
182 158 283 95 85 76 
182 159 283 95 85 75 
182 156 284 98 88 80 
182 156 285 97 87 78 
182 157 284 97 87 78 
182 157 285 99 88 79 
183 156 285 96 85 74 
183 157 285 100 87 76 
183 156 286 96 83 69 
183 156 287 97 81 65 
183 157 286 100 84 69 
183 157 287 101 80 61 
182 158 284 95 85 76 
182 159 284 95 84 71 
182 159 285 97 84 69 
183 158 285 99 85 73 
183 159 285 100 83 65 
183 158 286 104 83 62 
183 158 287 107 80 55 
183 159 286 104 80 57 
183 159 287 108 76 49 
185 147 279 84 75 68 
187 145 279 86 76 68 
187 147 277 81 73 66 
186 146 279 84 75 67 
186 147 278 83 74 67 
186 147 279 84 75 67 
187 146 278 83 74 67 
187 146 279 85 75 67 
187 147 278 83 74 67 
185 151 273 81 72 65 
184 151 275 80 71 65 
185 151 274 80 72 65 
185 151 275 80 71 65 
186 149 275 80 71 65 
187 148 275 80 72 65 
187 149 274 81 72 65 
187 149 275 80 72 65 
186 151 272 82 73 66 
186 151 273 81 72 65 
187 150 272 82 73 65 
187 150 273 82 73 65 
187 151 272 83 74 66 
187 151 273 81 72 65 
186 150 274 81 72 65 
186 150 275 79 71 65 
186 151 274 81 72 65 
187 150 274 81 72 65 
185 149 277 81 73 66 
184 149 278 82 73 67 
184 149 279 84 75 67 
185 148 279 84 75 67 
185 149 278 82 73 67 
184 150 277 81 72 66 
184 151 276 80 72 65 
184 151 277 80 72 66 
185 150 276 79 71 65 
185 150 277 81 72 66 
185 151 276 79 71 65 
184 150 278 82 73 66 
184 150 279 84 75 67 
186 148 277 81 73 66 
186 149 276 80 72 65 
186 149 277 81 73 66 
187 148 276 81 72 66 
187 148 277 81 73 66 
187 149 276 80 71 65 
186 148 278 82 73 66 
186 149 278 82 73 66 
187 148 278 82 73 66 
186 150 276 79 71 65 
189 145 275 83 74 67 
189 147 273 81 72 65 
188 147 274 81 72 65 
188 147 275 81 72 65 
189 146 274 83 74 67 
189 146 275 83 74 67 
189 147 274 81 72 65 
189 147 275 81 72 66 
191 144 273 87 77 69 
191 145 272 86 76 69 
191 145 273 86 76 69 
190 144 275 86 76 69 
190 145 274 84 75 68 
190 145 275 84 75 67 
191 144 274 87 77 70 
191 144 275 87 77 69 
191 145 274 86 76 69 
190 146 272 84 75 67 
190 146 273 84 75 67 
190 147 272 83 74 66 
190 147 273 82 73 66 
191 146 272 84 75 68 
190 146 274 83 74 67 
188 145 277 84 75 68 
189 144 276 85 75 68 
189 144 277 86 76 68 
189 145 276 84 75 67 
189 145 277 84 75 68 
188 144 278 86 77 69 
188 144 279 87 77 69 
188 145 278 85 75 68 
188 145 279 86 76 68 
189 144 278 87 77 69 
188 146 276 82 73 66 
188 146 277 83 74 67 
188 147 276 81 72 66 
188 147 277 82 73 66 
189 146 276 83 74 67 
188 146 278 84 75 67 
190 144 276 85 76 68 
188 148 273 81 72 65 
188 149 272 82 73 65 
188 149 273 81 72 65 
189 148 272 82 73 65 
189 148 273 81 72 65 
188 148 274 81 72 65 
188 148 275 81 72 65 
188 149 274 81 72 65 
188 150 272 82 73 66 
185 145 281 90 80 71 
184 145 283 90 80 72 
185 144 283 91 81 71 
185 145 282 90 80 71 
185 145 283 90 80 71 
184 147 281 89 79 71 
185 146 280 88 78 70 
185 146 281 89 79 71 
185 147 280 87 77 69 
185 147 281 88 78 70 
184 146 282 90 80 71 
184 146 283 90 80 71 
184 147 282 89 79 71 
184 147 283 89 80 71 
185 146 282 90 80 71 
186 144 281 89 79 71 
186 145 280 87 78 69 
186 145 281 89 79 70 
187 144 280 88 78 69 
187 144 281 89 79 70 
187 145 280 87 77 69 
186 144 282 90 80 71 
186 144 283 91 81 71 
186 145 282 89 79 71 
186 146 280 87 77 69 
186 147 280 86 77 69 
184 144 285 95 85 75 
184 145 284 91 81 72 
184 145 285 94 84 74 
185 144 284 92 82 73 
185 144 285 95 85 75 
185 145 284 91 81 73 
184 144 286 96 85 75 
184 144 287 94 83 72 
184 145 286 96 85 75 
184 145 287 96 84 74 
185 144 286 96 85 75 
184 146 284 90 80 71 
184 146 285 93 83 74 
184 146 286 97 86 76 
184 146 287 100 89 78 
184 147 287 104 93 82 
184 148 280 87 77 69 
184 148 281 88 78 70 
184 149 280 86 76 68 
184 149 281 88 78 70 
185 148 280 86 76 68 
188 144 280 87 77 69 
184 152 272 83 74 66 
184 152 273 82 73 66 
184 153 272 83 74 66 
184 153 273 82 73 66 
185 152 272 83 74 66 
185 152 273 82 73 65 
184 152 274 81 72 65 
184 152 275 80 72 65 
184 153 274 82 73 66 
185 152 274 81 72 65 
184 152 276 80 72 65 
187 131 294 107 96 88 
187 131 295 114 102 92 
187 133 289 98 86 76 
187 132 291 103 90 78 
187 133 290 99 87 77 
187 133 291 100 88 76 
187 134 288 98 87 76 
187 134 289 98 87 76 
187 135 288 98 87 76 
187 135 289 99 88 77 
187 134 290 99 88 77 
187 134 291 103 91 79 
187 135 290 99 88 77 
187 135 291 100 88 76 
187 132 292 103 90 78 
187 132 293 106 95 84 
187 133 292 100 87 74 
187 133 293 102 91 80 
187 132 294 109 98 90 
187 132 295 111 101 91 
187 133 294 101 93 86 
187 133 295 103 94 85 
186 135 292 117 103 90 
186 135 293 113 100 88 
187 134 292 110 97 84 
187 134 293 107 94 84 
187 135 292 116 103 90 
187 135 293 109 97 86 
186 135 294 106 96 86 
187 134 294 99 91 84 
187 134 295 95 87 79 
187 135 294 103 93 85 
187 135 295 99 89 80 
189 129 289 105 91 78 
188 129 291 99 87 75 
189 128 291 102 89 76 
189 129 290 102 89 77 
189 129 291 100 88 76 
188 131 289 104 91 79 
189 130 288 106 91 79 
189 130 289 104 91 79 
189 131 288 104 91 78 
189 131 289 103 90 78 
188 130 290 103 90 78 
188 130 291 101 89 77 
188 131 290 103 91 79 
188 131 291 103 90 78 
189 130 290 103 90 78 
190 128 289 109 92 78 
190 129 288 110 93 79 
190 129 289 108 92 78 
191 128 288 112 93 79 
191 128 289 111 93 79 
191 129 288 111 93 79 
190 128 290 105 90 77 
190 128 291 104 89 77 
190 130 288 107 92 79 
188 129 292 98 86 74 
188 129 293 99 87 75 
189 128 292 101 88 76 
189 128 293 97 86 75 
189 129 292 99 87 75 
189 129 293 97 86 75 
188 129 294 95 84 73 
188 129 295 93 83 75 
189 128 294 103 92 82 
189 128 295 111 99 88 
189 129 294 94 83 74 
189 129 295 100 90 81 
188 130 292 100 87 75 
188 130 293 98 86 73 
188 131 292 103 90 78 
188 131 293 103 90 78 
188 130 294 100 88 75 
188 130 295 101 90 79 
188 131 294 103 91 84 
188 131 295 110 99 88 
190 128 292 101 88 76 
188 132 288 101 89 78 
188 132 289 102 91 79 
188 133 288 99 87 76 
188 133 289 99 87 77 
189 132 288 102 89 78 
188 132 290 103 91 81 
188 132 291 102 90 79 
188 133 290 102 90 79 
188 134 288 98 86 75 
187 131 296 113 102 91 
187 131 297 110 99 89 
187 131 298 109 93 76 
187 132 296 115 104 92 
187 132 297 115 102 89 
187 133 296 108 96 84 
187 133 297 114 97 78 
187 132 298 114 97 77 
187 132 299 112 88 54 
187 133 298 119 97 68 
187 133 299 117 89 46 
187 134 296 101 88 74 
187 134 297 110 90 68 
187 135 296 100 85 70 
187 135 297 107 85 59 
187 134 298 119 91 54 
187 134 299 122 87 33 
187 135 298 118 88 45 
187 135 299 124 84 23 
187 132 300 117 83 21 
187 133 300 121 79 10 
187 133 301 128 65 5 
187 133 302 132 56 4 
187 134 300 125 78 10 
187 134 301 131 63 5 
187 135 300 129 76 9 
187 135 301 133 65 5 
187 134 302 132 55 4 
187 135 302 134 59 8 
187 135 303 134 57 7 
188 129 296 98 89 84 
188 129 297 103 92 84 
189 128 296 112 100 89 
189 128 297 109 98 87 
189 129 296 105 95 87 
189 129 297 104 94 86 
188 129 298 106 93 82 
188 129 299 109 92 77 
189 128 298 108 97 86 
189 128 299 111 97 82 
188 130 296 99 90 85 
188 130 297 100 91 83 
188 131 296 108 98 88 
188 131 297 105 95 86 
188 130 298 105 91 77 
188 130 299 110 92 70 
188 131 298 106 90 76 
188 131 299 110 89 63 
188 129 300 111 89 65 
188 129 301 117 87 45 
189 128 300 113 96 77 
189 128 301 120 95 64 
189 129 301 119 88 45 
188 129 302 124 82 12 
189 128 302 124 92 35 
189 128 303 124 84 13 
189 129 302 125 87 19 
189 129 303 129 79 7 
188 130 300 114 88 51 
188 130 301 120 82 20 
188 131 300 114 85 36 
188 131 301 123 77 10 
188 130 302 127 77 7 
188 130 303 133 74 6 
188 131 302 131 70 6 
188 131 303 135 70 6 
189 130 303 132 72 6 
188 132 300 118 83 10 
188 132 301 126 72 6 
188 133 301 131 60 6 
188 132 302 134 66 6 
188 132 303 136 66 6 
188 133 302 133 57 4 
188 133 303 136 61 6 
188 134 303 135 57 6 
188 135 303 133 57 4 
185 139 288 93 82 71 
185 139 289 93 80 68 
185 139 290 102 88 77 
185 139 291 104 93 83 
186 136 288 96 85 75 
186 136 289 95 84 74 
186 137 288 94 83 73 
186 137 289 94 83 72 
187 136 288 97 86 75 
186 136 290 97 86 75 
186 136 291 99 87 75 
186 137 290 96 85 72 
186 137 291 92 81 71 
186 138 288 92 82 72 
186 138 289 93 82 71 
186 139 288 93 82 71 
186 139 289 93 81 69 
186 138 290 94 81 68 
186 138 291 90 81 72 
186 139 290 97 85 74 
186 139 291 100 89 80 
186 136 292 106 94 81 
186 136 293 112 100 88 
186 137 292 92 83 76 
186 137 293 101 91 84 
186 136 294 108 97 86 
186 136 295 106 94 81 
186 137 294 106 95 85 
186 137 295 108 94 80 
187 136 295 102 90 77 
186 138 292 90 82 75 
186 138 293 96 88 80 
186 139 292 97 87 79 
186 139 293 95 86 77 
186 138 294 102 92 81 
186 138 295 106 90 75 
186 139 294 103 90 78 
186 139 295 107 90 69 
184 141 288 97 85 73 
185 140 288 94 82 71 
185 140 289 96 82 69 
185 141 288 96 84 72 
185 141 289 101 87 73 
185 140 290 102 87 74 
185 140 291 111 100 89 
185 141 290 107 96 84 
185 141 291 107 96 86 
184 142 288 96 85 73 
184 142 289 98 85 73 
184 143 288 91 80 70 
184 143 289 90 80 70 
185 142 289 97 87 78 
185 143 289 90 81 74 
185 142 290 98 87 78 
185 142 291 99 88 80 
185 143 290 93 83 75 
185 143 291 95 85 76 
186 140 291 111 100 90 
185 141 292 104 95 87 
185 142 292 102 92 84 
185 143 292 100 90 80 
186 140 292 106 95 86 
186 140 293 94 83 75 
186 141 292 106 96 87 
186 141 293 105 92 80 
186 140 294 99 85 71 
186 140 295 106 87 61 
186 141 294 101 84 64 
186 141 295 104 81 49 
186 142 292 105 95 85 
186 142 293 107 93 77 
186 143 292 104 92 81 
186 143 293 107 89 70 
186 142 294 108 87 61 
186 142 295 106 79 38 
186 143 294 111 84 57 
186 143 295 112 78 38 
186 136 296 106 91 75 
186 137 296 110 92 71 
186 137 297 112 83 46 
187 136 296 106 88 68 
187 136 297 108 82 49 
187 137 297 113 83 42 
186 137 298 121 75 9 
186 137 299 126 68 5 
187 136 298 119 82 32 
187 136 299 126 78 12 
187 137 298 120 78 16 
187 137 299 127 73 5 
186 138 296 110 87 61 
186 138 297 113 80 40 
186 139 296 112 87 53 
186 139 297 116 74 30 
186 138 298 121 65 5 
186 138 299 126 60 3 
186 139 298 122 60 8 
186 139 299 124 54 2 
186 137 300 133 67 5 
187 136 300 132 73 6 
187 136 301 134 66 5 
187 137 300 133 70 5 
187 137 301 134 67 5 
187 136 302 134 63 6 
187 136 303 134 61 6 
187 137 302 133 66 6 
187 137 303 133 63 6 
186 138 300 129 60 4 
186 138 301 132 65 5 
186 139 300 126 57 3 
186 139 301 128 62 4 
187 138 301 133 68 5 
186 139 302 130 68 6 
186 139 303 131 69 6 
187 138 302 132 68 6 
187 138 303 133 68 6 
187 139 302 131 68 6 
187 139 303 132 70 6 
186 140 296 114 85 45 
186 140 297 119 74 26 
186 141 296 110 78 24 
186 141 297 119 74 10 
186 140 298 123 61 8 
186 140 299 124 52 1 
186 141 298 124 65 3 
186 141 299 126 60 3 
186 142 296 110 71 8 
186 142 297 119 67 4 
186 143 296 115 65 7 
186 143 297 121 61 4 
186 142 298 122 66 4 
186 142 299 124 63 3 
186 143 298 121 60 2 
186 143 299 122 60 2 
186 140 300 125 55 3 
186 140 301 126 60 3 
186 141 300 125 57 2 
186 141 301 124 60 2 
186 140 302 129 68 6 
186 140 303 132 70 6 
186 141 302 129 64 5 
186 141 303 132 68 6 
186 142 300 125 60 3 
186 142 301 126 63 4 
186 143 300 125 63 3 
186 143 301 126 63 4 
186 142 302 127 61 4 
186 142 303 131 66 6 
186 143 302 126 63 4 
186 143 303 129 64 5 
183 152 288 104 92 79 
183 153 288 103 88 74 
183 154 288 99 84 69 
183 154 289 104 82 62 
183 155 288 97 77 62 
183 155 289 104 77 50 
183 155 290 110 70 36 
183 155 293 118 54 8 
183 154 295 117 57 7 
183 155 294 119 55 8 
183 155 295 118 57 7 
183 156 288 97 74 54 
183 156 289 101 70 41 
183 157 288 104 76 50 
183 157 289 105 66 33 
183 156 290 108 63 26 
183 156 291 113 61 14 
183 157 290 110 58 18 
183 157 291 113 56 8 
183 158 288 110 76 43 
183 158 289 111 65 27 
183 159 288 111 70 41 
183 159 289 114 62 24 
183 158 290 114 58 13 
183 158 291 116 56 6 
183 159 290 118 55 6 
183 159 291 118 55 3 
183 156 292 116 60 6 
183 156 293 119 55 7 
183 157 292 116 57 3 
183 157 293 118 55 5 
183 156 294 120 54 11 
183 156 295 119 56 8 
183 157 294 120 54 6 
183 157 295 119 54 6 
182 158 293 118 55 3 
182 159 292 119 54 5 
182 159 293 118 54 3 
183 158 292 117 56 3 
183 158 293 117 55 3 
183 159 292 119 55 6 
182 158 294 118 55 4 
182 158 295 118 53 5 
182 159 294 118 55 3 
182 159 295 117 54 5 
183 158 294 119 55 5 
183 158 295 118 53 5 
183 153 298 117 52 5 
183 153 299 117 56 6 
183 154 296 118 57 4 
183 154 297 118 55 4 
183 155 296 118 58 7 
183 155 297 118 56 4 
183 154 298 117 53 5 
183 154 299 117 55 7 
183 155 298 117 55 5 
183 155 299 117 55 7 
183 153 300 118 58 7 
183 153 301 119 60 15 
183 154 300 117 57 9 
183 154 301 118 60 16 
183 155 300 116 56 15 
183 155 301 117 60 20 
183 154 302 114 65 31 
183 154 303 107 68 39 
183 155 302 113 66 35 
183 155 303 103 73 53 
183 156 296 119 59 6 
183 156 297 118 59 6 
183 157 296 118 57 5 
183 157 297 117 60 4 
183 156 298 117 56 4 
183 156 299 117 54 4 
183 157 298 117 59 8 
183 157 299 117 58 12 
182 158 296 118 53 5 
182 159 296 117 53 5 
182 159 297 117 53 5 
183 158 296 118 55 5 
183 158 297 118 60 6 
183 159 297 118 58 7 
183 158 298 117 61 10 
183 158 299 117 61 21 
183 159 298 117 60 13 
183 159 299 115 63 21 
183 156 300 116 55 17 
183 156 301 114 60 24 
183 157 300 116 56 18 
183 157 301 110 61 30 
183 156 302 108 65 35 
183 156 303 101 75 56 
183 157 302 103 69 44 
183 158 300 115 59 24 
183 158 301 105 64 39 
183 159 300 111 63 27 
183 159 301 104 67 43 
184 144 288 94 82 71 
184 144 289 92 82 73 
184 145 288 96 87 78 
184 145 289 96 87 78 
185 144 289 94 84 76 
185 145 289 99 88 79 
185 144 290 93 84 76 
185 144 291 97 87 77 
185 145 290 96 87 80 
185 145 291 100 89 78 
184 146 288 101 92 83 
184 146 289 96 86 77 
184 147 288 103 91 79 
184 147 289 99 87 75 
185 146 290 96 82 70 
185 146 291 98 81 66 
185 147 290 99 83 70 
185 147 291 99 80 63 
185 147 292 102 79 57 
186 144 292 103 90 76 
186 144 293 108 87 61 
186 145 292 103 87 69 
186 145 293 106 76 51 
186 144 294 112 79 48 
186 144 295 116 73 31 
186 145 294 110 70 39 
186 145 295 111 69 32 
186 146 292 100 77 58 
186 146 293 105 72 47 
186 147 292 104 76 53 
186 147 293 108 73 43 
186 146 294 110 66 28 
186 146 295 112 65 21 
186 147 294 113 68 25 
186 147 295 114 65 16 
184 148 288 99 86 75 
184 148 289 98 85 72 
184 149 288 95 83 73 
184 149 289 96 83 71 
185 148 289 97 84 71 
185 149 289 97 82 68 
185 148 290 99 82 67 
185 148 291 100 80 60 
185 149 290 100 80 64 
185 149 291 101 76 58 
184 150 288 99 88 76 
184 150 289 97 83 71 
184 151 288 104 92 79 
184 151 289 101 84 70 
185 150 289 96 79 65 
185 151 289 101 81 64 
185 150 290 98 76 58 
185 150 291 102 72 53 
185 151 290 102 76 57 
185 151 291 102 71 49 
185 148 292 104 77 55 
185 149 292 106 73 49 
185 149 293 111 71 39 
185 149 294 115 64 9 
185 149 295 119 61 5 
185 150 292 107 70 43 
185 150 293 110 65 17 
185 151 292 105 67 37 
185 151 293 110 60 6 
185 150 294 116 60 9 
185 150 295 119 57 8 
185 151 294 115 55 8 
185 151 295 118 54 12 
186 148 292 105 75 54 
186 148 293 112 74 41 
186 149 293 113 73 38 
186 148 294 116 71 26 
186 148 295 117 65 14 
186 149 294 116 67 16 
186 149 295 119 62 5 
185 145 297 119 57 3 
185 144 298 121 58 5 
185 144 299 121 62 3 
185 145 298 120 57 5 
185 145 299 121 59 4 
185 146 297 119 56 3 
185 147 297 120 57 7 
185 146 298 119 54 4 
185 146 299 120 54 4 
185 147 298 120 55 2 
185 147 299 121 54 2 
186 144 296 116 64 16 
186 144 297 119 62 13 
186 145 296 114 64 20 
186 145 297 117 59 13 
186 144 298 121 60 7 
186 144 299 122 62 3 
186 146 296 113 63 15 
186 146 297 118 56 7 
186 147 296 115 63 13 
186 147 297 119 59 7 
185 144 300 124 64 3 
185 144 301 126 64 4 
185 145 300 123 60 3 
185 145 301 125 62 4 
185 145 302 125 66 6 
185 145 303 131 68 6 
185 146 300 122 57 3 
185 146 301 124 60 3 
185 147 300 121 54 2 
185 147 301 123 58 2 
185 146 302 125 65 5 
185 146 303 130 68 6 
185 147 302 124 63 4 
185 147 303 127 66 5 
186 144 300 125 64 3 
186 144 301 127 65 4 
186 144 302 127 66 5 
186 144 303 130 65 6 
186 145 303 131 68 6 
185 148 297 120 59 7 
185 149 296 120 61 5 
185 149 297 121 60 4 
185 148 298 121 57 4 
185 148 299 121 55 4 
185 149 298 122 58 5 
185 149 299 122 57 5 
184 151 296 119 54 4 
184 151 297 120 58 3 
185 150 296 120 59 5 
185 150 297 121 61 4 
185 151 296 120 56 6 
185 151 297 120 57 3 
184 150 299 123 62 4 
184 151 298 120 61 3 
184 151 299 121 62 3 
185 150 298 122 62 4 
185 150 299 123 59 4 
186 148 296 118 62 7 
186 148 297 119 60 7 
186 149 296 118 61 5 
185 148 300 122 54 3 
185 148 301 123 56 5 
185 149 300 122 56 5 
185 149 301 122 56 6 
185 148 302 124 62 6 
185 148 303 126 66 7 
185 149 302 123 60 9 
185 149 303 124 64 14 
184 150 300 122 59 4 
184 150 301 122 60 9 
184 151 300 121 62 3 
184 151 301 122 62 5 
184 150 302 121 64 8 
184 151 302 121 63 18 
184 151 303 116 64 26 
185 150 302 123 62 8 
185 150 303 120 63 23 
184 152 288 106 91 77 
184 152 289 105 84 68 
184 153 288 106 89 75 
184 153 289 108 85 64 
185 152 289 103 81 64 
184 153 290 112 81 54 
184 153 291 112 75 39 
185 152 290 108 79 56 
185 152 291 108 73 48 
185 153 290 110 78 54 
185 153 291 111 74 45 
184 154 289 107 80 57 
184 154 290 110 78 51 
184 154 291 112 71 28 
184 155 290 111 72 37 
184 155 291 113 69 26 
184 153 292 114 66 19 
184 153 293 118 59 6 
185 152 292 108 66 28 
185 152 293 112 60 8 
185 153 292 113 67 24 
185 153 293 116 60 8 
184 152 294 117 55 8 
184 152 295 118 54 8 
184 153 294 117 56 3 
184 153 295 118 55 3 
185 152 294 116 55 8 
185 152 295 117 54 10 
184 154 292 115 64 15 
184 154 293 117 59 7 
184 155 292 115 62 10 
184 155 293 117 57 6 
184 154 294 118 57 6 
184 154 295 117 56 6 
184 155 294 118 55 6 
184 152 296 119 52 4 
184 152 297 119 53 3 
184 153 296 118 54 4 
184 153 297 118 51 5 
184 152 298 118 57 2 
184 152 299 119 60 3 
184 153 298 117 53 4 
184 153 299 118 58 3 
184 154 296 118 56 3 
184 152 300 120 62 3 
184 152 301 121 63 3 
184 153 300 118 61 5 
184 153 301 120 62 10 
184 152 302 118 64 18 
184 152 303 112 66 27 
184 153 302 117 64 22 
184 153 303 111 70 37 
184 154 303 105 70 44 
184 156 303 98 79 63 
184 157 302 98 74 55 
184 157 303 98 81 66 
184 159 301 96 74 58 
184 158 302 97 78 63 
184 158 303 95 85 76 
184 159 302 95 83 73 
184 159 303 96 87 82 
163 161 265 98 75 57 
163 161 266 98 74 56 
163 162 267 114 84 69 
163 163 268 106 67 44 
163 164 268 108 73 50 
163 164 269 105 69 46 
163 164 270 105 67 45 
163 165 270 106 73 50 
163 165 271 109 77 52 
163 166 271 108 76 45 
164 161 265 97 71 51 
165 161 265 97 63 47 
164 161 266 100 73 55 
164 162 266 101 72 52 
164 162 267 111 82 65 
164 163 267 114 83 64 
165 162 266 100 69 50 
165 162 267 108 78 60 
165 163 267 111 80 60 
166 161 265 97 58 45 
167 160 265 97 63 45 
167 161 265 99 58 47 
167 161 266 99 57 46 
166 162 266 98 61 48 
166 162 267 101 67 51 
166 163 267 104 69 52 
167 162 266 99 58 45 
167 162 267 101 63 48 
167 163 267 103 64 44 
164 163 268 115 79 56 
167 163 268 105 68 48 
164 164 268 111 77 54 
164 164 269 106 71 47 
164 165 269 106 74 47 
165 164 268 111 76 53 
165 165 268 107 76 50 
165 165 269 111 77 48 
164 165 270 105 74 47 
164 166 269 108 72 30 
165 166 269 109 74 40 
164 166 270 105 72 36 
164 166 271 105 70 33 
164 167 271 109 68 33 
165 166 270 109 72 34 
165 166 271 108 69 28 
165 167 271 109 69 32 
166 164 268 105 68 46 
166 165 268 107 68 45 
166 165 269 105 67 42 
167 164 268 103 68 49 
167 165 268 105 60 30 
167 165 269 103 62 38 
166 166 269 104 64 37 
166 166 270 106 66 37 
166 166 271 104 64 31 
166 167 271 102 64 34 
167 166 270 101 63 38 
167 166 271 99 66 40 
167 167 271 97 66 37 
168 160 265 97 64 45 
168 161 265 98 64 44 
169 160 265 97 65 47 
168 160 266 99 65 44 
168 161 266 99 61 46 
168 161 267 101 63 46 
169 160 266 99 66 46 
169 161 266 100 67 45 
169 161 267 101 66 46 
168 162 267 101 63 48 
168 163 267 107 70 54 
169 162 267 102 65 46 
169 163 267 104 67 47 
170 160 266 101 71 47 
170 161 267 101 66 45 
171 160 266 100 73 45 
171 160 267 101 67 44 
171 161 267 102 66 44 
170 162 267 101 67 45 
171 162 267 103 70 46 
168 163 268 104 68 50 
169 163 268 105 68 48 
170 162 268 102 69 45 
170 163 268 102 71 47 
171 162 268 101 72 46 
171 163 268 98 73 49 
171 163 269 95 73 56 
168 164 268 98 64 45 
168 165 269 98 62 40 
169 164 268 99 67 47 
169 164 269 96 67 45 
169 165 269 92 66 46 
168 165 270 100 64 40 
169 165 270 93 64 43 
169 165 271 93 62 41 
168 166 270 97 62 38 
168 166 271 96 66 40 
168 167 271 93 65 38 
169 166 270 93 62 35 
169 166 271 93 64 43 
170 164 268 100 70 46 
170 164 269 93 68 47 
171 164 269 95 73 56 
170 164 270 92 69 48 
170 165 271 92 71 52 
171 164 270 93 72 55 
171 164 271 93 68 51 
172 160 266 98 74 48 
172 160 267 99 67 44 
172 161 267 101 66 44 
173 160 267 97 69 46 
173 161 267 99 66 44 
174 160 267 94 69 49 
172 161 268 100 68 45 
173 161 268 94 68 47 
172 162 268 97 73 47 
172 163 268 89 71 53 
172 163 269 89 70 56 
173 162 268 85 70 55 
173 162 269 85 70 57 
173 163 269 85 68 55 
172 163 270 90 68 57 
173 163 270 88 68 57 
173 163 271 102 69 57 
174 160 268 87 69 53 
174 161 268 90 69 51 
174 161 269 86 70 56 
175 160 268 87 72 57 
175 160 269 85 71 57 
174 161 270 86 71 58 
174 161 271 87 70 57 
175 160 270 85 71 58 
175 161 270 85 72 59 
175 161 271 87 73 61 
174 162 269 86 70 57 
174 162 270 87 69 56 
174 162 271 89 72 58 
174 163 271 94 71 58 
175 162 271 91 73 58 
172 164 270 91 71 58 
172 164 271 95 71 57 
163 166 272 110 76 48 
163 166 273 107 75 52 
163 167 272 108 69 34 
163 167 273 109 65 32 
163 167 274 94 58 33 
164 167 272 111 70 35 
165 167 272 108 70 34 
166 167 272 103 68 37 
167 167 272 95 66 38 
163 168 273 111 65 29 
163 168 274 110 66 35 
163 168 275 112 65 34 
163 169 275 116 71 34 
163 169 276 117 75 41 
163 170 276 111 77 46 
163 170 277 104 76 49 
163 171 277 91 65 39 
163 171 278 87 61 35 
162 172 278 85 63 40 
162 173 278 79 64 51 
162 173 279 80 59 38 
163 172 278 85 69 50 
163 173 278 67 59 53 
164 168 272 109 64 28 
164 168 273 109 63 24 
165 168 272 106 66 29 
165 168 273 104 67 32 
164 168 274 110 66 27 
164 169 274 109 74 42 
164 169 275 111 75 39 
165 168 274 103 71 38 
165 169 274 103 71 40 
165 169 275 99 73 44 
164 170 275 107 75 44 
165 170 275 95 75 52 
166 168 272 99 65 37 
166 168 273 96 64 39 
167 168 272 92 66 45 
167 168 273 86 63 46 
166 168 274 97 69 45 
166 169 274 93 69 49 
166 169 275 88 69 51 
167 169 274 81 65 54 
167 169 275 78 66 57 
166 170 275 84 70 56 
167 170 275 80 69 59 
164 170 276 105 76 49 
164 171 276 95 76 59 
164 171 277 87 70 52 
165 170 276 96 76 56 
165 171 276 89 74 60 
165 171 277 86 74 63 
166 171 276 86 74 64 
167 171 276 84 74 65 
164 172 277 80 67 56 
164 173 277 71 62 55 
165 172 277 80 69 60 
165 173 277 82 73 64 
166 172 276 88 78 68 
166 172 277 89 78 67 
166 173 277 90 79 68 
167 172 276 88 77 66 
167 172 277 85 75 65 
167 173 277 83 72 63 
168 167 272 92 69 47 
169 166 272 94 73 56 
169 167 272 94 73 53 
169 167 273 89 75 62 
170 165 272 88 75 61 
171 164 272 88 69 49 
171 165 272 86 70 54 
171 165 273 82 71 60 
170 166 272 91 75 61 
170 166 273 88 76 67 
170 167 272 93 80 66 
170 167 273 92 81 71 
171 166 273 86 77 69 
170 167 274 93 81 70 
171 166 274 86 73 61 
171 166 275 88 71 57 
171 167 274 89 78 68 
171 167 275 87 73 60 
173 163 272 99 71 55 
173 163 273 93 74 52 
175 161 272 89 75 64 
175 161 273 90 75 64 
174 162 272 96 75 59 
174 162 273 95 75 60 
174 163 272 96 73 57 
174 163 273 93 74 57 
175 162 272 94 75 61 
175 162 273 92 74 62 
174 163 274 91 78 66 
175 162 274 91 77 68 
175 163 274 91 82 75 
175 163 275 94 88 84 
172 164 272 93 68 55 
172 164 273 89 69 53 
172 165 273 85 72 59 
173 164 272 101 67 53 
173 164 273 89 69 52 
172 165 274 87 72 60 
172 165 275 89 71 59 
173 164 274 91 74 63 
173 164 275 90 73 60 
173 165 274 88 76 64 
173 165 275 91 75 62 
172 166 273 83 72 62 
172 166 275 88 73 58 
173 166 275 87 73 60 
174 164 274 91 78 67 
174 164 275 96 85 75 
174 165 275 96 84 72 
175 164 275 92 84 78 
172 167 276 88 74 62 
173 166 276 91 77 65 
173 167 276 91 79 66 
173 167 277 92 80 69 
174 165 276 95 82 71 
175 165 276 92 82 74 
174 166 276 94 82 72 
174 167 276 94 81 70 
174 167 277 94 82 72 
175 166 276 92 82 74 
175 166 277 92 82 74 
175 167 277 96 85 75 
168 168 272 90 69 47 
168 168 273 86 69 51 
169 168 273 87 73 61 
168 168 274 82 71 60 
168 169 274 77 66 57 
168 169 275 75 65 57 
169 168 274 87 76 66 
169 169 274 87 76 66 
169 169 275 84 74 66 
168 170 275 80 70 61 
169 170 275 81 72 64 
170 168 274 93 82 70 
170 168 275 94 82 69 
170 169 275 88 77 67 
171 168 275 92 78 63 
168 171 276 84 73 64 
169 171 276 84 73 65 
170 169 276 88 77 67 
171 168 276 92 80 68 
171 169 276 91 80 69 
171 169 277 92 81 70 
170 170 276 87 76 67 
170 170 277 88 77 69 
170 171 276 85 74 65 
170 171 277 86 75 66 
171 170 277 91 80 70 
171 171 277 89 77 68 
171 171 278 93 79 69 
168 172 276 87 77 67 
168 172 277 85 74 66 
168 173 277 87 75 65 
169 172 276 85 75 66 
169 172 277 85 75 66 
169 173 277 85 73 62 
170 172 277 87 76 66 
170 173 277 88 75 61 
171 172 277 92 78 65 
171 173 277 92 77 62 
172 168 276 90 78 66 
172 168 277 94 82 72 
172 169 277 92 81 72 
173 168 277 93 82 71 
172 169 278 93 82 72 
173 169 278 95 82 71 
172 170 278 93 81 71 
172 171 278 95 81 69 
173 170 278 96 82 70 
173 171 278 97 83 68 
174 168 277 95 83 71 
174 168 278 96 84 74 
174 169 278 96 83 72 
175 168 278 98 86 74 
175 169 278 98 84 70 
174 170 278 96 80 66 
174 170 279 95 78 63 
174 171 279 98 80 64 
175 170 278 97 81 66 
175 170 279 99 77 59 
175 171 279 101 78 60 
172 172 277 94 80 64 
172 173 277 96 79 61 
173 173 277 100 81 59 
172 172 278 98 82 66 
173 172 278 101 84 66 
173 173 278 102 82 61 
174 172 279 106 81 61 
174 173 279 105 79 55 
175 171 280 103 77 55 
175 171 281 105 77 52 
174 172 280 107 78 55 
174 173 280 108 75 45 
175 172 280 108 80 52 
175 172 281 109 74 37 
175 173 281 109 73 31 
175 172 282 110 67 19 
175 172 283 115 62 17 
175 173 282 112 64 16 
175 173 283 115 57 10 
175 173 284 117 57 8 
176 160 269 85 71 58 
176 160 270 85 72 59 
176 160 271 85 72 61 
176 161 271 86 73 61 
177 160 271 85 72 61 
176 160 272 86 73 63 
176 160 273 86 72 63 
176 161 272 87 74 64 
176 161 273 88 74 63 
176 160 274 88 74 65 
176 160 275 87 72 64 
176 161 274 92 74 61 
176 161 275 86 68 59 
177 160 274 90 75 64 
177 160 275 89 74 66 
177 161 275 85 70 61 
176 162 274 93 76 65 
176 162 275 87 74 67 
176 163 275 91 83 77 
177 160 276 86 77 71 
177 160 277 91 81 73 
177 161 276 81 72 64 
177 161 277 89 79 70 
177 161 278 91 80 71 
176 162 276 84 73 64 
176 163 276 88 80 73 
177 162 276 82 72 63 
177 162 277 84 74 65 
177 163 276 85 75 66 
177 163 277 87 77 68 
177 162 278 85 76 68 
177 163 278 87 77 70 
178 160 277 93 84 74 
178 160 278 93 82 73 
178 160 279 93 82 74 
178 161 278 95 85 75 
178 161 279 96 86 76 
179 160 279 92 81 73 
179 161 279 95 84 76 
178 162 279 92 83 75 
178 163 278 88 79 72 
178 163 279 88 78 73 
179 162 279 94 84 77 
179 163 279 91 82 76 
176 164 276 88 80 75 
176 165 276 89 80 73 
176 165 277 93 82 74 
177 164 276 88 80 73 
177 164 277 90 80 73 
177 165 277 93 81 73 
177 164 278 93 82 74 
177 165 278 94 83 75 
177 165 279 94 81 71 
176 166 277 94 83 75 
176 167 277 98 86 77 
177 166 277 96 84 76 
176 166 278 98 87 77 
176 167 278 100 88 77 
176 167 279 100 87 74 
177 166 278 95 84 75 
177 166 279 95 84 75 
177 167 278 98 86 77 
177 167 279 101 87 74 
178 164 278 93 82 76 
178 164 279 88 78 73 
178 165 278 94 83 76 
178 165 279 91 80 73 
179 160 280 94 84 76 
179 161 280 93 83 75 
179 162 280 91 82 74 
179 163 280 92 83 76 
179 163 281 94 83 76 
177 165 280 92 80 69 
177 166 280 99 85 70 
177 167 280 100 85 70 
177 167 281 98 82 63 
178 164 280 91 81 72 
178 165 280 92 80 68 
178 165 281 93 78 61 
179 164 281 95 83 72 
178 165 282 95 75 55 
179 164 282 98 83 66 
179 165 282 97 80 62 
179 165 283 102 80 55 
178 166 280 94 81 69 
178 166 281 93 78 62 
178 167 280 99 84 67 
178 167 281 93 78 60 
178 166 282 96 74 54 
178 166 283 100 72 46 
178 167 282 94 73 53 
178 167 283 103 72 44 
179 166 283 103 75 46 
179 165 284 108 78 47 
179 165 285 114 74 38 
179 165 286 114 71 31 
178 166 284 106 73 40 
178 167 284 107 70 31 
178 167 285 112 66 23 
179 166 284 110 74 38 
179 166 285 115 71 33 
178 167 286 113 64 16 
178 167 287 117 60 5 
179 166 286 116 66 26 
179 166 287 116 62 13 
179 167 286 114 65 19 
179 167 287 117 60 5 
180 160 280 95 84 76 
180 160 281 96 85 76 
180 161 280 96 86 77 
180 161 281 96 86 77 
181 160 281 95 85 76 
181 161 281 96 85 77 
181 160 282 95 85 78 
181 161 282 95 84 76 
181 161 283 96 84 72 
180 162 280 95 85 77 
180 162 281 95 85 77 
180 163 281 95 85 77 
180 163 282 96 83 73 
181 162 282 96 85 74 
181 162 283 99 85 69 
181 163 282 98 85 73 
181 163 283 99 84 68 
182 160 283 95 85 74 
182 161 283 94 82 70 
182 162 283 98 84 70 
181 162 284 99 81 63 
181 162 285 102 75 51 
181 163 284 104 79 57 
181 163 285 104 74 45 
181 162 286 105 70 38 
181 162 287 107 65 25 
181 163 286 107 69 36 
181 163 287 109 64 23 
182 160 284 94 81 67 
182 160 285 99 82 63 
182 161 284 93 78 64 
182 161 285 98 77 54 
183 160 285 102 82 62 
182 161 286 105 73 46 
182 161 287 110 68 36 
183 160 286 105 77 50 
183 160 287 110 74 43 
182 162 284 94 78 63 
182 162 285 100 76 51 
182 162 286 104 72 42 
182 162 287 108 65 31 
180 164 282 99 84 70 
180 164 283 104 84 64 
180 165 283 104 82 59 
180 164 284 106 78 55 
180 164 285 108 76 48 
180 165 284 108 79 50 
180 165 285 111 76 43 
181 164 285 108 73 42 
180 164 286 110 72 38 
180 164 287 111 63 19 
180 165 286 113 71 34 
180 165 287 114 63 19 
181 164 287 111 61 17 
176 168 279 100 86 71 
176 169 278 96 82 66 
176 169 279 96 82 66 
177 168 279 101 87 72 
176 170 278 95 80 65 
176 170 279 97 81 63 
177 168 280 101 86 71 
177 168 281 100 82 62 
177 169 280 101 83 62 
177 169 281 104 82 55 
177 168 282 103 80 53 
177 168 283 105 75 46 
177 169 282 107 79 46 
177 169 283 112 72 38 
176 170 280 99 77 55 
176 170 281 104 76 50 
176 171 280 101 75 53 
176 171 281 103 72 44 
177 170 281 106 80 54 
176 170 282 108 70 27 
176 171 282 108 69 32 
176 171 283 110 66 18 
177 170 282 108 75 36 
177 170 283 112 69 24 
178 168 282 97 74 51 
178 168 283 105 71 41 
177 169 284 113 66 26 
177 169 285 114 63 13 
177 168 287 115 58 9 
177 169 286 117 60 7 
177 169 287 115 60 5 
176 171 284 115 63 14 
177 170 284 115 64 17 
177 170 285 116 60 10 
177 171 284 118 62 11 
177 171 285 118 58 6 
177 170 286 118 59 6 
177 170 287 119 56 4 
177 171 286 119 57 6 
177 171 287 119 58 6 
178 168 284 109 67 29 
178 168 285 111 64 20 
178 168 286 113 60 11 
178 168 287 116 57 6 
178 169 286 117 58 4 
178 169 287 118 56 5 
178 170 287 119 56 4 
178 171 287 119 56 5 
176 172 282 110 66 23 
176 172 283 112 64 22 
176 172 284 115 61 17 
176 172 285 118 58 8 
176 173 284 118 59 9 
176 173 285 119 58 11 
177 172 285 119 56 5 
177 173 285 121 54 5 
177 172 286 118 57 9 
177 172 287 119 54 5 
177 173 286 120 57 10 
177 173 287 119 57 6 
178 172 287 119 57 7 
178 173 287 119 58 5 
179 166 288 116 58 6 
179 167 288 119 57 6 
181 162 288 112 57 20 
181 162 289 116 54 12 
181 163 288 112 58 18 
181 163 289 117 54 12 
181 162 290 117 55 9 
181 163 290 118 55 8 
181 163 291 119 56 7 
182 161 288 112 64 29 
182 161 289 116 64 21 
183 160 288 116 68 39 
183 160 289 116 64 25 
183 161 288 116 68 37 
183 161 289 116 66 26 
182 160 291 118 55 8 
182 161 290 117 61 12 
182 161 291 118 56 6 
183 160 290 116 56 8 
183 160 291 118 55 4 
182 162 288 112 65 26 
182 162 289 116 59 17 
182 162 290 117 59 9 
182 162 291 118 57 3 
181 162 293 120 56 5 
181 163 292 119 56 5 
181 163 293 119 56 4 
182 160 292 119 54 6 
182 160 293 118 53 4 
182 161 292 118 53 6 
182 161 293 119 54 5 
182 160 294 118 54 4 
182 160 295 117 55 3 
182 161 294 119 54 4 
182 161 295 117 54 4 
182 162 292 119 56 4 
182 162 293 120 55 5 
182 162 294 120 56 5 
182 162 295 118 54 5 
182 163 294 119 56 5 
182 163 295 118 55 6 
180 164 288 114 59 17 
180 165 288 117 58 13 
180 165 289 119 54 9 
181 164 288 115 59 17 
181 164 289 118 53 10 
181 165 289 118 51 8 
181 164 290 119 54 8 
181 164 291 119 54 9 
181 165 290 119 53 7 
181 165 291 119 53 8 
180 166 288 117 59 9 
180 166 289 119 53 7 
180 167 289 119 54 8 
181 166 289 118 50 7 
180 167 290 119 53 8 
181 166 290 118 51 7 
181 166 291 117 50 7 
181 167 290 118 53 6 
181 167 291 117 53 6 
181 164 292 119 55 7 
181 164 293 119 56 4 
181 165 292 119 54 6 
181 165 293 118 55 5 
181 164 294 120 57 5 
181 165 294 119 55 5 
181 166 292 118 52 6 
181 166 293 118 54 5 
181 167 292 117 52 6 
181 167 293 117 53 5 
182 164 294 119 57 5 
182 164 295 118 57 6 
182 165 294 118 55 5 
182 165 295 117 57 8 
182 166 293 118 53 5 
182 167 293 117 52 6 
182 166 294 116 53 6 
182 166 295 115 54 14 
182 167 294 113 51 6 
182 167 295 111 55 25 
182 160 296 117 54 4 
182 160 297 116 54 7 
182 161 296 117 52 4 
182 161 297 115 52 7 
183 160 297 117 57 11 
183 160 298 116 57 16 
183 160 299 113 62 25 
183 161 298 114 57 20 
183 161 299 110 62 33 
182 162 296 118 53 4 
182 162 297 114 53 10 
182 163 296 116 54 6 
182 163 297 113 58 17 
182 162 298 112 58 20 
182 163 298 109 62 29 
183 162 298 110 60 27 
183 162 299 105 65 41 
183 163 298 108 65 36 
183 163 299 103 72 50 
183 160 300 106 67 33 
183 160 301 100 73 50 
183 161 300 102 71 44 
183 161 301 98 77 59 
183 162 300 98 75 57 
183 162 301 96 84 70 
183 163 300 99 81 67 
183 163 301 96 87 78 
182 164 296 115 58 9 
182 164 297 112 61 26 
182 165 296 113 60 17 
182 165 297 109 64 30 
182 164 298 108 66 40 
182 165 298 107 71 49 
183 164 298 106 69 45 
183 164 299 102 76 60 
183 165 298 105 73 54 
183 165 299 100 78 64 
182 166 296 111 62 31 
182 166 297 108 70 47 
182 167 296 109 63 35 
182 167 297 107 74 53 
182 166 298 104 77 60 
182 167 298 103 80 62 
182 167 299 99 80 65 
183 166 299 100 82 66 
183 167 299 99 82 67 
183 164 300 99 85 73 
183 164 301 100 89 81 
183 165 300 99 86 75 
183 165 301 103 88 79 
183 165 302 105 79 67 
183 165 303 104 59 47 
183 166 300 99 85 74 
183 166 301 102 81 73 
183 167 300 100 81 70 
183 167 301 103 76 69 
183 166 302 103 70 59 
183 166 303 103 54 41 
183 167 302 102 58 52 
183 167 303 103 42 36 
178 168 288 119 54 6 
178 169 288 119 54 6 
179 168 288 119 55 5 
179 168 289 120 56 6 
179 169 288 119 55 7 
179 169 289 120 56 7 
178 170 288 121 53 5 
178 170 289 119 55 5 
178 171 288 120 55 5 
178 171 289 120 53 5 
179 170 289 118 54 6 
179 171 289 118 54 5 
179 171 290 119 54 7 
178 172 288 119 53 6 
178 172 289 118 54 6 
178 173 288 119 57 5 
178 173 289 119 54 6 
179 172 289 118 54 6 
178 173 290 119 51 7 
179 172 290 118 52 7 
179 173 290 118 51 7 
179 173 291 118 50 10 
180 168 289 120 55 7 
180 169 289 119 56 7 
180 168 290 119 54 6 
180 169 290 118 55 7 
181 168 290 118 55 5 
181 168 291 117 56 5 
181 169 290 118 56 7 
181 169 291 117 54 5 
180 170 289 119 55 7 
180 170 290 118 55 8 
180 170 291 118 55 5 
180 171 290 118 53 6 
180 171 291 118 52 6 
181 170 291 117 54 5 
181 171 291 118 53 6 
181 168 292 117 55 5 
181 168 293 117 52 6 
181 169 292 117 54 7 
181 169 293 116 52 8 
181 170 292 116 53 7 
181 170 293 116 54 8 
181 171 292 116 52 9 
181 171 293 113 57 20 
181 171 294 110 63 33 
181 171 295 108 66 42 
182 168 293 116 53 5 
182 169 293 114 51 8 
182 168 294 113 53 7 
182 168 295 110 58 24 
182 169 294 111 52 9 
182 169 295 109 61 30 
182 170 293 112 54 15 
182 170 294 111 57 23 
182 170 295 108 66 40 
182 171 294 110 62 31 
182 171 295 107 70 48 
180 172 290 118 51 7 
180 172 291 117 49 8 
180 173 291 117 49 10 
180 172 292 117 50 8 
180 173 292 116 47 13 
181 172 292 115 53 8 
181 172 293 111 59 19 
181 173 293 110 58 21 
181 172 294 107 66 36 
181 172 295 104 73 51 
181 173 294 105 70 43 
181 173 295 102 76 56 
182 168 296 108 66 40 
182 168 297 108 76 56 
182 169 296 108 71 48 
182 169 297 105 77 58 
182 168 298 102 80 62 
182 168 299 98 81 70 
182 169 298 100 79 65 
182 169 299 99 80 72 
182 170 296 106 73 52 
182 170 297 102 78 60 
182 171 296 103 76 56 
182 171 297 100 80 66 
182 170 298 99 77 68 
182 170 299 99 76 72 
182 171 298 100 77 70 
182 171 299 98 70 66 
182 169 300 100 75 68 
182 169 301 100 67 57 
183 168 300 101 81 73 
183 168 301 102 72 63 
183 169 300 103 77 69 
183 169 301 102 70 60 
182 169 302 102 47 36 
182 169 303 107 37 27 
183 168 302 103 52 43 
183 168 303 105 38 33 
183 169 302 103 50 38 
182 170 300 97 68 63 
182 170 301 97 55 48 
182 171 300 95 60 56 
182 171 301 97 44 42 
182 170 302 102 40 30 
182 170 303 107 37 21 
182 171 302 104 35 29 
182 171 303 107 36 22 
181 172 296 99 79 64 
181 172 297 98 80 69 
181 173 296 100 79 66 
181 173 297 99 75 67 
182 172 296 100 78 60 
182 172 297 98 78 70 
182 173 297 98 73 68 
182 172 298 98 70 66 
182 172 299 95 62 56 
182 173 298 96 64 61 
182 173 299 96 55 50 
182 172 300 96 53 48 
182 172 301 100 36 36 
182 173 300 95 42 38 
182 173 301 101 30 31 
182 172 302 105 32 26 
182 172 303 107 32 22 
182 173 302 106 31 22 
182 173 303 107 34 24 
184 160 301 97 79 65 
184 161 301 96 83 72 
184 160 302 95 85 76 
184 160 303 97 86 83 
184 161 302 98 88 82 
184 161 303 101 84 81 
184 162 301 97 88 80 
184 163 301 98 89 82 
184 162 302 100 87 82 
184 162 303 105 81 76 
184 163 302 102 87 81 
184 163 303 104 78 71 
184 164 301 102 88 81 
184 164 302 104 85 77 
184 164 303 104 71 62 
184 165 303 105 66 53 
192 130 283 116 95 79 
192 131 283 114 94 80 
192 128 285 116 95 80 
192 129 284 116 95 79 
192 129 285 116 95 79 
192 128 286 115 95 80 
192 128 287 114 95 81 
192 129 286 114 94 80 
192 130 284 116 94 79 
192 130 285 115 94 79 
192 131 284 113 94 79 
192 133 281 113 93 79 
192 132 282 114 94 79 
192 132 283 114 94 79 
192 133 282 113 93 79 
192 134 280 112 92 79 
192 134 281 111 93 79 
192 135 280 111 92 78 
192 135 281 110 92 78 
192 137 278 104 88 76 
192 137 279 104 88 76 
192 138 277 101 86 75 
192 139 276 99 85 75 
192 139 277 99 85 75 
192 138 278 101 87 75 
192 138 279 101 87 76 
192 139 278 98 85 74 
192 141 275 94 82 73 
192 143 273 89 79 71 
192 142 274 92 81 72 
192 142 275 91 81 72 
192 143 274 90 79 71 
192 140 276 97 84 74 
192 140 277 96 83 74 
192 141 276 94 83 73 
192 136 280 108 90 77 
192 137 280 105 89 77 
192 147 265 92 81 72 
192 146 267 90 79 71 
192 147 266 90 79 71 
192 147 267 89 79 70 
192 145 269 89 79 70 
192 144 271 88 78 70 
192 145 270 87 77 69 
192 145 271 87 77 69 
192 146 268 89 78 70 
192 146 269 87 77 69 
192 147 268 87 77 69 
192 146 270 87 77 69 
192 148 265 92 81 72 
192 144 272 88 78 70 
192 144 273 88 78 70 
192 145 272 86 77 69 
191 123 304 117 99 79 
190 125 304 113 82 33 
191 124 304 119 97 71 
191 124 305 122 95 56 
191 125 304 115 87 47 
191 125 305 119 82 21 
190 126 304 114 74 12 
190 126 305 119 68 9 
190 127 304 126 69 7 
190 127 305 127 61 4 
191 126 305 122 70 8 
191 127 305 129 66 6 
191 126 306 126 70 7 
191 127 306 128 68 6 
191 127 307 127 69 6 
192 122 304 108 93 75 
192 122 305 106 87 63 
192 123 304 113 95 76 
192 123 305 111 90 58 
192 124 305 117 86 38 
192 125 305 121 77 7 
192 125 306 124 72 7 
192 126 306 126 70 6 
192 126 307 125 66 7 
192 127 307 127 68 6 
189 128 304 129 72 6 
189 129 304 132 71 6 
189 129 305 134 62 6 
188 131 304 136 68 6 
189 130 304 135 69 6 
189 130 305 135 64 6 
189 131 304 137 67 8 
189 131 305 136 65 7 
189 130 306 135 62 6 
189 131 306 134 62 6 
190 128 304 130 66 6 
190 128 305 130 60 4 
190 129 305 131 61 5 
190 128 306 129 62 5 
190 129 306 130 63 6 
190 129 307 128 62 5 
191 128 306 129 67 6 
191 128 307 129 70 7 
191 129 307 128 67 6 
190 130 306 132 59 4 
190 130 307 130 60 5 
190 131 307 131 59 5 
191 129 308 128 69 7 
190 130 308 128 65 5 
190 131 308 129 64 5 
191 130 308 129 69 7 
191 131 308 130 67 6 
191 131 309 128 69 7 
188 132 304 136 66 6 
188 132 305 135 68 6 
188 133 304 136 67 6 
188 133 305 134 70 6 
189 132 305 135 67 6 
189 133 305 134 69 6 
189 132 306 132 63 6 
189 132 307 129 59 4 
189 133 306 132 67 6 
189 133 307 131 66 6 
188 134 304 135 64 6 
188 134 305 134 71 6 
188 135 304 135 64 6 
188 135 305 135 70 6 
188 134 306 134 71 6 
188 135 306 134 71 7 
189 134 306 133 70 6 
189 134 307 132 70 6 
189 135 306 134 71 7 
189 135 307 132 70 7 
190 132 307 129 59 5 
189 133 308 131 66 6 
189 134 308 131 67 6 
189 135 308 131 67 6 
189 135 309 131 66 6 
190 132 308 128 62 5 
190 132 309 129 68 6 
190 133 308 128 64 5 
190 133 309 129 68 6 
191 132 309 129 70 7 
191 133 309 129 71 7 
191 133 310 128 71 7 
190 134 309 128 66 5 
190 135 309 129 65 5 
190 134 310 127 66 5 
190 135 310 127 66 5 
191 134 310 127 70 6 
191 135 310 125 68 5 
191 135 311 124 67 5 
187 136 304 135 63 6 
187 137 304 134 63 6 
187 137 305 134 64 6 
187 138 304 133 67 6 
187 138 305 133 65 6 
187 139 304 132 70 6 
187 139 305 132 68 6 
187 139 306 133 67 6 
186 141 304 132 70 6 
186 141 305 132 71 6 
187 140 304 132 72 6 
187 140 305 132 69 6 
187 141 304 132 71 6 
187 141 305 132 69 6 
187 140 306 132 67 6 
187 140 307 131 64 6 
187 141 306 131 66 6 
187 141 307 128 63 5 
186 142 304 131 68 6 
