ply
format ascii 1.0
comment Created by CloudCompare v2.10.1 (Zephyrus)
comment Created 1/31/20 6:09 PM
obj_info Generated by CloudCompare!
element vertex 2094
property float x
property float y
property float z
property uchar red
property uchar green
property uchar blue
end_header
193 882 226 123 91 76 
193 882 227 120 90 74 
194 880 224 131 110 95 
194 881 224 127 106 93 
194 880 226 127 104 89 
194 882 225 126 100 88 
194 882 226 120 94 82 
194 883 226 118 92 80 
194 883 227 117 91 78 
193 882 228 121 88 70 
193 882 229 120 87 70 
193 883 228 119 89 74 
193 883 229 123 85 63 
193 882 230 126 87 64 
193 883 231 118 84 61 
195 884 227 116 91 81 
194 884 229 121 84 58 
194 884 231 118 84 59 
195 884 231 114 81 59 
196 882 224 119 95 80 
196 883 225 118 92 82 
197 883 224 117 96 88 
196 884 225 119 94 85 
197 884 224 111 98 90 
197 885 225 99 77 62 
197 884 226 109 87 77 
197 885 227 111 90 80 
198 885 224 103 88 76 
198 886 224 97 79 66 
198 886 225 96 71 51 
198 887 226 99 76 63 
193 883 232 116 83 59 
193 880 239 122 90 64 
193 881 239 119 86 61 
193 882 239 109 77 53 
193 883 238 103 74 52 
194 881 239 113 80 55 
194 882 239 109 78 55 
194 883 238 102 73 52 
194 883 239 104 73 52 
195 882 239 109 77 51 
195 883 238 102 71 52 
195 883 239 103 72 52 
193 884 236 98 72 49 
193 885 237 95 71 50 
193 884 238 100 72 50 
193 885 238 97 71 50 
193 886 237 90 67 45 
193 887 237 88 64 46 
194 885 237 95 69 49 
195 885 237 92 67 47 
194 884 238 98 70 51 
194 885 238 97 71 51 
195 884 238 96 67 50 
194 886 237 90 66 44 
194 887 237 86 64 44 
195 886 237 86 62 42 
195 887 236 82 60 41 
195 887 237 84 62 42 
196 882 239 107 76 49 
196 883 238 101 71 51 
196 883 239 104 74 51 
197 882 239 108 78 53 
197 883 238 101 74 52 
197 883 239 103 75 49 
199 883 237 96 67 50 
198 882 239 108 80 58 
198 883 238 101 75 53 
198 883 239 105 76 53 
199 882 239 105 78 58 
199 883 238 101 71 54 
199 887 235 75 51 36 
196 885 237 89 64 43 
197 884 237 95 70 51 
197 885 237 87 62 44 
196 884 238 96 68 49 
197 884 238 97 71 50 
196 886 236 81 57 41 
196 886 237 83 60 41 
196 887 236 79 57 40 
197 886 236 82 59 46 
197 886 237 83 60 45 
197 887 236 81 60 48 
198 884 237 95 70 51 
198 885 237 91 67 49 
199 884 237 93 67 48 
199 885 236 89 62 42 
198 886 236 81 58 43 
198 887 236 78 55 41 
199 886 236 84 61 46 
199 887 236 78 55 44 
195 895 227 78 64 53 
193 894 229 75 60 47 
193 895 228 82 67 54 
193 895 229 79 64 50 
193 894 230 74 59 48 
193 894 231 71 55 45 
194 893 231 69 54 45 
195 893 230 69 55 46 
195 893 231 70 55 47 
194 894 229 71 58 46 
194 895 228 76 64 51 
194 895 229 74 61 49 
195 894 228 72 58 47 
195 894 229 66 53 42 
195 895 228 73 59 48 
195 895 229 71 58 48 
194 894 230 70 57 45 
194 894 231 71 57 45 
195 894 230 66 52 42 
198 888 225 90 68 55 
198 888 227 93 70 56 
198 889 226 91 65 54 
198 889 227 93 69 55 
199 889 226 98 68 58 
198 890 227 93 68 57 
198 891 226 93 71 64 
198 891 227 91 69 62 
199 890 227 94 69 55 
199 891 226 84 62 45 
199 891 227 89 66 54 
197 890 228 89 69 53 
197 891 228 91 72 57 
198 891 228 90 69 59 
196 895 227 74 57 46 
197 895 227 73 52 46 
198 892 225 97 71 65 
199 892 225 88 65 52 
198 892 226 90 65 58 
198 892 227 95 74 68 
199 892 226 89 67 55 
199 893 227 86 66 55 
198 895 227 93 70 59 
199 894 227 85 65 53 
199 895 227 83 63 49 
196 893 229 68 51 43 
197 893 228 77 58 48 
197 893 229 79 61 54 
196 893 230 67 52 44 
196 893 231 76 59 50 
197 893 230 80 62 54 
197 893 231 87 67 56 
196 894 228 66 52 41 
196 894 229 65 51 39 
196 895 228 69 53 42 
197 894 228 78 60 50 
197 895 228 75 58 47 
198 892 229 89 67 58 
198 893 228 79 61 50 
198 893 229 81 61 53 
199 892 228 87 65 52 
199 892 229 87 67 52 
199 893 228 81 62 50 
198 892 230 93 69 62 
198 892 231 91 69 60 
198 893 230 84 63 55 
199 892 230 92 70 58 
199 892 231 95 72 59 
198 894 228 93 70 61 
199 894 228 86 65 55 
193 888 236 81 59 44 
193 888 237 84 61 44 
193 889 236 81 62 49 
193 890 236 78 59 48 
193 891 236 76 57 48 
194 888 236 78 57 40 
194 888 237 83 60 43 
194 889 236 74 54 38 
195 888 236 79 58 41 
195 889 236 73 55 37 
194 890 236 71 54 39 
194 891 236 71 53 41 
195 890 236 73 56 41 
195 891 236 69 52 37 
193 893 232 69 53 43 
193 893 233 70 54 46 
193 892 235 72 57 45 
193 893 234 71 55 44 
193 894 232 70 54 44 
194 893 232 71 55 46 
194 893 233 73 57 47 
195 893 232 73 56 48 
195 893 233 74 58 47 
194 892 235 69 54 40 
194 893 234 72 57 45 
195 892 235 66 51 35 
195 893 234 75 59 45 
197 891 235 75 57 45 
198 888 235 71 49 29 
198 889 235 74 50 33 
199 888 235 76 54 39 
199 889 235 74 51 35 
198 890 235 76 57 42 
198 891 234 92 69 55 
198 891 235 78 61 48 
199 890 235 74 53 39 
199 891 234 84 65 50 
199 891 235 79 59 41 
196 888 236 79 60 43 
196 889 236 77 59 42 
197 888 236 77 59 43 
197 889 236 78 60 43 
196 890 236 75 58 41 
196 891 236 72 55 41 
197 890 236 78 60 46 
197 891 236 77 59 47 
198 888 236 76 55 35 
198 889 236 80 58 42 
198 890 236 81 62 48 
196 893 232 81 64 53 
196 893 233 82 65 51 
197 892 232 84 64 49 
197 892 233 85 65 50 
197 893 232 84 64 51 
197 893 233 84 66 50 
196 892 235 71 54 40 
196 893 234 76 60 44 
196 893 235 77 61 44 
197 892 234 81 62 47 
197 892 235 76 57 43 
197 893 234 78 61 45 
198 892 232 92 69 56 
198 892 233 93 70 55 
199 892 232 97 75 59 
199 892 233 96 73 56 
198 892 234 85 65 52 
199 892 234 109 82 65 
200 880 224 126 118 112 
201 880 225 126 118 113 
201 880 228 130 100 77 
201 880 229 130 101 79 
202 880 228 129 98 74 
203 881 228 128 96 73 
203 881 229 128 100 79 
203 880 231 124 95 73 
204 882 227 121 95 76 
205 882 227 123 93 69 
206 883 226 127 97 70 
206 883 227 125 101 80 
207 883 227 128 100 73 
204 881 228 130 99 78 
204 881 229 131 103 84 
204 880 230 125 96 75 
204 880 231 122 93 72 
204 881 230 126 98 76 
205 880 231 121 92 69 
205 881 230 123 93 68 
204 882 228 134 102 78 
204 882 229 130 99 75 
205 882 228 128 97 72 
205 882 229 126 94 68 
207 880 229 125 95 70 
206 880 230 121 90 65 
206 880 231 121 93 69 
206 881 231 120 91 67 
207 881 230 124 94 69 
206 882 228 128 97 67 
206 882 229 124 92 65 
206 883 228 128 96 66 
207 883 228 128 97 68 
207 883 229 129 97 68 
206 882 230 122 91 65 
206 882 231 121 91 66 
207 882 230 123 92 66 
207 884 226 129 99 69 
200 883 237 102 75 61 
201 883 237 102 74 60 
200 882 239 105 77 60 
200 883 238 104 75 59 
201 882 238 104 77 62 
201 882 239 105 78 63 
201 883 238 103 75 60 
202 883 236 102 70 59 
202 883 237 103 72 61 
203 882 237 105 80 60 
203 883 236 102 74 54 
203 883 237 104 77 59 
202 882 238 104 78 60 
202 882 239 105 79 62 
202 883 238 105 75 63 
203 882 238 106 81 62 
203 882 239 106 82 64 
200 887 235 82 58 42 
201 886 235 87 63 39 
201 887 235 86 63 43 
203 885 235 100 72 46 
202 886 235 91 65 41 
202 887 235 92 69 46 
203 886 235 97 71 47 
203 887 235 98 73 51 
200 884 237 96 69 52 
200 885 236 90 65 45 
201 884 236 96 68 51 
201 884 237 99 71 58 
201 885 236 92 66 45 
200 886 236 87 62 44 
200 887 236 85 60 44 
201 886 236 90 64 43 
202 884 236 100 70 56 
202 885 236 96 68 47 
203 884 236 100 72 50 
203 885 236 100 72 48 
202 886 236 93 66 44 
205 880 234 115 83 59 
205 881 235 115 85 64 
205 882 235 108 81 61 
205 883 235 106 79 57 
206 880 233 119 88 65 
207 880 232 126 93 68 
207 880 233 121 89 66 
207 881 233 123 92 67 
206 880 234 118 86 64 
206 880 235 121 92 71 
206 881 234 118 86 62 
206 881 235 113 85 64 
207 880 235 124 98 77 
207 881 234 122 91 66 
206 882 234 111 82 59 
206 882 235 111 83 61 
206 883 235 108 82 60 
207 882 234 118 89 65 
207 883 234 110 87 64 
207 883 235 109 83 58 
204 882 236 107 83 63 
204 882 237 107 84 64 
204 883 236 105 79 58 
205 882 236 106 81 62 
205 882 237 105 82 63 
205 883 236 107 80 60 
204 882 238 107 83 64 
204 882 239 107 83 65 
205 882 238 105 83 65 
205 882 239 107 85 67 
206 881 236 111 87 68 
207 880 236 114 90 72 
207 881 236 113 90 72 
206 882 236 107 85 65 
206 882 237 106 84 65 
207 882 236 108 88 68 
207 882 237 110 90 71 
206 882 238 107 86 67 
206 882 239 109 88 68 
207 882 238 112 90 71 
207 882 239 113 92 72 
204 885 235 103 74 51 
205 884 235 106 78 56 
205 885 235 106 77 55 
204 886 235 104 75 53 
204 887 235 99 72 51 
205 886 235 106 78 55 
205 887 235 105 79 55 
206 884 235 109 82 58 
206 885 235 109 82 56 
207 884 235 113 88 63 
207 885 235 115 88 63 
206 886 235 112 84 59 
206 887 235 111 84 58 
207 886 235 117 90 65 
207 887 234 115 90 68 
207 887 235 115 89 65 
204 884 236 103 75 53 
204 885 236 103 74 52 
205 884 236 106 79 57 
200 891 225 77 57 46 
201 891 224 81 63 49 
200 891 226 90 66 51 
202 891 230 76 58 38 
202 891 231 74 56 37 
203 891 230 80 58 38 
203 891 231 81 59 38 
201 892 224 79 60 46 
201 893 227 65 50 37 
200 894 227 83 64 51 
200 895 227 79 61 47 
201 894 227 73 56 44 
201 895 227 76 59 48 
202 894 224 73 54 37 
202 895 225 71 52 40 
203 894 224 75 57 45 
202 894 227 64 46 33 
202 895 227 68 50 39 
203 894 227 75 54 34 
203 895 226 69 51 37 
203 895 227 71 53 38 
200 892 228 83 59 39 
200 892 229 89 67 52 
200 893 228 77 59 45 
201 892 229 72 55 40 
201 893 228 75 55 38 
200 892 230 92 70 56 
200 892 231 88 68 55 
201 892 230 75 58 45 
201 892 231 73 58 48 
200 894 228 86 67 52 
202 892 229 72 54 39 
202 893 228 70 53 40 
203 892 228 78 59 43 
203 892 229 77 58 43 
203 893 228 77 57 41 
202 892 230 73 56 37 
203 892 230 77 57 36 
204 891 229 89 69 46 
205 891 228 103 81 56 
205 891 229 101 80 57 
204 891 230 89 68 45 
204 891 231 90 69 48 
205 891 230 102 80 58 
205 891 231 100 79 56 
206 891 228 105 84 62 
206 891 229 100 80 57 
207 891 228 104 83 61 
206 891 230 100 79 57 
206 891 231 101 80 57 
204 893 227 87 66 42 
205 893 227 93 73 49 
204 895 224 77 58 42 
204 894 227 81 60 37 
204 895 226 78 60 44 
204 895 227 78 59 40 
205 894 227 92 72 49 
205 895 226 93 72 53 
205 895 227 87 66 47 
207 893 224 93 73 51 
207 893 225 92 72 51 
206 892 227 101 80 58 
206 893 227 96 76 51 
207 892 227 95 74 52 
207 893 227 93 72 50 
206 894 227 92 72 49 
206 895 226 91 72 51 
206 895 227 93 74 54 
207 894 227 88 68 47 
207 895 226 82 63 44 
207 895 227 83 65 45 
204 892 228 87 66 45 
204 892 229 86 66 45 
204 893 228 82 61 39 
205 892 228 96 75 52 
205 892 229 100 78 55 
205 893 228 94 73 48 
206 892 228 103 81 57 
206 892 229 98 78 57 
207 892 228 98 76 55 
207 892 229 103 81 59 
206 892 230 97 76 55 
206 892 231 97 76 55 
207 892 230 94 72 54 
207 892 231 95 73 56 
200 888 235 78 57 41 
200 889 235 74 54 37 
201 888 235 83 63 44 
201 889 235 80 62 45 
200 891 233 75 57 44 
201 891 232 67 52 42 
201 891 233 70 54 44 
200 890 235 72 55 40 
200 891 234 76 57 42 
201 890 234 76 59 42 
201 890 235 75 58 40 
201 891 234 70 54 38 
202 888 235 86 64 46 
202 889 235 83 62 46 
203 888 235 90 67 45 
203 889 234 89 66 47 
203 889 235 88 65 45 
202 891 232 73 56 38 
202 891 233 69 53 39 
203 891 232 77 56 37 
203 891 233 77 56 37 
202 890 234 79 61 47 
202 891 234 68 52 34 
203 890 234 84 63 44 
203 891 234 79 59 39 
200 892 232 89 68 53 
200 892 233 84 63 48 
201 892 232 73 57 49 
204 888 234 97 70 50 
204 888 235 96 70 49 
204 889 234 95 71 51 
205 888 234 104 80 56 
205 888 235 102 77 55 
205 889 234 99 77 54 
204 891 232 86 66 46 
204 891 233 86 63 42 
205 891 232 98 77 54 
205 891 233 97 75 53 
204 890 234 89 65 44 
205 890 234 97 74 51 
206 888 234 105 81 56 
206 888 235 108 83 59 
206 889 234 101 78 55 
207 888 234 109 84 60 
207 888 235 110 83 57 
207 889 234 103 79 59 
206 890 233 101 78 56 
206 891 232 98 77 56 
206 891 233 99 77 57 
207 891 232 96 75 57 
207 891 233 98 74 57 
206 890 234 100 77 54 
207 890 234 99 76 56 
193 880 240 120 89 62 
193 881 240 117 85 60 
194 880 240 121 90 64 
194 880 241 119 89 64 
194 881 240 115 83 57 
195 880 241 116 83 59 
195 881 240 114 81 56 
195 881 241 113 81 56 
196 880 241 116 85 62 
196 881 240 111 79 51 
196 881 241 113 82 56 
197 880 241 115 85 62 
197 881 240 111 80 60 
197 881 241 112 82 60 
197 880 242 116 87 64 
196 882 240 109 77 49 
197 882 240 111 81 56 
198 881 241 110 80 61 
199 881 240 107 81 65 
199 881 241 109 81 64 
198 880 242 117 88 64 
199 880 242 114 88 66 
199 880 243 116 90 71 
199 881 242 109 83 65 
198 882 240 109 78 60 
199 882 240 107 79 62 
200 881 240 105 80 63 
200 881 241 106 82 66 
201 881 240 105 80 65 
201 881 241 106 81 66 
200 880 242 112 86 68 
200 880 243 115 89 72 
200 881 242 110 84 66 
201 880 242 110 85 69 
201 880 243 115 91 75 
200 882 240 105 79 63 
201 882 240 105 79 64 
202 881 240 105 79 64 
202 881 241 106 81 64 
203 881 241 109 85 67 
202 880 242 111 86 70 
202 880 243 116 92 75 
202 881 242 110 87 70 
203 880 242 114 91 74 
203 880 243 117 94 76 
203 881 242 112 90 73 
202 882 240 105 80 63 
203 882 240 107 83 65 
204 881 240 108 84 67 
204 881 241 110 86 68 
205 881 240 108 85 67 
205 881 241 110 88 71 
204 880 242 116 96 81 
204 880 243 115 96 80 
204 881 242 113 89 71 
205 880 242 115 92 75 
205 880 243 116 97 81 
205 881 242 114 93 76 
204 882 240 108 84 67 
205 882 240 108 86 68 
206 881 240 108 87 68 
206 881 241 111 90 72 
207 881 241 113 92 72 
206 880 243 123 103 85 
206 881 242 115 94 76 
206 881 243 121 101 82 
207 880 243 122 101 83 
207 881 242 114 93 73 
207 881 243 119 98 79 
206 882 240 110 88 68 
206 882 241 111 90 71 
207 882 240 113 92 72 
207 882 241 112 91 72 
204 880 244 115 95 79 
205 880 244 114 95 79 
206 880 244 120 100 82 
207 880 244 122 102 84 
207 881 244 120 98 80 
215 865 231 130 111 97 
215 866 231 128 110 97 
215 867 231 125 109 98 
213 871 229 124 103 85 
213 871 230 120 105 93 
213 871 231 120 106 95 
215 869 229 119 104 93 
214 869 230 119 105 94 
214 869 231 123 104 89 
215 868 230 126 105 88 
215 868 231 126 105 88 
215 869 230 126 105 88 
214 870 228 122 103 88 
214 870 229 119 105 93 
214 871 228 124 103 84 
214 871 229 124 103 84 
214 870 230 120 105 94 
213 871 232 121 110 102 
214 868 232 125 111 103 
214 869 232 125 111 103 
214 870 232 119 109 103 
214 870 233 124 109 98 
209 875 227 130 103 85 
210 874 227 129 103 86 
210 875 226 129 103 83 
210 875 227 129 103 83 
211 874 227 128 102 82 
211 875 226 127 102 83 
211 875 227 125 103 84 
209 873 229 132 113 98 
208 873 231 132 110 93 
209 873 230 135 115 101 
209 873 231 132 113 97 
208 875 229 135 113 96 
209 874 228 133 112 96 
209 874 229 136 115 99 
208 874 230 136 115 99 
208 874 231 128 106 88 
208 875 230 128 106 87 
209 874 230 135 115 100 
209 875 231 121 101 83 
210 873 229 132 112 96 
211 873 229 126 106 90 
210 873 230 134 114 99 
210 873 231 133 114 99 
211 873 230 129 109 94 
211 873 231 133 113 98 
210 874 228 130 109 93 
211 874 228 129 108 92 
211 875 229 129 107 88 
210 875 230 126 105 85 
210 875 231 122 103 86 
211 875 230 127 106 87 
211 875 231 123 103 86 
209 876 227 130 102 80 
209 877 226 128 100 78 
208 878 227 132 99 74 
208 879 227 130 98 74 
209 878 226 130 98 74 
209 879 226 131 98 74 
211 876 225 125 102 84 
211 877 224 129 98 72 
211 877 225 132 100 76 
210 876 226 128 101 82 
210 877 226 124 98 81 
211 876 226 123 102 85 
211 877 227 131 106 86 
210 878 225 130 99 75 
211 878 224 129 98 72 
211 878 225 132 99 74 
211 879 224 129 98 71 
211 878 226 130 99 74 
211 878 227 130 99 75 
211 879 227 131 100 75 
208 876 228 133 107 87 
208 876 229 132 111 93 
208 877 228 133 103 80 
208 877 229 136 104 79 
209 876 228 131 105 83 
209 877 229 129 102 78 
208 876 230 126 104 85 
208 876 231 123 103 86 
208 877 231 131 105 87 
209 876 230 126 105 85 
209 876 231 124 103 86 
209 877 230 130 105 85 
208 878 228 131 99 73 
208 878 229 133 101 76 
208 879 228 129 97 71 
209 878 229 133 99 72 
209 879 229 132 98 71 
208 878 231 129 99 77 
208 879 231 128 95 70 
209 878 230 133 100 74 
209 879 230 132 98 72 
209 879 231 129 96 70 
210 876 229 130 110 91 
210 877 228 131 103 79 
210 877 229 131 104 81 
211 876 228 129 106 86 
211 876 229 129 108 89 
211 877 228 131 106 86 
210 876 230 128 108 89 
210 878 228 130 97 71 
210 878 229 131 97 69 
210 879 228 130 98 72 
210 879 229 131 98 72 
211 879 228 130 99 75 
215 875 227 125 105 86 
213 872 229 122 104 90 
212 872 231 127 107 90 
212 873 230 120 106 96 
213 872 230 120 105 94 
213 872 231 121 107 96 
213 873 231 127 109 94 
212 875 229 129 108 91 
213 875 229 127 106 90 
212 874 230 128 108 91 
212 874 231 126 106 89 
212 875 230 129 109 92 
212 875 231 124 104 86 
213 874 230 130 111 94 
213 874 231 126 107 91 
214 872 228 124 103 85 
214 873 229 124 105 88 
215 872 229 121 101 84 
215 873 228 122 102 86 
215 873 229 123 103 87 
214 872 231 118 106 96 
214 873 230 124 105 89 
214 873 231 123 107 94 
215 872 230 120 102 86 
215 872 231 116 104 94 
215 873 230 123 104 87 
215 873 231 115 104 95 
214 874 229 126 107 91 
214 875 228 125 105 89 
214 875 229 125 105 90 
215 874 228 124 104 87 
215 874 229 124 104 88 
215 875 228 125 104 87 
214 874 230 126 107 91 
215 874 231 118 101 86 
212 877 224 128 101 79 
212 877 226 133 106 84 
212 877 227 131 108 88 
213 876 227 127 105 87 
213 877 226 133 106 84 
213 877 227 130 105 82 
212 878 224 132 101 76 
212 879 225 134 103 78 
213 878 224 132 101 76 
213 879 225 138 107 84 
212 878 226 134 104 79 
212 878 227 134 104 78 
212 879 226 131 101 75 
213 878 226 133 104 77 
213 879 226 131 101 75 
214 877 225 134 105 79 
215 877 224 130 102 78 
215 877 225 130 102 79 
214 876 227 126 104 86 
214 877 226 131 103 79 
214 877 227 129 104 83 
215 876 226 126 103 85 
215 876 227 125 104 88 
215 877 226 130 102 79 
214 878 224 134 104 82 
214 878 225 131 103 77 
214 879 224 136 105 84 
215 878 224 133 103 82 
215 878 225 129 101 78 
214 878 226 133 104 78 
212 876 228 128 106 87 
212 876 229 127 105 87 
213 876 228 127 105 88 
213 876 229 126 104 88 
213 877 228 128 105 87 
213 878 231 124 97 75 
213 879 230 126 98 76 
213 879 231 127 98 75 
214 876 228 126 104 88 
214 876 229 126 105 90 
214 877 231 125 100 81 
215 877 231 126 101 80 
215 879 228 130 102 78 
215 879 229 129 101 77 
214 878 231 127 101 81 
214 879 230 128 99 76 
214 879 231 126 98 76 
215 878 230 128 100 75 
215 878 231 126 99 77 
215 879 230 128 99 75 
215 879 231 127 98 75 
208 873 232 127 107 90 
208 873 233 126 105 87 
208 874 232 125 105 87 
208 875 232 116 98 81 
208 875 233 110 93 79 
209 875 232 117 99 84 
211 872 232 132 111 95 
211 873 232 129 108 91 
210 875 232 119 101 87 
210 875 233 114 97 83 
211 875 232 120 102 87 
211 875 233 116 97 82 
208 876 232 118 98 81 
208 876 233 119 95 78 
208 877 232 130 102 82 
209 876 232 120 101 86 
209 876 233 118 96 81 
208 876 234 123 98 81 
208 877 234 124 99 81 
209 876 234 123 97 82 
209 877 234 124 98 81 
208 879 232 128 95 70 
208 878 234 125 99 80 
208 878 235 124 99 79 
208 879 235 124 98 78 
209 878 234 124 98 79 
209 879 234 123 97 76 
209 879 235 123 96 76 
210 876 233 122 99 83 
210 877 233 123 98 81 
211 876 233 122 99 82 
211 877 233 123 99 82 
210 877 234 123 98 79 
210 878 233 126 99 78 
210 879 233 123 96 75 
211 878 233 125 100 81 
211 879 233 124 97 76 
210 878 234 124 99 80 
210 879 234 123 97 76 
212 872 232 127 107 90 
212 874 232 121 102 86 
212 875 232 120 102 88 
213 874 232 121 103 88 
213 875 232 121 102 87 
214 873 232 122 108 96 
215 873 232 116 105 96 
214 874 232 122 104 90 
214 875 232 120 103 88 
215 874 232 121 103 89 
215 875 232 123 102 85 
212 876 232 123 100 81 
212 876 233 123 99 81 
212 877 232 123 99 81 
212 877 233 123 99 81 
213 876 232 123 99 80 
213 877 232 123 99 81 
212 878 232 124 99 80 
212 878 233 125 101 83 
212 879 232 126 98 75 
213 878 232 125 101 82 
213 879 232 127 97 74 
214 876 232 123 99 80 
214 877 232 124 99 80 
215 876 232 124 99 80 
215 877 232 125 101 81 
214 878 232 127 103 85 
216 865 230 141 116 99 
216 866 229 141 114 94 
216 866 230 130 107 88 
216 867 230 130 107 88 
218 866 229 142 114 94 
218 867 228 142 114 94 
218 867 229 142 114 94 
218 868 227 142 114 94 
218 869 226 118 103 92 
218 869 227 118 103 92 
219 869 226 118 103 92 
219 871 225 122 101 83 
219 870 226 123 101 82 
219 871 226 124 101 82 
219 868 228 141 114 94 
217 873 224 121 100 83 
217 873 227 121 102 86 
216 875 224 126 103 85 
217 874 224 128 106 88 
217 874 225 121 100 83 
216 874 227 123 104 88 
216 875 226 125 104 85 
216 875 227 125 105 87 
217 874 227 123 104 88 
217 875 226 124 105 87 
217 875 227 123 104 87 
218 873 224 125 103 86 
219 872 225 122 100 83 
219 873 224 126 106 90 
219 872 226 125 101 80 
216 872 228 120 100 83 
216 872 229 120 101 84 
216 873 228 120 101 84 
217 872 228 120 100 83 
217 872 229 120 100 84 
217 873 228 121 102 85 
217 873 229 122 103 86 
216 872 230 119 102 88 
216 872 231 116 104 95 
216 873 230 121 102 85 
216 873 231 119 102 88 
216 874 228 123 104 88 
217 874 228 123 103 87 
217 874 229 122 103 86 
217 875 228 124 104 87 
217 875 229 123 103 85 
216 874 230 121 102 86 
216 874 231 119 101 85 
216 875 230 121 101 85 
216 875 231 122 101 84 
217 874 230 121 102 85 
217 875 230 124 102 82 
216 876 225 129 102 79 
216 877 224 128 100 76 
216 877 225 129 102 78 
217 876 225 128 102 78 
217 877 224 126 100 75 
217 877 225 126 100 76 
216 876 226 126 105 87 
217 876 226 127 102 81 
217 876 227 127 102 80 
217 877 226 128 100 77 
217 877 227 128 101 78 
216 879 224 132 103 80 
217 878 224 127 101 76 
217 878 225 127 100 76 
217 879 224 130 102 79 
217 879 225 129 102 78 
216 879 226 129 102 78 
216 879 227 131 103 78 
217 878 226 126 100 76 
217 878 227 130 103 77 
217 879 226 128 101 77 
218 876 226 128 102 79 
216 876 229 126 101 78 
216 877 229 127 101 77 
217 876 228 126 102 82 
217 876 229 126 101 79 
217 877 228 127 101 77 
217 877 229 127 101 78 
216 876 230 126 100 79 
216 876 231 125 100 79 
216 877 230 127 101 78 
216 877 231 126 100 78 
217 876 230 126 101 79 
216 878 228 129 102 77 
216 878 229 129 102 77 
216 879 228 130 102 78 
216 879 229 130 102 78 
217 878 228 128 101 77 
216 878 230 128 101 77 
220 873 224 126 106 90 
220 873 225 124 100 79 
220 872 226 125 101 80 
208 864 243 157 123 94 
208 865 243 147 115 84 
209 864 243 152 116 84 
208 865 244 154 116 81 
209 864 244 133 103 71 
209 865 244 153 113 76 
208 866 244 162 118 83 
208 866 245 180 126 87 
208 867 245 178 124 86 
209 866 245 178 126 87 
209 867 245 179 125 85 
209 867 246 182 128 89 
210 864 244 153 107 65 
210 865 244 163 114 75 
210 865 245 164 115 77 
211 864 244 147 100 60 
211 864 245 159 105 63 
211 865 245 164 110 69 
210 866 245 185 129 90 
211 866 245 175 119 77 
210 867 246 193 136 96 
211 866 246 180 125 83 
211 867 246 185 130 88 
208 868 245 176 122 84 
208 868 246 174 121 83 
208 869 246 162 115 79 
209 868 246 176 123 85 
209 869 246 174 120 82 
208 870 246 159 113 79 
208 871 246 161 113 78 
209 870 246 174 120 82 
209 871 246 156 110 75 
210 868 246 182 128 88 
210 868 247 195 135 89 
210 869 246 192 129 88 
210 869 247 194 133 86 
211 868 246 181 128 87 
211 868 247 195 135 89 
211 869 247 192 132 87 
210 870 246 180 123 86 
210 870 247 187 127 88 
210 871 247 169 117 85 
211 870 247 177 122 83 
211 871 247 170 115 82 
212 864 244 167 112 73 
212 864 245 154 105 66 
212 865 245 156 107 64 
213 864 245 129 92 56 
213 865 245 143 102 64 
212 866 246 158 112 68 
212 867 246 161 114 73 
213 866 246 147 106 64 
213 867 246 146 106 64 
214 864 245 127 93 59 
214 865 245 126 93 55 
214 865 246 127 95 57 
215 864 246 132 94 61 
215 865 246 129 97 61 
214 866 246 133 100 63 
214 867 246 132 99 63 
215 866 246 127 95 59 
215 867 246 124 92 58 
212 868 246 170 119 78 
212 868 247 187 129 85 
212 869 247 182 125 82 
213 868 246 155 110 71 
213 869 246 159 113 71 
213 869 247 163 114 74 
212 870 247 170 117 78 
212 871 247 155 107 76 
213 870 247 162 113 75 
213 871 247 149 107 77 
214 868 246 136 101 67 
214 869 246 123 93 66 
214 869 247 154 110 68 
215 868 246 125 95 68 
215 869 246 124 95 70 
215 869 247 121 92 66 
214 870 247 131 98 66 
214 871 247 128 96 65 
215 870 247 120 92 63 
215 871 247 117 91 65 
208 872 246 155 109 75 
208 873 246 148 106 79 
209 872 246 154 109 74 
209 872 247 155 110 77 
209 873 247 152 109 78 
208 874 246 144 105 80 
208 874 247 140 103 78 
209 874 247 149 107 78 
209 875 247 134 101 75 
210 872 247 168 117 86 
210 873 247 159 111 83 
211 872 247 166 111 82 
211 873 247 157 108 80 
210 874 247 148 106 78 
210 875 247 136 100 74 
211 874 247 139 101 76 
209 879 246 108 88 71 
210 876 247 119 94 72 
210 877 247 113 90 70 
211 877 247 105 86 67 
210 879 246 105 86 68 
211 878 247 106 85 66 
212 872 247 143 99 72 
212 873 247 136 94 66 
213 872 247 122 94 71 
214 872 247 116 89 65 
215 872 247 116 90 66 
212 878 247 104 84 65 
212 879 247 104 84 66 
212 873 248 121 90 65 
213 872 248 115 89 65 
213 873 248 123 91 68 
212 874 248 123 90 65 
212 875 248 121 90 67 
213 874 248 119 90 69 
213 875 248 113 89 68 
214 872 248 113 88 65 
214 873 248 111 87 65 
215 872 248 113 87 64 
215 873 248 107 83 60 
214 874 248 111 88 68 
214 875 248 109 87 68 
215 874 248 108 85 65 
215 874 249 106 83 64 
215 875 248 108 86 66 
213 876 248 107 86 67 
214 876 248 106 84 64 
214 877 248 105 83 63 
215 876 248 107 84 64 
214 878 248 104 83 63 
216 864 246 133 95 62 
216 864 247 141 100 68 
216 865 246 131 98 65 
216 865 247 131 97 65 
217 864 247 143 104 73 
217 865 247 134 99 68 
216 866 246 129 97 66 
216 866 247 129 95 66 
216 867 246 121 87 50 
216 867 247 122 90 62 
217 866 247 127 94 64 
216 868 247 119 88 59 
216 869 247 119 89 61 
216 870 247 120 92 66 
216 871 247 117 91 65 
217 864 248 140 101 69 
217 865 248 132 97 67 
217 865 249 131 95 67 
217 866 248 127 95 66 
217 867 248 125 95 69 
218 864 249 137 99 71 
218 865 249 131 96 69 
218 864 250 137 100 74 
218 865 250 131 96 71 
219 864 250 136 101 75 
219 864 251 139 103 74 
219 865 250 129 94 68 
219 865 251 129 95 67 
218 866 249 128 95 69 
218 867 249 124 93 66 
218 866 250 125 92 65 
218 867 250 123 91 63 
219 866 250 126 92 65 
219 866 251 125 91 66 
219 867 250 123 89 64 
219 867 251 122 87 63 
216 868 248 117 87 57 
216 869 248 116 88 58 
217 868 248 120 91 62 
217 868 249 125 96 71 
217 869 248 118 90 61 
217 869 249 122 93 68 
216 870 248 119 91 65 
216 871 248 117 89 66 
217 870 248 117 88 60 
217 870 249 120 90 65 
217 871 248 118 89 66 
217 871 249 117 87 66 
218 868 249 127 96 72 
218 869 249 124 94 71 
218 868 250 126 95 71 
218 869 250 125 94 72 
219 868 250 122 90 66 
219 869 250 124 92 69 
219 869 251 121 89 64 
218 871 249 119 88 67 
218 870 250 122 90 69 
218 871 250 118 86 66 
219 870 251 119 89 68 
219 871 251 116 86 67 
220 864 251 133 99 70 
220 865 251 128 95 67 
220 866 251 125 91 66 
220 867 251 121 86 63 
220 864 252 136 100 71 
220 865 252 126 92 65 
221 864 252 134 96 69 
221 864 253 131 92 67 
221 865 252 126 91 66 
220 866 252 120 86 62 
220 867 252 120 85 63 
221 866 252 119 85 60 
221 867 252 118 85 62 
222 864 253 126 86 61 
222 865 253 120 84 59 
223 865 253 119 83 58 
222 866 253 118 84 60 
220 868 251 118 85 60 
220 869 251 120 88 63 
221 868 252 118 86 64 
221 869 252 114 83 63 
216 872 248 109 82 59 
216 873 248 106 80 57 
216 873 249 108 82 60 
217 872 249 111 84 63 
217 873 249 109 83 62 
217 872 250 114 86 67 
217 873 250 108 82 63 
216 874 249 105 80 61 
216 875 249 103 80 59 
218 872 250 112 84 65 
209 880 225 129 98 74 
209 881 225 127 96 75 
209 880 227 128 98 74 
209 881 226 131 100 76 
209 882 226 126 96 75 
209 882 227 130 99 75 
209 883 227 122 95 76 
210 881 225 127 96 75 
211 880 224 129 98 72 
211 881 224 129 97 72 
210 882 225 126 97 75 
211 882 224 127 97 72 
211 883 224 122 93 70 
211 883 225 121 93 72 
210 883 226 121 94 72 
208 880 228 128 98 72 
208 880 229 126 96 69 
208 881 228 128 97 70 
208 881 229 126 96 70 
208 880 231 128 95 70 
209 880 230 130 97 69 
209 880 231 130 96 68 
208 882 228 127 97 69 
208 882 229 127 97 70 
208 883 228 128 97 70 
208 883 229 128 97 70 
210 880 229 132 100 76 
211 880 228 130 100 75 
211 880 229 131 101 78 
210 880 230 129 98 73 
210 880 231 130 97 71 
211 880 230 129 99 76 
211 880 231 129 98 73 
208 884 224 115 101 91 
208 885 224 114 101 88 
208 885 225 113 99 88 
209 885 224 113 100 89 
209 885 225 111 98 89 
208 884 226 117 99 92 
208 884 227 128 99 76 
209 884 227 117 92 72 
209 885 226 108 95 89 
209 885 227 118 91 71 
209 886 224 108 97 91 
211 884 225 123 94 74 
211 885 225 109 96 89 
210 884 226 115 89 69 
210 885 226 105 94 89 
211 885 226 105 94 88 
210 886 224 103 93 88 
210 886 225 104 94 89 
211 887 224 100 92 84 
211 887 225 95 81 68 
211 886 226 100 87 76 
211 887 226 90 70 51 
208 884 228 117 91 70 
212 880 225 135 104 79 
213 880 225 136 105 82 
213 881 225 136 106 83 
212 880 226 133 102 77 
212 880 227 129 99 74 
212 881 226 132 101 77 
212 881 227 135 104 83 
213 880 226 135 104 80 
213 880 227 131 102 81 
213 881 226 139 107 89 
213 881 227 132 105 86 
212 883 224 123 94 68 
214 880 224 137 106 84 
214 880 225 137 107 84 
214 881 224 136 105 83 
214 881 225 134 104 84 
215 880 224 136 106 83 
215 881 224 135 105 82 
215 881 225 133 104 83 
214 881 226 133 104 84 
214 881 227 131 105 86 
215 880 227 131 104 81 
215 881 226 132 103 82 
215 881 227 130 101 79 
212 880 228 130 102 78 
212 880 229 131 103 81 
213 880 228 130 104 82 
213 880 229 131 104 83 
212 880 230 129 100 77 
212 880 231 128 98 75 
213 880 230 127 98 75 
213 880 231 127 99 76 
214 880 228 132 106 85 
214 880 229 131 103 80 
214 881 228 131 105 84 
215 880 228 131 103 80 
215 880 229 129 100 76 
215 881 228 132 106 84 
214 880 230 130 102 80 
212 884 224 125 94 72 
212 885 225 117 97 81 
213 884 224 127 97 73 
213 885 225 114 100 88 
212 887 225 93 74 55 
213 886 225 108 96 85 
213 887 225 94 76 59 
212 886 226 102 83 66 
212 887 226 95 75 55 
213 887 226 92 72 47 
214 885 224 122 94 71 
214 886 224 103 81 60 
214 886 225 109 95 86 
214 887 225 96 74 52 
215 886 224 107 91 78 
215 887 224 102 82 63 
215 887 225 93 73 57 
208 880 232 127 95 69 
208 881 232 127 95 68 
208 881 233 126 95 68 
209 880 232 129 96 68 
209 881 232 128 96 68 
209 881 233 127 96 69 
208 880 235 124 100 80 
208 881 234 134 102 78 
208 881 235 124 99 79 
209 880 234 123 97 76 
209 880 235 124 100 80 
209 881 234 127 97 74 
209 881 235 120 95 75 
208 882 234 128 99 77 
208 882 235 120 93 70 
208 883 235 113 87 65 
209 882 235 121 93 72 
209 883 235 114 87 66 
210 880 232 130 96 69 
210 880 233 127 96 72 
210 881 232 130 97 70 
210 881 233 127 96 71 
211 880 232 129 97 72 
211 880 233 127 96 72 
210 880 234 124 97 75 
210 881 234 127 98 74 
208 881 236 114 91 72 
208 882 236 112 91 71 
208 882 237 114 93 74 
208 883 237 111 89 70 
209 882 236 114 92 71 
209 883 236 114 89 67 
209 883 237 113 91 72 
208 882 239 113 91 71 
208 883 238 112 91 70 
208 883 239 112 90 70 
209 883 238 112 91 72 
209 883 239 113 91 72 
210 883 236 116 95 76 
210 883 237 115 94 74 
210 883 238 114 94 75 
210 883 239 113 94 75 
208 884 235 115 88 66 
208 885 235 118 91 68 
209 884 235 115 87 65 
209 885 235 116 90 67 
208 886 235 117 90 67 
208 887 234 114 88 66 
208 887 235 112 86 64 
209 886 235 113 87 65 
209 887 235 111 85 63 
210 886 235 109 85 59 
210 887 235 113 89 67 
211 887 235 111 88 65 
209 884 236 118 92 70 
210 884 236 117 93 70 
210 884 237 114 94 75 
210 885 236 116 92 69 
211 884 237 116 96 78 
211 885 237 116 94 74 
210 884 238 114 94 75 
210 884 239 113 94 76 
211 884 238 112 93 75 
211 884 239 111 92 75 
210 886 236 115 90 66 
211 886 236 115 91 69 
211 887 236 115 91 68 
212 880 232 128 97 72 
212 887 235 108 86 66 
213 887 235 106 85 67 
212 885 237 110 90 74 
212 884 238 108 89 72 
212 884 239 106 88 71 
212 885 238 107 89 73 
212 885 239 105 87 71 
213 885 239 104 86 70 
212 886 236 113 90 71 
212 886 237 106 87 72 
212 887 236 107 85 66 
213 886 236 108 86 65 
213 886 237 105 85 69 
213 887 236 105 84 65 
213 887 237 103 83 67 
213 886 238 103 85 70 
213 886 239 101 83 68 
213 887 238 102 84 69 
214 887 237 100 81 67 
214 886 239 102 83 67 
214 887 238 100 81 67 
214 887 239 100 80 64 
215 887 238 98 79 64 
215 887 239 95 77 62 
211 888 224 89 71 54 
209 891 228 95 74 56 
208 891 231 97 74 58 
209 891 230 101 78 63 
209 891 231 103 80 64 
210 891 228 96 76 55 
210 891 229 95 75 56 
210 891 230 99 77 61 
210 891 231 99 78 58 
211 891 230 97 77 56 
211 891 231 94 74 53 
208 893 224 90 70 47 
208 892 227 92 70 47 
208 893 227 89 68 45 
209 892 227 95 76 55 
209 893 227 92 74 56 
208 894 227 84 65 44 
208 895 226 83 66 48 
208 895 227 84 66 48 
209 894 227 91 72 55 
209 895 226 87 70 53 
209 895 227 92 75 59 
210 892 227 95 76 56 
210 893 226 91 72 51 
210 893 227 94 75 54 
211 892 227 97 78 57 
211 893 226 96 77 56 
211 893 227 97 77 53 
210 894 224 94 73 53 
210 894 226 93 73 56 
210 895 226 89 71 53 
210 895 227 91 71 50 
211 894 226 94 74 52 
211 894 227 93 72 49 
211 895 226 91 72 48 
211 895 227 93 73 51 
208 892 228 95 73 52 
208 892 229 95 72 53 
209 892 229 96 73 56 
208 892 230 95 72 56 
208 892 231 96 73 57 
209 892 230 98 75 59 
209 892 231 102 78 63 
210 892 228 96 77 58 
210 892 229 96 76 58 
211 892 228 96 77 58 
211 892 229 96 76 56 
210 892 230 96 76 57 
210 892 231 98 78 59 
211 892 230 93 73 53 
211 892 231 93 73 51 
212 888 224 89 71 51 
212 888 225 92 72 55 
213 888 224 89 69 54 
213 888 225 89 69 51 
214 888 225 91 69 56 
214 889 224 90 69 61 
214 889 225 91 70 60 
215 888 225 95 76 61 
215 889 225 98 78 64 
215 889 226 86 67 58 
214 890 224 91 71 62 
215 890 225 90 71 63 
215 890 226 86 67 58 
212 891 231 96 77 61 
212 892 227 102 81 60 
212 893 227 102 82 62 
212 894 227 102 82 64 
212 895 227 101 82 65 
212 892 228 99 79 58 
212 892 229 96 76 57 
213 892 228 98 78 62 
213 892 229 92 73 55 
213 893 228 96 76 59 
213 893 229 89 71 55 
212 892 230 90 72 56 
212 892 231 94 75 60 
213 892 230 89 71 56 
213 892 231 88 68 54 
213 893 230 85 67 53 
212 895 228 99 80 64 
213 894 228 97 78 62 
213 894 229 91 73 57 
213 895 228 96 78 61 
213 895 229 90 73 56 
214 892 231 87 66 53 
214 893 230 85 66 54 
214 893 231 84 63 53 
215 893 231 82 62 52 
214 894 229 88 70 55 
214 895 229 86 68 53 
214 894 230 84 65 53 
214 895 230 83 66 54 
215 894 230 83 64 52 
215 894 231 81 62 50 
215 895 230 85 66 55 
215 895 231 85 66 55 
208 888 234 106 81 58 
208 889 234 101 78 57 
209 888 234 107 84 63 
209 888 235 109 83 60 
209 889 234 105 84 66 
208 891 232 96 74 58 
208 891 233 99 76 60 
209 891 232 102 81 67 
209 891 233 100 79 64 
208 890 234 98 75 56 
209 890 234 102 82 64 
210 888 235 109 87 67 
210 889 234 105 85 66 
211 888 235 105 83 64 
211 889 234 103 82 64 
210 891 232 97 77 61 
210 891 233 99 79 63 
211 890 233 102 83 65 
211 891 232 96 76 60 
211 891 233 98 79 64 
210 890 234 103 83 66 
211 890 234 104 83 64 
212 888 235 103 81 62 
212 889 234 99 78 60 
213 888 235 102 82 64 
213 889 234 101 80 61 
213 889 235 102 81 63 
212 890 233 97 77 58 
212 891 232 96 77 62 
212 891 233 96 78 61 
213 890 233 96 77 63 
213 891 232 93 75 61 
213 891 233 95 76 62 
212 890 234 97 78 58 
213 890 234 97 77 60 
214 888 235 95 77 62 
214 889 235 96 77 61 
215 889 235 92 74 60 
214 891 232 91 71 57 
214 891 233 90 71 55 
215 891 233 84 65 49 
214 890 234 94 75 60 
214 890 235 94 75 58 
214 891 234 90 70 53 
214 891 235 92 72 54 
215 890 235 89 71 57 
215 891 234 85 66 51 
215 891 235 84 67 53 
213 888 236 101 82 66 
214 888 236 97 78 64 
214 888 237 98 80 66 
215 888 236 94 76 62 
215 888 237 95 77 64 
215 889 236 92 75 61 
215 889 237 93 75 62 
215 888 238 93 75 60 
215 888 239 90 71 57 
215 889 238 90 72 58 
215 890 236 91 74 61 
215 890 237 90 73 61 
215 891 236 86 70 57 
213 892 232 91 71 56 
214 892 232 84 64 52 
214 893 232 85 64 51 
215 892 232 84 64 50 
215 892 233 83 64 49 
215 893 232 82 63 51 
215 893 233 82 64 50 
215 892 234 83 66 52 
215 892 235 84 66 53 
215 894 232 82 62 50 
215 894 233 79 59 47 
215 895 232 88 67 56 
216 880 224 136 106 83 
216 880 225 131 103 80 
216 881 224 136 106 83 
217 880 224 131 103 80 
217 880 225 130 103 79 
216 880 226 129 101 78 
216 880 227 129 101 78 
216 881 226 129 101 79 
217 880 226 130 102 80 
216 880 228 131 102 78 
216 886 224 115 95 81 
216 889 238 88 70 57 
216 889 239 88 70 57 
216 890 237 89 72 60 
216 891 236 86 70 59 
216 891 237 88 72 62 
216 890 238 87 71 60 
216 890 239 86 70 58 
216 891 238 90 75 65 
216 891 239 89 73 63 
217 891 239 89 73 63 
216 893 233 79 60 47 
216 892 234 83 65 52 
216 892 235 82 66 55 
216 893 234 79 61 48 
216 893 235 79 62 51 
216 894 233 78 59 47 
216 895 232 80 62 51 
216 895 233 75 58 46 
216 894 234 77 58 48 
216 894 235 76 58 48 
216 895 234 76 59 47 
216 895 235 74 58 46 
217 894 235 75 58 49 
217 895 235 74 58 47 
216 892 236 82 66 55 
216 892 237 87 71 61 
216 893 236 80 63 54 
216 893 237 84 67 58 
217 893 236 79 62 53 
217 893 237 81 64 55 
216 892 238 90 74 65 
217 892 238 89 73 64 
217 892 239 89 73 62 
217 893 238 83 67 56 
217 893 239 84 67 55 
217 894 236 77 60 50 
217 894 237 78 62 52 
217 895 236 76 60 49 
217 895 237 78 61 51 
217 894 238 84 68 57 
217 895 238 80 64 53 
218 893 239 84 68 55 
218 895 237 78 62 51 
218 894 238 83 68 56 
218 894 239 83 68 56 
218 895 238 80 65 53 
218 895 239 80 64 51 
208 881 243 118 97 77 
209 881 243 117 96 77 
208 882 240 114 92 72 
208 882 241 114 93 73 
209 882 241 115 94 76 
209 883 240 113 92 74 
209 883 241 114 94 75 
208 882 242 114 93 75 
208 882 243 113 93 73 
209 882 242 113 93 74 
209 882 243 116 96 78 
210 881 243 113 93 75 
210 883 240 113 94 76 
210 883 241 111 92 75 
211 883 240 112 94 77 
211 883 241 109 91 74 
210 882 242 112 93 74 
210 882 243 112 92 74 
210 883 242 110 92 74 
211 882 243 108 90 72 
211 883 242 107 89 73 
211 883 243 107 89 72 
208 880 244 121 101 84 
208 880 245 115 95 78 
209 880 244 121 102 85 
209 880 245 120 101 84 
209 881 244 119 100 83 
209 881 245 116 97 80 
209 880 246 112 93 76 
210 881 244 116 96 78 
210 881 245 115 96 78 
210 880 246 109 91 75 
210 881 246 114 96 80 
211 881 246 111 94 78 
210 882 244 110 90 71 
210 882 245 110 91 73 
211 882 244 108 89 70 
211 882 245 109 90 72 
211 883 244 107 88 69 
211 882 246 107 90 72 
211 884 240 109 91 75 
211 884 241 108 91 74 
212 883 243 106 89 73 
212 883 244 105 87 69 
212 883 245 105 86 68 
212 882 246 105 87 70 
212 883 246 105 86 69 
213 883 246 104 85 69 
212 884 240 106 88 72 
212 884 241 106 88 72 
213 884 241 104 86 71 
213 885 240 102 85 69 
213 885 241 104 86 70 
212 884 242 105 88 72 
212 884 243 106 88 72 
213 884 243 104 86 69 
213 885 242 102 85 69 
213 885 243 102 86 69 
213 886 240 102 84 69 
213 886 241 102 83 67 
214 885 243 100 83 67 
214 886 240 99 81 65 
214 886 241 97 80 65 
215 886 241 95 79 65 
215 887 240 92 74 58 
215 887 241 91 73 58 
214 886 242 95 80 65 
214 886 243 99 82 66 
215 886 242 94 78 64 
215 886 243 96 81 67 
215 887 242 90 74 59 
215 887 243 89 73 58 
212 884 244 106 88 71 
213 884 244 105 87 70 
213 884 245 106 88 71 
213 884 246 104 85 68 
214 884 244 103 84 66 
214 884 245 103 85 67 
214 885 244 102 85 68 
214 885 245 101 84 67 
215 885 244 103 87 71 
215 885 245 105 87 71 
214 884 246 100 82 67 
214 885 246 102 86 70 
215 884 247 98 82 67 
215 885 246 103 86 71 
215 886 244 101 84 68 
215 886 245 102 84 68 
215 887 244 97 81 65 
215 888 240 89 70 54 
215 888 241 87 69 53 
216 887 242 85 69 53 
216 887 243 86 69 52 
216 885 247 97 79 63 
216 886 245 97 79 63 
216 887 244 89 72 56 
216 887 245 92 74 58 
217 887 244 82 66 51 
217 887 245 84 67 52 
216 886 246 97 79 63 
217 886 247 88 70 55 
217 887 246 86 69 54 
218 887 247 85 68 55 
216 888 240 86 67 51 
216 888 241 85 67 51 
216 889 240 88 71 58 
216 889 241 83 66 51 
217 889 241 82 65 52 
216 888 242 84 66 50 
216 888 243 84 66 50 
216 889 242 82 64 49 
217 888 243 82 65 51 
217 889 242 81 64 50 
217 889 243 82 65 51 
216 890 240 87 72 60 
216 891 240 88 72 62 
217 890 240 88 72 61 
217 890 241 84 68 58 
217 891 240 89 73 64 
217 891 241 87 71 62 
217 890 242 85 69 58 
217 890 243 82 66 54 
217 891 242 84 68 57 
217 891 243 82 66 54 
218 890 243 81 65 53 
218 891 242 81 64 52 
218 891 243 79 64 52 
216 888 244 84 67 51 
217 888 244 82 65 51 
217 888 245 82 65 50 
217 889 244 81 65 52 
217 888 246 82 65 52 
218 888 245 80 62 49 
218 889 244 81 64 51 
218 889 245 81 64 52 
218 888 246 81 64 51 
218 888 247 83 65 53 
218 889 246 82 65 52 
219 888 247 80 62 51 
219 889 247 82 65 54 
218 890 244 79 63 50 
218 890 245 79 64 51 
218 891 244 79 63 51 
218 891 245 76 61 49 
219 891 245 74 59 47 
218 890 246 80 64 52 
219 890 246 79 64 52 
219 891 246 73 58 46 
217 892 240 87 71 60 
217 892 241 83 66 55 
217 893 240 89 75 64 
218 892 241 83 68 56 
218 893 240 84 69 56 
218 893 241 84 69 56 
218 892 242 83 67 55 
218 892 243 80 65 53 
218 893 242 84 68 54 
218 893 243 81 66 54 
219 893 243 78 63 51 
218 894 240 84 69 54 
218 894 241 84 69 55 
218 895 240 80 66 53 
218 895 241 81 66 54 
219 895 241 79 65 53 
218 894 242 81 65 51 
219 894 242 77 62 49 
219 894 243 76 61 47 
219 895 242 78 63 51 
219 895 243 74 60 47 
218 892 244 77 62 50 
219 892 244 74 59 48 
219 892 245 74 60 48 
219 893 244 75 61 49 
219 893 245 74 60 48 
219 892 246 74 59 46 
219 894 244 75 60 46 
220 890 247 76 61 48 
220 891 246 72 57 44 
220 891 247 72 58 44 
220 892 246 71 57 44 
220 893 246 73 58 46 
220 894 244 74 60 46 
220 894 245 72 58 46 
220 895 244 72 58 45 
220 895 245 71 57 44 
220 894 246 72 58 45 
220 895 246 71 56 44 
221 895 246 73 58 45 
224 857 254 190 139 106 
224 857 255 183 131 98 
225 857 255 182 129 95 
224 858 255 166 117 87 
224 859 255 156 112 82 
224 864 254 123 82 55 
196 899 211 79 62 49 
197 899 210 70 55 34 
197 899 211 79 62 50 
198 897 211 83 65 55 
199 896 211 92 75 64 
199 897 211 92 75 64 
198 899 210 70 56 40 
199 899 210 76 61 48 
196 898 212 84 64 50 
196 898 213 83 62 48 
196 899 212 84 64 50 
197 898 212 85 69 61 
196 899 214 85 63 49 
197 898 215 97 70 50 
197 899 215 81 56 45 
198 896 212 92 74 63 
198 896 213 84 65 59 
199 896 212 92 75 64 
198 896 214 85 65 49 
198 897 215 88 65 47 
198 899 214 90 70 56 
196 900 210 85 62 42 
196 900 211 91 69 53 
197 900 211 79 65 47 
197 901 211 88 74 61 
197 900 213 79 64 48 
199 900 212 84 67 51 
199 900 213 81 66 51 
198 900 215 90 65 52 
198 901 215 92 66 55 
199 900 214 100 81 64 
199 900 215 99 76 57 
199 902 215 78 63 46 
195 898 217 102 78 58 
195 899 219 101 80 67 
193 899 220 102 78 60 
195 899 222 87 63 45 
195 899 223 83 64 51 
193 900 219 93 70 52 
195 900 217 94 70 57 
194 900 219 92 68 51 
195 900 218 93 72 57 
195 901 218 84 58 48 
195 901 219 81 60 48 
193 900 220 92 68 50 
193 900 221 89 64 47 
195 900 221 86 64 47 
194 900 223 91 67 52 
194 901 223 89 67 56 
195 900 222 94 71 57 
195 901 222 87 66 56 
195 901 223 95 76 65 
195 902 222 93 75 62 
195 902 223 97 78 65 
195 903 223 99 81 66 
197 897 216 89 68 48 
197 899 216 95 71 57 
196 899 218 102 79 59 
196 899 219 96 75 54 
198 896 216 86 66 47 
196 899 222 86 65 49 
196 899 223 89 68 55 
196 900 216 100 78 66 
196 900 217 90 67 54 
196 901 217 84 58 45 
197 900 216 101 76 66 
196 900 218 97 75 60 
197 901 218 84 57 45 
196 902 218 83 60 45 
197 902 218 83 57 46 
197 902 219 84 58 46 
198 901 216 90 63 51 
198 901 217 84 60 47 
199 901 216 87 69 54 
198 901 218 83 58 46 
198 902 217 83 58 47 
198 903 217 80 62 44 
199 902 217 83 62 50 
199 903 216 78 61 46 
198 902 218 84 60 46 
198 903 218 85 65 50 
199 902 218 86 65 52 
199 903 219 100 79 66 
196 900 221 84 64 51 
196 901 221 84 64 51 
197 900 221 92 70 51 
197 901 221 86 64 52 
196 900 222 86 67 52 
197 900 222 88 68 54 
197 900 223 86 66 52 
196 902 221 93 74 60 
197 902 221 91 70 58 
197 903 221 96 75 61 
196 902 222 87 68 56 
196 903 222 93 75 61 
198 901 221 90 70 53 
199 901 221 90 71 54 
198 900 222 87 68 54 
198 900 223 83 64 53 
198 901 222 86 68 50 
198 901 223 84 65 50 
199 901 222 88 67 46 
199 901 223 87 65 44 
198 902 220 99 79 70 
198 902 221 94 75 59 
198 903 220 95 76 66 
199 902 220 93 73 54 
199 902 221 90 67 46 
199 903 220 105 84 71 
199 902 222 91 68 46 
199 902 223 86 63 45 
195 904 223 91 74 58 
195 905 223 92 78 66 
195 907 220 72 58 46 
195 907 221 73 60 50 
194 907 222 77 61 50 
194 907 223 71 58 48 
195 908 218 70 56 45 
195 908 219 71 57 46 
195 909 218 68 54 43 
195 909 219 68 56 48 
195 908 220 64 52 41 
195 909 220 71 60 52 
194 908 222 70 58 49 
194 908 223 70 57 48 
194 909 222 66 52 40 
194 909 223 67 53 42 
195 910 221 67 56 46 
194 910 222 65 52 41 
197 905 217 86 70 54 
196 904 219 90 73 58 
196 905 218 89 72 59 
197 904 218 82 61 41 
197 906 217 85 70 56 
197 907 216 79 64 51 
196 906 218 87 70 58 
196 907 218 85 70 57 
197 906 219 86 71 58 
197 907 219 86 72 61 
198 904 217 89 73 56 
198 905 216 85 71 57 
198 905 217 85 69 52 
199 904 217 91 75 61 
199 905 216 95 81 68 
198 904 218 81 64 46 
198 904 219 98 81 70 
198 905 219 95 80 68 
199 904 219 100 85 74 
199 905 219 97 84 75 
198 906 216 85 72 60 
199 906 216 83 70 59 
199 907 216 82 69 59 
198 906 218 78 62 50 
198 906 219 85 69 57 
198 907 218 78 64 52 
198 907 219 75 60 49 
199 906 218 83 68 58 
199 907 218 76 62 51 
196 905 221 89 73 62 
197 904 221 101 81 70 
197 905 220 104 89 77 
197 905 221 93 78 66 
196 904 222 90 72 61 
196 904 223 91 75 62 
196 905 222 93 78 66 
196 905 223 88 73 60 
196 906 221 83 67 54 
197 906 220 95 81 70 
197 906 221 84 71 59 
197 907 220 75 62 52 
197 907 221 72 59 50 
196 906 222 81 68 59 
196 906 223 81 67 56 
196 907 222 77 66 60 
196 907 223 81 70 63 
197 907 222 71 61 53 
197 907 223 66 54 43 
198 904 220 97 78 67 
198 905 220 90 72 59 
196 908 217 72 58 45 
197 908 216 76 63 52 
197 908 217 74 62 52 
197 909 216 72 59 48 
197 909 217 74 60 49 
196 909 218 73 59 49 
197 910 217 69 55 44 
197 911 218 65 51 42 
197 911 219 64 53 44 
198 908 216 76 64 56 
198 909 216 73 61 50 
199 908 217 74 63 53 
199 909 216 70 59 49 
199 909 217 68 56 46 
198 908 219 71 58 51 
199 908 218 77 64 56 
199 908 219 67 54 45 
199 909 219 67 55 47 
198 910 217 69 56 46 
199 910 217 65 52 41 
198 910 218 66 53 43 
198 911 219 61 51 42 
199 910 218 66 54 46 
197 908 220 71 57 49 
197 908 221 62 47 36 
197 908 222 58 45 33 
197 908 223 56 45 35 
197 911 220 61 51 45 
198 908 220 69 57 48 
198 908 221 67 57 49 
199 908 220 74 63 58 
199 908 221 72 63 56 
199 909 220 73 62 56 
199 909 221 88 79 74 
198 908 222 70 63 57 
198 908 223 54 45 36 
199 908 222 71 65 60 
199 908 223 71 64 59 
198 911 221 59 50 43 
200 896 211 92 75 64 
202 901 210 78 62 46 
202 902 209 80 65 51 
203 903 209 78 63 49 
203 902 210 78 63 49 
203 902 211 75 59 41 
200 901 213 87 69 51 
201 901 212 81 63 47 
201 901 213 84 67 52 
201 900 214 89 72 57 
201 901 214 90 74 60 
200 903 213 71 56 39 
201 903 212 75 59 43 
200 902 215 76 61 45 
200 903 214 70 54 40 
200 903 215 78 62 47 
201 902 214 75 61 47 
201 902 215 77 61 49 
201 903 214 71 56 43 
202 900 213 89 72 56 
202 901 212 88 71 56 
202 902 212 83 68 54 
202 902 213 81 66 51 
202 903 213 74 56 46 
203 902 213 81 66 51 
202 902 215 72 52 43 
202 903 214 73 56 46 
203 902 214 77 61 44 
203 903 215 70 55 42 
204 903 209 78 63 48 
204 902 211 79 63 47 
204 903 210 75 58 41 
205 903 210 81 65 48 
205 903 211 82 65 47 
206 903 210 85 66 46 
206 903 211 85 68 50 
207 903 211 79 59 43 
205 901 214 89 71 52 
205 901 215 85 65 46 
204 902 212 80 65 49 
205 902 212 83 65 47 
204 902 214 78 62 44 
204 902 215 82 66 49 
205 902 215 82 64 48 
206 900 215 82 62 45 
206 902 213 83 65 45 
207 903 212 80 61 42 
206 902 214 85 69 52 
200 903 216 71 54 40 
200 903 217 76 59 44 
200 902 218 79 60 43 
200 903 219 94 77 64 
201 902 218 76 59 45 
203 902 216 77 61 43 
203 903 216 73 57 39 
202 902 218 83 67 53 
202 902 219 86 70 53 
203 902 218 73 57 39 
200 902 220 110 91 78 
200 902 221 109 86 72 
200 903 220 100 80 65 
201 903 220 103 84 72 
201 903 221 108 88 77 
200 902 222 99 74 58 
200 902 223 87 63 50 
200 903 223 95 72 59 
201 903 222 106 86 76 
201 903 223 104 80 73 
202 903 220 104 88 80 
202 903 221 117 97 88 
203 903 221 118 99 87 
202 903 222 112 89 82 
202 903 223 105 83 74 
203 903 222 97 79 65 
203 903 223 99 79 66 
205 901 216 86 68 49 
204 903 218 88 72 54 
204 903 219 89 74 58 
205 902 219 86 71 57 
206 901 217 80 62 41 
206 901 219 80 64 46 
207 900 219 87 68 48 
206 902 219 84 69 52 
206 903 219 79 63 46 
204 903 223 99 82 66 
207 901 220 89 70 54 
207 901 221 91 71 57 
207 902 221 117 85 72 
201 905 215 76 62 48 
200 906 215 79 66 56 
201 906 215 83 69 56 
202 904 215 71 55 39 
202 911 215 72 60 48 
203 911 214 73 59 46 
