ply
format ascii 1.0
comment Created by CloudCompare v2.10.1 (Zephyrus)
comment Created 1/31/20 10:54 AM
obj_info Generated by CloudCompare!
element vertex 2148
property float x
property float y
property float z
property uchar red
property uchar green
property uchar blue
end_header
176 195 316 36 47 57 
176 195 317 39 52 65 
177 194 317 39 52 71 
176 195 318 38 52 71 
177 194 318 39 52 72 
177 194 319 35 50 70 
177 195 318 35 50 71 
177 195 319 37 50 70 
176 196 316 37 48 58 
176 196 317 35 49 64 
176 197 317 31 47 66 
176 196 318 35 50 68 
176 196 319 37 50 70 
176 197 318 29 46 67 
176 197 319 33 47 67 
176 198 318 32 45 67 
176 198 319 33 44 67 
175 200 320 39 43 68 
175 201 320 42 45 68 
174 203 320 36 46 66 
175 202 320 44 46 68 
175 202 321 44 44 68 
173 206 320 33 43 68 
173 207 320 36 46 70 
173 207 321 44 47 73 
174 204 320 34 45 67 
174 204 321 40 42 66 
174 205 320 34 43 67 
174 205 321 39 40 68 
171 210 320 30 56 85 
171 211 320 29 55 86 
171 211 321 33 52 87 
170 212 320 37 55 85 
170 213 320 33 54 83 
171 212 320 36 55 86 
171 212 321 40 55 87 
171 212 322 46 53 86 
172 208 320 40 53 76 
172 209 320 39 54 81 
172 209 321 44 55 80 
173 208 320 41 51 73 
173 208 321 47 51 74 
173 209 321 47 53 78 
173 208 322 56 50 74 
173 209 322 59 52 76 
172 210 320 36 56 86 
172 210 321 44 55 84 
172 211 321 38 52 86 
172 211 322 49 50 82 
172 212 322 56 52 81 
177 194 320 38 50 70 
176 197 320 35 45 67 
176 198 320 37 43 64 
159 246 311 42 29 27 
159 247 310 36 33 33 
159 247 311 45 32 31 
159 245 313 61 28 30 
159 244 314 65 31 29 
159 245 314 65 25 33 
159 246 312 51 29 25 
158 247 315 67 28 34 
158 245 318 77 37 28 
158 245 319 77 38 30 
159 248 309 32 34 33 
159 248 310 32 32 31 
159 248 311 44 35 37 
158 250 311 43 29 35 
158 249 313 54 30 31 
158 248 314 65 33 31 
158 250 312 54 29 35 
157 248 319 80 37 30 
157 249 318 79 33 27 
157 249 319 80 36 27 
156 252 319 78 35 26 
167 221 303 56 37 44 
168 217 302 65 37 45 
168 217 303 63 39 36 
168 218 302 64 37 47 
168 218 303 62 36 37 
168 219 303 61 34 38 
167 219 305 66 34 26 
167 218 307 81 34 28 
167 219 306 71 35 27 
167 219 307 78 32 27 
167 217 308 79 35 33 
167 217 309 77 38 40 
167 217 310 75 37 43 
167 217 311 71 35 44 
167 218 308 81 36 33 
167 218 309 78 39 38 
167 219 308 82 31 27 
167 219 309 81 36 35 
166 219 310 78 30 42 
166 219 311 75 31 43 
167 218 310 75 38 43 
167 218 311 72 36 44 
167 219 310 77 37 40 
167 219 311 72 35 44 
167 220 304 59 33 34 
167 220 305 64 33 26 
167 221 304 55 37 37 
167 221 305 63 36 26 
167 220 306 71 35 31 
167 220 307 77 31 30 
167 221 306 74 30 25 
167 221 307 80 28 24 
166 223 305 54 31 35 
166 222 306 67 31 28 
166 222 307 77 30 30 
166 223 306 62 31 30 
166 223 307 73 26 28 
165 223 310 101 36 30 
165 223 311 100 38 36 
166 220 309 87 36 36 
166 221 308 87 33 24 
166 221 309 92 33 31 
167 220 308 84 32 28 
167 220 309 85 35 31 
166 220 310 84 36 37 
166 220 311 79 29 41 
166 221 310 89 33 38 
166 221 311 82 28 39 
166 222 308 83 33 28 
166 222 309 94 37 31 
166 223 308 82 30 26 
166 223 309 94 37 27 
166 222 310 95 34 40 
166 222 311 91 38 40 
166 223 310 99 35 34 
166 223 311 95 38 37 
167 217 312 60 36 46 
167 217 313 39 37 50 
167 217 314 27 41 52 
167 217 315 24 43 56 
166 219 312 70 37 46 
166 219 313 55 39 48 
167 218 312 65 36 45 
167 218 313 44 37 48 
167 219 312 68 38 46 
166 219 314 37 39 50 
166 219 315 30 40 52 
167 218 314 30 41 52 
167 218 315 27 42 54 
167 219 314 31 41 53 
167 219 315 29 42 53 
166 219 316 28 39 53 
167 218 316 25 41 59 
167 218 317 29 46 68 
167 219 316 28 41 56 
167 219 317 29 44 64 
167 219 318 34 48 75 
167 219 319 37 51 79 
165 223 312 92 39 30 
165 223 313 79 36 33 
165 223 314 62 34 35 
165 223 315 52 37 38 
166 220 312 77 34 44 
166 220 313 62 38 48 
166 221 312 77 31 39 
166 221 313 64 35 43 
166 220 314 42 38 48 
166 220 315 33 38 49 
166 221 314 46 37 47 
166 221 315 35 38 48 
166 222 312 82 34 37 
166 222 313 67 29 36 
166 222 314 50 31 40 
166 222 315 42 38 47 
166 223 315 43 38 45 
165 223 316 49 40 42 
165 223 317 48 40 45 
166 220 316 31 39 53 
166 220 317 33 42 57 
166 221 316 31 38 50 
166 221 317 38 44 59 
167 220 317 35 45 62 
166 221 318 42 49 68 
167 220 318 34 49 72 
167 220 319 39 50 76 
167 221 318 41 51 73 
167 221 319 42 52 77 
166 222 316 38 40 51 
166 222 317 41 43 58 
166 223 316 45 41 47 
166 223 317 50 42 51 
166 222 318 46 49 71 
166 223 318 57 48 63 
166 223 319 58 48 69 
167 222 319 50 52 76 
167 223 319 54 49 73 
168 215 309 75 37 45 
168 215 310 70 38 46 
168 215 311 64 38 49 
169 215 310 68 39 47 
169 215 311 60 38 50 
168 215 312 53 38 52 
169 215 312 48 40 54 
169 215 313 36 40 55 
169 214 315 33 42 62 
169 215 314 25 41 57 
169 215 315 28 42 58 
169 214 316 30 44 67 
169 214 317 27 49 76 
169 215 316 29 44 63 
169 215 317 28 50 73 
169 214 318 27 54 84 
169 214 319 30 54 85 
169 215 318 28 54 83 
169 215 319 33 54 84 
168 216 305 71 40 31 
168 217 304 64 40 32 
168 217 305 68 40 28 
168 216 306 77 38 33 
168 216 307 80 37 36 
168 217 306 74 39 30 
168 217 307 80 36 29 
168 218 304 63 37 30 
168 218 305 66 37 25 
168 219 304 62 33 29 
168 219 305 67 36 27 
168 218 306 69 37 28 
168 218 307 77 36 28 
168 216 308 77 37 40 
168 216 309 76 37 43 
168 217 308 80 37 34 
168 217 309 78 38 39 
168 216 310 73 37 44 
168 216 311 66 38 46 
168 216 312 54 38 49 
168 216 313 38 40 53 
168 216 314 25 43 56 
168 216 315 26 42 58 
168 217 314 25 42 54 
168 217 315 23 42 57 
168 216 316 28 44 61 
168 216 317 31 50 69 
168 217 316 24 43 61 
168 217 317 31 48 70 
169 216 317 32 52 73 
168 217 318 34 52 78 
168 217 319 38 52 81 
169 216 318 34 55 82 
169 216 319 32 53 83 
169 217 318 35 54 81 
169 217 319 35 51 82 
168 218 317 32 46 73 
168 218 318 33 48 79 
168 218 319 35 48 81 
168 219 318 34 49 80 
168 219 319 39 50 81 
169 218 319 38 49 81 
168 220 319 39 49 78 
163 231 311 80 36 47 
165 226 306 61 34 25 
165 226 307 73 34 27 
165 227 307 70 33 28 
166 224 305 57 33 34 
166 224 306 62 33 32 
166 224 307 73 28 30 
165 224 309 95 36 22 
165 225 308 86 32 25 
165 225 309 98 39 21 
165 224 310 101 36 21 
165 224 311 103 38 29 
165 225 310 102 39 20 
165 225 311 102 38 20 
165 226 308 85 34 30 
165 226 309 96 39 25 
165 227 308 81 33 31 
165 227 309 94 37 29 
164 227 310 101 39 23 
164 227 311 103 38 23 
165 226 310 102 40 20 
165 226 311 102 38 18 
165 227 310 102 41 22 
165 227 311 102 39 21 
164 231 305 23 39 55 
164 230 306 38 37 52 
164 230 307 51 37 48 
164 231 306 34 36 53 
164 231 307 48 36 49 
164 228 309 88 33 37 
164 229 308 66 31 44 
164 229 309 79 28 41 
165 228 308 76 31 39 
165 228 309 84 31 38 
165 229 308 73 27 43 
165 229 309 75 26 42 
164 228 310 100 38 32 
164 228 311 101 38 28 
164 229 310 89 37 39 
164 229 311 95 41 39 
164 230 308 63 36 48 
164 230 309 71 31 47 
164 231 308 59 37 49 
164 231 309 64 36 48 
164 230 310 79 36 44 
164 230 311 86 39 43 
164 231 310 73 38 50 
164 231 311 80 38 49 
163 230 312 89 34 43 
163 230 313 93 41 44 
163 231 312 83 35 48 
163 231 313 85 37 48 
163 230 314 91 47 38 
163 230 315 85 49 34 
163 231 314 87 46 48 
163 231 315 85 49 40 
163 230 316 72 39 25 
163 230 317 61 35 29 
163 231 316 77 44 34 
163 231 317 64 37 31 
163 230 318 60 35 40 
163 230 319 62 38 47 
163 231 318 60 37 36 
163 231 319 65 38 46 
165 224 312 98 39 21 
165 224 313 86 38 27 
165 225 312 101 40 19 
165 225 313 89 39 25 
165 224 314 73 37 29 
165 224 315 62 37 30 
165 225 314 78 37 27 
165 225 315 68 37 25 
164 227 312 100 40 29 
164 227 313 94 42 22 
165 226 312 101 41 20 
165 226 313 93 38 19 
165 227 312 100 42 24 
165 227 313 93 39 20 
164 227 314 82 35 18 
164 227 315 70 28 20 
165 226 314 81 35 21 
165 226 315 70 37 24 
165 227 314 81 30 17 
165 227 315 70 33 22 
165 224 316 56 40 34 
165 224 317 56 40 43 
165 225 316 60 39 27 
165 225 317 61 40 41 
165 224 318 61 41 49 
165 225 318 65 40 50 
165 225 319 68 39 53 
164 227 316 62 32 25 
164 227 317 59 36 32 
165 226 316 64 39 24 
165 226 317 63 40 36 
165 227 316 64 36 25 
165 227 317 63 39 34 
164 227 318 63 41 42 
165 226 318 66 40 48 
165 226 319 70 42 55 
165 227 318 64 39 46 
165 227 319 69 43 55 
166 224 317 56 38 47 
166 224 318 63 43 56 
166 224 319 65 45 62 
166 225 319 67 41 57 
164 228 312 100 41 33 
164 228 313 96 45 28 
164 229 312 98 39 40 
164 229 313 96 44 39 
164 228 314 86 41 19 
164 228 315 73 34 22 
164 229 314 91 48 30 
164 229 315 80 43 27 
164 230 312 91 36 43 
164 230 313 93 36 44 
164 228 316 64 33 28 
164 228 317 58 35 35 
164 229 316 67 35 27 
164 229 317 58 32 32 
164 228 318 62 40 41 
164 228 319 66 42 54 
164 229 318 61 40 44 
164 229 319 66 42 55 
165 228 319 69 43 58 
164 230 318 62 38 46 
164 230 319 65 41 53 
163 233 307 35 36 50 
163 232 309 60 33 49 
163 233 308 49 39 48 
163 233 309 57 38 50 
163 232 310 67 36 52 
163 232 311 75 33 49 
163 233 310 64 36 50 
163 233 311 75 39 53 
162 235 310 60 40 49 
162 237 307 31 39 59 
162 239 305 23 45 71 
162 238 306 26 43 65 
162 238 307 31 39 59 
162 239 306 24 47 69 
161 238 311 61 40 51 
161 239 310 49 37 50 
162 238 308 41 34 53 
164 232 306 30 37 53 
164 232 307 44 35 51 
164 232 308 56 36 48 
164 232 309 62 34 49 
164 232 310 67 33 49 
164 232 311 71 31 48 
162 233 313 77 33 47 
163 232 312 79 31 47 
163 232 313 82 33 48 
162 232 314 81 35 48 
162 232 315 79 44 47 
162 233 314 79 33 49 
162 233 315 76 39 47 
163 232 314 83 38 48 
163 232 315 81 44 43 
162 234 312 77 40 51 
162 234 313 79 39 50 
162 234 314 81 41 52 
161 234 317 72 48 52 
161 235 316 77 44 53 
161 235 317 75 49 54 
161 234 318 67 43 45 
161 234 319 66 40 38 
161 235 318 69 46 51 
161 235 319 68 43 45 
162 232 316 77 46 45 
162 232 317 69 42 40 
162 233 316 75 45 48 
162 233 317 69 44 47 
163 232 316 80 47 42 
163 232 317 68 41 36 
162 232 318 62 37 34 
162 232 319 65 39 41 
162 233 318 64 40 39 
162 233 319 64 37 36 
163 232 318 60 36 33 
163 232 319 64 38 42 
162 234 319 65 38 35 
161 236 314 78 37 48 
161 238 312 71 37 53 
160 237 318 74 45 55 
160 237 319 70 48 56 
161 236 319 69 45 50 
160 238 319 71 51 60 
161 241 307 36 45 62 
161 240 309 42 39 46 
161 241 308 35 43 53 
161 241 309 42 40 46 
161 240 310 47 38 45 
160 242 311 44 33 35 
160 243 310 37 32 33 
160 244 311 51 30 28 
159 240 320 67 48 59 
159 240 321 61 55 68 
159 241 320 72 49 60 
159 241 321 62 57 71 
158 243 321 71 43 52 
159 242 321 60 54 68 
159 243 321 58 51 63 
159 243 322 52 52 70 
157 247 321 77 41 36 
158 244 320 78 37 35 
158 244 321 69 39 47 
158 245 320 78 37 33 
158 245 321 69 40 44 
159 244 321 56 45 57 
158 245 322 53 48 57 
159 244 322 49 50 67 
159 245 322 48 49 63 
159 245 323 48 49 66 
158 246 321 71 41 43 
158 247 321 72 44 43 
158 246 322 53 46 55 
158 247 322 61 46 51 
159 246 322 48 49 61 
159 246 323 51 49 63 
159 247 323 51 49 61 
159 247 324 57 49 62 
155 255 321 76 38 33 
157 248 320 80 38 34 
157 248 321 76 43 38 
157 249 320 82 37 30 
157 249 321 77 40 36 
157 249 322 69 44 44 
156 251 321 78 37 31 
157 250 321 78 38 33 
156 251 322 77 38 33 
157 250 322 70 41 41 
157 250 323 61 41 51 
157 251 322 71 41 37 
157 251 323 58 43 51 
158 248 322 63 46 49 
158 248 323 51 47 55 
158 249 322 65 41 47 
158 249 323 51 46 54 
159 248 323 49 48 60 
159 249 323 46 48 60 
158 250 323 47 47 57 
158 251 323 45 48 59 
159 248 324 54 47 60 
159 249 324 51 48 61 
158 250 324 46 48 59 
158 251 324 45 48 61 
159 250 324 49 46 60 
159 251 324 50 47 60 
159 251 325 57 48 55 
156 252 320 78 38 25 
156 252 321 79 37 29 
156 253 321 80 41 32 
156 252 322 78 40 34 
156 253 322 77 42 40 
156 253 323 69 43 44 
157 252 322 72 44 40 
157 252 323 60 44 52 
157 253 322 75 43 41 
157 253 323 62 44 52 
156 254 321 81 43 37 
156 254 322 79 42 42 
156 254 323 71 44 48 
156 255 322 78 39 41 
156 255 323 69 43 51 
157 254 323 62 43 55 
157 252 324 47 46 57 
157 253 324 46 48 61 
156 255 324 57 42 57 
157 254 324 44 47 64 
157 254 325 37 49 67 
157 255 324 43 46 67 
157 255 325 34 49 70 
158 252 324 44 47 60 
158 252 325 46 45 61 
158 253 324 38 47 61 
158 253 325 46 46 62 
159 252 325 56 47 57 
159 253 325 50 45 58 
159 253 326 60 48 52 
158 254 325 45 48 64 
158 255 325 37 47 69 
158 255 326 45 47 64 
159 254 326 60 50 55 
159 255 326 62 50 53 
167 221 320 47 49 75 
167 222 320 51 49 74 
167 223 320 62 48 69 
167 223 321 70 44 65 
169 214 320 29 53 84 
169 215 320 36 52 83 
170 214 320 35 52 83 
170 214 321 41 51 81 
170 215 320 40 52 82 
170 215 321 43 49 79 
171 215 322 61 45 75 
169 216 320 41 50 81 
169 217 320 45 50 80 
168 219 320 40 48 81 
169 218 320 42 48 79 
169 218 321 50 48 76 
169 219 320 42 47 79 
169 219 321 53 49 76 
170 216 321 49 47 76 
170 217 321 53 47 75 
171 216 322 66 41 69 
170 218 321 54 44 73 
170 219 321 59 48 73 
170 219 322 64 46 72 
168 220 320 43 48 78 
168 221 320 50 49 75 
168 221 321 54 47 74 
169 220 321 56 47 72 
169 221 321 62 47 70 
169 221 322 70 46 66 
168 222 320 54 48 73 
168 222 321 60 46 70 
168 223 321 66 44 67 
168 223 322 80 41 58 
169 222 322 76 44 63 
169 223 322 87 39 53 
169 223 323 96 37 48 
170 220 322 69 46 67 
163 231 320 72 38 52 
163 231 321 78 40 58 
165 226 320 75 45 61 
165 227 320 73 44 59 
165 227 321 75 42 59 
166 224 320 68 43 64 
166 225 320 73 42 60 
166 225 321 77 40 58 
167 224 320 68 43 64 
167 224 321 76 43 63 
167 225 321 80 39 59 
167 224 322 82 40 58 
167 225 322 86 40 57 
166 226 320 75 42 59 
166 226 321 78 39 57 
166 227 321 78 42 57 
166 226 322 81 37 56 
166 227 322 83 41 53 
167 226 322 88 37 52 
167 227 322 93 38 47 
167 227 323 104 40 40 
164 228 320 72 45 60 
164 229 320 71 44 59 
164 229 321 74 46 61 
165 228 320 74 45 60 
165 228 321 75 43 59 
165 229 321 75 45 59 
165 228 322 77 42 54 
165 229 322 78 41 53 
164 230 320 70 43 59 
164 230 321 73 45 61 
164 231 320 72 40 58 
164 231 321 76 41 57 
165 230 321 74 45 60 
164 231 322 79 42 56 
165 230 322 80 43 53 
165 231 322 82 41 53 
165 231 323 92 36 46 
166 228 322 85 42 51 
166 229 322 87 39 50 
166 229 323 99 38 42 
167 228 322 97 41 44 
167 228 323 107 41 35 
167 229 323 109 40 33 
166 230 322 88 37 46 
166 230 323 98 35 41 
166 231 323 101 35 41 
167 230 323 111 38 28 
167 229 324 116 40 22 
166 231 324 111 36 35 
167 230 324 116 39 20 
161 235 320 70 40 41 
162 233 320 66 37 43 
163 232 320 69 37 48 
163 232 321 75 37 56 
163 233 320 70 38 47 
163 233 321 72 36 52 
163 233 322 78 39 57 
162 234 320 66 37 41 
162 234 321 70 40 52 
162 235 320 68 38 45 
162 235 321 72 43 54 
163 234 321 71 38 53 
162 235 322 75 43 59 
163 234 322 74 39 58 
163 235 322 77 41 59 
160 236 320 71 46 53 
160 237 320 70 48 57 
160 237 321 69 41 53 
161 236 320 71 41 47 
161 236 321 74 43 51 
161 237 321 73 41 52 
161 237 322 78 45 56 
160 238 320 70 55 63 
160 238 321 69 49 59 
160 239 320 68 57 65 
160 239 321 66 51 62 
161 238 321 71 42 54 
160 239 322 65 42 57 
161 238 322 76 43 56 
161 239 322 73 39 54 
162 236 321 75 44 55 
162 236 322 76 44 59 
162 237 322 79 44 58 
163 236 322 78 40 60 
163 236 323 84 41 57 
163 237 323 86 40 54 
162 238 322 80 43 57 
162 238 323 83 44 57 
162 239 323 83 42 53 
163 238 323 87 41 51 
163 239 323 87 40 49 
163 238 324 93 36 47 
163 239 324 94 37 48 
164 232 321 77 39 56 
164 232 322 80 39 55 
164 233 322 77 38 56 
164 233 323 85 36 52 
165 232 322 82 35 52 
165 232 323 93 35 46 
165 233 323 96 35 44 
164 234 322 81 38 54 
164 234 323 88 38 50 
164 235 322 81 37 52 
164 235 323 92 38 47 
165 234 323 101 36 43 
166 232 323 105 35 40 
165 233 324 105 35 36 
165 234 324 113 38 35 
165 235 324 114 38 34 
166 232 324 112 36 34 
166 233 324 117 35 27 
166 234 324 120 35 26 
166 234 325 125 35 26 
164 236 323 91 40 49 
164 237 323 95 39 47 
164 236 324 106 38 39 
164 237 324 110 37 38 
165 236 324 118 36 29 
165 236 325 126 35 24 
165 237 325 126 37 24 
164 238 324 108 36 42 
164 238 325 123 39 35 
164 239 324 113 38 43 
164 239 325 125 42 37 
165 238 325 130 41 29 
168 224 322 91 39 51 
168 225 322 97 38 47 
168 225 323 109 38 39 
168 226 322 103 37 41 
168 226 323 112 36 33 
168 227 323 115 37 31 
168 227 324 121 37 23 
160 240 321 59 51 66 
160 241 321 57 56 72 
160 240 322 66 47 61 
160 241 322 69 50 64 
161 240 322 72 39 55 
161 240 323 79 37 54 
161 241 323 78 40 56 
160 242 322 63 54 71 
160 242 323 71 47 63 
160 243 322 58 52 71 
160 243 323 68 48 64 
161 242 323 78 43 59 
162 240 323 83 40 52 
161 242 324 85 41 55 
161 243 324 86 43 57 
162 240 324 88 42 50 
162 241 324 87 39 50 
163 240 324 97 40 46 
163 241 324 98 39 43 
163 241 325 108 40 41 
162 242 324 89 39 50 
162 242 325 95 37 45 
162 243 324 93 41 52 
162 243 325 99 40 49 
163 242 325 109 39 37 
163 243 325 115 40 34 
160 244 323 63 48 64 
160 245 323 56 48 63 
160 244 324 79 45 59 
160 245 324 72 47 59 
161 244 324 87 40 55 
161 244 325 94 38 53 
161 245 324 88 41 55 
161 245 325 95 40 54 
160 246 324 68 46 59 
160 247 324 71 45 56 
161 246 325 99 41 55 
161 247 325 100 41 52 
162 244 325 104 38 48 
162 245 325 110 35 44 
163 244 325 119 42 37 
162 245 326 120 38 38 
163 244 326 127 43 33 
163 245 326 129 39 27 
162 246 325 113 39 48 
162 246 326 120 40 43 
162 247 326 122 41 42 
164 240 325 119 37 33 
164 241 325 121 37 28 
160 248 324 62 47 55 
160 248 325 76 47 51 
160 249 324 62 50 55 
160 249 325 76 49 45 
161 248 325 96 44 49 
161 249 325 91 44 44 
161 248 326 107 44 45 
161 249 326 103 45 38 
160 250 325 68 50 47 
160 251 325 61 48 47 
160 250 326 86 48 43 
160 251 326 83 49 44 
161 250 326 104 49 38 
161 251 326 107 50 38 
162 248 326 125 42 36 
160 252 326 81 47 44 
160 253 326 76 47 45 
160 253 327 93 46 39 
161 252 326 106 47 34 
161 252 327 114 47 34 
160 254 326 70 51 49 
160 254 327 88 49 43 
160 255 327 87 48 41 
155 259 317 67 25 30 
154 263 315 77 19 33 
154 260 319 74 23 28 
154 261 318 76 23 28 
154 261 319 77 26 27 
154 262 316 76 19 30 
154 262 317 78 24 31 
154 263 316 81 16 32 
154 263 317 83 21 33 
154 262 318 80 24 29 
154 262 319 79 27 26 
153 264 319 94 22 27 
155 256 321 71 34 33 
155 256 322 74 38 37 
155 257 322 70 37 39 
155 257 323 70 40 44 
154 259 321 75 30 33 
154 258 322 72 34 37 
154 259 322 75 33 34 
154 259 323 74 36 37 
155 258 322 72 36 40 
155 258 323 71 39 43 
155 259 323 70 38 42 
155 258 324 67 43 48 
155 259 324 67 43 52 
153 263 321 94 30 29 
153 262 322 94 32 36 
153 263 322 97 32 34 
153 263 323 98 33 40 
154 260 320 76 23 28 
154 260 321 77 26 32 
154 261 321 79 25 34 
154 260 322 78 33 36 
154 260 323 77 37 42 
154 261 322 85 31 37 
154 261 323 88 40 40 
155 260 323 72 37 44 
154 262 322 92 31 38 
154 262 323 96 40 40 
154 263 323 99 40 42 
154 261 324 88 41 39 
155 260 324 70 39 49 
155 260 325 50 46 64 
155 261 324 78 39 53 
155 261 325 66 45 63 
155 260 326 40 48 68 
155 261 326 53 49 69 
154 262 324 97 47 41 
154 262 325 90 46 57 
154 263 324 99 41 44 
155 262 325 82 47 64 
155 262 326 67 47 71 
156 256 322 79 36 39 
156 256 323 71 41 48 
156 257 323 70 38 46 
156 256 324 58 42 58 
156 257 324 56 43 58 
156 257 325 46 48 66 
157 256 324 43 47 68 
157 256 325 36 48 70 
157 257 325 40 49 70 
157 257 326 42 47 69 
156 258 324 57 46 59 
156 258 325 44 50 69 
156 259 325 44 49 68 
157 258 325 42 52 71 
156 258 326 42 52 71 
156 259 326 41 51 71 
157 258 326 43 48 68 
157 259 326 41 46 68 
158 256 325 36 47 71 
158 256 326 46 46 63 
158 257 326 46 46 62 
159 256 326 62 47 52 
159 256 327 68 46 46 
159 257 326 54 44 53 
159 257 327 62 45 48 
158 258 326 44 45 61 
158 258 327 50 45 57 
158 259 327 47 45 60 
159 258 327 60 45 48 
159 259 327 62 46 48 
156 260 325 41 49 69 
156 260 326 39 50 70 
156 261 326 42 49 68 
157 260 326 41 47 68 
157 260 327 41 47 66 
157 261 327 44 46 62 
156 262 326 60 48 69 
156 262 327 64 49 67 
157 262 327 56 44 58 
158 260 327 43 47 58 
158 261 327 44 43 48 
158 262 327 51 37 45 
158 263 327 71 35 48 
160 256 327 85 46 38 
170 213 321 41 54 83 
171 213 321 43 53 84 
171 213 322 51 50 83 
171 214 322 54 48 80 
151 211 287 61 51 39 
151 212 287 59 38 26 
153 209 285 62 55 47 
152 208 287 56 47 34 
152 209 287 58 51 41 
153 209 286 62 54 46 
153 209 287 59 52 43 
152 210 287 62 54 44 
152 211 286 62 50 35 
152 211 287 61 48 33 
153 210 286 64 55 45 
153 210 287 64 55 45 
153 211 286 61 42 29 
154 209 285 65 55 45 
155 209 285 64 52 43 
154 210 285 64 53 42 
155 210 285 64 49 40 
154 210 286 63 49 39 
154 210 287 63 51 38 
154 211 286 60 41 31 
154 211 287 62 36 33 
155 210 286 62 41 35 
155 211 287 59 33 29 
152 212 287 59 36 25 
152 213 287 58 28 20 
153 212 287 60 34 24 
154 212 287 59 38 28 
156 210 286 60 36 31 
156 210 287 59 33 31 
156 211 287 58 33 31 
157 210 286 58 39 29 
157 210 287 56 32 29 
151 208 289 59 39 22 
151 209 288 56 46 32 
151 209 289 57 43 27 
151 208 290 62 36 21 
151 209 290 59 38 23 
150 210 289 55 47 36 
150 211 289 57 51 44 
151 210 288 57 50 40 
151 210 289 55 46 34 
151 211 288 60 52 43 
151 211 289 56 50 42 
150 210 290 57 41 28 
150 211 290 56 47 39 
150 211 291 57 45 38 
151 210 290 57 40 27 
149 213 289 54 36 23 
149 213 290 60 51 43 
149 214 289 54 26 21 
149 215 289 55 22 20 
148 215 290 54 31 24 
149 214 290 55 39 29 
149 215 290 53 23 20 
150 212 289 59 50 41 
150 213 289 57 41 28 
151 212 288 59 43 32 
151 213 288 59 26 21 
151 213 289 58 29 21 
150 212 290 60 54 48 
150 214 289 56 24 21 
150 215 289 57 23 22 
151 214 288 59 25 21 
151 214 289 59 24 22 
151 215 289 58 24 23 
150 216 289 57 25 24 
151 216 289 53 26 24 
152 208 288 57 43 26 
152 208 289 60 38 21 
152 209 288 56 47 34 
152 210 288 57 49 38 
154 211 288 61 35 28 
155 211 288 56 32 26 
155 211 289 54 30 26 
152 213 288 61 24 22 
153 213 288 61 29 25 
152 214 288 58 26 23 
152 214 289 59 25 23 
152 215 289 54 22 23 
153 214 289 55 25 24 
153 215 289 54 26 25 
154 212 288 58 31 24 
154 213 289 54 31 26 
155 212 288 57 34 24 
155 212 289 53 31 25 
155 213 289 49 31 22 
154 214 289 51 31 24 
154 215 289 52 28 27 
155 214 289 47 28 22 
154 215 290 49 26 24 
155 214 290 47 28 22 
155 215 290 48 26 21 
155 215 291 48 27 22 
156 211 288 53 27 25 
157 211 288 53 25 25 
158 211 288 52 29 27 
158 211 289 51 27 24 
159 211 289 51 28 24 
156 212 288 50 27 24 
156 212 289 51 28 26 
156 213 289 48 29 25 
157 212 288 50 25 25 
157 212 289 48 26 25 
157 213 289 48 29 26 
157 212 290 49 29 27 
157 213 290 46 29 27 
156 214 290 47 29 27 
156 214 291 47 29 26 
156 215 291 46 28 26 
157 214 290 45 27 27 
157 214 291 48 27 25 
157 215 291 49 29 27 
158 212 289 48 27 24 
159 212 289 50 27 22 
158 213 290 49 30 25 
159 212 290 50 26 21 
159 213 290 54 31 24 
159 213 291 56 29 23 
158 214 291 51 28 24 
158 215 291 56 28 24 
159 214 291 57 28 23 
159 215 291 58 26 23 
157 215 292 51 31 27 
158 215 292 59 29 25 
159 215 292 69 28 21 
152 216 289 52 25 24 
153 216 289 51 25 26 
152 216 290 51 26 27 
153 216 290 48 24 26 
154 216 290 47 23 24 
154 216 291 45 24 21 
155 216 291 46 27 22 
155 216 292 46 27 22 
156 216 292 47 25 24 
157 216 292 54 28 25 
158 216 292 62 26 23 
159 216 292 69 30 22 
159 216 293 82 31 21 
160 211 290 60 28 26 
160 212 290 57 29 23 
160 212 291 67 31 27 
160 213 291 62 27 21 
161 212 291 79 28 23 
160 214 291 70 28 21 
160 213 292 81 30 21 
161 212 292 86 30 23 
161 213 292 89 32 22 
161 213 293 97 35 27 
160 214 292 88 29 20 
160 215 292 83 28 19 
160 215 293 91 29 18 
161 214 292 94 30 20 
161 214 293 99 29 22 
161 215 293 101 30 20 
161 215 294 104 34 17 
162 212 292 96 30 25 
162 212 293 102 30 23 
162 213 293 100 32 24 
163 212 293 106 32 20 
163 213 293 108 32 17 
162 214 293 103 30 23 
163 214 293 108 32 18 
162 214 294 108 36 16 
162 215 294 108 34 17 
162 215 295 110 35 17 
163 214 294 110 34 19 
163 215 294 110 33 18 
163 215 295 110 33 20 
164 213 293 110 30 17 
164 213 294 111 34 18 
165 213 294 111 34 17 
164 214 294 111 35 20 
164 215 294 110 35 20 
164 215 295 109 32 17 
165 214 294 110 34 18 
165 214 295 110 31 17 
165 215 295 110 31 18 
166 214 295 110 32 20 
167 214 295 111 30 24 
166 214 296 112 29 24 
166 215 296 112 26 22 
167 214 296 110 32 20 
167 215 296 110 29 21 
167 215 297 101 35 26 
167 215 298 88 34 35 
160 216 292 86 30 18 
160 216 293 94 29 20 
161 216 294 103 29 19 
161 216 295 105 31 17 
162 216 294 106 31 17 
162 216 295 108 34 17 
163 216 295 109 30 19 
164 216 295 109 31 18 
165 216 295 111 33 21 
163 216 296 109 30 18 
164 216 296 110 31 20 
164 217 296 111 33 22 
165 216 296 111 26 20 
165 216 297 112 24 25 
165 217 296 112 25 25 
165 217 297 111 26 27 
166 216 296 111 22 23 
166 216 297 109 26 21 
166 217 297 108 28 23 
167 216 297 101 34 25 
167 216 298 88 33 34 
167 216 299 66 29 43 
167 217 298 88 35 36 
167 216 300 64 36 49 
168 214 296 105 36 15 
168 214 297 92 31 30 
168 214 298 70 34 42 
168 215 298 77 32 38 
168 215 299 66 36 48 
168 215 300 64 38 51 
168 215 301 66 40 49 
168 216 299 68 31 42 
168 216 300 63 36 50 
168 216 301 65 38 49 
168 216 302 64 37 43 
168 216 303 63 40 37 
159 179 277 56 49 44 
159 180 277 58 50 44 
159 181 277 59 52 45 
159 182 277 58 50 43 
158 182 278 58 51 44 
158 183 278 56 49 43 
158 183 279 56 48 42 
159 182 278 59 51 44 
159 183 278 59 51 43 
157 185 279 53 45 37 
157 186 279 55 45 37 
158 184 279 55 48 40 
158 185 279 55 47 39 
159 184 278 61 52 43 
159 184 279 60 51 42 
159 185 279 60 50 41 
158 186 279 56 46 37 
158 187 279 59 45 34 
159 186 279 61 49 38 
159 187 279 65 45 30 
158 188 279 62 40 25 
159 188 279 70 39 20 
157 186 280 53 43 35 
157 187 280 56 42 35 
158 187 280 58 44 35 
156 189 281 62 42 23 
157 188 280 59 41 28 
157 188 281 59 42 29 
157 189 280 64 40 19 
157 189 281 63 41 21 
157 190 281 66 40 18 
156 190 282 64 40 20 
156 191 283 66 38 19 
157 190 282 66 38 18 
157 191 282 68 36 18 
158 188 280 62 40 24 
158 189 280 67 39 18 
159 189 280 72 37 18 
158 190 280 71 38 16 
158 190 281 71 34 17 
158 191 281 73 32 18 
159 190 280 75 35 18 
159 190 281 76 32 18 
159 191 281 76 32 18 
158 191 282 73 33 18 
156 191 284 65 39 22 
161 175 278 66 55 47 
162 175 277 64 57 53 
163 174 277 62 56 53 
163 175 276 63 56 52 
163 175 277 60 55 51 
162 174 278 72 62 53 
162 174 279 67 56 45 
162 175 278 64 54 48 
163 174 278 66 59 54 
164 174 277 64 57 52 
164 175 276 65 57 51 
164 175 277 62 56 51 
165 174 277 82 72 63 
165 175 276 68 59 54 
165 175 277 78 67 59 
166 174 277 89 78 67 
166 175 277 88 76 64 
167 174 277 88 76 65 
167 175 277 92 79 65 
168 174 277 87 73 60 
168 175 277 91 76 61 
169 174 277 89 75 59 
168 175 278 92 76 59 
169 174 278 88 73 55 
169 175 278 93 74 55 
170 174 277 85 73 62 
171 174 277 93 75 57 
170 174 278 93 74 54 
170 175 278 94 73 53 
171 174 278 94 74 53 
171 175 278 97 74 50 
172 174 277 96 76 56 
173 174 277 103 80 57 
172 174 278 97 75 52 
172 175 278 100 72 48 
173 174 278 104 78 49 
173 175 278 105 71 41 
173 175 279 110 69 30 
174 174 278 104 77 49 
174 174 279 107 75 42 
174 175 279 112 70 29 
174 174 280 110 69 30 
174 174 281 112 65 24 
174 175 280 115 66 27 
174 175 281 116 61 25 
175 174 281 112 63 24 
174 174 282 114 60 25 
174 174 283 115 57 21 
174 175 282 116 59 24 
174 175 283 117 59 25 
175 174 282 113 62 21 
175 174 283 116 56 14 
175 175 283 117 58 24 
174 175 284 118 58 23 
175 174 284 119 53 9 
175 175 284 121 53 9 
175 175 285 120 53 14 
163 176 275 69 60 52 
163 177 275 70 60 52 
162 178 275 71 61 52 
161 177 277 65 56 48 
160 177 278 60 51 43 
161 176 278 63 53 45 
161 176 279 65 55 47 
161 177 278 61 52 44 
160 178 277 59 51 44 
160 179 277 55 48 44 
161 178 276 66 57 51 
161 178 277 62 54 48 
161 179 276 62 54 48 
161 179 277 59 52 46 
160 178 278 57 49 42 
162 176 276 69 60 53 
162 176 277 67 58 52 
162 177 276 69 60 52 
162 177 277 68 59 51 
163 176 276 68 60 53 
163 177 276 70 61 52 
162 176 278 62 52 45 
162 178 276 70 60 52 
162 179 276 68 59 52 
163 178 276 70 60 52 
163 179 276 71 61 53 
163 179 277 71 61 53 
160 180 277 56 49 44 
160 181 277 57 49 42 
161 180 276 59 50 44 
161 181 276 61 53 47 
161 181 277 56 48 42 
160 182 277 56 49 41 
161 182 277 55 48 41 
160 182 278 57 49 41 
160 183 278 58 49 41 
161 182 278 56 48 40 
161 183 278 56 49 42 
162 180 276 65 57 50 
162 180 277 69 60 53 
162 181 276 63 55 49 
162 181 277 65 56 50 
163 180 277 70 61 53 
163 181 277 71 61 53 
163 181 278 73 62 52 
162 182 277 60 52 45 
163 182 277 66 56 49 
162 182 278 59 50 42 
162 183 278 60 49 39 
163 182 278 68 56 44 
163 182 279 72 56 41 
163 183 278 64 51 40 
163 183 279 71 54 39 
164 177 275 68 60 51 
164 176 276 65 57 51 
164 177 276 66 58 50 
164 177 277 65 57 50 
165 176 276 70 60 54 
165 176 277 75 64 55 
165 177 276 71 61 52 
165 177 277 74 63 53 
164 178 276 67 59 51 
164 178 277 67 58 51 
164 179 276 70 62 54 
164 179 277 72 62 53 
165 178 277 72 60 48 
165 179 277 73 60 49 
165 178 278 79 64 46 
165 179 278 82 60 43 
166 176 277 85 71 58 
166 177 277 82 68 52 
167 176 277 92 78 63 
167 177 277 88 74 59 
166 177 278 87 71 50 
167 176 278 94 79 63 
167 177 278 92 75 56 
166 178 278 83 66 46 
166 179 278 85 59 41 
166 179 279 88 56 40 
167 178 278 92 69 48 
167 178 279 96 66 46 
167 179 279 94 60 41 
164 180 277 74 63 52 
164 180 278 76 62 48 
164 181 278 77 62 48 
165 180 278 83 60 46 
165 180 279 88 53 42 
165 181 278 78 59 46 
165 181 279 86 58 42 
164 182 278 73 59 46 
164 182 279 78 57 38 
164 183 279 76 56 36 
165 182 279 85 56 38 
166 180 279 90 52 39 
167 180 279 96 58 35 
165 181 280 92 57 39 
164 183 280 80 56 32 
165 182 280 90 53 32 
165 183 280 88 52 28 
166 180 280 95 54 34 
166 181 280 97 56 31 
167 180 280 100 58 28 
167 181 280 102 55 20 
166 182 280 97 53 25 
166 182 281 101 54 22 
166 183 281 100 52 23 
167 182 280 104 54 17 
167 182 281 106 55 17 
167 183 281 108 54 18 
167 183 282 111 53 17 
160 184 278 60 50 42 
160 185 278 61 51 42 
160 185 279 63 51 41 
161 184 278 58 49 41 
161 184 279 62 48 37 
161 185 279 65 47 35 
160 186 279 66 50 35 
160 187 279 71 45 24 
161 186 279 70 48 29 
161 187 279 73 45 22 
162 184 278 59 48 39 
162 184 279 63 48 35 
162 185 279 68 47 31 
163 184 279 70 50 31 
163 185 279 70 46 25 
162 186 279 72 45 25 
160 188 279 74 38 20 
161 187 280 75 42 19 
163 185 280 73 46 22 
162 187 280 76 43 18 
163 186 280 75 45 20 
163 186 281 81 44 18 
163 187 280 77 42 18 
163 187 281 80 42 18 
160 189 280 76 38 17 
160 189 281 78 36 18 
161 188 280 78 40 17 
161 189 281 80 38 16 
160 190 281 78 33 18 
160 191 281 79 34 18 
161 190 281 79 36 17 
160 191 282 79 33 18 
161 191 282 80 36 17 
162 188 280 78 41 18 
162 188 281 79 39 18 
162 189 281 81 37 17 
163 188 281 81 38 18 
162 189 282 82 37 17 
163 188 282 83 37 18 
163 189 282 86 38 18 
162 190 281 82 38 17 
162 190 282 82 38 17 
162 191 282 83 35 19 
163 190 282 86 37 18 
163 191 282 85 36 19 
163 191 283 87 37 17 
164 184 280 81 54 25 
164 185 280 81 50 22 
164 185 281 84 46 18 
165 184 280 88 50 22 
165 184 281 92 47 20 
165 185 281 92 46 18 
164 186 280 83 46 19 
164 186 281 87 44 16 
164 187 281 85 42 17 
165 186 281 93 43 14 
164 187 282 88 41 16 
165 186 282 95 44 13 
165 187 282 95 43 14 
165 187 283 97 44 13 
166 184 281 102 46 18 
166 185 281 101 45 15 
167 184 281 107 52 14 
166 185 282 102 47 14 
167 184 282 110 51 14 
167 185 282 111 51 13 
166 186 282 102 46 12 
166 187 282 103 47 12 
166 187 283 109 49 11 
167 186 282 112 52 9 
167 187 283 112 52 10 
164 188 281 84 40 18 
164 188 282 89 41 17 
164 189 282 89 39 16 
164 189 283 91 40 15 
165 188 282 94 41 13 
165 188 283 96 42 15 
165 189 283 98 43 14 
164 190 282 88 39 16 
164 190 283 91 40 15 
164 191 283 91 39 15 
165 190 283 98 45 21 
166 188 283 107 49 16 
166 189 283 104 49 23 
167 188 283 113 51 11 
167 189 283 106 53 29 
166 190 283 107 47 12 
164 191 284 94 40 15 
165 190 284 99 45 21 
165 191 284 100 46 22 
167 189 284 110 52 21 
166 190 284 107 50 20 
166 191 284 106 50 22 
167 190 284 107 54 28 
167 191 284 107 60 38 
168 176 278 96 78 58 
168 177 278 98 74 56 
168 177 279 100 73 55 
169 176 278 98 73 54 
169 177 279 104 72 53 
168 178 279 101 70 50 
168 179 279 101 63 37 
169 178 279 107 69 44 
169 179 279 106 65 33 
170 176 278 99 70 52 
170 177 279 107 70 48 
171 176 278 100 69 47 
171 176 279 101 65 40 
171 177 279 106 68 40 
170 178 279 110 68 34 
171 178 279 108 65 30 
168 180 279 101 61 31 
172 176 278 100 68 44 
172 176 279 104 65 33 
172 177 279 107 64 27 
173 176 279 109 63 26 
173 177 279 111 60 23 
172 178 279 110 63 25 
174 176 279 112 63 25 
169 179 280 111 64 27 
170 178 280 111 63 23 
170 179 280 112 59 21 
171 178 280 112 62 24 
171 179 280 114 56 22 
171 179 281 115 55 23 
168 180 280 104 57 22 
168 181 280 106 54 20 
168 181 281 110 55 20 
169 180 280 110 59 21 
169 181 280 112 55 19 
169 181 281 115 55 19 
168 182 281 111 55 19 
168 183 281 112 54 18 
169 182 281 115 55 20 
169 183 281 115 53 20 
168 183 282 113 51 17 
169 183 282 116 52 17 
170 180 280 115 56 20 
170 180 281 116 56 19 
170 181 281 116 55 18 
171 180 280 116 56 22 
171 180 281 116 56 20 
171 181 281 118 54 19 
171 181 282 119 55 20 
170 182 281 118 53 20 
170 183 281 117 53 20 
171 182 281 118 53 20 
170 182 282 118 54 20 
170 183 282 118 54 18 
171 182 282 118 56 20 
171 182 283 118 57 19 
171 183 282 118 56 19 
171 183 283 119 57 18 
171 183 284 119 57 16 
171 183 285 120 56 17 
173 177 280 114 59 24 
173 177 281 117 58 24 
173 177 282 119 56 21 
172 178 280 113 58 22 
172 178 281 115 52 20 
172 179 281 116 54 22 
173 178 280 115 55 22 
173 178 281 115 55 21 
172 179 282 117 53 19 
173 178 282 116 56 21 
173 178 283 117 58 20 
173 179 282 117 53 18 
173 179 283 118 55 18 
174 176 280 115 61 25 
174 176 281 117 60 26 
174 177 280 117 60 26 
174 177 281 118 58 25 
174 176 282 119 62 27 
174 176 283 118 61 24 
174 177 282 118 61 25 
174 177 283 118 63 24 
174 178 283 116 62 23 
173 179 284 119 58 17 
174 176 284 119 60 24 
174 177 284 118 61 21 
174 177 285 118 58 17 
175 176 284 118 58 22 
175 176 285 120 55 15 
175 177 285 119 56 12 
175 176 286 121 54 13 
175 177 286 120 52 13 
175 177 287 119 53 15 
174 178 284 117 59 18 
174 178 285 118 56 17 
174 179 284 118 58 17 
174 179 285 118 57 15 
174 179 286 120 57 9 
175 178 286 119 58 12 
175 178 287 119 55 11 
175 179 286 120 58 7 
175 179 287 119 56 6 
172 180 281 117 54 19 
172 180 282 118 53 18 
172 180 283 119 53 18 
172 181 282 119 54 19 
172 181 283 120 56 19 
173 180 283 120 54 18 
172 182 282 119 57 19 
172 182 283 120 58 19 
172 181 284 120 57 19 
173 180 284 121 55 16 
173 180 285 120 53 15 
173 181 284 121 54 14 
173 181 285 121 52 12 
172 182 284 120 56 16 
172 182 285 121 55 16 
172 183 284 120 57 16 
172 183 285 120 54 15 
173 182 285 121 52 12 
172 182 286 120 49 7 
172 183 286 120 51 10 
173 182 286 122 54 10 
173 183 286 121 54 7 
173 183 287 119 56 13 
174 180 285 119 54 15 
174 181 285 119 53 10 
174 180 286 121 57 6 
174 181 286 121 54 9 
174 181 287 121 58 2 
175 180 286 121 59 5 
175 180 287 121 58 5 
175 181 287 121 59 7 
174 182 286 121 56 12 
174 182 287 121 56 10 
174 183 287 120 56 10 
175 182 287 122 59 10 
168 184 282 114 50 16 
168 185 282 114 50 14 
169 184 282 116 53 15 
169 184 283 116 53 15 
169 185 282 116 53 15 
169 185 283 117 53 15 
168 186 282 114 51 13 
168 186 283 115 51 11 
168 187 283 115 52 10 
169 186 283 116 53 15 
169 187 283 116 52 15 
170 184 282 117 55 16 
170 184 283 118 55 16 
170 185 283 118 55 16 
171 184 283 119 56 15 
168 187 284 114 52 16 
169 186 284 117 53 16 
169 187 284 115 53 15 
170 185 284 118 56 16 
170 185 285 117 56 16 
171 184 284 119 57 16 
171 184 285 120 55 14 
171 185 285 119 56 14 
171 184 286 118 56 12 
171 185 286 118 55 14 
170 186 284 118 55 16 
170 186 285 118 57 18 
170 187 285 116 58 28 
170 187 286 114 64 43 
171 186 286 117 59 21 
171 187 286 114 66 44 
168 188 283 114 51 10 
168 188 284 113 52 14 
168 189 284 111 58 31 
169 188 284 113 56 25 
169 188 285 115 59 30 
169 189 284 112 62 41 
168 190 284 108 64 47 
168 191 284 107 69 58 
169 190 284 110 68 54 
169 190 285 110 70 55 
169 191 284 105 71 61 
169 191 285 105 74 64 
170 188 285 114 64 42 
170 189 285 111 68 52 
171 188 286 111 72 57 
171 188 287 109 78 63 
171 189 286 108 76 60 
171 189 287 106 80 66 
170 190 285 108 73 58 
170 191 285 103 79 66 
171 191 285 103 82 73 
171 190 286 106 79 65 
171 190 287 106 82 72 
171 191 286 105 81 72 
172 184 286 118 53 15 
172 184 287 116 54 25 
172 185 286 114 59 32 
172 185 287 112 62 43 
173 184 287 115 57 24 
172 186 286 113 65 46 
172 186 287 111 71 56 
172 187 287 109 77 66 
172 188 287 108 82 71 
172 189 287 105 81 71 
172 190 287 106 82 73 
172 191 286 106 82 74 
172 191 287 107 80 73 
173 191 287 104 80 72 
176 174 284 120 53 6 
176 174 285 121 55 5 
176 175 285 121 51 9 
176 174 286 121 55 6 
176 175 286 121 54 8 
176 175 287 119 57 8 
177 174 286 122 55 5 
177 174 287 120 57 7 
177 175 287 120 58 7 
176 176 286 121 53 8 
176 176 287 119 57 7 
176 177 287 119 54 11 
176 178 287 118 53 9 
176 179 287 119 53 6 
173 183 288 116 58 24 
175 181 288 119 57 5 
175 181 289 114 58 19 
174 182 288 119 59 16 
174 183 288 117 61 27 
174 183 289 114 66 45 
175 182 288 119 59 11 
175 182 289 113 63 31 
175 183 289 111 72 53 
175 182 290 105 68 50 
175 183 290 106 74 60 
173 184 288 113 66 45 
173 185 288 109 70 56 
173 185 289 108 74 63 
173 186 288 107 74 64 
173 186 289 106 78 70 
173 187 288 106 80 72 
173 187 289 103 83 77 
174 184 288 113 68 49 
174 184 289 110 73 58 
174 185 289 109 76 67 
174 184 290 106 76 65 
174 185 290 106 81 74 
175 184 290 104 74 60 
175 184 291 99 74 66 
175 185 290 102 78 70 
175 185 291 98 73 69 
174 186 289 105 81 76 
174 187 289 102 81 76 
174 186 290 101 79 75 
174 187 290 101 81 75 
175 186 290 96 79 76 
175 186 291 86 71 71 
175 187 290 86 77 77 
175 187 291 80 66 65 
173 188 288 105 84 78 
173 188 289 103 82 79 
173 189 288 105 85 78 
173 189 289 105 81 76 
172 191 288 108 82 74 
173 190 288 108 81 72 
173 190 289 104 80 72 
173 191 288 107 75 66 
173 191 289 92 67 61 
174 188 289 92 77 76 
174 189 288 104 83 76 
174 189 289 90 69 67 
174 188 290 85 70 68 
174 189 290 81 60 56 
175 188 290 83 68 65 
175 188 291 75 54 52 
175 189 290 78 54 48 
175 189 291 70 40 35 
174 190 289 87 65 61 
174 191 289 88 51 44 
174 190 290 75 47 42 
174 190 291 72 42 30 
174 191 290 76 45 40 
174 191 291 72 34 25 
175 190 290 70 35 26 
175 190 291 69 38 26 
175 191 290 70 34 26 
175 191 291 71 36 26 
175 189 292 59 28 31 
175 190 292 65 34 29 
175 191 292 68 38 29 
175 191 293 60 38 31 
177 174 288 119 58 5 
177 175 288 119 58 4 
177 175 289 120 59 3 
178 174 288 118 56 5 
178 174 289 119 56 6 
178 175 289 121 57 6 
178 174 290 120 52 7 
178 175 290 120 54 6 
178 175 291 120 53 6 
179 174 290 120 49 7 
179 174 291 119 50 10 
179 175 291 118 53 9 
179 174 292 115 54 19 
179 175 292 115 54 16 
180 174 292 114 51 17 
180 174 293 108 58 27 
180 175 292 111 55 21 
180 175 293 103 63 39 
176 176 288 119 58 5 
176 177 288 119 54 6 
177 176 288 120 56 5 
177 176 289 120 55 6 
177 177 288 119 53 7 
177 177 289 120 53 6 
177 176 290 121 54 9 
177 177 290 121 52 6 
176 178 288 118 51 8 
176 179 288 120 50 7 
176 179 289 120 49 9 
177 178 288 119 51 8 
177 178 289 120 50 7 
177 179 289 119 50 8 
177 178 290 119 52 7 
177 179 290 115 53 13 
177 179 291 111 56 21 
178 176 290 121 55 7 
178 176 291 119 56 6 
178 177 290 120 56 5 
178 177 291 117 57 8 
179 176 291 117 55 8 
179 177 291 113 55 13 
178 178 290 117 55 10 
178 178 291 111 58 19 
178 179 291 105 59 30 
179 176 292 110 57 21 
179 177 292 106 61 29 
179 177 293 98 73 55 
178 178 292 102 67 45 
178 179 292 97 74 62 
178 179 293 95 83 78 
179 178 292 102 67 46 
179 178 293 95 84 76 
179 179 293 91 83 80 
178 178 294 94 84 78 
179 178 294 91 84 79 
176 180 288 120 54 8 
176 180 289 117 52 9 
176 181 288 120 55 10 
176 181 289 113 58 20 
177 180 289 118 52 8 
176 180 290 108 57 27 
176 180 291 106 62 36 
176 181 290 108 60 33 
176 181 291 102 67 51 
177 180 290 112 55 16 
177 180 291 103 64 40 
177 181 291 97 74 57 
176 182 290 102 68 52 
176 182 291 99 76 66 
176 183 290 98 75 66 
176 183 291 89 79 72 
177 182 291 91 80 72 
177 180 292 95 79 66 
177 181 292 88 75 63 
176 183 292 86 77 71 
177 182 292 87 78 73 
177 183 292 83 75 73 
178 180 292 95 78 69 
178 180 293 91 81 76 
178 181 292 89 80 73 
178 181 293 82 75 74 
178 181 294 73 62 63 
178 182 293 78 70 69 
178 183 293 72 55 56 
178 182 294 70 52 58 
178 183 294 70 41 49 
176 184 290 101 79 69 
176 184 291 88 78 77 
176 185 291 83 71 75 
177 185 291 79 69 75 
176 186 291 77 65 69 
176 187 291 73 55 57 
176 185 292 75 57 64 
177 184 292 79 67 69 
177 184 293 72 52 54 
177 185 292 74 55 62 
177 185 293 69 36 47 
177 185 294 72 28 45 
176 186 292 69 49 56 
176 187 292 66 39 48 
176 187 293 65 36 46 
177 186 292 68 39 51 
177 186 293 66 32 45 
177 187 293 65 34 46 
177 186 294 71 29 43 
177 186 295 75 34 47 
177 187 294 69 34 43 
176 188 291 69 41 42 
176 189 291 67 37 29 
176 188 292 64 31 40 
176 188 293 62 33 43 
176 189 292 59 28 33 
176 189 293 59 30 38 
176 189 294 60 34 41 
176 190 292 59 28 31 
176 190 293 55 30 35 
176 191 293 54 35 37 
176 190 294 56 35 43 
176 190 295 59 40 46 
176 191 294 54 36 45 
156 192 283 69 32 17 
156 193 283 72 27 18 
157 192 282 71 33 18 
157 192 283 69 32 17 
157 193 282 74 30 17 
157 193 283 73 29 18 
157 194 283 75 30 20 
158 192 282 74 32 18 
158 193 282 75 30 18 
158 193 283 76 31 20 
159 192 282 75 31 18 
159 193 282 76 31 20 
159 193 283 77 32 21 
158 194 283 76 31 20 
159 194 283 78 30 20 
159 195 283 78 30 19 
156 192 284 69 33 17 
156 193 284 71 30 18 
156 193 285 71 29 17 
156 194 284 72 30 20 
156 194 285 72 31 19 
156 195 285 73 33 21 
157 194 284 73 30 20 
157 195 284 74 31 20 
157 195 285 74 32 20 
156 194 286 72 33 19 
156 195 286 73 34 20 
156 195 287 73 34 19 
158 195 284 76 31 19 
159 194 284 79 30 20 
159 195 284 78 33 19 
157 196 285 74 34 18 
156 196 286 74 33 19 
156 196 287 72 33 19 
156 197 287 72 33 18 
157 196 286 73 34 18 
157 197 286 73 34 17 
157 197 287 72 34 16 
157 198 287 72 35 16 
157 199 287 74 34 16 
158 196 284 76 33 18 
158 196 285 75 34 17 
158 197 285 75 35 16 
159 196 284 77 33 18 
159 196 285 78 35 16 
159 197 285 77 36 15 
158 197 286 75 36 16 
158 198 286 74 36 16 
158 198 287 73 36 16 
158 199 287 76 34 16 
159 198 286 78 36 16 
159 199 286 78 33 17 
153 207 287 61 40 26 
154 206 287 63 39 23 
154 207 286 58 48 37 
154 207 287 60 42 28 
155 206 287 62 44 31 
155 207 286 61 52 42 
155 207 287 62 48 36 
158 200 287 76 31 17 
159 200 286 78 34 17 
159 200 287 77 33 17 
159 201 287 77 38 22 
156 207 285 65 58 51 
156 206 287 63 49 40 
156 207 286 65 57 48 
156 207 287 64 54 44 
157 206 287 64 54 43 
157 207 286 68 60 52 
157 207 287 68 60 52 
158 207 287 66 56 46 
159 207 287 61 46 38 
153 208 286 60 53 44 
153 208 287 59 47 35 
154 208 285 64 56 47 
155 208 285 65 56 48 
154 208 286 60 51 41 
156 208 285 67 58 49 
156 209 285 64 55 45 
156 208 286 68 60 51 
156 209 286 63 50 39 
157 208 286 65 56 45 
157 209 286 61 45 32 
157 209 287 58 37 31 
158 208 287 57 42 34 
158 209 287 55 36 33 
159 208 287 58 40 34 
159 209 287 57 34 30 
158 210 287 52 31 29 
151 207 289 62 35 20 
155 197 288 72 31 19 
155 197 289 71 31 19 
155 198 289 71 33 18 
155 199 289 70 32 17 
155 198 290 71 32 18 
155 199 290 71 32 17 
155 199 291 70 32 17 
156 196 288 72 32 19 
156 197 288 72 33 18 
156 198 288 71 34 17 
156 198 289 71 32 17 
156 199 289 72 33 16 
157 198 288 72 34 16 
157 199 288 73 33 16 
156 199 290 72 33 16 
153 203 290 70 31 17 
154 201 291 72 31 18 
155 200 290 72 31 16 
155 200 291 72 31 17 
155 201 290 73 31 17 
155 201 291 73 31 17 
155 203 289 72 29 17 
154 202 291 71 30 18 
154 203 290 71 31 17 
154 203 291 71 30 17 
155 202 290 73 31 17 
155 202 291 73 30 17 
155 203 290 72 30 17 
153 204 289 71 31 17 
153 205 289 69 30 18 
153 204 290 70 31 17 
153 205 290 70 31 17 
152 206 289 66 32 18 
152 207 288 62 38 21 
152 207 289 63 35 19 
153 206 288 67 34 19 
153 206 289 67 31 17 
153 207 288 63 37 21 
152 206 290 66 32 19 
152 207 290 66 33 19 
154 204 289 71 30 17 
154 205 288 68 33 20 
154 205 289 70 31 18 
155 204 289 72 31 18 
155 205 288 67 36 23 
155 205 289 70 33 19 
154 204 290 71 31 17 
154 206 288 65 35 20 
155 206 288 64 37 24 
155 207 288 63 45 32 
156 200 289 73 31 17 
156 201 289 74 31 17 
157 200 288 74 31 17 
157 201 289 75 30 18 
156 200 290 72 32 16 
156 201 290 74 31 17 
156 202 289 74 29 18 
156 203 289 73 30 18 
157 202 289 75 32 19 
157 203 289 73 33 18 
156 202 290 74 31 18 
156 203 290 73 27 18 
158 200 288 75 30 17 
158 201 288 77 32 18 
159 201 288 77 32 19 
158 202 288 75 38 22 
158 202 289 75 36 22 
158 203 288 71 39 23 
158 203 289 71 36 18 
159 202 288 74 39 24 
159 203 288 70 42 28 
156 204 289 72 31 20 
156 205 288 66 36 28 
156 205 289 68 32 21 
157 204 289 69 36 21 
157 205 288 65 41 31 
157 205 289 66 40 25 
156 206 288 64 43 34 
157 206 288 65 48 39 
158 204 289 68 42 25 
158 205 288 68 49 35 
159 204 288 69 51 39 
159 205 288 68 56 46 
158 206 288 68 55 46 
158 207 288 67 56 45 
159 206 288 65 51 43 
159 207 288 62 46 39 
159 208 288 57 35 30 
159 209 288 55 36 31 
158 210 288 52 26 23 
159 210 288 50 31 27 
160 192 282 77 33 18 
160 193 283 78 31 21 
161 192 282 80 33 19 
161 192 283 81 34 20 
161 193 283 81 33 19 
160 194 283 79 31 21 
162 192 283 84 35 20 
162 193 283 83 36 18 
163 192 283 87 37 17 
161 193 284 82 36 19 
160 194 284 80 31 20 
160 195 284 80 34 19 
160 195 285 81 34 17 
161 194 284 83 34 18 
161 194 285 84 35 18 
161 195 285 85 36 16 
162 193 284 86 36 17 
163 192 284 89 37 15 
163 193 284 90 37 15 
163 193 285 93 37 14 
162 194 284 85 36 17 
162 194 285 88 36 16 
162 195 285 88 35 15 
163 194 285 92 38 15 
163 195 285 92 39 15 
160 196 285 80 35 16 
160 197 285 81 35 16 
161 196 285 86 35 16 
161 197 285 84 34 16 
161 198 285 85 36 17 
160 198 286 81 37 17 
160 199 286 80 37 17 
161 198 286 84 38 20 
161 199 286 82 41 24 
162 196 285 89 35 17 
162 197 285 85 35 18 
163 196 285 89 39 18 
163 197 285 86 45 28 
162 198 285 83 42 24 
163 198 285 82 51 37 
163 199 285 80 53 38 
162 198 286 84 40 22 
162 199 286 81 47 29 
163 199 286 80 59 48 
164 192 284 93 38 16 
164 193 284 94 37 14 
164 193 285 96 40 15 
165 192 284 99 45 22 
165 192 285 97 48 30 
165 193 285 96 53 38 
164 194 285 95 41 17 
164 195 285 92 44 22 
165 194 285 95 60 48 
164 195 286 91 51 36 
165 195 286 98 59 46 
166 192 284 105 53 30 
166 192 285 106 53 30 
166 193 285 100 64 53 
167 192 284 109 64 49 
167 192 285 108 64 49 
167 193 285 107 68 55 
166 194 285 97 69 62 
166 195 285 93 75 72 
167 194 285 105 68 58 
167 195 285 97 77 68 
166 194 286 96 69 63 
166 195 286 92 74 72 
164 196 285 88 47 29 
164 197 285 83 53 40 
164 196 286 87 57 46 
164 197 286 85 60 51 
165 196 286 92 65 56 
165 197 286 87 73 66 
164 198 285 82 61 53 
164 199 285 82 71 67 
165 198 285 86 74 70 
164 198 286 81 63 56 
164 199 286 79 65 59 
165 198 286 89 81 77 
165 199 286 87 75 72 
166 196 285 93 82 80 
166 197 285 95 82 78 
167 196 285 93 85 81 
166 196 286 96 76 72 
166 197 286 93 78 74 
167 196 286 93 81 76 
167 197 286 92 76 70 
166 198 285 92 80 75 
166 198 286 92 82 78 
166 199 286 80 64 60 
167 198 286 85 71 64 
167 199 286 81 50 44 
160 200 286 79 39 24 
160 200 287 78 35 19 
160 201 286 77 43 27 
160 201 287 76 41 27 
161 200 286 81 44 27 
161 201 286 78 52 38 
160 202 287 73 46 33 
160 203 287 72 55 43 
161 202 286 75 61 52 
161 202 287 74 59 50 
161 203 287 69 57 49 
162 200 286 79 54 37 
162 201 286 78 61 48 
163 200 286 80 65 56 
163 201 286 79 67 58 
162 202 286 74 64 56 
162 203 287 66 50 44 
163 202 286 71 58 53 
163 203 287 69 41 36 
161 204 287 67 49 43 
162 204 287 69 45 38 
163 204 287 71 35 32 
164 200 286 82 72 67 
164 201 286 75 58 52 
165 200 286 79 61 56 
165 201 286 75 40 34 
165 201 287 79 34 32 
164 202 286 73 50 44 
164 202 287 73 39 33 
164 203 287 74 37 30 
165 202 287 81 32 30 
165 203 287 83 36 28 
166 200 286 78 48 43 
166 201 286 81 40 36 
166 201 287 86 33 31 
167 200 286 84 41 33 
167 200 287 90 36 27 
167 201 287 97 36 27 
166 202 287 92 35 31 
168 192 284 105 71 63 
168 193 284 104 73 64 
168 193 285 105 71 60 
169 192 284 99 76 66 
169 192 285 97 82 73 
169 193 284 97 83 75 
169 193 285 96 84 77 
168 194 285 103 73 61 
168 195 285 99 76 68 
169 194 285 96 85 80 
169 195 285 100 81 78 
170 192 284 98 80 71 
170 192 285 95 85 78 
170 193 285 96 83 76 
171 192 285 104 82 75 
171 192 286 103 81 75 
171 193 286 101 83 77 
170 194 285 98 83 77 
170 194 286 102 83 79 
170 195 286 106 77 75 
171 194 286 105 79 73 
