ply
format ascii 1.0
comment Created by CloudCompare v2.10.1 (Zephyrus)
comment Created 1/30/20 5:14 PM
obj_info Generated by CloudCompare!
element vertex 2110
property float x
property float y
property float z
property uchar red
property uchar green
property uchar blue
end_header
363 59 196 144 114 87 
360 60 194 149 119 94 
361 60 194 150 120 95 
361 60 195 150 120 95 
362 60 195 149 118 92 
362 61 195 149 118 92 
362 60 196 147 115 89 
362 61 196 147 116 89 
363 60 196 145 114 88 
363 61 196 146 115 88 
363 61 197 145 116 89 
364 56 195 141 116 90 
364 57 195 143 117 90 
364 57 196 142 116 90 
365 56 196 140 115 90 
365 57 196 142 116 90 
365 57 197 142 116 91 
364 58 196 143 116 89 
364 59 196 143 115 88 
364 59 197 144 116 89 
365 58 196 143 116 90 
365 58 197 143 117 91 
365 59 197 145 118 91 
365 59 198 147 120 94 
366 56 196 140 116 90 
366 56 197 139 114 89 
366 57 197 141 116 90 
366 57 198 140 115 89 
367 56 198 138 113 87 
367 57 198 139 114 88 
367 57 199 140 115 90 
366 58 197 143 117 91 
366 58 198 143 117 91 
366 59 198 146 120 94 
366 59 199 147 121 95 
367 58 198 141 116 90 
367 58 199 141 116 91 
367 59 199 143 117 92 
364 60 197 145 116 89 
364 61 197 145 117 90 
365 60 197 145 118 91 
364 61 198 146 118 91 
365 60 198 148 121 95 
365 61 198 148 121 95 
365 61 199 150 124 99 
365 62 198 147 122 97 
365 62 199 148 122 98 
366 60 199 149 123 98 
366 61 199 150 125 100 
366 62 199 149 124 99 
367 59 200 143 118 92 
366 61 200 150 124 99 
367 60 200 146 121 96 
367 61 200 147 122 97 
367 61 201 145 121 98 
366 62 200 148 124 100 
367 62 200 145 121 99 
367 62 201 142 119 97 
367 63 201 138 115 93 
368 32 193 122 98 70 
368 33 193 125 101 73 
369 32 193 124 99 70 
369 33 193 129 103 74 
368 32 194 120 98 72 
368 34 192 131 105 77 
368 34 193 128 103 75 
368 35 192 134 108 80 
369 34 192 135 108 80 
369 34 193 132 106 77 
369 35 192 140 111 85 
369 35 193 141 112 87 
370 32 193 130 105 77 
370 33 192 133 108 80 
370 33 193 134 109 81 
371 32 193 134 107 82 
371 33 193 138 111 86 
370 34 192 134 108 80 
370 34 193 138 110 83 
370 35 193 141 112 87 
371 34 193 141 113 88 
371 35 193 142 113 88 
368 36 192 138 111 85 
368 37 192 137 110 84 
368 37 193 140 112 86 
369 36 193 143 115 91 
369 37 193 143 115 91 
368 38 193 136 110 84 
368 39 193 136 111 86 
369 38 193 138 112 86 
369 39 193 135 109 84 
370 36 193 143 115 91 
370 37 193 143 115 91 
371 36 193 143 114 90 
371 37 193 140 113 89 
370 38 193 138 112 87 
370 39 193 134 108 83 
371 38 193 136 110 86 
371 38 194 133 108 83 
371 39 194 133 108 84 
372 32 193 135 107 80 
372 33 193 139 112 86 
373 32 193 137 109 82 
373 33 193 140 112 87 
372 34 193 142 114 89 
372 35 193 144 115 91 
373 34 193 143 115 91 
373 35 193 144 117 94 
373 35 194 143 117 95 
374 32 193 140 111 84 
374 33 193 141 113 88 
374 33 194 142 114 87 
375 32 194 143 113 85 
375 33 194 146 117 90 
374 34 193 141 115 91 
374 34 194 143 116 91 
374 35 194 143 116 92 
375 34 194 148 119 93 
375 34 195 151 120 95 
375 35 194 147 117 92 
375 35 195 149 117 92 
372 36 193 142 115 92 
372 37 193 138 112 88 
372 37 194 137 112 88 
373 36 194 141 116 93 
373 37 194 135 111 87 
372 38 194 132 108 83 
372 39 194 134 110 86 
373 38 194 132 109 85 
373 38 195 133 109 85 
373 39 195 135 111 87 
374 36 194 139 112 88 
374 36 195 140 112 87 
374 37 194 135 109 84 
374 37 195 137 110 83 
375 36 195 145 114 88 
375 37 195 140 112 85 
374 38 195 136 110 84 
374 39 195 139 113 87 
375 37 196 142 113 86 
374 38 196 139 113 86 
374 39 196 142 116 89 
375 38 196 141 114 87 
375 38 197 143 116 89 
375 39 197 144 116 90 
375 39 198 144 116 90 
368 40 193 135 110 85 
368 41 193 134 110 86 
369 40 193 133 108 83 
369 41 193 133 109 84 
368 42 193 134 111 87 
368 43 193 139 115 92 
369 42 193 137 114 91 
369 43 193 142 119 97 
369 43 194 144 120 99 
370 40 193 132 107 82 
370 41 193 134 110 85 
370 40 194 134 109 85 
370 41 194 138 113 89 
371 40 194 135 111 88 
371 41 194 140 116 93 
370 42 193 137 114 90 
370 42 194 141 118 95 
370 43 194 145 121 98 
370 43 195 147 122 97 
371 42 194 144 120 96 
371 42 195 147 122 97 
371 43 195 150 124 98 
368 44 193 141 117 95 
368 45 193 142 118 96 
368 44 194 143 119 98 
368 45 194 144 120 98 
369 44 194 145 122 100 
369 45 194 148 124 102 
368 46 194 144 120 97 
368 47 194 144 119 95 
368 47 195 145 119 96 
369 46 194 147 123 100 
369 46 195 148 122 98 
369 47 195 147 120 95 
370 44 194 149 124 101 
370 44 195 151 126 101 
370 45 195 153 126 101 
371 44 195 153 126 100 
370 46 195 152 125 99 
369 47 196 149 122 97 
371 44 196 155 127 99 
371 45 196 155 127 99 
370 46 196 155 128 102 
370 47 196 152 125 98 
370 47 197 151 123 97 
371 46 196 156 129 103 
371 46 197 155 128 102 
371 47 197 151 123 97 
371 47 198 147 118 92 
372 40 194 137 113 90 
372 40 195 140 116 91 
372 41 194 142 118 94 
372 41 195 144 120 95 
373 40 195 141 116 90 
373 41 195 145 119 94 
372 42 195 149 123 98 
372 43 195 151 124 98 
373 42 195 148 122 96 
373 41 196 148 121 96 
372 43 196 153 126 99 
373 42 196 150 124 97 
373 42 197 148 122 97 
373 43 196 152 125 99 
373 43 197 149 122 96 
374 40 196 143 117 91 
374 40 197 144 118 91 
374 41 196 146 120 94 
374 41 197 145 119 93 
375 40 197 143 117 90 
375 41 197 142 117 91 
375 40 198 142 116 90 
375 41 198 142 117 92 
375 41 199 141 117 93 
374 42 196 148 123 97 
374 42 197 146 120 95 
374 43 197 146 120 95 
374 42 198 143 118 92 
374 43 198 144 118 94 
375 42 198 141 116 91 
375 42 199 140 116 92 
375 43 198 141 116 92 
375 43 199 139 115 91 
372 44 196 153 126 98 
372 45 196 153 125 98 
372 45 197 154 127 101 
373 44 197 150 123 98 
373 45 197 151 125 100 
373 44 198 147 122 97 
373 45 198 149 123 100 
372 46 197 152 125 100 
372 46 198 147 120 96 
372 47 198 142 113 89 
373 46 198 147 122 98 
373 46 199 142 117 93 
373 47 199 137 110 86 
374 44 198 145 120 96 
374 44 199 142 118 94 
374 45 198 146 121 98 
374 45 199 143 119 97 
375 44 199 139 115 92 
374 46 199 144 119 97 
375 42 200 138 115 92 
375 43 200 137 114 91 
375 43 201 135 112 89 
373 47 200 135 110 85 
374 45 200 139 115 92 
375 44 200 135 112 89 
375 44 201 134 111 87 
375 45 200 135 111 88 
375 45 201 132 109 86 
375 44 202 131 107 81 
375 45 202 131 106 80 
375 45 203 134 109 81 
374 46 200 137 113 89 
374 46 201 131 108 85 
374 47 200 134 109 84 
374 47 201 131 107 84 
375 46 201 131 108 85 
374 47 202 130 106 81 
375 46 202 131 107 81 
375 46 203 134 110 83 
375 47 202 132 107 82 
375 47 203 134 110 84 
375 46 204 138 113 88 
375 46 205 137 112 87 
375 47 204 137 113 87 
375 47 205 136 112 87 
375 47 206 131 106 81 
376 32 194 147 114 86 
376 33 194 151 118 92 
376 33 195 155 119 93 
377 32 195 150 114 87 
377 33 195 156 118 94 
376 34 195 156 121 97 
376 35 195 154 119 94 
377 34 195 160 120 97 
378 32 195 155 114 90 
378 33 195 159 117 95 
376 35 196 154 118 94 
377 34 196 161 120 99 
377 35 196 160 121 100 
377 35 197 162 121 103 
378 32 196 156 114 91 
378 33 196 161 116 95 
378 33 197 160 115 97 
379 32 196 158 114 91 
379 32 197 156 111 90 
379 33 197 158 113 95 
379 32 198 154 109 91 
379 33 198 157 114 97 
378 34 196 163 118 98 
378 34 197 162 118 102 
378 35 197 163 122 105 
379 34 197 161 117 101 
378 34 198 166 123 108 
378 35 198 164 124 107 
378 35 199 158 120 102 
379 34 198 163 121 105 
379 34 199 157 118 99 
379 35 199 160 121 103 
376 36 196 152 118 93 
376 37 196 146 116 91 
376 37 197 149 117 92 
377 36 197 158 121 100 
377 37 197 153 119 96 
377 36 198 160 124 103 
377 37 198 156 123 100 
377 37 199 156 126 101 
376 38 197 144 116 90 
376 38 198 146 118 92 
376 39 198 145 118 92 
376 39 199 146 120 93 
377 38 198 149 120 94 
377 38 199 149 122 95 
377 39 199 146 120 93 
378 36 198 162 124 105 
378 36 199 159 124 104 
378 37 199 157 126 103 
380 32 198 151 106 89 
380 32 199 151 109 91 
380 33 198 155 112 95 
380 33 199 153 113 95 
379 34 200 150 111 91 
379 34 201 144 105 86 
379 35 200 154 115 96 
379 35 201 148 110 91 
379 34 202 143 106 87 
379 35 202 145 110 89 
379 35 203 143 110 88 
379 35 204 140 108 87 
379 35 205 138 105 85 
379 35 206 136 105 84 
379 35 207 135 105 82 
377 38 200 149 122 95 
377 38 201 150 123 95 
377 39 200 146 121 94 
377 39 201 149 122 94 
377 39 202 152 125 97 
377 39 203 149 121 92 
378 36 200 153 116 95 
378 36 201 146 112 88 
378 37 200 154 122 99 
378 37 201 149 117 91 
379 36 201 146 110 88 
378 36 202 146 113 88 
378 37 202 145 113 87 
378 37 203 139 106 81 
379 36 202 144 111 87 
379 36 203 140 108 84 
378 38 200 152 121 96 
378 38 201 150 121 94 
378 38 202 149 120 93 
378 38 203 143 111 85 
378 39 203 148 119 90 
377 39 204 144 115 86 
378 37 204 133 101 77 
378 37 205 130 99 76 
379 36 204 135 103 81 
379 36 205 132 100 79 
379 37 204 134 102 79 
379 37 205 130 98 76 
378 37 206 128 99 75 
378 37 207 128 104 78 
379 36 206 132 102 80 
379 36 207 132 105 80 
379 37 206 129 100 76 
379 37 207 129 103 78 
378 38 204 136 104 79 
378 38 205 130 101 75 
378 39 204 139 111 81 
378 39 205 133 105 76 
378 38 206 128 101 75 
378 38 207 127 103 77 
378 39 206 128 102 74 
378 39 207 126 101 74 
380 32 200 151 110 93 
380 33 200 151 112 94 
380 33 201 147 109 90 
381 32 200 150 109 91 
381 32 201 147 107 88 
380 33 202 145 108 87 
380 33 203 151 117 95 
381 32 202 150 114 91 
381 32 203 160 125 102 
381 33 202 146 109 87 
381 33 203 154 121 98 
380 34 200 149 110 91 
380 34 201 146 106 88 
380 34 202 144 108 88 
380 34 203 146 114 91 
380 33 204 156 122 99 
381 32 204 167 131 108 
381 32 205 169 133 109 
381 33 204 162 128 105 
381 33 205 160 125 103 
381 32 206 164 126 102 
381 32 207 155 114 92 
381 33 206 156 120 98 
381 33 207 152 113 93 
380 34 204 147 114 92 
380 34 205 146 112 91 
380 34 206 146 111 91 
380 34 207 145 111 89 
380 35 206 139 106 86 
380 35 207 139 106 83 
382 32 206 166 127 102 
382 32 207 160 118 95 
376 40 198 143 116 90 
376 40 199 143 117 91 
376 41 198 141 115 90 
376 41 199 141 116 90 
376 40 200 143 117 91 
376 41 200 140 115 90 
376 41 201 141 115 89 
377 40 200 144 118 92 
377 40 201 146 119 92 
377 41 201 144 118 91 
376 41 202 142 116 89 
377 40 202 150 123 95 
377 40 203 150 123 95 
377 41 202 147 120 93 
377 41 203 150 123 97 
376 42 200 138 115 91 
376 42 201 137 112 87 
376 43 201 135 111 86 
376 42 202 138 113 85 
376 42 203 144 118 91 
376 43 202 134 108 81 
376 43 203 140 114 87 
377 42 202 146 120 93 
377 42 203 147 121 94 
377 40 204 143 115 86 
377 40 205 134 107 78 
377 41 204 143 116 88 
377 41 205 134 108 80 
377 40 206 128 102 74 
377 40 207 124 99 70 
377 41 206 128 102 75 
377 41 207 122 98 70 
376 42 204 144 118 92 
376 43 204 141 116 90 
376 43 205 135 109 83 
377 42 204 142 116 89 
377 42 205 134 109 81 
377 43 205 132 106 79 
376 43 206 129 104 77 
377 42 206 127 102 75 
377 42 207 121 97 71 
377 43 206 125 101 75 
377 43 207 120 97 72 
376 44 202 132 106 79 
376 44 203 137 111 84 
376 45 203 135 109 82 
376 44 204 140 115 89 
376 44 205 134 109 83 
376 45 204 137 112 86 
376 45 205 134 109 82 
376 44 206 126 102 76 
376 44 207 119 97 73 
376 45 206 126 102 76 
376 45 207 119 96 72 
376 46 204 137 112 86 
376 46 205 133 109 82 
376 46 206 126 101 75 
376 46 207 120 97 72 
376 47 206 125 101 75 
376 47 207 120 97 72 
379 35 208 135 107 80 
379 35 209 135 107 79 
379 35 210 133 105 75 
379 35 211 132 104 71 
379 35 212 132 104 73 
379 35 213 135 106 78 
379 35 214 137 106 80 
379 35 215 138 107 81 
378 37 208 127 103 77 
379 36 208 131 105 78 
379 36 209 131 105 77 
379 37 208 128 103 76 
379 37 209 126 101 74 
379 36 210 129 104 74 
379 36 211 130 103 72 
379 37 210 126 101 73 
379 37 211 127 101 73 
378 38 208 126 102 78 
378 38 209 123 100 75 
378 39 208 124 101 75 
378 39 209 122 99 74 
378 38 210 122 98 72 
378 38 211 123 99 72 
378 39 210 119 96 70 
378 39 211 119 95 66 
378 37 212 127 101 73 
378 37 213 128 102 74 
379 36 212 130 105 76 
379 36 213 131 106 78 
379 37 212 127 102 74 
379 37 213 129 104 76 
379 36 214 132 106 79 
379 36 215 133 105 79 
379 37 214 130 104 76 
379 37 215 129 104 76 
378 38 212 124 99 72 
378 38 213 124 99 71 
378 39 212 119 95 67 
378 39 213 119 94 66 
378 38 214 124 99 71 
378 38 215 124 99 70 
378 39 214 119 94 66 
378 39 215 120 95 67 
381 32 208 149 107 86 
381 32 209 146 105 82 
381 33 208 148 109 91 
381 33 209 145 107 86 
381 32 210 147 107 83 
381 32 211 147 112 84 
381 33 210 144 109 83 
381 33 211 145 111 84 
380 34 208 143 110 86 
380 34 209 142 109 86 
380 35 208 138 108 82 
380 35 209 138 107 80 
380 34 210 139 107 82 
380 34 211 138 107 82 
380 35 210 135 106 76 
382 32 208 152 108 86 
382 32 209 147 102 83 
382 32 210 146 102 85 
382 32 211 150 111 90 
381 33 212 147 113 90 
381 33 213 150 115 96 
381 33 214 153 117 96 
381 33 215 154 120 95 
380 34 212 140 109 85 
380 34 213 142 111 86 
380 34 214 144 112 88 
380 34 215 145 112 89 
380 35 214 138 108 81 
380 35 215 139 108 83 
382 32 212 155 119 96 
382 32 213 157 120 97 
382 32 214 158 120 99 
382 32 215 158 120 97 
379 35 216 137 106 81 
379 35 217 136 104 78 
379 35 218 136 104 77 
379 35 219 135 103 75 
379 34 221 140 104 83 
379 35 220 135 103 77 
379 35 221 135 104 78 
378 35 223 132 98 74 
379 34 222 139 102 81 
379 34 223 136 101 80 
379 35 222 134 102 76 
379 35 223 133 100 75 
377 39 219 123 98 71 
378 37 217 127 101 74 
379 36 216 133 104 79 
379 36 217 133 103 79 
379 37 216 129 103 76 
379 37 217 130 102 77 
378 37 218 126 97 71 
378 37 219 127 95 74 
379 36 218 132 100 76 
379 36 219 130 97 71 
379 37 218 129 99 76 
379 37 219 130 96 75 
378 38 216 124 98 69 
378 38 217 124 98 69 
378 39 216 121 96 66 
378 39 217 122 96 67 
378 38 218 125 98 69 
378 38 219 124 97 71 
378 39 218 124 98 70 
378 39 219 125 99 71 
377 39 220 123 97 70 
377 39 221 123 97 70 
377 38 222 123 98 74 
377 38 223 123 97 70 
377 39 222 123 98 72 
377 39 223 123 98 74 
378 36 221 129 97 71 
378 37 220 127 97 74 
378 37 221 128 96 72 
379 36 220 128 96 70 
379 36 221 130 98 72 
378 36 222 129 100 71 
378 36 223 129 101 72 
378 37 222 128 97 72 
378 37 223 126 99 71 
379 36 222 130 101 73 
378 38 220 123 99 73 
378 38 221 124 98 74 
378 39 220 123 98 71 
378 38 222 125 96 72 
378 38 223 125 96 70 
381 33 216 152 120 93 
381 33 217 152 114 88 
381 33 218 151 109 85 
381 33 219 148 102 81 
380 34 216 145 112 89 
380 34 217 146 110 87 
380 35 216 139 107 81 
380 35 217 138 104 79 
380 34 218 146 108 86 
380 34 219 144 103 84 
380 35 218 139 105 78 
382 32 216 156 116 91 
382 32 217 154 110 86 
383 32 217 148 108 93 
382 32 218 153 106 83 
382 32 219 148 106 82 
383 32 218 148 110 93 
383 32 219 150 118 100 
380 33 221 138 100 75 
381 33 220 142 101 77 
381 33 221 139 102 76 
380 33 222 138 100 78 
380 33 223 138 99 77 
381 32 222 138 102 81 
381 32 223 141 105 90 
381 33 222 138 99 77 
381 33 223 138 98 79 
380 34 220 143 101 85 
380 34 221 141 102 84 
380 34 222 139 102 82 
380 34 223 137 101 81 
382 32 220 145 111 89 
382 32 221 145 118 100 
383 32 220 164 142 129 
383 32 221 173 154 145 
382 32 222 152 127 114 
382 32 223 166 145 136 
377 40 208 122 98 72 
377 40 209 122 99 73 
377 41 208 121 97 70 
377 41 209 121 98 73 
377 40 210 123 100 76 
377 40 211 122 99 74 
377 41 210 122 99 75 
377 41 211 123 101 78 
377 42 208 119 95 70 
377 42 209 117 94 69 
377 43 208 117 95 71 
377 43 209 116 93 69 
377 42 210 117 95 70 
377 42 211 119 97 73 
377 43 210 115 94 69 
377 43 211 115 93 69 
378 40 209 122 99 74 
378 40 210 122 99 74 
378 40 211 119 95 68 
377 41 212 121 99 75 
377 41 213 117 95 69 
377 40 214 116 92 65 
377 40 215 116 92 64 
377 41 214 116 93 66 
377 41 215 116 92 65 
377 42 212 119 97 73 
377 42 213 117 94 70 
377 43 212 115 92 68 
377 43 213 113 91 66 
377 42 214 115 92 65 
377 42 215 115 92 66 
377 43 214 113 90 63 
377 43 215 114 91 65 
378 40 212 118 95 68 
378 40 213 117 93 66 
378 40 214 117 93 65 
378 40 215 117 93 65 
376 44 208 116 94 71 
376 44 209 114 93 70 
376 45 208 116 94 70 
376 45 209 114 92 69 
377 44 208 116 94 70 
377 44 209 115 94 71 
376 44 210 113 92 68 
376 45 210 112 91 68 
376 45 211 112 90 67 
377 44 210 114 93 69 
377 44 211 114 92 68 
376 46 208 115 93 70 
376 46 209 113 91 68 
376 47 208 116 93 68 
376 47 209 114 92 68 
376 46 210 112 90 66 
376 46 211 112 90 66 
376 47 210 114 92 68 
376 47 211 114 92 66 
376 45 212 111 90 67 
376 45 213 111 90 67 
377 44 212 113 91 67 
377 44 213 112 90 65 
377 45 212 112 90 67 
377 45 213 111 90 66 
376 45 214 111 89 65 
376 45 215 113 90 64 
377 44 214 111 89 63 
377 44 215 112 89 63 
377 45 214 111 89 64 
377 45 215 112 89 63 
376 46 212 112 91 69 
376 46 213 112 91 70 
376 47 212 115 92 67 
376 47 213 115 93 70 
376 46 214 112 91 68 
376 46 215 112 90 66 
376 47 214 114 93 71 
376 47 215 113 92 69 
377 40 216 118 93 65 
377 40 217 119 94 66 
377 41 216 117 93 65 
377 41 217 118 94 66 
377 40 218 121 96 68 
377 40 219 122 97 71 
377 41 218 119 95 67 
377 41 219 120 96 69 
376 43 217 117 94 68 
377 42 216 117 94 68 
377 42 217 117 93 67 
377 43 216 116 93 67 
377 43 217 117 94 68 
376 42 219 117 93 66 
376 43 218 117 93 66 
376 43 219 118 94 67 
377 42 218 117 93 66 
377 42 219 118 93 66 
377 43 218 117 93 66 
378 40 216 118 94 65 
378 40 217 119 94 66 
377 40 220 122 97 69 
377 40 221 122 97 70 
377 41 220 120 96 69 
377 41 221 121 96 69 
376 41 223 119 94 65 
377 40 222 123 98 70 
377 40 223 121 96 68 
377 41 222 121 96 69 
377 41 223 120 95 67 
376 42 220 118 94 67 
376 42 221 118 94 67 
376 43 220 118 94 67 
376 43 221 118 93 65 
377 42 220 119 95 68 
377 42 221 119 95 68 
376 42 222 118 94 66 
376 42 223 118 93 64 
376 43 222 118 93 65 
376 43 223 118 93 64 
376 44 216 114 91 64 
376 44 217 116 92 66 
376 45 216 114 91 64 
376 45 217 115 91 64 
377 44 216 115 92 66 
376 44 218 117 93 67 
376 44 219 117 93 66 
376 45 218 116 92 65 
376 45 219 118 94 67 
376 46 216 114 91 65 
376 46 217 114 91 64 
376 47 216 113 90 65 
376 47 217 113 90 63 
376 46 218 114 91 63 
376 46 219 116 92 65 
376 47 218 114 91 64 
376 47 219 116 93 68 
376 44 220 118 93 66 
376 44 221 117 93 65 
376 45 220 118 93 66 
376 45 221 117 93 64 
376 44 222 117 92 63 
376 44 223 117 92 63 
376 45 222 117 92 62 
376 45 223 117 92 63 
376 46 220 117 93 65 
376 46 221 116 92 63 
376 47 220 116 92 65 
376 47 221 115 91 62 
376 46 222 116 91 61 
376 46 223 117 92 62 
376 47 222 115 90 60 
376 47 223 117 91 61 
368 48 195 145 120 96 
368 49 195 145 120 96 
368 49 196 146 120 96 
369 48 196 148 121 96 
369 48 197 150 123 97 
369 49 196 148 122 98 
369 49 197 149 122 97 
368 50 196 144 120 96 
368 50 197 144 119 95 
368 51 197 143 118 95 
369 50 197 145 120 95 
369 51 197 143 117 93 
369 50 198 145 118 92 
369 51 198 141 116 91 
370 48 197 150 123 97 
370 49 197 150 123 97 
371 48 197 149 121 94 
370 49 198 148 121 95 
371 48 198 146 118 92 
371 49 198 148 121 94 
371 49 199 144 117 91 
370 50 198 146 119 93 
370 50 199 145 119 94 
370 51 198 143 117 91 
370 51 199 140 115 90 
371 50 198 147 121 95 
371 50 199 143 118 92 
371 51 199 142 116 91 
368 52 197 142 118 95 
368 52 198 140 115 92 
368 53 198 137 113 90 
369 52 198 137 113 89 
369 52 199 136 112 88 
369 53 198 136 112 89 
369 53 199 135 112 89 
368 54 198 135 112 88 
368 55 198 134 111 87 
368 55 199 133 110 87 
369 54 199 134 111 89 
369 55 199 133 110 88 
370 52 199 137 112 87 
370 53 199 136 112 89 
372 48 198 141 111 87 
372 48 199 134 103 82 
372 49 199 136 107 83 
373 48 199 132 100 81 
371 50 200 139 114 88 
371 51 200 138 114 89 
369 54 200 134 112 90 
369 55 200 133 111 89 
370 52 200 137 113 88 
370 53 200 135 112 89 
371 52 200 135 112 88 
371 52 201 132 109 87 
371 53 201 131 108 86 
371 53 202 128 106 83 
370 54 200 133 111 89 
370 54 201 131 109 86 
370 55 200 132 110 88 
370 55 201 131 109 87 
371 54 201 129 107 85 
371 54 202 128 106 84 
371 55 202 128 107 86 
372 49 200 128 97 74 
373 48 200 131 101 82 
373 48 201 130 102 82 
373 49 200 127 96 76 
373 49 201 127 99 78 
373 49 202 127 102 80 
372 50 200 132 105 79 
372 50 201 122 97 71 
372 51 201 128 104 80 
373 50 201 121 94 69 
372 51 202 121 97 70 
373 50 202 122 98 72 
373 51 202 120 95 68 
373 51 203 123 100 75 
374 48 201 129 104 82 
374 48 202 129 106 80 
374 48 203 131 107 80 
374 49 202 128 104 81 
374 49 203 129 106 82 
375 48 203 133 109 82 
374 50 202 126 103 79 
374 50 203 126 103 79 
374 51 203 125 102 77 
374 49 204 132 109 86 
375 48 204 136 112 86 
375 48 205 136 112 87 
375 49 204 135 111 87 
375 49 205 136 113 89 
375 48 206 129 106 81 
375 48 207 121 98 73 
375 49 206 130 107 83 
375 49 207 119 97 73 
374 50 204 129 106 82 
374 50 205 131 107 83 
374 51 204 126 103 79 
374 51 205 129 107 83 
375 50 205 133 110 86 
374 51 206 128 105 82 
375 50 206 128 105 82 
375 50 207 118 98 75 
375 51 206 125 103 80 
375 51 207 119 98 76 
372 52 201 130 107 84 
372 52 202 125 102 78 
372 53 202 126 103 81 
372 53 203 123 100 78 
373 52 202 121 97 72 
373 52 203 122 99 74 
373 53 203 122 99 76 
372 54 202 125 103 81 
372 54 203 122 100 78 
372 55 203 122 101 79 
373 52 204 124 101 78 
373 53 204 123 101 78 
373 53 205 125 103 81 
372 54 204 121 99 78 
372 55 204 120 99 78 
373 54 204 121 100 78 
373 54 205 123 102 80 
373 55 204 120 99 78 
373 55 205 121 101 80 
373 55 206 122 102 82 
374 52 204 125 103 79 
374 52 205 127 104 81 
374 53 205 125 103 80 
374 52 206 125 103 80 
374 52 207 121 100 78 
374 53 206 122 100 76 
374 53 207 120 98 75 
375 52 207 120 99 77 
375 53 207 119 98 76 
374 54 206 122 101 79 
374 54 207 118 97 75 
374 55 206 121 101 80 
374 55 207 119 98 77 
368 56 198 135 112 88 
368 56 199 134 111 89 
368 57 199 138 113 89 
368 58 199 140 116 91 
368 57 200 137 113 90 
369 56 200 133 110 88 
369 57 200 134 111 89 
369 57 201 132 110 87 
368 58 200 139 115 92 
368 59 200 142 117 93 
368 59 201 143 119 95 
369 58 200 137 114 91 
369 58 201 134 111 88 
369 59 201 139 116 92 
369 59 202 136 114 92 
370 56 201 131 109 86 
370 57 201 131 109 86 
370 56 202 130 109 88 
370 57 202 130 109 88 
371 56 202 129 108 87 
371 56 203 125 105 84 
371 57 202 129 109 89 
371 57 203 125 105 85 
370 58 202 130 109 88 
370 59 202 132 111 90 
370 59 203 129 109 90 
371 58 202 129 109 89 
371 58 203 127 107 87 
371 59 203 127 107 89 
371 58 204 125 105 86 
371 59 204 125 106 87 
368 60 200 145 120 97 
368 60 201 144 120 97 
368 61 201 143 120 97 
369 60 201 142 120 98 
369 60 202 138 116 96 
369 61 202 137 115 95 
368 62 201 141 118 96 
368 62 202 137 115 93 
368 63 202 134 112 90 
369 62 202 133 111 90 
369 62 203 129 108 87 
369 63 202 131 109 87 
369 63 203 131 109 88 
370 60 202 134 113 94 
370 60 203 129 110 91 
370 61 203 129 109 90 
371 60 203 127 107 89 
370 62 203 128 107 86 
370 63 203 129 108 87 
370 61 204 125 105 86 
371 60 204 124 105 86 
371 61 204 124 105 86 
371 61 205 124 104 85 
370 62 204 125 105 85 
370 63 204 128 107 87 
371 62 204 124 103 84 
371 62 205 126 106 86 
371 63 205 127 107 87 
371 63 206 127 107 87 
372 56 203 124 103 82 
372 57 203 123 103 82 
372 56 204 122 102 82 
372 57 204 122 102 83 
372 57 205 123 104 85 
373 56 205 123 103 84 
373 57 205 124 105 86 
373 56 206 124 104 85 
373 57 206 125 105 86 
373 57 207 124 104 86 
372 58 204 123 103 84 
372 58 205 124 105 86 
372 59 204 125 106 87 
372 59 205 126 107 89 
372 59 206 126 106 87 
373 58 206 125 105 86 
373 58 207 125 105 86 
373 59 206 126 105 84 
373 59 207 124 103 82 
374 56 207 121 102 82 
374 57 207 123 103 85 
374 58 207 124 104 84 
374 59 207 124 103 83 
372 60 205 124 105 86 
372 61 205 124 104 85 
372 60 206 125 106 86 
372 61 206 124 104 84 
373 60 206 126 105 83 
373 60 207 124 103 81 
373 61 206 126 105 85 
373 61 207 126 105 84 
372 62 206 126 105 85 
372 63 206 126 105 84 
372 63 207 124 104 83 
373 62 207 124 104 83 
373 63 207 123 102 82 
376 48 207 119 96 71 
375 49 208 115 93 69 
375 49 209 113 92 68 
375 50 208 114 93 70 
375 50 209 113 92 70 
375 51 208 114 94 72 
375 51 209 113 93 71 
375 50 210 115 94 72 
375 51 210 115 94 72 
375 51 211 116 94 71 
375 51 212 116 94 70 
375 52 208 115 95 74 
375 52 209 113 93 72 
375 53 208 116 96 75 
375 53 209 114 94 74 
375 52 210 114 93 72 
375 52 211 114 93 71 
375 53 210 113 93 72 
375 53 211 114 94 72 
374 54 208 116 96 74 
374 55 208 118 98 78 
375 54 208 115 95 74 
375 54 209 115 95 74 
375 55 208 116 96 75 
375 55 209 116 96 76 
375 54 210 114 93 72 
375 54 211 114 94 72 
375 55 210 115 95 74 
375 55 211 115 95 74 
375 52 212 115 93 69 
375 52 213 115 93 69 
375 53 212 114 93 70 
375 53 213 114 93 69 
375 52 214 115 93 68 
375 52 215 114 92 67 
375 53 214 114 92 68 
375 53 215 113 91 66 
375 54 212 114 94 73 
375 54 213 114 94 71 
375 55 212 115 95 75 
375 55 213 116 95 74 
375 54 214 114 93 70 
375 54 215 112 91 66 
375 55 214 114 94 72 
375 55 215 112 91 69 
375 51 216 113 91 66 
375 51 217 112 91 68 
375 51 218 112 91 67 
375 51 219 112 91 67 
375 49 223 117 92 64 
375 51 220 112 90 66 
375 51 221 112 90 66 
375 50 222 114 91 65 
375 50 223 115 91 64 
375 51 222 113 91 66 
375 51 223 114 91 64 
375 52 216 113 91 66 
375 52 217 112 90 67 
375 53 216 112 90 65 
375 53 217 111 90 66 
375 52 218 112 90 67 
375 52 219 112 90 66 
375 53 218 111 90 66 
375 53 219 111 89 65 
375 54 216 111 89 64 
375 54 217 110 89 65 
375 55 216 111 90 67 
375 55 217 110 89 65 
375 54 218 110 89 65 
375 54 219 111 89 64 
375 55 218 110 89 65 
375 55 219 111 89 65 
375 52 220 112 90 66 
375 52 221 112 90 66 
375 53 220 111 89 65 
375 53 221 112 90 66 
375 52 222 113 91 67 
375 52 223 113 91 67 
375 53 222 112 91 66 
375 53 223 112 91 66 
375 54 220 112 90 65 
375 54 221 113 91 67 
375 55 220 112 90 66 
375 55 221 113 91 67 
375 54 222 113 92 68 
375 54 223 113 91 66 
375 55 222 113 91 67 
375 55 223 113 91 67 
374 56 208 120 101 82 
374 56 209 119 100 81 
374 57 208 121 101 82 
374 57 209 119 99 80 
375 56 209 118 98 79 
375 57 209 118 99 79 
375 56 210 116 96 75 
375 56 211 115 95 74 
375 57 210 116 96 75 
375 57 211 114 94 73 
374 58 208 122 101 81 
374 58 209 120 99 78 
374 59 208 122 101 80 
374 59 209 121 100 77 
375 58 209 119 98 78 
375 58 210 117 96 75 
375 58 211 115 94 72 
375 59 210 118 97 75 
375 59 211 115 94 72 
375 56 212 114 95 74 
375 56 213 115 95 74 
375 57 212 114 94 72 
375 57 213 113 93 71 
375 56 214 114 94 73 
375 56 215 112 91 69 
375 57 214 112 92 71 
375 57 215 111 91 69 
375 58 212 113 93 72 
375 58 213 112 92 71 
375 59 212 113 92 70 
375 59 213 111 91 69 
375 58 214 112 92 71 
375 58 215 112 92 71 
375 59 214 113 93 71 
375 59 215 113 93 72 
373 61 208 123 102 81 
373 62 208 122 101 80 
373 63 208 121 100 79 
373 63 209 120 99 78 
374 60 208 122 101 79 
374 60 209 122 100 77 
374 61 208 123 101 78 
374 61 209 123 101 78 
374 61 210 123 100 77 
375 60 210 121 100 77 
375 60 211 119 98 76 
375 61 210 122 100 78 
375 61 211 121 100 79 
374 62 208 123 101 80 
374 62 209 122 100 78 
374 63 209 121 99 78 
374 62 210 122 100 77 
374 62 211 122 100 76 
374 63 210 120 98 75 
374 63 211 120 98 74 
375 62 211 122 100 78 
375 60 212 116 95 72 
375 60 213 113 92 69 
375 61 212 119 98 77 
375 61 213 116 95 74 
375 60 214 112 92 70 
375 60 215 113 93 72 
375 61 214 113 92 71 
375 61 215 112 92 71 
374 63 212 121 99 75 
374 63 213 121 99 76 
375 62 212 121 100 78 
375 62 213 119 99 77 
375 63 212 121 99 76 
375 63 213 120 99 77 
375 62 214 115 95 74 
375 62 215 111 91 70 
375 63 214 116 96 75 
375 63 215 112 92 71 
375 56 216 111 90 68 
375 56 217 110 89 66 
375 57 216 111 90 69 
375 57 217 110 90 68 
375 56 218 111 89 66 
375 56 219 112 90 66 
375 57 218 111 90 67 
375 57 219 112 91 67 
375 58 216 111 91 70 
375 58 217 110 90 69 
375 59 216 111 92 71 
375 59 217 110 90 69 
375 58 218 110 90 67 
375 58 219 111 90 66 
375 59 218 110 89 67 
375 59 219 110 89 65 
375 56 220 112 90 66 
375 56 221 112 90 66 
375 57 220 112 90 66 
375 57 221 112 90 65 
375 56 222 111 89 64 
375 56 223 112 89 64 
375 57 222 111 89 64 
375 57 223 111 89 62 
375 58 220 112 90 66 
375 58 221 112 90 65 
375 59 220 111 89 64 
375 59 221 111 89 64 
375 58 222 111 89 64 
375 58 223 112 89 63 
375 59 222 111 89 64 
375 59 223 112 89 63 
375 60 216 111 91 70 
375 60 217 110 90 69 
375 61 216 110 91 70 
375 61 217 110 90 69 
375 60 218 110 90 67 
375 60 219 110 89 65 
375 61 218 110 90 68 
375 61 219 111 89 66 
375 62 216 110 90 70 
375 62 217 109 90 69 
375 63 216 110 90 69 
375 63 217 109 89 69 
375 62 218 110 90 69 
375 62 219 111 90 68 
375 63 218 109 90 69 
375 63 219 112 91 69 
375 60 220 110 89 64 
375 60 221 111 89 64 
375 61 220 111 90 65 
375 61 221 112 90 65 
375 60 222 112 90 64 
375 60 223 114 91 64 
375 61 222 113 90 65 
375 61 223 115 92 65 
375 62 220 112 91 67 
375 62 221 113 90 66 
375 63 220 113 91 67 
375 63 221 113 91 67 
374 63 223 119 95 69 
375 62 222 114 91 65 
375 62 223 116 93 67 
375 63 222 114 91 66 
375 63 223 117 94 67 
376 48 208 116 94 69 
376 48 209 115 93 70 
376 49 208 115 93 69 
376 49 209 114 92 69 
376 48 210 116 94 71 
376 48 211 117 95 71 
376 49 210 116 94 72 
376 49 211 117 96 72 
376 50 210 115 94 71 
376 50 211 117 95 72 
376 51 211 117 95 72 
376 48 212 117 95 70 
376 48 213 117 94 69 
376 49 212 118 96 71 
376 49 213 117 95 70 
376 48 214 116 94 69 
376 48 215 116 94 70 
376 49 214 117 94 69 
376 49 215 116 94 71 
376 50 212 117 95 71 
376 50 213 117 94 69 
376 51 212 117 95 71 
376 51 213 116 94 70 
376 50 214 116 94 68 
376 50 215 116 93 69 
376 51 214 116 93 68 
376 51 215 115 93 68 
376 52 214 116 94 69 
376 52 215 115 92 68 
376 48 216 114 92 67 
376 48 217 112 89 62 
376 49 216 115 94 70 
376 49 217 113 91 66 
376 48 218 110 87 60 
376 48 219 113 90 64 
376 49 218 110 87 61 
376 49 219 110 88 62 
376 50 216 115 93 70 
376 50 217 113 92 69 
376 51 216 113 91 68 
376 51 217 113 91 68 
376 50 218 111 90 66 
376 50 219 111 89 65 
376 51 218 112 90 67 
376 48 220 115 92 66 
376 48 221 115 92 65 
376 49 220 112 89 62 
376 49 221 114 91 65 
376 48 222 115 91 63 
376 48 223 117 92 63 
376 49 222 116 92 66 
376 49 223 116 92 64 
376 50 220 112 89 65 
376 50 221 114 91 65 
376 51 220 112 90 66 
376 51 221 113 91 67 
376 50 222 114 91 65 
376 51 222 113 91 67 
376 52 221 112 91 67 
376 52 222 112 91 67 
352 34 231 105 90 75 
352 35 231 105 90 76 
352 36 231 105 89 75 
352 37 230 102 87 74 
352 37 231 103 88 74 
352 38 230 102 88 75 
352 38 231 101 86 72 
352 39 230 103 88 76 
352 39 231 102 87 73 
352 32 232 106 90 75 
352 32 233 107 90 73 
352 33 232 106 90 74 
352 33 233 108 91 74 
353 33 233 110 92 74 
353 32 234 113 94 74 
353 33 234 116 97 78 
352 34 232 107 91 75 
352 35 232 108 92 77 
353 34 233 112 94 77 
353 35 232 111 94 79 
353 35 233 114 96 79 
353 34 234 116 97 79 
354 32 235 123 101 80 
354 33 234 122 102 82 
354 33 235 126 105 85 
355 32 235 128 106 84 
355 33 235 129 108 87 
354 35 233 116 97 79 
354 34 234 121 101 83 
354 35 234 119 99 80 
355 34 235 126 106 87 
355 35 234 122 102 82 
355 35 235 124 104 84 
355 32 236 129 106 84 
352 36 232 107 91 76 
352 37 232 106 90 74 
353 36 232 112 95 79 
353 36 233 115 97 80 
353 37 232 111 94 77 
353 37 233 115 97 80 
352 38 232 104 88 72 
353 38 232 106 89 72 
353 38 233 110 92 74 
353 39 232 104 88 71 
354 36 233 117 99 81 
354 37 233 118 100 82 
354 36 234 119 99 80 
354 37 234 120 101 82 
355 36 234 122 101 81 
355 37 234 122 102 81 
354 38 233 117 98 79 
354 39 233 113 94 75 
355 38 234 121 101 81 
355 39 234 120 99 80 
356 33 235 133 111 90 
356 34 235 132 110 90 
356 35 235 128 106 86 
357 34 235 135 113 91 
357 35 235 134 112 89 
358 35 235 137 113 89 
356 32 236 136 113 90 
356 33 236 136 114 92 
357 32 236 141 117 95 
357 32 237 141 118 95 
357 33 236 142 118 96 
357 34 236 139 116 94 
357 35 236 138 115 92 
358 32 237 141 117 94 
358 33 236 144 120 96 
358 33 237 144 119 96 
359 32 237 141 117 94 
359 33 237 143 118 94 
359 32 238 137 114 93 
358 34 236 142 118 94 
358 35 236 139 115 91 
359 34 236 140 116 92 
359 34 237 142 117 93 
359 35 236 137 113 89 
356 36 234 126 104 84 
356 36 235 128 106 85 
356 37 234 126 105 84 
357 36 235 132 109 87 
357 37 234 130 108 87 
357 37 235 131 109 87 
356 38 234 124 103 82 
356 39 234 123 102 81 
357 38 234 128 107 86 
357 38 235 132 109 88 
357 39 234 125 104 83 
358 36 235 135 111 88 
358 37 235 134 111 88 
359 36 235 134 110 87 
359 37 235 132 109 86 
358 38 234 129 107 85 
358 38 235 131 109 86 
358 39 234 127 105 83 
358 39 235 127 105 83 
359 38 235 129 106 84 
359 39 235 126 104 82 
352 40 231 103 88 73 
352 41 231 104 88 73 
352 42 231 103 87 71 
352 43 231 103 86 70 
352 44 231 102 86 70 
352 45 231 103 86 69 
352 46 231 102 85 69 
352 47 231 104 87 70 
353 40 232 104 88 72 
353 40 233 109 91 73 
353 41 232 107 89 72 
353 42 232 106 88 70 
353 43 232 106 88 70 
354 40 233 113 94 76 
354 41 233 112 93 74 
355 40 233 117 97 78 
355 41 233 115 95 75 
355 40 234 119 99 79 
355 41 234 117 97 77 
354 42 233 109 90 71 
354 43 233 110 91 71 
355 42 233 114 94 74 
355 43 233 115 95 75 
353 44 232 106 88 70 
353 45 232 107 88 70 
353 46 232 107 88 70 
353 47 232 108 89 71 
354 44 233 112 92 73 
354 45 233 113 93 74 
355 44 233 118 97 78 
355 45 233 118 97 79 
354 46 233 114 93 75 
354 47 232 114 93 75 
354 47 233 116 94 76 
355 46 233 119 98 79 
355 47 233 120 98 80 
356 40 234 122 101 80 
356 41 234 121 100 79 
357 40 234 125 104 83 
357 41 234 125 103 82 
356 43 233 121 100 79 
356 42 234 120 99 79 
356 43 234 123 102 81 
357 42 234 124 103 82 
357 43 234 125 104 83 
358 40 234 126 104 82 
358 41 234 126 104 82 
359 40 234 126 104 81 
359 40 235 125 103 81 
359 41 234 126 103 81 
358 42 234 125 103 82 
358 43 234 125 103 81 
359 42 234 125 103 80 
359 43 234 125 102 79 
356 44 233 123 101 80 
356 45 233 123 101 80 
357 44 233 125 104 83 
357 45 233 125 104 83 
357 44 234 126 104 84 
357 45 234 126 104 84 
356 46 233 123 102 81 
356 47 233 124 103 83 
357 46 233 125 103 82 
357 47 233 126 104 84 
358 44 234 125 103 82 
358 45 234 126 104 82 
359 44 234 124 102 79 
359 45 234 125 102 79 
358 46 233 126 103 82 
358 47 233 125 103 83 
359 47 233 124 101 80 
358 46 234 125 102 81 
359 46 234 124 101 79 
359 47 234 124 101 80 
360 33 237 141 117 92 
361 33 237 141 116 90 
360 32 238 137 114 93 
360 33 238 140 116 92 
361 32 238 136 115 96 
361 33 238 139 115 89 
360 34 236 139 115 90 
360 34 237 140 116 91 
360 35 236 137 113 88 
361 34 236 138 113 86 
361 34 237 140 114 87 
361 35 236 137 111 85 
362 33 237 142 115 87 
363 33 237 143 116 89 
362 32 238 138 117 98 
362 32 239 144 126 112 
362 33 238 140 115 91 
363 32 239 146 127 111 
363 33 238 141 116 92 
362 34 237 140 113 83 
362 35 236 137 110 83 
362 35 237 138 112 83 
363 34 237 141 113 82 
363 35 236 137 110 80 
363 35 237 139 111 80 
360 36 235 133 110 86 
360 37 235 132 109 86 
361 37 235 132 108 86 
360 38 235 129 106 84 
360 39 235 128 105 82 
361 38 235 129 106 83 
361 39 235 128 104 81 
362 37 235 131 106 82 
363 37 235 131 103 79 
362 38 235 129 104 79 
362 39 235 129 103 79 
363 38 235 129 102 76 
363 39 235 129 102 77 
360 36 236 135 111 87 
361 36 236 135 111 86 
361 37 236 134 110 87 
362 36 236 135 109 82 
362 37 236 133 108 82 
363 36 236 135 108 80 
363 37 236 133 107 79 
364 33 237 144 117 89 
365 33 237 143 113 86 
364 32 239 154 136 123 
364 33 238 139 115 91 
365 32 238 154 134 120 
365 32 239 164 146 135 
365 33 238 138 112 89 
364 34 237 144 116 86 
364 35 236 139 111 81 
364 35 237 140 112 81 
365 34 237 146 118 87 
365 35 236 141 114 83 
366 33 237 139 108 82 
367 33 237 139 111 85 
366 32 238 156 139 128 
366 32 239 171 154 146 
366 33 238 141 119 102 
367 32 238 153 135 124 
367 32 239 175 159 152 
367 33 238 137 114 95 
366 34 236 143 114 83 
366 34 237 144 113 83 
366 35 236 142 115 84 
367 34 236 140 110 78 
367 34 237 139 109 79 
367 35 236 140 111 80 
364 37 235 131 103 77 
365 37 235 131 103 76 
364 38 235 130 101 79 
364 39 235 130 103 77 
365 38 235 129 100 77 
365 39 235 129 101 77 
366 37 235 130 104 76 
367 36 235 135 107 78 
367 37 235 131 105 77 
366 38 235 128 99 74 
366 39 235 128 99 74 
367 38 235 127 100 75 
367 39 235 129 98 73 
364 36 236 136 108 76 
364 37 236 134 107 77 
365 36 236 136 108 77 
365 37 236 133 106 76 
366 36 236 135 108 78 
366 37 236 132 105 76 
367 36 236 136 108 78 
360 40 234 125 102 80 
360 40 235 126 103 81 
360 41 234 124 102 79 
361 40 235 127 103 80 
361 41 234 126 102 78 
360 42 234 125 101 78 
360 43 234 124 100 77 
361 42 234 126 100 76 
361 43 234 125 100 75 
362 40 235 128 103 78 
362 41 234 128 102 76 
362 41 235 128 102 77 
363 40 235 129 103 76 
363 41 234 128 102 74 
363 41 235 129 102 75 
362 42 234 127 101 75 
362 43 234 126 100 74 
363 42 234 128 101 74 
363 43 234 126 100 72 
360 44 234 124 100 77 
360 45 234 124 100 77 
361 44 234 125 99 75 
361 45 234 125 100 76 
360 47 233 123 100 77 
360 46 234 124 100 77 
360 47 234 123 99 77 
361 46 234 124 99 75 
361 47 234 122 98 73 
362 44 234 126 100 74 
362 45 234 125 99 74 
363 44 234 126 99 72 
363 45 234 125 99 72 
362 46 234 124 98 73 
362 47 234 123 97 72 
363 46 234 124 99 73 
363 47 234 123 97 71 
364 40 235 129 102 76 
364 41 234 128 101 74 
364 41 235 129 102 75 
365 40 235 129 102 75 
365 41 234 127 100 72 
365 41 235 128 101 74 
364 42 234 127 100 73 
364 43 234 127 100 73 
365 42 234 126 99 71 
365 43 234 126 99 71 
366 40 235 127 99 72 
366 41 234 126 99 70 
366 41 235 126 99 71 
367 40 235 128 100 71 
367 41 234 126 99 71 
367 41 235 127 99 71 
366 42 234 126 99 71 
366 43 234 125 99 71 
367 42 234 126 99 71 
367 43 234 126 100 72 
364 44 234 125 99 72 
364 45 234 125 99 72 
365 44 234 125 99 71 
365 45 234 124 98 70 
364 46 234 124 98 72 
364 47 234 123 98 72 
365 46 234 123 98 70 
365 47 234 122 97 70 
366 44 234 124 98 70 
366 45 234 123 97 69 
367 44 234 125 99 71 
367 45 234 123 97 69 
366 47 233 121 96 69 
367 46 233 121 96 68 
367 47 233 121 96 68 
366 46 234 123 97 70 
366 47 234 121 96 69 
367 46 234 123 97 69 
352 48 231 105 87 71 
352 49 231 105 87 70 
352 50 231 105 88 71 
352 51 231 106 89 71 
353 51 231 109 91 72 
352 52 231 107 89 72 
352 53 231 106 88 71 
353 52 231 112 93 75 
353 53 231 113 94 76 
352 54 231 106 88 70 
352 55 231 109 90 73 
353 54 231 112 93 74 
353 55 231 113 94 75 
352 48 232 106 88 71 
352 49 232 106 88 71 
353 48 232 110 91 72 
353 49 232 110 91 73 
353 50 232 110 91 73 
353 51 232 113 93 75 
354 48 232 114 93 74 
354 48 233 117 95 76 
354 49 232 115 94 75 
354 49 233 117 95 75 
355 48 233 120 98 79 
355 49 233 120 98 79 
354 50 232 117 96 76 
354 51 232 118 97 77 
355 50 232 121 99 80 
355 50 233 122 100 80 
355 51 232 122 100 80 
353 52 232 115 95 76 
353 53 232 117 97 78 
353 54 232 118 98 78 
353 55 232 117 98 78 
354 52 232 118 98 77 
354 53 232 119 98 77 
355 52 232 121 100 79 
355 53 232 121 99 78 
354 54 232 120 99 79 
354 55 232 121 101 81 
355 54 232 121 100 79 
355 55 232 122 101 80 
356 48 233 125 103 83 
356 49 233 125 103 83 
357 48 233 126 104 84 
357 49 233 125 104 84 
356 50 233 125 103 84 
356 51 232 123 101 82 
356 51 233 124 102 83 
357 50 233 125 103 83 
357 51 233 124 102 82 
358 48 233 125 103 83 
358 49 233 125 102 82 
359 48 233 124 101 80 
359 49 233 123 100 79 
358 50 233 124 102 81 
358 51 233 124 102 81 
359 50 233 123 100 78 
359 51 233 122 99 77 
356 52 232 123 101 81 
356 53 232 122 101 80 
357 52 232 123 101 80 
357 52 233 123 101 81 
357 53 232 122 100 80 
356 54 232 121 99 78 
356 55 232 119 98 77 
357 54 232 120 98 77 
357 55 232 118 97 76 
358 52 233 123 101 80 
358 53 232 122 100 80 
358 53 233 123 100 80 
359 52 233 122 98 76 
359 53 233 121 98 75 
358 54 232 120 99 78 
358 55 232 117 96 75 
359 54 232 118 96 74 
359 54 233 119 96 74 
359 55 232 117 95 72 
352 56 231 110 92 75 
353 56 231 115 96 77 
353 56 232 117 98 79 
354 56 232 120 100 81 
355 56 232 120 100 80 
355 57 232 118 98 79 
356 56 232 118 97 77 
356 57 232 115 94 74 
357 56 232 115 94 73 
357 57 232 112 91 71 
357 58 232 111 90 70 
358 56 232 115 94 73 
358 57 232 113 92 71 
359 56 232 115 93 71 
359 57 232 113 92 70 
358 58 232 111 91 69 
359 58 232 112 91 69 
360 48 233 123 99 77 
360 49 233 122 98 76 
361 48 233 122 97 73 
361 49 233 121 97 72 
361 48 234 122 97 71 
360 50 233 122 98 75 
360 51 233 122 98 74 
361 50 233 121 96 71 
361 51 233 120 96 70 
362 48 233 121 96 70 
362 49 233 121 96 70 
363 48 233 122 97 71 
363 49 233 121 97 71 
362 48 234 122 97 71 
363 48 234 122 97 71 
362 50 233 120 96 70 
362 51 233 120 96 71 
363 50 233 120 96 71 
363 51 233 121 97 72 
360 52 233 121 97 74 
360 53 233 120 96 72 
361 52 233 121 97 72 
361 53 233 120 96 71 
360 54 232 117 94 70 
360 54 233 118 95 71 
360 55 232 116 93 70 
361 54 233 118 95 69 
361 55 232 116 93 68 
361 55 233 117 93 68 
362 52 233 121 97 72 
362 53 233 120 97 72 
363 52 233 120 97 72 
363 53 233 120 97 72 
362 54 233 119 95 70 
362 55 233 117 94 68 
363 54 233 119 95 70 
363 55 233 118 94 69 
364 49 233 121 97 71 
365 48 233 120 96 69 
365 49 233 121 97 71 
364 48 234 122 98 72 
365 48 234 121 96 70 
364 50 233 120 96 71 
364 51 233 120 96 72 
365 50 233 121 97 72 
365 51 233 120 96 72 
366 48 233 121 96 69 
366 49 233 121 97 71 
367 48 233 121 96 70 
367 49 233 122 98 73 
366 50 233 121 98 73 
366 51 233 120 96 73 
367 50 233 122 98 74 
367 51 233 121 96 72 
364 52 233 120 96 72 
364 53 233 119 95 70 
365 52 233 120 95 72 
365 53 233 118 94 69 
364 54 233 118 95 69 
364 55 233 117 94 68 
365 54 233 117 93 68 
365 55 233 116 92 66 
366 52 233 119 94 72 
366 53 233 118 92 70 
367 52 233 120 94 71 
367 53 233 119 93 68 
366 54 233 116 91 66 
366 55 233 115 90 65 
367 54 233 118 92 65 
367 55 232 118 93 66 
367 55 233 117 92 66 
360 56 232 115 92 68 
360 57 232 114 92 68 
361 56 232 115 92 66 
361 57 232 114 91 66 
360 58 232 113 91 68 
360 59 232 111 90 67 
361 58 232 113 91 66 
361 59 232 112 90 65 
362 56 232 116 92 66 
362 56 233 116 93 67 
362 57 232 114 91 64 
363 56 232 116 93 66 
363 56 233 116 93 67 
363 57 232 116 92 66 
362 58 232 114 91 65 
362 59 232 114 91 66 
363 58 232 115 91 65 
363 59 232 114 91 65 
362 60 232 114 91 67 
363 60 232 115 92 67 
364 56 233 116 93 67 
364 57 232 115 92 65 
365 56 233 116 92 65 
365 57 232 115 91 64 
364 58 232 115 91 65 
364 59 232 114 91 64 
365 58 232 115 92 65 
365 59 232 115 92 65 
366 56 232 116 91 65 
366 56 233 115 91 64 
366 57 232 115 91 65 
367 56 232 118 93 67 
367 57 232 118 93 68 
366 58 232 116 92 66 
366 59 232 116 92 66 
367 58 232 117 93 67 
367 59 232 116 93 67 
364 60 232 114 91 65 
365 60 232 114 91 65 
365 61 232 114 91 65 
366 60 232 116 93 67 
366 61 232 116 92 67 
367 60 232 117 94 68 
367 61 232 118 94 69 
367 62 232 118 95 70 
374 35 231 135 108 79 
375 34 231 132 102 71 
375 35 230 132 104 75 
375 35 231 133 106 76 
373 38 231 130 103 73 
373 39 231 128 100 71 
375 36 229 130 99 72 
375 37 229 127 100 71 
374 36 231 134 105 76 
374 37 231 132 103 73 
375 36 230 132 101 73 
375 36 231 133 105 75 
375 37 230 130 101 72 
374 39 229 124 94 64 
375 38 228 124 97 67 
375 38 229 125 99 70 
375 39 228 124 95 67 
375 39 229 124 95 65 
374 38 230 127 101 69 
374 38 231 129 102 72 
374 39 230 126 96 64 
374 39 231 127 99 66 
375 38 230 127 101 72 
369 35 235 138 105 78 
370 35 235 141 111 83 
371 34 235 151 120 92 
371 35 235 146 118 87 
368 33 237 138 112 89 
369 33 236 137 105 81 
369 33 237 138 111 89 
368 32 238 166 151 141 
368 32 239 180 164 158 
368 33 238 146 127 112 
369 32 238 169 153 143 
369 32 239 183 167 161 
368 34 236 139 110 80 
368 35 236 138 107 77 
369 34 236 139 110 82 
369 35 236 136 105 75 
370 32 237 168 152 145 
370 33 236 139 106 87 
370 33 237 143 118 105 
371 32 237 174 160 155 
371 33 236 141 113 96 
371 33 237 145 124 113 
370 32 238 180 165 159 
371 32 238 184 169 164 
370 34 236 146 116 92 
371 34 236 151 118 94 
368 36 235 135 104 75 
368 37 235 130 103 74 
369 36 235 139 103 77 
369 37 235 134 103 75 
368 38 235 127 100 75 
368 39 235 130 98 72 
369 38 234 135 107 79 
369 38 235 131 105 79 
369 39 235 132 101 77 
370 36 235 144 111 83 
370 37 234 141 112 80 
370 37 235 142 109 79 
371 36 234 146 117 87 
371 36 235 146 115 86 
371 37 234 145 114 84 
371 38 233 142 115 86 
371 39 233 135 107 76 
370 38 234 140 113 84 
370 39 234 136 106 77 
371 38 234 143 116 87 
371 39 234 138 111 81 
368 36 236 137 105 76 
372 33 235 140 111 86 
373 33 235 139 116 96 
373 35 233 142 113 80 
372 34 235 149 117 86 
372 35 234 147 117 84 
372 35 235 149 119 87 
373 34 234 145 112 78 
373 34 235 145 112 81 
373 35 234 146 115 81 
375 33 232 122 98 77 
375 33 233 129 109 92 
374 32 235 170 155 148 
374 33 234 135 113 91 
374 33 235 146 130 117 
375 32 234 161 148 141 
375 32 235 178 161 156 
375 33 234 139 123 110 
374 34 232 137 106 71 
374 34 233 140 107 72 
374 35 232 136 108 77 
374 35 233 140 110 77 
375 34 232 132 102 70 
375 34 233 131 102 71 
374 34 234 138 107 73 
372 32 236 165 154 149 
372 32 237 178 165 160 
372 33 236 141 121 105 
373 32 236 177 163 158 
373 32 237 182 167 163 
373 33 236 150 136 127 
374 32 236 169 156 150 
372 37 233 142 111 80 
373 36 232 138 108 80 
373 36 233 142 112 82 
373 37 232 137 107 77 
373 37 233 141 109 79 
372 36 234 144 115 85 
372 37 234 145 114 83 
372 38 232 136 110 81 
372 38 233 138 111 82 
372 39 232 132 105 76 
372 39 233 136 109 80 
373 38 232 133 107 78 
374 36 232 136 108 79 
374 37 232 137 105 77 
371 45 231 121 96 67 
371 46 231 122 97 71 
371 47 231 123 98 72 
375 40 227 122 98 71 
375 41 227 122 97 70 
375 42 227 123 98 71 
375 43 226 121 96 69 
375 43 227 122 97 69 
372 40 231 130 102 75 
372 41 231 127 101 73 
373 40 230 127 99 72 
373 40 231 129 100 74 
373 41 230 125 102 77 
373 41 231 127 101 75 
373 43 229 122 97 71 
372 42 231 123 98 70 
372 43 231 122 97 68 
373 42 230 123 99 74 
373 42 231 125 100 75 
373 43 230 122 98 72 
374 40 229 123 96 70 
374 41 228 124 99 71 
374 41 229 124 99 74 
375 40 228 123 96 70 
375 40 229 123 95 68 
375 41 228 123 98 71 
374 40 230 126 98 71 
374 41 230 125 101 76 
374 42 228 124 100 72 
374 42 229 124 99 72 
374 43 228 124 99 71 
374 43 229 122 98 71 
375 42 228 124 99 72 
375 43 228 123 98 70 
375 45 225 120 95 67 
375 44 226 121 96 69 
375 44 227 122 97 70 
375 45 226 121 97 69 
375 45 227 123 98 70 
375 46 225 120 95 67 
375 47 224 119 94 64 
375 47 225 120 95 66 
374 47 227 121 96 66 
375 46 226 121 96 68 
375 46 227 122 97 69 
375 47 226 121 97 69 
375 47 227 121 96 67 
373 44 229 121 97 70 
373 45 229 121 98 71 
372 44 231 121 96 69 
372 45 231 121 96 69 
373 44 230 121 98 72 
373 45 230 120 97 71 
373 46 229 120 96 69 
373 47 229 119 95 68 
372 46 231 120 95 69 
372 47 231 121 96 70 
373 46 230 119 95 69 
373 47 230 118 94 68 
374 44 228 122 97 69 
374 44 229 122 97 70 
374 45 228 123 98 70 
374 45 229 122 98 71 
374 46 228 123 98 71 
374 46 229 121 97 70 
374 47 228 122 97 68 
374 47 229 120 96 68 
368 40 234 130 100 70 
368 40 235 130 99 70 
368 41 234 128 101 73 
369 40 234 132 101 72 
369 41 234 130 102 73 
369 43 233 128 101 72 
368 42 234 127 99 71 
368 43 234 126 99 71 
369 42 234 129 101 72 
369 43 234 127 100 72 
370 40 233 133 103 73 
370 41 233 131 103 73 
371 40 232 133 105 76 
371 40 233 133 105 75 
371 41 232 130 104 75 
371 41 233 131 105 75 
370 40 234 133 102 73 
370 41 234 131 102 74 
370 42 233 129 103 73 
370 43 232 128 102 73 
370 43 233 128 102 72 
371 42 232 128 102 73 
371 43 232 125 99 69 
368 45 233 124 98 71 
369 44 233 126 99 72 
369 45 233 124 99 72 
368 44 234 126 100 72 
368 45 234 124 98 70 
368 46 233 123 98 71 
368 47 233 120 95 68 
369 46 233 123 98 72 
369 47 233 122 97 70 
370 44 232 126 99 70 
370 44 233 126 100 71 
370 45 232 124 97 68 
370 45 233 124 98 70 
371 44 232 123 97 67 
371 45 232 123 97 67 
370 46 232 123 97 68 
370 46 233 123 97 69 
370 47 232 124 98 71 
370 47 233 123 97 70 
371 46 232 123 97 70 
371 47 232 124 98 71 
372 40 232 132 104 76 
372 41 232 130 104 75 
377 34 227 127 96 71 
377 35 226 128 94 71 
377 35 227 127 95 71 
379 33 224 137 98 76 
379 33 225 136 95 74 
378 33 227 126 87 63 
379 32 227 131 110 98 
379 33 226 133 95 77 
379 33 227 126 92 73 
378 34 225 131 98 73 
378 35 224 132 97 74 
378 35 225 130 95 73 
379 34 224 136 100 78 
379 34 225 135 97 73 
379 35 224 133 98 76 
378 34 226 129 96 68 
378 34 227 128 93 67 
378 35 226 127 94 69 
379 34 226 133 94 69 
377 33 229 123 85 65 
376 33 231 120 94 80 
377 32 231 149 135 131 
377 33 230 121 88 74 
377 33 231 130 110 104 
