ply
format ascii 1.0
comment Created by CloudCompare v2.10.1 (Zephyrus)
comment Created 1/31/20 6:09 PM
obj_info Generated by CloudCompare!
element vertex 2016
property float x
property float y
property float z
property uchar red
property uchar green
property uchar blue
end_header
232 873 293 143 103 77 
232 872 294 146 106 79 
232 872 295 146 106 80 
232 873 294 144 104 77 
232 873 295 144 104 77 
232 874 292 144 104 75 
232 874 293 142 102 75 
232 875 292 145 104 77 
232 875 293 142 102 76 
232 874 294 143 103 75 
232 874 295 146 106 79 
232 875 294 142 103 75 
232 875 295 144 105 77 
233 875 295 143 104 75 
232 877 289 146 106 78 
232 876 290 146 108 79 
232 876 291 145 104 77 
232 877 290 145 106 77 
232 877 291 143 103 74 
232 878 289 143 103 74 
232 878 290 141 102 72 
232 878 291 139 102 71 
232 879 290 137 97 69 
233 878 291 138 101 71 
233 879 290 134 96 69 
233 879 291 132 96 70 
232 876 292 143 102 77 
232 876 293 139 98 75 
232 877 292 139 100 73 
233 876 293 136 95 71 
233 877 292 135 97 69 
233 877 293 130 92 65 
233 876 294 135 95 69 
233 876 295 136 96 68 
233 877 294 124 85 59 
233 877 295 123 83 59 
233 878 292 133 98 70 
233 878 293 124 90 64 
233 879 292 128 94 69 
233 878 294 115 80 55 
233 878 295 113 77 55 
234 878 293 117 84 61 
234 879 292 123 89 66 
234 879 293 115 81 61 
234 878 294 110 76 54 
234 878 295 109 74 53 
234 879 294 104 69 51 
234 879 295 103 68 46 
232 872 296 145 105 77 
232 873 296 145 105 76 
233 872 296 147 106 79 
233 872 297 147 107 78 
233 873 296 145 104 75 
233 873 297 148 108 79 
233 872 298 149 109 78 
233 872 299 148 110 78 
233 873 298 151 112 82 
233 873 299 150 113 82 
232 874 296 147 107 78 
233 874 296 147 109 79 
233 874 297 149 111 80 
233 875 296 146 108 79 
233 875 297 147 109 78 
233 874 298 150 111 81 
233 874 299 151 112 85 
233 875 298 148 109 79 
233 875 299 146 106 79 
232 872 301 142 105 79 
233 872 300 145 107 78 
233 872 301 141 105 79 
233 873 300 146 109 80 
233 873 301 141 105 78 
232 872 302 142 107 81 
232 872 303 144 108 81 
232 873 302 142 107 79 
232 873 303 143 107 79 
233 873 302 140 105 78 
233 874 300 146 109 81 
233 874 301 141 105 78 
233 875 300 142 103 77 
233 875 301 135 98 71 
232 874 303 142 107 76 
232 875 303 141 106 73 
233 874 302 139 104 77 
233 874 303 141 107 77 
233 875 302 138 103 75 
233 875 303 140 107 75 
233 876 296 138 99 73 
233 876 297 140 101 74 
233 877 296 126 87 65 
233 877 297 131 92 69 
233 876 298 141 101 74 
233 876 299 138 97 70 
233 877 298 132 93 66 
233 877 299 129 90 61 
233 878 297 129 94 69 
233 878 298 127 91 64 
233 878 299 126 88 58 
233 879 298 126 88 61 
233 879 299 131 93 63 
234 878 296 114 79 57 
234 878 297 123 87 64 
234 879 296 114 78 52 
234 879 297 125 88 60 
234 879 298 130 92 64 
232 877 301 131 97 70 
233 876 300 131 91 64 
233 876 301 131 94 68 
233 877 300 127 89 60 
233 877 301 129 93 67 
232 876 303 140 106 76 
232 877 302 138 103 77 
232 877 303 140 105 78 
233 876 302 137 103 75 
233 876 303 139 106 76 
233 877 302 137 102 75 
233 878 300 127 91 62 
233 878 301 128 94 66 
233 879 300 132 94 65 
233 879 301 132 94 66 
232 878 302 140 105 77 
232 878 303 141 106 78 
232 879 302 140 105 76 
232 879 303 142 107 77 
233 878 302 136 101 73 
233 879 302 138 102 73 
227 864 304 147 109 80 
227 864 305 149 110 80 
227 864 306 150 111 81 
227 864 307 149 111 81 
227 864 308 149 111 81 
227 864 309 149 110 79 
227 864 310 151 111 80 
227 864 311 153 112 82 
228 864 304 149 110 82 
228 864 305 151 112 83 
228 865 304 151 113 84 
228 865 305 152 114 84 
229 865 304 151 114 85 
228 864 306 150 112 81 
228 864 307 150 112 82 
228 865 306 152 114 83 
228 865 307 151 113 83 
229 866 304 151 112 83 
229 866 305 151 113 83 
229 867 304 151 113 84 
229 867 305 152 113 83 
229 866 306 152 113 83 
229 866 307 151 112 81 
229 867 306 151 112 83 
229 867 307 150 111 80 
230 867 304 151 113 84 
230 867 305 153 113 84 
230 867 306 151 111 82 
230 867 307 150 111 81 
228 864 308 150 112 82 
228 864 309 150 111 80 
228 865 308 151 113 83 
228 865 309 151 112 82 
228 864 310 151 111 80 
228 865 310 152 111 81 
228 865 311 153 111 81 
229 866 308 151 112 82 
229 866 309 151 111 81 
229 867 308 151 111 82 
229 867 309 151 110 81 
228 866 310 152 111 81 
228 866 311 153 111 82 
229 866 310 151 111 81 
229 866 311 154 112 83 
229 867 310 152 112 82 
229 867 311 155 114 85 
230 868 304 150 111 83 
230 868 305 152 112 84 
230 869 304 150 111 83 
230 869 305 151 112 84 
230 868 306 151 112 83 
230 868 307 149 110 80 
230 869 306 150 111 82 
230 869 307 149 109 79 
230 870 304 151 114 86 
230 870 305 150 112 83 
231 870 304 149 113 85 
231 871 304 147 111 82 
231 871 305 149 112 83 
230 870 306 149 110 79 
230 870 307 149 110 79 
230 871 307 151 112 81 
231 871 306 149 111 80 
231 871 307 150 111 81 
229 868 310 153 112 83 
229 868 311 154 113 85 
230 868 308 150 109 80 
230 868 309 151 110 81 
230 869 308 150 110 81 
230 869 309 152 111 82 
230 868 310 152 111 83 
230 868 311 155 113 86 
230 869 310 153 112 82 
230 869 311 155 113 85 
230 870 308 151 111 81 
230 870 309 153 113 83 
230 871 308 152 111 82 
230 871 309 153 112 82 
231 871 308 151 111 82 
231 871 309 153 112 83 
230 870 310 154 113 83 
230 870 311 156 114 85 
230 871 310 154 112 82 
230 871 311 156 114 84 
227 864 312 153 112 83 
227 864 313 153 113 81 
227 864 314 153 112 81 
227 864 315 152 110 80 
227 865 314 153 112 81 
227 865 315 152 109 80 
226 864 316 153 109 81 
227 864 316 153 110 82 
227 865 316 153 109 81 
227 866 316 153 109 83 
227 866 317 153 109 83 
227 867 317 152 106 81 
227 868 318 152 104 77 
228 865 312 154 112 82 
228 865 313 153 112 82 
228 865 314 153 112 82 
228 865 315 153 110 81 
228 866 312 154 113 83 
228 866 313 154 113 84 
229 866 312 154 113 83 
229 867 312 155 115 85 
229 867 313 154 113 84 
228 866 314 153 112 83 
228 866 315 153 110 82 
228 867 314 152 111 83 
228 867 315 152 108 81 
229 867 314 153 112 84 
228 866 316 153 107 83 
228 867 316 152 106 82 
228 867 317 152 105 81 
229 868 312 155 114 84 
229 868 313 154 114 84 
229 869 312 156 113 86 
229 869 313 154 112 83 
228 868 315 151 105 80 
229 868 314 153 110 84 
229 868 315 151 106 81 
229 869 314 151 107 82 
229 869 315 148 101 79 
229 870 313 155 111 84 
229 871 313 155 110 83 
229 870 314 152 105 81 
229 870 315 148 100 77 
229 871 314 153 107 82 
229 871 315 150 103 80 
230 869 312 156 115 87 
230 870 312 156 114 86 
230 870 313 156 113 86 
230 871 312 156 113 85 
230 871 313 156 112 84 
228 868 316 149 102 78 
228 868 317 150 102 79 
228 869 316 146 96 74 
228 869 317 147 96 73 
229 869 316 146 96 75 
228 868 318 151 103 78 
228 869 318 149 100 75 
228 870 317 147 97 76 
228 871 317 150 102 82 
229 870 316 148 97 77 
229 870 317 149 99 79 
229 871 316 149 101 79 
229 871 317 150 101 81 
228 870 318 149 101 79 
228 870 319 152 105 79 
228 871 318 150 103 81 
228 871 319 151 105 80 
231 872 304 145 108 80 
231 872 305 147 109 79 
231 873 305 146 108 78 
231 872 306 148 111 80 
231 872 307 150 111 80 
231 873 306 148 109 79 
231 873 307 150 110 81 
231 874 305 145 107 77 
231 875 305 144 108 75 
231 874 306 147 108 78 
231 874 307 150 109 81 
231 875 306 147 109 77 
231 875 307 149 109 79 
231 872 308 152 111 83 
231 872 309 153 112 82 
231 873 308 152 111 83 
231 873 309 154 112 83 
230 872 310 154 113 82 
230 872 311 156 114 84 
230 873 310 155 113 84 
230 873 311 156 114 85 
231 872 310 154 112 81 
231 873 310 155 113 84 
231 874 308 152 111 82 
231 874 309 154 111 83 
231 875 308 152 111 80 
231 875 309 153 111 82 
230 874 311 156 114 85 
230 875 311 154 112 82 
231 874 310 156 114 85 
231 875 310 154 112 82 
231 875 311 155 113 83 
231 876 305 144 109 76 
231 877 305 144 109 76 
231 876 306 147 110 76 
231 876 307 150 110 78 
231 877 306 147 111 77 
231 877 307 150 111 77 
231 878 306 148 110 78 
231 878 307 151 111 78 
231 876 308 151 111 79 
231 876 309 154 112 82 
231 877 308 152 112 80 
231 877 309 154 112 81 
231 876 310 155 113 83 
231 876 311 153 111 81 
231 877 310 154 112 81 
231 877 311 153 111 80 
231 878 309 153 111 79 
231 879 309 154 111 81 
231 878 310 154 111 79 
231 878 311 152 110 79 
231 879 310 154 110 80 
231 879 311 151 107 77 
229 872 314 154 108 82 
229 872 315 151 104 80 
229 873 314 151 106 77 
229 873 315 150 104 77 
229 874 314 150 104 74 
229 874 315 148 103 74 
229 875 315 147 102 73 
230 872 312 156 113 84 
230 872 313 156 111 84 
230 873 312 156 113 84 
230 873 313 154 110 81 
230 873 314 152 108 78 
230 874 312 154 111 82 
230 874 313 152 108 78 
230 875 312 152 110 80 
230 875 313 150 106 77 
230 874 314 150 105 75 
230 875 314 148 103 74 
230 875 315 147 101 72 
229 872 316 150 102 79 
229 872 317 150 102 80 
229 873 316 150 103 78 
229 873 317 150 104 79 
228 872 318 150 103 81 
228 872 319 151 105 81 
228 873 318 150 103 79 
228 873 319 150 104 79 
229 872 318 150 103 80 
229 873 318 150 104 79 
229 874 316 149 103 76 
229 874 317 148 103 76 
229 875 316 147 102 73 
229 875 317 147 102 73 
229 874 318 149 103 76 
229 874 319 149 104 76 
229 875 318 147 102 73 
229 875 319 148 103 73 
229 876 315 145 100 71 
230 876 312 150 108 78 
230 876 313 149 104 76 
230 877 313 147 103 75 
231 876 312 151 108 79 
231 877 312 149 107 77 
231 877 313 147 103 74 
230 876 314 147 102 73 
230 876 315 145 100 71 
230 877 314 146 100 72 
230 877 315 144 99 71 
231 878 312 149 106 75 
231 878 313 146 102 73 
231 879 312 148 104 74 
231 879 313 145 100 71 
230 878 314 143 99 68 
230 878 315 143 98 68 
230 879 314 142 97 66 
230 879 315 141 96 66 
231 878 314 145 101 71 
231 879 314 142 96 67 
229 876 316 145 100 72 
229 876 317 146 101 73 
229 877 317 146 101 74 
229 876 318 147 102 74 
229 876 319 147 103 73 
229 877 318 147 102 75 
229 877 319 147 102 73 
229 878 319 146 102 71 
230 877 316 144 98 71 
230 877 317 145 99 72 
230 877 318 146 101 74 
230 878 316 143 98 69 
230 878 317 144 99 70 
230 879 316 142 97 68 
230 879 317 142 98 70 
230 878 318 144 100 71 
230 878 319 145 101 71 
230 879 318 143 98 70 
230 879 319 144 100 71 
232 872 304 144 107 78 
232 873 304 143 106 75 
232 874 304 142 107 75 
232 874 305 144 107 76 
232 875 304 141 106 73 
232 875 305 143 107 75 
232 876 304 140 105 74 
232 876 305 142 106 74 
232 877 304 141 105 76 
232 877 305 142 106 75 
232 877 307 150 110 77 
232 878 304 141 106 77 
232 878 305 144 107 78 
232 879 304 143 108 77 
232 879 305 147 109 79 
232 878 306 149 110 79 
232 878 307 150 111 78 
232 879 306 149 110 78 
232 879 307 151 110 77 
232 878 308 152 111 80 
232 878 309 153 111 80 
232 879 308 153 111 80 
232 879 309 153 111 81 
233 880 291 125 88 66 
234 880 291 120 82 62 
234 881 291 112 76 57 
235 881 291 107 69 49 
234 880 292 117 82 63 
234 880 293 111 76 57 
235 880 293 105 67 48 
235 881 292 106 67 46 
235 881 293 104 63 41 
234 880 294 104 67 50 
234 880 295 106 69 45 
235 880 294 105 64 41 
235 880 295 120 80 56 
235 881 294 111 68 42 
235 881 295 132 92 67 
236 881 293 105 60 34 
236 881 294 121 77 54 
236 881 295 139 96 72 
236 882 292 104 59 31 
236 882 293 112 66 40 
237 882 293 124 78 54 
237 883 293 136 90 68 
236 882 294 131 84 62 
236 882 295 145 98 76 
237 882 294 138 90 70 
237 882 295 153 102 82 
237 883 294 149 98 80 
237 883 295 158 105 87 
238 883 293 147 97 77 
238 883 294 158 103 86 
238 883 295 161 107 87 
238 884 294 163 109 90 
238 884 295 164 111 90 
238 885 295 167 115 91 
239 885 294 171 118 96 
239 885 295 171 122 96 
239 886 295 174 126 102 
233 880 299 141 100 70 
234 880 296 131 92 63 
234 880 297 139 100 68 
235 880 296 132 92 66 
235 880 297 143 103 73 
235 881 296 148 105 81 
235 881 297 155 111 84 
234 880 298 142 101 68 
234 880 299 145 104 72 
234 881 298 153 111 80 
234 881 299 154 112 83 
235 881 298 157 113 83 
235 882 297 161 115 90 
234 882 298 161 117 89 
234 882 299 161 119 92 
234 883 299 162 119 92 
235 882 298 163 117 91 
235 882 299 163 119 93 
235 883 298 162 115 90 
235 883 299 160 114 88 
232 880 301 140 102 73 
233 880 300 139 98 69 
233 880 301 138 98 69 
233 881 300 149 107 79 
233 881 301 147 108 79 
232 880 302 143 107 77 
232 880 303 144 109 78 
232 881 302 145 108 79 
232 881 303 146 109 79 
233 881 302 147 109 80 
233 882 300 155 113 86 
233 882 301 153 111 84 
233 883 301 155 112 84 
232 882 302 148 109 80 
232 882 303 147 108 78 
232 883 303 147 107 78 
233 882 302 149 109 80 
233 883 302 151 108 81 
233 883 303 147 106 78 
234 882 300 159 116 89 
234 883 300 159 115 87 
234 883 301 156 112 84 
235 883 300 158 112 84 
235 884 299 157 110 82 
233 884 302 149 107 78 
233 884 303 148 105 76 
233 885 303 147 104 75 
234 884 301 154 109 80 
234 885 301 152 105 75 
235 884 300 155 108 79 
235 884 301 153 106 76 
235 885 300 154 106 76 
235 885 301 155 107 77 
234 884 302 151 107 78 
234 885 302 150 106 75 
234 885 303 148 105 74 
235 885 302 154 107 77 
235 886 301 160 114 86 
234 886 303 150 105 75 
234 887 303 152 107 78 
235 886 302 159 114 86 
235 887 302 162 116 91 
235 887 303 157 112 86 
236 881 296 148 104 79 
236 882 296 158 109 87 
236 882 297 164 115 91 
236 883 296 165 114 92 
236 883 297 164 116 90 
237 882 296 160 108 87 
237 883 296 165 113 91 
237 883 297 165 117 91 
236 883 298 163 114 89 
237 884 296 166 117 93 
237 884 297 164 117 90 
237 885 297 162 116 88 
236 884 298 161 114 86 
236 884 299 159 112 83 
236 885 299 157 110 81 
237 884 298 161 115 87 
237 885 298 159 112 84 
237 885 299 158 111 82 
237 886 298 158 111 83 
237 886 299 159 110 83 
237 887 298 159 110 83 
237 887 299 160 109 84 
238 884 296 166 117 93 
238 885 296 168 120 94 
238 885 297 164 117 92 
239 885 296 170 123 98 
238 886 297 163 117 91 
238 887 297 161 114 86 
239 886 296 170 123 98 
239 887 296 166 117 91 
239 887 297 162 114 87 
238 886 298 159 113 84 
238 887 298 160 112 84 
236 885 300 156 109 79 
236 886 300 159 112 84 
236 886 301 160 114 87 
236 887 300 161 114 90 
236 887 301 162 116 91 
237 887 300 162 111 87 
236 887 302 159 113 87 
235 888 302 154 106 83 
235 888 303 160 114 89 
235 889 302 148 97 77 
235 889 303 156 108 85 
235 890 302 145 97 77 
235 890 303 153 106 83 
235 891 303 152 108 82 
235 892 303 152 109 83 
235 893 303 149 106 80 
237 888 299 160 106 87 
237 889 299 141 74 56 
237 890 299 126 60 43 
237 891 299 125 69 54 
238 888 297 166 117 91 
239 888 296 167 116 89 
239 888 297 165 118 90 
239 889 297 170 119 97 
238 888 298 165 114 92 
238 889 298 160 105 88 
238 890 298 136 71 59 
238 891 298 123 59 50 
236 888 300 161 111 92 
236 888 301 154 104 83 
236 889 301 139 82 65 
237 888 300 160 108 90 
237 889 300 144 85 68 
236 888 302 152 103 80 
236 889 302 140 86 68 
236 890 301 131 77 59 
236 891 301 131 80 61 
237 890 300 128 70 51 
237 891 300 129 77 59 
236 890 302 137 86 68 
236 891 302 141 94 73 
237 892 299 130 80 63 
238 892 299 124 72 56 
236 892 301 131 83 60 
237 892 300 128 77 59 
237 892 301 126 74 52 
237 893 301 125 75 53 
236 892 302 141 96 70 
236 892 303 147 105 78 
236 893 302 137 90 64 
236 893 303 139 93 66 
237 893 302 130 81 57 
236 894 303 130 80 56 
237 894 302 123 74 53 
237 894 303 124 76 56 
238 893 300 128 77 57 
238 893 301 122 73 53 
239 893 300 125 77 55 
239 893 301 126 78 57 
238 894 301 124 77 55 
239 894 301 126 79 56 
238 894 302 121 73 53 
238 894 303 122 76 57 
239 894 302 124 78 56 
239 894 303 126 81 59 
231 880 309 153 111 81 
231 880 310 153 109 80 
231 880 311 151 106 77 
231 881 311 150 105 77 
231 880 312 147 103 74 
231 880 313 143 98 70 
231 881 312 146 101 74 
231 881 313 142 97 70 
231 880 314 141 96 68 
231 880 315 139 95 65 
231 881 314 139 95 68 
231 881 315 138 93 65 
231 882 313 141 96 70 
231 882 314 139 94 68 
231 882 315 138 94 67 
231 883 314 138 95 68 
231 883 315 138 94 66 
230 880 316 141 97 68 
230 880 317 142 98 70 
230 881 317 141 97 68 
231 880 316 140 96 67 
231 881 316 139 95 67 
231 881 317 141 97 68 
230 880 318 143 99 70 
230 880 319 143 99 70 
230 881 318 142 98 68 
230 881 319 143 99 71 
231 882 316 139 95 67 
231 882 317 141 97 68 
231 883 316 139 95 66 
231 883 317 141 97 68 
230 882 318 143 99 70 
230 882 319 145 102 73 
230 883 319 146 102 72 
231 882 318 143 99 69 
231 883 318 144 100 71 
231 884 315 138 96 67 
231 885 315 139 98 69 
231 884 316 139 96 67 
231 884 317 143 98 69 
231 885 316 141 99 70 
231 885 317 144 100 70 
230 884 319 147 102 73 
231 884 318 146 102 73 
231 884 319 147 102 73 
231 885 318 147 102 73 
231 885 319 148 103 73 
231 886 316 143 100 71 
231 886 317 146 102 73 
231 887 317 147 104 75 
231 886 318 148 104 75 
231 886 319 150 105 76 
231 887 318 149 106 78 
231 887 319 150 106 78 
231 888 317 146 103 74 
231 889 317 147 103 74 
231 888 318 148 104 76 
231 888 319 150 105 77 
231 889 318 149 105 77 
231 889 319 151 107 78 
231 890 318 149 105 76 
231 890 319 152 108 79 
231 891 319 155 111 83 
232 880 304 145 110 78 
232 880 305 147 111 80 
232 881 304 147 111 80 
232 881 305 149 111 80 
232 880 306 149 110 78 
232 880 307 152 111 78 
232 881 306 150 110 78 
232 881 307 152 110 78 
232 882 304 148 110 80 
232 882 305 150 110 80 
232 883 304 149 109 80 
232 883 305 150 109 79 
233 883 304 148 108 79 
232 882 306 152 110 79 
232 882 307 152 109 78 
232 883 306 152 109 79 
232 883 307 152 109 78 
232 880 308 153 111 80 
232 880 309 153 110 80 
232 881 308 152 109 78 
232 881 309 152 109 78 
232 880 310 153 110 81 
232 881 310 151 107 79 
232 881 311 149 104 76 
232 882 308 153 109 79 
232 882 309 152 108 78 
232 883 308 152 108 78 
232 883 309 151 107 78 
232 882 310 149 105 76 
232 882 311 148 103 76 
232 883 310 148 103 74 
232 883 311 146 101 73 
232 884 305 151 110 80 
233 884 304 148 107 78 
233 884 305 151 110 80 
233 885 304 147 105 77 
233 885 305 151 110 81 
232 884 306 152 110 80 
232 884 307 153 109 79 
233 885 306 153 110 80 
233 885 307 153 109 79 
233 886 305 151 109 81 
233 886 306 154 111 81 
233 886 307 154 110 79 
233 887 306 155 113 82 
233 887 307 154 111 80 
234 885 304 147 104 74 
234 886 304 148 104 75 
234 886 305 151 108 80 
234 887 304 151 107 77 
234 887 305 152 110 80 
234 887 306 154 113 82 
232 884 308 152 107 78 
232 884 309 151 105 77 
233 885 308 152 107 77 
233 885 309 150 104 76 
232 884 310 148 102 74 
232 884 311 144 101 72 
232 885 310 148 101 74 
232 885 311 144 100 72 
233 886 308 152 107 77 
233 886 309 151 105 76 
233 887 308 152 107 76 
233 887 309 150 105 75 
232 886 310 146 101 74 
232 886 311 144 100 72 
233 886 310 148 102 75 
233 886 311 145 100 74 
233 887 310 148 102 74 
233 887 311 143 99 72 
232 881 312 146 101 74 
232 882 312 145 101 74 
232 882 313 141 97 70 
232 883 312 143 100 72 
232 883 313 140 97 70 
232 883 314 138 96 68 
232 884 312 142 98 70 
232 884 313 141 98 70 
232 885 312 141 98 69 
232 885 313 139 97 68 
232 884 314 139 97 69 
232 884 315 138 96 67 
232 885 314 138 97 68 
232 885 315 139 97 67 
232 886 312 141 98 68 
232 886 313 139 97 68 
232 887 312 140 98 68 
232 887 313 139 96 66 
232 886 314 139 98 68 
232 886 315 140 99 68 
232 887 314 139 96 67 
232 887 315 141 99 70 
232 886 316 142 100 70 
232 887 316 143 101 71 
233 888 307 155 112 82 
234 888 304 153 110 79 
234 888 305 153 112 80 
234 889 305 154 112 83 
235 888 304 155 111 81 
235 889 304 156 111 83 
235 889 305 154 112 84 
234 888 306 155 113 83 
234 888 307 156 113 84 
234 889 306 156 115 86 
234 889 307 156 114 86 
235 890 304 156 112 85 
235 890 305 157 116 88 
235 891 304 159 118 90 
235 891 305 157 118 91 
234 890 306 154 114 86 
234 890 307 155 113 86 
234 891 306 153 113 85 
234 891 307 151 108 82 
235 891 306 155 117 88 
233 888 308 153 109 79 
233 888 309 150 104 75 
233 889 308 154 110 82 
233 889 309 150 106 77 
233 888 310 146 101 73 
233 888 311 143 99 72 
233 889 310 144 101 71 
233 889 311 142 99 70 
233 890 309 150 107 78 
233 890 310 146 103 75 
233 890 311 143 102 73 
233 891 310 147 103 76 
233 891 311 145 102 74 
234 889 308 155 112 84 
234 890 308 155 112 85 
234 890 309 152 109 81 
234 891 308 150 105 80 
234 891 309 149 105 79 
234 891 310 146 102 76 
235 892 304 159 119 93 
235 892 305 158 120 93 
235 893 304 149 107 82 
235 893 305 149 109 84 
234 892 306 151 112 85 
234 892 307 149 109 84 
235 892 306 152 114 88 
235 893 306 145 105 82 
235 893 307 142 103 80 
235 894 305 138 94 72 
235 894 306 133 87 66 
235 894 307 131 90 66 
233 892 311 141 100 71 
234 892 308 144 101 75 
234 892 309 143 98 71 
234 893 308 141 101 76 
234 893 309 134 91 63 
235 893 308 140 101 78 
234 892 310 143 100 74 
234 892 311 141 99 72 
234 893 310 134 91 64 
234 893 311 137 97 70 
235 894 308 133 94 71 
235 894 309 131 92 69 
234 894 310 130 88 63 
234 894 311 130 90 65 
235 894 310 128 88 64 
235 895 310 125 86 63 
235 895 311 119 81 59 
236 893 304 142 97 71 
236 894 304 129 81 58 
236 894 305 127 78 57 
237 894 304 122 74 53 
237 895 304 120 74 54 
237 895 305 120 74 51 
236 894 306 124 78 55 
236 894 307 125 82 58 
236 895 307 121 80 55 
237 895 306 121 80 55 
237 895 307 122 85 61 
238 894 304 122 77 57 
238 895 304 121 79 58 
238 895 305 123 83 60 
239 894 304 127 84 60 
239 895 304 128 88 64 
239 895 305 132 94 69 
238 895 306 126 91 67 
238 895 307 126 95 71 
239 895 306 134 97 75 
239 895 307 132 98 77 
236 894 308 124 85 60 
236 895 308 123 86 61 
236 895 309 124 88 64 
237 895 308 121 87 63 
237 895 309 119 86 61 
236 895 310 120 85 62 
238 895 308 125 94 71 
232 888 312 139 98 69 
232 888 313 138 97 68 
232 889 313 138 97 68 
233 888 312 140 98 70 
233 889 312 140 99 70 
233 889 313 138 97 68 
232 888 314 138 97 69 
232 888 315 141 99 71 
232 889 314 137 96 67 
232 889 315 140 98 70 
233 890 312 141 100 72 
233 890 313 139 98 69 
233 891 312 142 100 72 
233 891 313 139 98 69 
232 890 314 136 95 65 
232 890 315 138 96 67 
232 891 315 139 96 67 
233 890 314 136 95 66 
233 891 314 138 96 67 
233 891 315 138 96 67 
232 888 316 144 101 73 
232 888 317 145 102 73 
232 889 316 143 101 73 
232 889 317 145 102 72 
232 890 316 143 100 71 
232 890 317 147 103 74 
232 891 316 142 99 69 
232 891 317 148 105 76 
232 890 318 151 107 78 
232 891 318 152 107 78 
232 891 319 154 110 81 
233 892 312 140 99 70 
233 892 313 139 98 70 
233 893 312 137 98 68 
233 893 313 138 98 71 
233 892 314 137 96 68 
233 892 315 138 97 69 
233 893 314 135 94 66 
233 893 315 134 93 64 
233 894 313 136 97 71 
233 894 314 133 94 68 
233 894 315 132 91 65 
233 895 315 131 93 67 
234 893 312 136 98 69 
234 893 313 136 96 69 
234 894 312 133 95 71 
234 894 313 133 94 67 
234 895 312 122 84 62 
234 895 313 130 93 70 
235 895 312 119 80 58 
234 894 314 131 92 64 
234 895 314 129 92 65 
234 895 315 129 92 65 
232 892 317 147 103 74 
232 893 317 148 104 75 
233 892 316 140 97 67 
233 892 317 143 100 70 
233 893 316 137 94 64 
233 893 317 144 101 71 
232 892 318 151 106 76 
232 892 319 154 109 81 
232 893 318 151 106 77 
232 893 319 154 109 81 
233 894 316 134 92 64 
233 894 317 142 100 71 
233 895 316 131 93 65 
233 895 317 139 97 69 
232 894 318 153 108 78 
232 894 319 155 109 81 
232 895 319 156 111 82 
233 894 318 151 107 78 
233 894 319 154 110 81 
233 895 318 150 105 77 
233 895 319 155 110 81 
228 873 320 150 105 77 
228 874 320 149 104 76 
228 875 321 148 104 75 
229 874 320 148 104 76 
229 875 320 147 103 74 
229 875 321 147 103 73 
229 876 320 147 103 73 
229 876 321 147 103 73 
229 877 320 146 102 72 
229 877 321 147 103 74 
229 877 322 147 103 75 
229 878 320 146 102 73 
229 878 321 147 103 74 
229 879 321 147 102 74 
229 878 322 147 102 73 
229 879 322 148 102 75 
229 879 323 149 103 75 
230 878 320 145 102 72 
230 878 321 148 104 76 
230 879 320 146 102 73 
230 879 321 147 102 75 
229 880 322 147 101 74 
229 880 323 148 102 72 
229 881 323 149 102 74 
229 882 323 150 102 74 
230 880 320 145 101 74 
230 880 321 146 101 75 
230 881 320 146 101 74 
230 881 321 146 101 75 
230 880 322 147 101 74 
230 881 322 147 100 75 
230 881 323 148 101 74 
230 882 320 146 102 75 
230 882 321 146 100 73 
230 883 320 147 102 73 
230 883 321 148 103 75 
230 882 322 148 101 75 
230 882 323 150 102 75 
230 883 322 151 105 79 
230 883 323 152 107 80 
229 881 324 151 105 76 
229 882 324 152 104 75 
229 883 324 153 106 78 
229 883 325 156 109 81 
230 883 324 154 107 80 
230 884 320 148 103 74 
230 884 321 150 104 76 
230 885 320 150 104 74 
230 885 321 151 105 76 
230 884 322 151 105 77 
230 884 323 153 107 79 
230 885 322 152 106 78 
230 885 323 154 108 80 
230 886 320 152 106 76 
230 886 321 153 108 79 
230 887 320 152 107 77 
230 887 321 154 108 78 
231 886 320 153 107 78 
231 887 320 151 106 76 
230 886 322 154 108 81 
230 886 323 155 109 83 
230 887 322 155 110 81 
230 887 323 156 109 82 
229 884 325 157 110 82 
229 885 325 158 111 83 
229 885 326 160 113 85 
230 884 324 155 109 81 
230 884 325 156 111 82 
230 885 324 156 110 82 
230 885 325 158 111 83 
230 885 326 161 114 86 
230 886 324 157 110 84 
230 886 325 159 112 85 
230 887 324 158 110 83 
230 887 325 161 113 85 
230 886 326 162 116 88 
230 887 326 163 115 87 
230 887 327 165 118 89 
230 888 321 154 109 80 
231 888 320 152 107 78 
231 888 321 154 109 80 
231 889 320 154 109 80 
231 889 321 156 112 83 
230 888 322 155 110 82 
230 888 323 156 111 83 
230 889 322 157 111 83 
230 889 323 157 111 84 
231 889 322 157 111 83 
231 890 320 155 110 80 
231 890 321 157 111 83 
231 891 320 156 111 83 
231 891 321 157 111 83 
230 890 323 158 112 84 
231 890 322 158 112 85 
231 890 323 159 113 85 
231 891 322 159 112 85 
231 891 323 160 113 85 
230 888 324 159 112 85 
230 888 325 161 113 86 
230 889 324 159 112 85 
230 889 325 161 112 86 
230 888 326 163 115 87 
230 888 327 166 120 91 
230 889 326 163 116 88 
230 889 327 166 121 91 
230 890 324 160 113 85 
230 890 325 162 114 87 
230 891 324 161 115 87 
230 891 325 163 117 89 
231 891 324 161 114 86 
230 890 326 164 118 90 
230 890 327 168 122 93 
230 891 326 166 120 92 
230 891 327 169 123 95 
231 892 320 157 111 82 
231 892 321 158 111 83 
231 893 321 158 111 83 
231 892 322 160 113 86 
231 892 323 161 115 87 
231 893 322 160 114 86 
231 893 323 162 116 87 
231 894 322 161 114 86 
231 894 323 163 116 88 
231 895 323 165 118 92 
230 892 325 165 118 90 
231 892 324 163 116 88 
231 892 325 164 117 89 
231 893 324 164 116 89 
231 893 325 165 117 88 
230 892 326 167 119 92 
230 892 327 169 123 95 
230 893 326 168 120 92 
230 893 327 171 124 97 
231 893 326 167 118 90 
231 894 324 164 116 87 
231 894 325 167 119 90 
231 895 324 167 119 91 
231 895 325 170 122 92 
230 894 327 173 125 97 
231 894 326 171 123 94 
231 894 327 174 125 98 
231 895 326 173 124 95 
231 895 327 175 126 98 
230 889 328 169 123 93 
230 890 328 170 124 94 
230 891 328 171 126 97 
230 891 329 173 128 100 
229 894 330 177 131 104 
229 895 330 178 132 105 
230 892 328 172 127 97 
230 892 329 174 129 100 
230 893 328 173 127 97 
230 893 329 175 129 99 
230 894 328 175 128 98 
230 894 329 176 129 98 
230 895 328 177 128 101 
230 895 329 177 129 102 
231 895 328 177 128 101 
230 894 330 177 130 102 
230 895 330 178 131 104 
232 892 320 156 111 83 
232 893 320 157 111 83 
232 893 321 158 111 83 
232 894 320 157 111 83 
232 894 321 158 111 83 
232 895 320 158 111 83 
232 895 321 160 113 86 
232 894 322 160 112 84 
232 895 322 163 115 89 
232 895 323 165 116 91 
235 896 311 112 76 55 
238 896 307 125 95 72 
239 896 307 126 92 72 
237 896 308 122 92 69 
237 896 309 119 88 65 
236 896 310 115 82 58 
236 896 311 114 82 62 
236 897 311 110 79 60 
237 896 310 115 83 60 
237 897 310 109 78 57 
237 897 311 110 78 57 
236 898 311 106 75 57 
237 898 311 101 71 54 
237 899 311 97 68 52 
238 896 308 123 94 72 
238 896 309 119 90 69 
238 897 309 113 83 64 
239 896 308 118 87 66 
239 897 309 112 83 63 
238 897 310 110 80 61 
239 898 309 107 78 57 
238 898 310 103 73 54 
238 898 311 99 69 51 
238 899 311 96 68 51 
239 898 310 105 76 55 
239 899 310 108 80 59 
239 899 311 107 80 60 
238 900 311 98 71 54 
239 900 311 106 79 60 
234 896 312 117 81 61 
234 896 313 122 86 64 
234 897 313 112 75 53 
235 896 312 112 76 55 
235 897 312 110 75 53 
235 897 313 111 74 52 
234 896 314 126 93 68 
234 896 315 127 91 64 
234 897 314 121 88 65 
234 897 315 124 90 67 
235 898 312 108 78 56 
235 898 313 106 72 50 
235 899 313 102 74 54 
234 898 314 112 80 57 
234 898 315 118 87 67 
234 899 315 113 85 66 
235 898 314 106 73 51 
235 899 314 102 73 52 
235 899 315 107 81 61 
233 896 316 129 92 64 
233 896 317 135 94 65 
233 897 317 132 93 65 
233 896 318 147 102 76 
233 896 319 154 108 81 
233 897 318 141 97 72 
233 897 319 151 105 79 
233 898 317 132 95 70 
233 899 317 131 96 74 
233 898 318 139 98 74 
233 898 319 147 102 77 
233 899 318 136 97 75 
233 899 319 144 101 78 
234 896 316 128 92 65 
234 897 316 126 90 64 
234 898 316 122 89 67 
234 898 317 127 93 69 
234 899 316 114 82 62 
234 899 317 124 91 71 
235 900 314 97 72 52 
235 900 315 106 81 63 
235 901 315 101 77 58 
235 902 315 94 69 51 
233 900 318 131 95 72 
233 900 319 141 99 76 
233 901 318 128 92 68 
233 901 319 136 97 73 
233 902 318 122 88 64 
233 902 319 129 95 69 
233 903 319 123 92 67 
234 900 316 110 81 63 
234 900 317 119 87 67 
234 901 316 106 78 61 
234 901 317 112 80 61 
235 901 316 107 81 65 
234 901 318 122 88 65 
234 902 317 106 78 60 
234 903 317 100 75 58 
235 902 316 100 75 59 
235 902 317 99 74 58 
235 903 316 95 72 57 
235 903 317 96 72 57 
234 902 318 115 84 63 
234 903 318 110 82 63 
236 897 312 113 80 62 
236 898 312 107 77 59 
236 899 312 102 75 55 
236 899 313 100 74 55 
237 899 312 96 68 51 
236 900 313 96 72 54 
237 900 312 94 68 51 
237 900 313 93 69 51 
237 901 313 91 68 50 
236 900 314 95 70 51 
236 901 314 92 68 51 
236 901 315 94 69 51 
237 901 314 89 66 49 
237 902 313 89 67 49 
236 902 315 91 67 51 
236 903 315 89 67 52 
237 902 314 87 66 48 
237 903 314 86 64 46 
237 903 315 86 65 48 
238 900 312 97 71 54 
238 901 312 96 72 54 
238 901 313 96 73 55 
239 900 312 104 78 59 
239 901 312 103 77 58 
238 902 313 94 70 52 
239 902 313 105 81 63 
239 903 313 101 77 60 
238 903 314 90 68 51 
238 903 315 87 66 50 
239 903 314 99 76 58 
236 903 316 91 68 53 
233 904 319 120 89 66 
235 904 317 93 71 54 
235 905 317 90 68 51 
234 904 318 103 78 60 
234 904 319 113 86 64 
234 905 318 101 78 60 
234 905 319 107 81 61 
235 905 318 94 73 54 
234 906 319 102 77 59 
235 906 318 93 71 53 
235 906 319 96 73 54 
235 907 319 93 70 50 
237 904 315 85 64 46 
238 904 315 88 67 51 
238 905 315 90 72 56 
239 904 314 99 77 60 
239 904 315 103 82 66 
239 905 315 99 80 65 
236 904 316 89 68 52 
236 904 317 91 69 53 
236 905 317 89 68 52 
237 904 316 85 65 47 
237 905 316 85 66 47 
237 905 317 86 67 49 
236 906 317 88 67 51 
237 906 317 86 66 49 
236 906 318 88 65 51 
236 907 318 88 66 50 
236 907 319 90 69 51 
237 907 318 87 66 50 
237 907 319 86 65 50 
238 905 316 89 71 54 
239 905 316 97 78 64 
238 906 316 90 72 55 
238 906 317 87 69 51 
238 907 317 87 67 51 
239 906 316 92 73 58 
239 907 317 89 69 53 
238 907 318 84 64 48 
236 908 319 88 67 48 
237 908 318 86 65 48 
237 908 319 85 64 47 
237 909 319 84 64 46 
238 908 317 86 66 49 
239 908 317 89 68 53 
238 908 318 85 65 48 
238 908 319 84 64 46 
238 909 318 85 67 48 
238 909 319 85 66 47 
239 908 318 90 69 52 
239 909 318 93 73 55 
238 910 319 88 70 52 
239 910 319 94 75 57 
239 911 319 93 74 57 
223 924 343 176 132 108 
223 925 343 178 133 110 
223 926 343 179 136 112 
223 927 342 175 133 105 
223 927 343 179 136 110 
219 927 346 186 137 112 
223 923 344 177 134 109 
221 926 345 184 137 110 
221 927 345 184 138 111 
220 927 346 185 137 112 
221 927 346 184 137 111 
222 925 344 181 135 109 
222 925 345 182 136 109 
223 924 344 179 134 109 
223 925 344 180 134 109 
222 926 344 183 137 110 
222 926 345 183 137 110 
222 927 344 183 138 110 
222 927 345 183 137 109 
223 926 344 181 135 109 
193 938 351 169 133 116 
193 939 351 163 127 113 
194 939 351 160 121 107 
195 939 351 161 121 106 
193 940 350 152 119 109 
193 940 351 157 123 112 
193 941 350 144 115 104 
193 943 349 126 100 87 
193 942 350 135 107 93 
193 943 350 130 103 89 
194 940 351 161 129 118 
194 941 350 147 118 107 
195 940 351 158 125 113 
195 941 350 144 114 102 
194 942 350 137 110 96 
194 943 350 131 104 90 
195 942 350 139 111 97 
195 943 350 129 101 86 
196 939 351 162 120 103 
197 939 351 163 119 101 
198 938 351 174 128 109 
198 939 351 169 124 106 
199 938 351 177 130 108 
199 939 351 174 129 108 
196 940 351 156 120 107 
196 941 350 142 109 96 
197 940 351 155 114 101 
197 941 350 142 103 90 
196 943 349 124 95 83 
197 943 349 125 94 81 
196 942 350 136 104 93 
196 943 350 130 99 87 
197 942 350 136 100 89 
197 943 350 133 99 87 
198 940 350 155 107 95 
198 940 351 162 117 104 
198 941 350 146 102 90 
199 940 350 167 121 105 
199 940 351 173 127 110 
199 941 350 152 107 92 
198 942 349 136 96 88 
198 943 349 124 91 79 
199 942 349 140 97 87 
199 943 349 126 90 79 
198 942 350 139 99 89 
199 942 350 142 99 88 
200 938 351 179 131 108 
200 939 350 178 132 109 
200 939 351 178 132 109 
201 938 350 176 128 102 
201 938 351 180 132 107 
201 939 350 177 131 106 
202 937 350 180 131 105 
203 937 350 181 131 106 
203 939 349 169 125 102 
202 938 350 176 129 104 
202 939 350 174 129 105 
203 938 350 174 127 103 
203 939 350 172 127 104 
200 941 349 157 112 95 
201 940 349 176 133 109 
201 941 349 166 124 105 
200 940 350 175 130 109 
200 941 350 160 116 97 
201 940 350 177 132 109 
200 942 349 145 101 88 
200 943 348 126 92 80 
200 943 349 131 93 82 
201 942 349 152 112 97 
201 943 348 135 99 86 
201 943 349 143 105 92 
202 940 349 173 130 107 
202 941 349 164 124 105 
203 940 349 164 122 101 
203 941 348 154 115 98 
203 941 349 160 120 101 
202 942 348 152 114 99 
202 942 349 155 116 100 
202 943 348 139 104 90 
203 942 348 151 114 100 
203 943 348 142 108 94 
205 937 349 174 125 101 
204 936 350 184 133 107 
204 937 350 180 131 108 
205 936 350 183 132 106 
205 937 350 178 129 105 
204 938 349 170 126 103 
204 939 349 165 122 100 
205 938 349 170 126 103 
205 939 348 155 114 94 
205 939 349 163 121 98 
204 938 350 171 124 101 
206 937 349 174 124 100 
207 936 349 180 128 102 
207 937 349 174 122 98 
206 936 350 182 130 104 
206 937 350 178 128 104 
207 936 350 182 129 102 
206 938 349 170 125 103 
206 939 348 157 114 96 
206 939 349 165 122 100 
207 938 348 167 122 101 
207 938 349 170 122 101 
207 939 348 156 114 95 
205 941 347 139 105 88 
204 943 347 140 107 94 
205 942 347 139 107 92 
205 943 347 136 104 88 
206 941 347 138 102 85 
207 940 347 144 105 90 
207 941 347 135 99 84 
206 942 347 133 102 86 
206 943 346 131 104 88 
206 943 347 133 105 89 
207 942 347 129 98 82 
207 943 346 126 99 83 
207 943 347 128 100 84 
204 940 348 155 116 95 
204 940 349 159 118 96 
204 941 348 150 112 94 
205 940 348 150 112 92 
205 941 348 145 109 91 
204 942 348 148 113 97 
204 943 348 145 112 99 
205 942 348 143 109 92 
206 940 348 147 108 91 
207 940 348 148 109 93 
193 944 349 117 92 80 
193 945 349 110 88 74 
193 946 349 107 86 72 
193 947 349 103 80 68 
194 944 349 116 91 78 
194 945 349 109 86 71 
195 944 349 116 89 76 
195 945 349 109 86 70 
194 946 349 108 87 72 
194 947 349 107 85 73 
195 946 349 107 86 70 
195 947 349 107 86 72 
193 948 349 99 77 64 
193 949 349 100 81 67 
193 950 348 101 83 69 
193 950 349 102 84 70 
193 951 348 101 82 67 
194 948 349 103 82 70 
194 949 349 102 83 69 
195 948 349 109 89 75 
195 949 349 108 89 75 
194 950 348 102 83 69 
194 950 349 102 83 69 
194 951 348 103 84 71 
195 950 348 105 85 72 
195 950 349 104 84 70 
195 951 348 103 83 71 
196 944 349 118 91 78 
196 945 349 113 90 75 
197 944 349 118 92 77 
197 945 349 111 88 71 
196 946 349 107 86 70 
196 947 349 102 81 66 
197 946 349 106 84 68 
197 947 348 103 80 68 
197 947 349 101 78 64 
198 944 349 117 92 75 
198 945 348 111 87 70 
198 945 349 112 88 70 
199 944 348 116 88 74 
199 944 349 118 91 75 
199 945 348 112 87 72 
198 946 348 107 84 70 
198 946 349 108 83 68 
198 947 348 104 82 69 
199 946 348 109 84 71 
199 947 348 105 84 70 
196 948 349 104 83 67 
196 949 348 104 85 67 
196 949 349 108 89 73 
197 948 348 103 83 68 
197 949 348 105 87 70 
196 950 348 107 87 73 
196 951 348 105 84 71 
197 950 348 108 89 71 
197 951 348 110 89 72 
198 948 348 106 87 72 
198 949 348 111 94 77 
199 948 348 107 88 73 
199 949 348 112 92 76 
198 950 348 115 96 79 
198 951 348 116 95 78 
199 950 348 117 98 80 
199 951 348 120 100 82 
193 952 347 102 84 71 
193 953 346 101 85 73 
193 953 347 101 84 71 
193 955 345 99 83 71 
193 954 346 99 83 70 
193 955 346 99 82 70 
194 952 347 104 86 72 
194 953 347 104 88 73 
195 952 347 103 84 70 
195 953 347 105 86 72 
194 955 345 96 80 68 
195 955 345 95 78 65 
194 954 346 101 84 71 
194 955 346 97 81 68 
195 954 346 102 85 72 
195 954 347 103 85 71 
195 955 346 99 82 69 
193 952 348 102 84 70 
194 952 348 103 85 71 
195 952 348 104 84 71 
193 956 344 102 86 72 
193 956 345 100 84 71 
193 957 344 100 84 70 
194 956 344 96 79 67 
194 956 345 96 80 68 
194 957 344 97 80 67 
195 956 345 89 72 60 
195 957 344 85 67 53 
196 952 347 104 82 67 
196 953 347 106 86 73 
197 952 347 108 84 69 
197 953 347 107 86 71 
196 955 345 106 88 75 
196 954 346 110 92 79 
196 954 347 106 88 75 
196 955 346 108 90 77 
197 954 346 109 91 77 
197 954 347 107 87 72 
197 955 346 111 91 77 
198 952 347 116 94 78 
198 953 347 112 90 75 
199 952 347 119 98 81 
199 953 347 115 94 78 
198 954 346 110 89 74 
198 954 347 109 88 72 
198 955 346 111 89 74 
199 954 346 114 92 77 
199 954 347 113 91 76 
199 955 346 113 91 75 
196 952 348 104 82 67 
197 952 348 108 84 69 
198 952 348 116 94 78 
199 952 348 118 97 80 
196 956 345 102 84 71 
196 957 344 96 77 64 
197 956 345 111 91 78 
197 957 344 108 89 76 
198 956 345 111 90 76 
198 957 344 111 91 78 
199 956 345 114 92 76 
199 957 344 112 90 75 
201 947 347 101 76 64 
202 945 347 114 85 72 
203 944 347 131 99 87 
203 945 347 120 90 77 
202 946 347 109 82 69 
202 947 347 105 79 66 
203 946 347 114 86 72 
203 947 347 108 83 68 
200 944 348 119 89 75 
200 945 348 114 86 71 
201 944 348 124 92 77 
201 945 348 116 88 72 
200 946 348 108 83 69 
200 947 348 105 83 69 
201 946 348 109 83 69 
201 947 348 103 79 65 
202 944 348 124 92 76 
202 945 348 116 86 72 
203 944 348 128 96 82 
202 946 348 110 82 68 
201 948 347 100 79 68 
201 949 347 98 78 66 
200 950 347 103 84 66 
200 951 347 116 97 79 
201 950 347 99 80 64 
201 951 347 105 85 69 
202 948 347 98 75 64 
202 949 347 95 75 61 
203 948 347 101 79 66 
203 949 347 96 75 60 
202 950 347 96 75 62 
202 951 347 100 79 64 
203 950 346 96 72 59 
203 950 347 96 72 60 
203 951 346 97 76 60 
203 951 347 97 74 61 
200 948 348 104 83 70 
200 949 348 103 82 66 
200 950 348 110 90 71 
200 951 348 120 100 82 
204 944 347 132 100 87 
204 945 347 124 93 81 
205 944 347 130 99 85 
205 945 347 123 93 81 
204 946 347 115 86 72 
204 947 346 105 80 69 
204 947 347 108 82 69 
205 946 346 117 88 76 
205 946 347 117 87 75 
205 947 346 106 78 67 
206 944 346 127 99 84 
206 944 347 129 101 85 
206 945 346 122 93 80 
207 944 346 124 97 83 
207 945 346 120 91 78 
206 946 346 117 89 76 
206 947 346 106 79 67 
207 946 346 115 86 74 
207 947 346 107 80 69 
204 948 346 103 80 68 
204 948 347 103 82 69 
204 949 346 100 77 65 
204 949 347 100 79 65 
205 948 346 103 79 68 
205 949 346 100 77 66 
204 950 346 97 75 62 
204 951 346 96 75 60 
205 950 346 95 73 59 
205 951 346 96 78 63 
207 948 345 97 72 60 
207 949 345 91 67 52 
206 948 346 97 71 61 
206 949 346 94 69 57 
207 948 346 96 70 59 
207 949 346 91 65 51 
206 951 345 93 75 59 
207 950 345 91 70 54 
207 951 345 92 74 60 
206 950 346 93 72 56 
206 951 346 94 77 61 
206 956 343 103 84 70 
207 956 343 101 82 68 
200 952 347 120 101 85 
200 953 347 118 97 81 
201 952 347 114 94 78 
201 953 347 119 100 83 
200 954 346 117 94 77 
200 954 347 118 96 79 
200 955 346 117 95 78 
201 954 346 120 99 81 
201 955 346 119 95 77 
202 952 347 106 87 70 
202 953 346 111 91 72 
202 953 347 112 92 74 
203 952 346 105 86 68 
203 953 346 112 93 75 
203 955 345 115 92 72 
202 954 346 117 96 76 
202 955 346 121 97 79 
203 954 346 115 93 74 
203 955 346 117 94 74 
200 956 345 118 96 80 
200 957 344 115 94 79 
201 956 345 119 96 78 
201 957 344 117 96 78 
201 957 345 118 97 81 
201 956 346 120 97 79 
202 956 345 120 97 78 
202 957 344 119 97 78 
203 956 345 116 93 73 
203 957 344 118 95 76 
205 953 345 95 75 55 
204 952 346 98 79 61 
204 953 346 110 92 75 
205 952 346 95 75 57 
205 953 346 97 77 56 
204 955 345 116 95 76 
205 954 345 103 83 64 
205 955 345 111 92 75 
204 954 346 116 97 79 
206 952 345 96 77 63 
206 953 345 97 77 62 
207 952 345 96 79 67 
207 953 344 93 77 62 
207 953 345 94 77 62 
206 954 345 96 76 57 
206 955 344 100 81 63 
206 955 345 97 77 58 
207 954 344 96 79 64 
207 955 344 97 80 64 
204 956 344 112 89 69 
204 956 345 113 90 70 
204 957 344 110 86 67 
205 956 344 108 87 69 
205 956 345 113 93 74 
205 957 344 107 82 65 
206 956 344 103 84 66 
207 956 344 101 83 68 
223 940 335 147 114 95 
223 941 334 148 114 97 
223 941 335 146 115 95 
222 942 335 143 112 94 
222 943 334 145 112 95 
222 943 335 141 107 91 
223 942 334 148 116 98 
223 942 335 146 115 97 
223 943 334 146 113 96 
208 935 349 186 133 108 
209 935 349 190 136 112 
210 934 349 196 145 123 
210 935 348 189 136 113 
210 935 349 193 140 117 
211 934 349 197 147 126 
211 935 348 192 141 120 
212 935 347 189 140 117 
213 935 347 190 142 119 
215 933 347 189 141 115 
214 934 347 191 144 120 
214 935 346 186 138 114 
214 935 347 189 141 117 
215 934 346 188 141 115 
215 934 347 189 142 116 
215 935 346 185 139 115 
213 933 348 194 144 120 
212 934 348 197 148 127 
212 934 349 197 147 126 
212 935 348 194 145 123 
213 934 348 196 147 125 
213 935 348 195 147 124 
214 932 348 193 143 119 
214 933 348 192 143 118 
215 932 348 191 141 116 
215 933 348 190 143 116 
214 934 348 194 146 122 
215 941 343 140 106 89 
215 942 343 131 98 83 
215 943 343 116 86 71 
208 939 347 156 114 94 
209 938 347 167 120 101 
209 939 347 158 114 95 
210 937 347 180 133 111 
211 936 347 184 134 109 
211 937 347 183 135 113 
210 938 347 172 124 105 
210 939 347 157 113 94 
211 938 347 173 125 105 
211 939 346 156 110 91 
211 939 347 161 112 94 
208 936 349 181 128 103 
208 937 348 172 122 100 
208 937 349 174 122 98 
209 936 348 181 127 104 
209 936 349 183 128 104 
209 937 348 175 124 103 
208 938 348 166 121 99 
208 939 348 159 116 95 
209 938 348 168 122 102 
209 939 348 160 116 94 
210 936 348 184 132 108 
210 937 348 179 129 106 
211 936 348 185 135 111 
208 940 347 145 108 91 
208 941 347 134 99 82 
209 940 346 141 105 88 
209 940 347 146 110 92 
209 941 346 133 99 82 
209 941 347 135 100 82 
209 943 345 119 95 80 
208 942 346 123 92 75 
208 942 347 128 96 79 
208 943 346 121 93 78 
209 942 346 124 93 77 
209 943 346 119 93 77 
211 941 345 131 95 80 
210 940 346 144 107 90 
210 940 347 147 110 92 
210 941 346 133 98 83 
211 940 346 146 107 91 
211 941 346 133 96 80 
210 943 345 118 93 78 
211 942 345 125 94 79 
211 943 345 116 90 74 
210 942 346 126 97 81 
210 943 346 120 94 78 
212 936 347 184 134 108 
212 937 346 183 137 116 
212 937 347 182 134 111 
213 936 346 183 135 111 
213 936 347 183 135 110 
213 937 346 179 132 109 
213 939 345 162 120 101 
212 938 346 172 125 106 
212 938 347 178 132 112 
212 939 346 159 114 94 
213 938 346 172 126 106 
213 939 346 162 118 99 
214 937 345 168 123 101 
215 936 345 170 124 99 
215 937 345 165 121 99 
214 936 346 181 134 110 
214 937 346 173 126 104 
215 936 346 175 128 105 
214 938 345 165 121 100 
214 939 344 157 118 98 
214 939 345 162 121 100 
215 938 344 156 115 94 
215 938 345 159 116 94 
215 939 344 159 121 102 
214 938 346 170 125 104 
212 940 345 146 106 90 
212 941 345 136 97 81 
213 940 345 150 111 93 
213 941 344 138 100 83 
213 941 345 136 98 81 
212 940 346 150 110 93 
212 942 345 125 93 78 
212 943 345 114 86 71 
213 942 344 125 92 78 
213 942 345 125 92 77 
213 943 344 117 89 76 
213 943 345 115 84 70 
214 940 344 150 111 92 
214 941 344 138 101 84 
215 940 344 148 108 90 
215 941 344 141 105 88 
214 942 344 127 93 78 
214 943 344 117 88 75 
215 942 344 128 95 80 
219 935 343 161 116 94 
221 931 343 176 129 103 
222 928 343 180 137 110 
222 929 343 179 135 109 
223 928 342 174 133 105 
223 928 343 177 136 109 
223 929 342 174 133 105 
223 929 343 177 135 108 
223 931 341 160 116 92 
222 930 342 172 129 101 
222 930 343 175 131 104 
222 931 342 174 129 103 
222 931 343 175 129 102 
223 930 342 169 126 99 
223 931 342 167 122 98 
221 932 343 174 127 102 
221 933 343 170 123 98 
220 934 343 167 122 98 
220 935 343 159 114 91 
221 934 343 164 118 94 
221 935 342 151 106 81 
221 935 343 156 111 87 
223 932 341 155 112 88 
223 933 341 149 109 84 
222 932 342 170 124 98 
222 932 343 173 128 102 
222 933 342 163 117 93 
223 932 342 161 116 93 
223 933 342 155 112 89 
222 935 341 145 101 79 
223 934 341 144 104 79 
223 935 340 145 109 83 
223 935 341 146 109 84 
222 934 342 155 111 89 
222 935 342 148 104 83 
217 930 347 187 139 113 
217 931 347 189 141 115 
218 929 347 187 137 111 
219 928 346 184 135 110 
219 929 346 185 135 110 
219 930 345 184 135 111 
219 931 345 183 134 110 
218 930 346 186 138 112 
218 930 347 186 137 112 
218 931 346 186 137 112 
218 931 347 187 139 113 
219 930 346 185 136 112 
219 931 346 185 136 112 
216 932 347 189 140 115 
216 933 346 187 140 115 
216 933 347 187 140 114 
217 932 346 186 138 112 
217 932 347 188 140 115 
217 933 346 186 138 113 
216 935 345 175 129 105 
217 934 345 181 133 109 
217 935 345 172 125 100 
216 934 346 186 138 114 
216 935 346 183 136 112 
217 934 346 184 137 112 
218 932 345 182 132 107 
218 933 345 181 132 107 
219 932 344 177 128 102 
219 932 345 179 129 105 
219 933 344 174 127 101 
219 933 345 177 130 104 
218 932 346 184 135 109 
218 933 346 183 134 108 
218 934 344 173 127 101 
218 934 345 178 129 105 
218 935 344 169 124 100 
218 935 345 172 125 100 
219 934 344 172 126 101 
219 935 344 167 122 99 
216 932 348 189 139 114 
220 928 345 183 134 109 
220 929 345 183 135 110 
221 928 344 183 138 111 
221 928 345 183 138 112 
221 929 344 182 137 111 
221 929 345 182 136 110 
220 928 346 184 135 110 
220 929 346 184 135 110 
220 930 345 183 134 111 
220 931 344 179 129 105 
220 931 345 181 132 108 
221 930 344 180 135 109 
221 931 344 177 129 105 
222 928 344 182 138 110 
222 929 344 181 138 111 
220 932 344 175 125 100 
220 933 344 173 125 101 
221 932 344 174 126 100 
220 934 344 170 123 101 
216 939 343 154 118 100 
217 938 343 151 115 93 
217 939 343 152 117 97 
218 936 343 157 115 92 
218 937 343 150 109 84 
219 936 343 155 111 89 
219 937 342 148 107 82 
219 937 343 149 106 81 
219 939 341 147 109 91 
218 938 343 149 111 87 
218 939 342 149 114 90 
218 939 343 153 118 96 
219 938 342 149 111 87 
219 938 343 148 108 82 
219 939 342 150 114 91 
216 940 343 147 108 89 
216 941 343 140 105 88 
217 940 343 146 109 87 
217 941 342 139 105 84 
217 941 343 140 105 86 
216 942 343 129 97 81 
216 943 343 118 89 73 
217 942 342 129 97 80 
217 942 343 131 98 80 
217 943 342 120 90 78 
218 941 341 134 98 75 
219 940 341 142 105 85 
219 941 341 136 100 77 
218 940 342 147 112 88 
218 941 342 139 105 82 
219 940 342 146 110 89 
218 942 341 130 97 77 
218 943 341 120 90 77 
219 942 341 132 100 80 
219 943 340 122 92 76 
219 943 341 123 94 78 
218 942 342 131 99 80 
218 943 342 125 95 81 
223 936 339 138 101 76 
223 937 338 130 92 70 
223 937 339 138 101 78 
223 939 336 144 112 91 
223 939 337 139 108 89 
222 938 339 140 105 81 
222 939 338 132 99 78 
222 939 339 137 103 83 
223 938 338 131 95 75 
223 938 339 136 99 77 
223 939 338 132 97 77 
221 937 341 149 109 90 
220 936 342 145 102 78 
220 936 343 149 104 80 
220 937 342 147 107 83 
221 936 342 145 102 79 
221 937 342 147 107 85 
220 938 341 147 108 86 
220 939 341 145 107 86 
221 938 340 143 106 82 
221 938 341 147 108 88 
221 939 340 141 105 83 
221 939 341 144 105 85 
220 938 342 149 111 89 
222 936 340 147 110 85 
222 936 341 150 112 91 
222 937 340 145 109 83 
222 937 341 150 111 90 
223 936 340 144 106 80 
223 937 340 142 105 78 
222 936 342 146 105 85 
222 938 340 143 107 83 
222 939 340 142 107 85 
221 940 339 135 102 82 
221 941 338 133 100 81 
221 941 339 133 99 79 
221 942 337 134 103 86 
221 943 336 129 94 79 
221 943 337 133 101 86 
220 942 339 131 99 80 
220 943 339 123 92 74 
