ply
format ascii 1.0
comment Created by CloudCompare v2.10.1 (Zephyrus)
comment Created 1/30/20 5:16 PM
obj_info Generated by CloudCompare!
element vertex 2059
property float x
property float y
property float z
property uchar red
property uchar green
property uchar blue
end_header
96 660 229 92 100 114 
97 660 228 97 104 116 
98 660 228 99 105 117 
100 659 224 113 116 126 
100 659 225 109 113 123 
101 659 224 114 117 127 
101 659 225 109 113 124 
100 659 226 105 109 121 
100 659 227 100 105 118 
101 658 227 98 104 117 
101 659 226 104 109 121 
101 659 227 100 105 118 
102 659 224 114 117 127 
102 659 225 109 113 124 
103 658 224 112 116 127 
103 658 225 108 113 124 
103 659 224 115 118 128 
102 658 226 104 109 121 
102 658 227 98 104 117 
102 659 226 105 109 121 
103 658 226 104 109 121 
103 658 227 98 104 117 
100 657 231 70 84 103 
101 657 230 78 90 107 
101 657 231 73 85 104 
100 658 228 91 98 113 
100 658 229 88 96 111 
100 659 228 94 101 114 
101 658 228 93 100 114 
101 658 229 87 96 111 
101 659 228 95 102 115 
100 658 230 81 92 108 
100 658 231 74 87 104 
101 658 230 80 91 108 
101 658 231 75 87 105 
102 657 229 84 94 110 
103 657 228 91 99 114 
103 657 229 87 96 112 
102 657 230 80 91 108 
102 657 231 75 87 105 
103 657 230 82 93 109 
103 657 231 77 90 107 
102 658 228 92 100 115 
102 658 229 86 96 111 
103 658 228 92 100 115 
100 660 224 114 117 126 
100 660 225 110 113 123 
96 657 235 65 80 99 
97 657 234 66 81 100 
97 657 235 64 80 99 
96 658 232 74 87 104 
96 658 233 72 85 103 
96 659 232 77 89 106 
97 658 232 73 86 104 
97 658 233 68 83 101 
96 658 234 68 83 101 
96 658 235 67 82 100 
97 658 234 66 81 100 
98 657 233 66 81 100 
99 657 232 67 82 101 
99 657 233 65 80 100 
98 657 234 65 80 100 
98 657 235 61 78 98 
99 657 234 62 79 99 
99 657 235 60 76 98 
98 658 232 71 84 103 
98 658 233 68 83 101 
99 658 232 69 83 102 
99 658 233 68 82 101 
96 657 236 63 79 99 
96 657 237 60 77 99 
97 656 237 52 72 98 
97 657 236 61 78 98 
97 657 237 55 74 98 
96 656 238 59 76 98 
96 656 239 61 77 97 
97 656 238 55 73 97 
97 656 239 53 73 95 
98 656 237 53 71 96 
98 657 236 56 75 97 
99 656 236 55 72 95 
99 656 237 53 70 93 
99 657 236 57 73 97 
98 656 238 51 70 94 
98 656 239 48 69 92 
99 656 238 49 68 91 
99 656 239 50 69 92 
100 657 232 68 82 102 
100 657 233 66 81 101 
101 657 232 69 83 103 
101 657 233 66 81 102 
100 656 235 59 74 97 
100 657 234 63 78 100 
100 657 235 60 76 98 
101 656 234 63 78 100 
101 656 235 59 75 97 
101 657 234 64 78 100 
102 656 233 66 81 102 
102 657 232 70 84 104 
102 657 233 66 81 102 
103 656 232 73 87 106 
103 656 233 70 84 104 
103 657 232 73 87 105 
102 656 234 64 79 101 
102 656 235 60 77 99 
103 656 234 67 82 102 
103 656 235 64 80 101 
100 656 236 55 72 94 
100 656 237 53 70 92 
101 656 236 55 73 94 
101 656 237 55 72 93 
100 656 238 52 70 92 
101 656 238 57 74 94 
102 656 236 59 76 97 
102 656 237 57 74 95 
103 656 236 62 78 99 
105 657 225 107 113 124 
104 657 226 101 108 120 
104 657 227 98 105 118 
105 657 226 103 109 122 
105 657 227 99 106 119 
104 658 224 112 116 127 
104 658 225 108 113 124 
105 658 224 112 116 127 
105 658 225 108 113 124 
104 658 226 103 109 121 
104 658 227 99 106 119 
106 657 224 110 116 126 
106 657 225 107 113 125 
107 657 224 110 115 126 
107 657 225 107 113 125 
106 656 227 99 106 119 
106 657 226 104 110 122 
106 657 227 99 107 120 
107 656 226 103 110 122 
107 656 227 100 108 121 
107 657 226 103 110 122 
104 657 228 94 102 116 
104 657 229 88 98 113 
105 656 229 90 99 114 
105 657 228 95 103 116 
105 657 229 89 99 114 
104 656 230 83 94 111 
104 656 231 80 92 109 
104 657 230 83 94 111 
105 656 230 86 97 112 
105 656 231 81 93 110 
106 656 228 95 103 117 
106 656 229 92 101 116 
106 657 228 96 104 118 
107 656 228 97 105 118 
107 656 229 92 102 116 
106 656 230 87 98 113 
106 656 231 82 94 111 
107 656 230 87 98 114 
107 656 231 83 96 112 
108 656 224 109 115 126 
108 656 225 106 112 124 
108 657 224 109 115 126 
108 657 225 107 113 125 
109 656 224 108 114 126 
109 656 225 106 112 124 
108 656 226 103 110 122 
108 656 227 101 109 121 
109 656 226 103 110 122 
109 656 227 101 109 121 
110 656 224 105 112 124 
110 656 225 103 110 122 
111 656 224 100 109 121 
110 656 226 103 110 122 
110 656 227 102 110 121 
108 656 228 98 106 119 
108 656 229 94 103 117 
109 656 228 99 107 120 
109 656 229 95 104 118 
108 656 230 88 99 115 
104 656 232 76 89 107 
104 656 233 72 87 106 
105 656 232 78 91 108 
105 656 233 74 89 107 
104 656 234 70 85 104 
104 656 235 67 83 103 
105 656 234 72 87 105 
106 656 232 78 91 109 
106 656 233 75 89 107 
96 656 240 63 78 96 
112 655 224 94 104 118 
112 655 225 95 105 117 
113 655 224 94 104 118 
113 655 225 93 103 117 
112 655 226 95 104 118 
112 655 227 93 104 117 
113 654 227 86 99 114 
113 655 226 92 103 117 
113 655 227 89 101 115 
114 654 224 92 103 116 
114 654 225 91 102 116 
114 655 224 93 103 117 
114 655 225 92 103 117 
115 654 224 92 102 116 
115 654 225 90 101 116 
114 654 226 88 100 115 
114 654 227 87 100 115 
114 655 226 90 102 116 
115 654 226 85 99 115 
115 654 227 84 99 115 
112 654 229 86 100 116 
112 655 228 89 101 116 
112 655 229 89 101 116 
113 654 228 85 99 115 
113 654 229 82 97 114 
112 654 230 83 98 115 
112 654 231 81 97 115 
113 654 230 80 96 114 
113 654 231 78 95 114 
115 653 230 79 96 114 
115 653 231 71 91 111 
114 654 228 83 98 115 
114 654 229 80 96 114 
115 654 228 80 97 114 
115 654 229 79 96 114 
114 654 230 77 95 114 
114 654 231 76 94 113 
115 654 230 79 97 115 
115 654 231 77 95 114 
117 653 225 80 95 112 
117 653 226 78 94 112 
117 653 227 78 95 113 
116 654 224 87 99 114 
116 654 225 85 98 113 
117 654 224 82 96 111 
117 654 225 80 94 111 
116 654 226 82 97 113 
116 654 227 80 96 114 
117 654 226 80 96 113 
118 653 224 76 92 109 
118 653 225 76 92 110 
119 653 224 75 91 109 
119 653 225 75 92 110 
118 653 226 76 93 111 
118 653 227 76 93 113 
119 653 226 74 92 112 
119 653 227 70 89 112 
116 653 228 81 98 116 
116 653 229 79 97 114 
117 653 228 78 95 114 
117 653 229 73 92 112 
116 653 230 74 93 113 
116 653 231 70 91 111 
117 653 230 68 90 111 
117 653 231 70 91 112 
116 654 228 80 97 115 
118 653 228 70 89 111 
118 653 229 66 88 110 
119 652 228 68 89 112 
119 652 229 64 87 109 
119 653 228 68 89 111 
118 652 230 64 87 109 
118 652 231 67 89 111 
118 653 230 64 87 109 
118 653 231 67 89 111 
119 652 230 64 88 110 
119 652 231 64 87 109 
112 653 235 74 93 113 
113 653 234 73 93 113 
113 653 235 73 93 113 
112 654 232 79 96 115 
112 654 233 76 95 114 
113 654 232 76 95 114 
113 654 233 74 94 113 
112 654 234 75 94 114 
112 654 235 74 93 113 
113 654 234 74 93 113 
114 653 232 71 92 112 
114 653 233 71 92 112 
115 653 232 69 91 111 
115 653 233 70 91 112 
114 653 234 73 92 113 
114 653 235 73 93 113 
115 653 234 70 91 111 
115 653 235 72 92 112 
114 654 232 74 93 113 
114 654 233 73 93 113 
112 653 236 73 92 113 
112 653 237 72 91 111 
113 653 236 73 92 113 
113 653 237 70 89 111 
112 653 238 69 89 110 
112 653 239 63 84 107 
113 653 238 66 86 108 
113 653 239 61 81 107 
114 653 236 73 92 113 
114 653 237 68 87 110 
115 652 237 67 84 110 
115 653 236 71 90 111 
115 653 237 66 84 109 
114 652 239 59 81 108 
114 653 238 65 84 108 
114 653 239 64 83 109 
115 652 238 60 81 109 
115 652 239 53 77 107 
115 653 238 63 82 109 
119 651 235 53 77 106 
119 651 236 51 74 104 
119 651 237 52 71 105 
118 651 239 60 77 111 
119 651 238 57 75 108 
119 651 239 64 81 110 
116 653 232 70 91 112 
116 653 233 70 91 112 
117 652 233 68 89 110 
117 653 232 68 90 111 
117 653 233 68 89 111 
116 652 235 69 88 110 
116 653 234 70 90 112 
116 653 235 72 91 112 
117 652 234 68 89 110 
117 652 235 61 83 107 
118 652 232 66 88 109 
118 652 233 66 87 108 
118 653 232 68 90 111 
119 652 232 64 85 108 
119 652 233 64 84 107 
118 652 234 63 84 107 
118 652 235 62 84 108 
119 652 234 65 85 108 
119 652 235 62 83 109 
116 652 236 67 86 110 
116 652 237 65 84 111 
117 652 236 67 87 112 
117 652 237 64 85 112 
116 652 238 61 82 111 
116 652 239 52 74 108 
117 652 238 54 76 109 
117 652 239 54 74 109 
118 652 236 61 84 110 
118 652 237 56 78 109 
119 652 236 56 79 109 
119 652 237 50 73 107 
118 652 238 53 73 110 
118 652 239 56 75 110 
123 651 227 59 78 96 
121 651 231 59 77 97 
123 651 228 58 73 92 
123 651 229 57 75 94 
122 651 230 55 75 97 
122 651 231 54 73 95 
123 651 230 58 75 95 
123 651 231 53 73 94 
120 653 224 69 86 105 
120 653 225 71 89 110 
121 653 224 56 76 98 
121 653 225 60 81 105 
120 652 227 68 88 111 
120 653 226 66 86 110 
120 653 227 68 88 111 
121 652 226 58 79 102 
121 652 227 57 80 103 
121 653 226 59 81 105 
122 652 224 44 66 90 
122 652 225 45 67 92 
122 653 224 46 66 89 
123 652 224 49 73 98 
123 652 225 48 71 96 
122 652 226 46 70 94 
122 652 227 49 70 94 
123 652 226 53 74 98 
123 652 227 54 72 94 
120 652 228 65 86 109 
120 652 229 64 86 108 
121 652 228 55 77 100 
121 652 229 51 75 97 
120 652 230 62 85 107 
120 652 231 60 82 105 
121 652 230 55 77 101 
121 652 231 54 75 97 
122 652 228 52 74 97 
122 652 229 49 72 93 
123 652 228 52 71 96 
123 652 229 56 73 93 
122 652 230 51 73 95 
124 651 226 57 80 104 
124 651 227 58 80 101 
125 651 226 57 82 107 
125 651 227 53 78 104 
126 651 227 52 78 110 
124 651 228 62 80 97 
124 651 229 63 79 96 
125 651 228 63 84 107 
125 651 229 59 78 103 
124 650 231 53 72 94 
124 651 230 57 74 94 
124 651 231 54 72 93 
125 650 230 52 73 101 
125 650 231 50 69 97 
125 651 230 56 76 102 
126 650 230 53 72 108 
126 650 231 54 72 107 
127 650 231 65 83 116 
124 652 224 61 84 108 
124 652 225 60 83 108 
124 652 226 59 82 106 
120 651 233 59 79 101 
121 651 232 57 77 99 
121 651 233 53 73 93 
120 651 234 59 79 104 
120 651 235 52 74 101 
121 651 234 49 70 95 
121 651 235 46 68 91 
122 651 232 53 72 91 
122 651 233 53 71 91 
123 650 233 52 69 89 
123 651 232 54 71 91 
123 651 233 55 72 92 
122 651 234 53 70 90 
122 651 235 49 67 85 
123 650 234 50 67 85 
123 650 235 53 69 86 
123 651 234 54 71 89 
120 651 236 49 70 94 
120 651 237 53 72 98 
121 651 236 50 71 93 
121 651 237 55 74 98 
120 651 238 57 75 100 
120 651 239 66 81 105 
121 650 239 63 76 99 
121 651 238 53 71 94 
121 651 239 64 77 102 
122 650 236 48 67 87 
122 650 237 50 69 87 
122 651 236 54 72 92 
122 651 237 50 70 91 
123 650 236 55 71 89 
123 650 237 55 71 88 
122 650 238 59 75 96 
122 650 239 64 78 99 
123 650 238 64 79 99 
123 650 239 62 77 97 
120 652 232 60 81 104 
120 652 233 66 87 109 
121 652 232 61 82 104 
125 649 233 60 79 103 
125 649 234 62 80 106 
125 649 235 59 81 105 
124 650 232 50 68 93 
124 650 233 48 66 91 
124 651 232 55 69 91 
125 650 232 53 71 101 
125 650 233 54 73 101 
124 650 234 48 68 91 
124 650 235 54 73 93 
125 650 234 56 75 101 
125 650 235 60 78 102 
126 649 232 66 84 113 
126 649 233 68 85 114 
127 649 233 71 89 116 
126 649 234 64 84 110 
126 649 235 56 79 106 
127 649 234 68 87 112 
127 649 235 72 88 114 
126 650 232 63 79 110 
125 649 236 57 74 103 
125 649 237 57 75 103 
125 649 238 55 74 102 
125 649 239 63 80 107 
124 650 236 59 76 94 
124 650 237 55 74 94 
125 650 236 58 76 101 
125 650 237 55 76 100 
124 650 238 61 81 100 
124 650 239 62 79 99 
126 649 236 57 79 107 
126 649 237 59 80 108 
127 649 236 77 92 118 
127 649 237 75 92 118 
126 649 238 55 75 108 
126 649 239 66 82 112 
127 649 238 75 91 120 
127 649 239 70 87 117 
113 651 247 73 88 118 
114 651 245 74 89 119 
115 651 244 74 89 118 
115 651 245 74 88 118 
114 651 246 75 88 118 
114 651 247 75 88 118 
115 651 246 76 88 119 
115 651 247 82 94 120 
112 653 240 61 82 107 
112 653 241 56 79 107 
113 652 240 55 79 106 
113 652 241 53 76 106 
113 653 240 60 82 107 
113 653 241 56 79 106 
112 652 242 52 75 105 
112 652 243 48 71 105 
112 653 242 54 77 106 
113 652 242 50 72 106 
113 652 243 54 72 109 
114 652 240 53 77 107 
114 652 241 50 73 107 
115 652 240 50 72 107 
115 652 241 55 73 110 
114 652 242 53 73 109 
114 652 243 61 76 112 
115 652 242 62 77 112 
115 652 243 67 82 115 
112 652 244 54 73 110 
112 652 245 61 76 112 
113 652 244 62 77 114 
113 652 245 70 84 117 
112 652 246 69 83 116 
112 652 247 72 86 117 
113 652 246 74 87 118 
113 652 247 73 87 117 
114 652 244 69 83 116 
114 652 245 74 88 119 
115 652 244 71 86 117 
114 652 246 75 89 119 
117 651 241 68 84 114 
116 651 242 69 85 115 
116 651 243 73 88 117 
117 651 242 73 88 116 
117 651 243 74 90 118 
118 651 240 67 83 113 
118 651 241 71 87 115 
119 651 240 71 87 112 
119 651 241 70 85 109 
118 651 242 76 90 118 
118 651 243 77 89 119 
119 651 242 77 90 118 
119 651 243 77 90 114 
116 651 244 75 89 119 
116 651 245 77 89 119 
117 651 244 78 91 120 
117 651 245 83 95 121 
116 651 246 80 92 120 
116 651 247 85 98 122 
117 651 246 86 99 122 
117 651 247 87 100 122 
118 651 244 80 94 119 
118 651 245 86 99 120 
119 650 245 89 101 120 
119 651 244 82 96 116 
119 651 245 90 102 118 
118 650 247 86 100 120 
118 651 246 88 101 120 
118 651 247 87 101 120 
119 650 246 86 100 119 
119 650 247 84 99 118 
119 651 246 89 102 120 
116 652 240 55 72 110 
116 652 241 60 76 112 
117 652 240 61 76 111 
117 652 241 66 80 113 
116 652 242 65 80 113 
116 652 243 70 85 116 
112 651 249 75 89 116 
113 651 248 74 87 117 
113 651 249 81 93 119 
112 651 250 79 93 118 
112 651 251 86 99 122 
113 651 250 85 98 121 
113 651 251 90 102 125 
114 651 248 80 93 119 
114 651 249 84 97 121 
115 651 248 87 100 123 
115 651 249 85 99 122 
114 651 250 88 100 123 
114 651 251 89 100 125 
115 651 250 89 101 124 
115 651 251 92 103 126 
112 651 252 88 100 125 
112 651 253 89 101 126 
113 651 252 90 102 126 
113 651 253 95 105 128 
112 651 254 92 103 127 
112 651 255 97 108 129 
113 651 254 98 108 129 
113 651 255 103 113 132 
114 651 252 95 105 128 
114 651 253 98 108 130 
115 650 252 98 108 130 
115 650 253 103 113 132 
115 651 252 96 106 129 
115 651 253 101 111 131 
114 650 255 107 117 135 
114 651 254 103 113 133 
114 651 255 106 116 135 
115 650 254 105 116 133 
115 650 255 106 116 133 
112 652 248 73 87 117 
112 652 249 73 87 117 
116 651 248 87 100 122 
116 651 249 86 100 122 
117 650 249 87 101 123 
117 651 248 86 100 122 
117 651 249 87 100 122 
116 650 251 94 105 128 
116 651 250 90 103 125 
116 651 251 92 104 127 
117 650 250 90 102 125 
117 650 251 96 106 127 
118 650 248 85 99 121 
118 650 249 88 102 124 
118 651 248 85 99 120 
119 650 248 85 99 120 
119 650 249 88 99 120 
118 650 250 92 104 125 
118 650 251 100 110 128 
119 650 250 92 103 123 
119 650 251 95 105 124 
116 650 252 98 109 129 
116 650 253 105 115 132 
117 650 252 105 115 132 
117 650 253 107 116 133 
116 650 254 106 116 133 
116 650 255 105 115 132 
117 650 254 107 116 133 
117 650 255 108 117 134 
119 649 254 96 110 133 
119 649 255 91 107 131 
118 650 252 108 117 133 
118 650 253 107 116 133 
119 650 252 102 112 129 
119 650 253 104 113 130 
118 650 254 109 118 134 
118 650 255 106 117 135 
119 650 254 104 115 133 
119 650 255 103 115 135 
120 651 240 59 75 97 
120 651 241 66 82 103 
121 650 240 63 77 97 
121 650 241 70 85 104 
121 651 240 58 73 95 
120 650 243 71 86 104 
120 651 242 76 91 110 
120 651 243 75 89 107 
121 650 242 69 85 103 
121 650 243 71 86 104 
123 649 243 62 81 103 
122 650 240 68 82 101 
122 650 241 73 88 106 
123 650 240 66 81 101 
123 650 241 64 81 101 
122 650 242 65 82 100 
122 650 243 73 89 108 
123 650 242 63 81 101 
123 650 243 70 88 107 
120 650 244 87 99 116 
120 650 245 83 95 111 
120 651 244 88 100 118 
121 650 244 80 94 111 
121 650 245 73 88 105 
120 650 246 81 96 115 
120 650 247 84 98 117 
121 650 246 79 94 113 
121 650 247 81 94 113 
123 649 244 63 81 103 
123 649 245 69 85 108 
122 649 247 73 88 109 
123 649 246 70 85 110 
123 649 247 72 86 110 
122 650 244 75 92 109 
122 650 245 70 87 106 
123 650 244 69 87 106 
123 650 245 72 88 109 
122 650 246 76 90 112 
122 650 247 73 88 108 
124 649 240 63 83 103 
124 649 241 60 79 100 
125 649 240 62 79 103 
125 649 241 63 81 104 
124 649 242 62 80 103 
124 649 243 66 83 107 
125 649 242 66 84 109 
125 649 243 65 82 108 
124 650 240 69 84 104 
124 650 241 58 77 97 
126 649 240 66 80 108 
126 649 241 70 85 109 
126 649 242 72 89 113 
127 648 242 83 98 120 
127 648 243 92 105 125 
124 649 244 65 82 108 
124 649 245 69 84 111 
125 649 244 69 85 112 
125 649 245 74 88 115 
124 649 246 69 84 111 
124 649 247 74 87 113 
125 649 246 74 87 113 
127 648 244 91 105 127 
127 648 245 89 101 122 
126 648 247 86 95 121 
127 648 246 94 103 123 
127 648 247 85 96 126 
121 649 250 81 95 113 
121 649 251 89 101 120 
120 650 248 83 96 116 
120 650 249 86 98 118 
121 650 248 80 93 112 
121 650 249 84 96 116 
120 650 250 86 98 118 
120 650 251 89 101 120 
121 650 250 81 94 114 
121 650 251 89 101 120 
122 649 248 78 92 113 
122 649 249 81 94 114 
123 649 248 79 91 114 
123 649 249 80 92 114 
122 649 250 80 93 114 
122 649 251 85 98 120 
123 649 250 78 90 115 
123 649 251 80 92 120 
122 650 248 79 92 114 
120 649 252 88 100 123 
120 649 253 86 99 124 
121 649 252 87 100 121 
121 649 253 83 96 122 
120 649 254 84 101 129 
120 649 255 81 98 126 
121 649 254 78 94 125 
121 649 255 82 96 122 
120 650 252 96 107 126 
120 650 253 91 104 125 
120 650 254 98 111 131 
122 649 252 87 99 122 
122 649 253 83 96 121 
123 649 252 83 95 118 
123 649 253 80 94 121 
122 649 254 82 95 123 
122 649 255 85 98 122 
123 648 255 88 101 126 
124 649 248 78 91 115 
124 649 249 77 89 115 
125 648 251 88 99 123 
126 648 248 89 100 121 
126 648 249 87 99 120 
126 648 250 93 104 127 
124 648 253 90 99 125 
125 648 252 93 102 125 
125 648 253 101 109 130 
124 648 254 90 100 126 
124 648 255 90 102 127 
125 648 254 96 106 126 
137 559 214 104 118 134 
137 559 215 98 114 134 
138 558 214 92 111 131 
138 558 215 91 111 132 
138 559 214 98 113 132 
138 559 215 95 113 133 
139 558 215 90 111 132 
140 557 215 91 113 134 
137 559 216 101 117 137 
138 559 216 101 119 139 
138 559 217 98 116 137 
139 558 216 95 115 136 
128 567 210 103 118 135 
128 567 211 92 112 132 
129 566 211 111 126 143 
129 567 211 106 122 141 
130 565 211 78 104 128 
131 564 211 64 95 121 
131 565 211 63 96 122 
130 566 211 92 114 136 
129 566 212 76 106 132 
129 566 213 53 90 121 
129 567 212 77 106 131 
129 567 213 54 94 124 
129 567 214 49 84 116 
129 567 215 48 81 114 
130 565 212 47 87 118 
130 565 213 53 88 119 
131 564 212 54 89 120 
131 564 213 51 85 118 
131 565 212 48 87 119 
131 565 213 56 88 119 
131 564 214 62 89 116 
131 565 214 64 90 118 
131 565 215 79 99 123 
130 566 212 58 95 125 
130 566 213 49 85 117 
130 566 214 53 85 116 
130 566 215 69 93 121 
130 567 215 65 93 122 
131 566 215 75 97 122 
132 563 212 71 95 122 
133 562 212 108 117 132 
133 562 213 104 116 131 
133 563 212 87 105 125 
133 563 213 82 102 124 
133 563 214 85 105 126 
133 563 215 81 103 126 
135 561 213 129 135 146 
135 561 214 131 137 147 
135 561 215 127 133 145 
134 562 213 120 128 140 
134 562 214 119 127 140 
134 562 215 114 125 140 
134 563 215 100 115 133 
135 562 215 127 133 144 
132 564 212 61 91 121 
132 564 213 59 87 117 
132 564 214 63 90 116 
132 564 215 75 99 124 
132 565 215 81 103 126 
133 564 215 74 99 124 
129 567 216 68 95 124 
129 567 217 65 92 121 
131 565 216 84 107 130 
130 566 216 80 102 126 
130 566 217 75 101 125 
130 567 216 73 97 124 
130 567 217 64 93 120 
131 566 216 83 105 129 
131 566 217 79 105 129 
130 567 218 58 92 120 
130 567 219 64 96 124 
131 566 218 78 104 128 
131 566 219 87 110 133 
131 567 218 73 101 127 
131 567 219 80 106 130 
131 567 220 85 109 135 
131 567 221 79 106 134 
133 563 216 71 99 125 
133 563 217 65 95 125 
135 561 216 114 124 139 
135 561 217 105 118 136 
134 563 216 88 108 132 
134 563 217 75 101 129 
135 562 216 106 119 137 
135 562 217 90 109 132 
134 563 218 74 101 130 
134 563 219 82 105 130 
135 562 218 85 106 129 
135 562 219 89 109 130 
135 563 218 72 100 128 
135 563 219 78 102 126 
134 563 220 81 104 126 
135 562 220 89 109 131 
135 563 220 77 101 124 
135 563 221 80 104 129 
132 564 216 70 99 126 
132 565 216 78 104 129 
132 565 217 75 103 128 
133 564 216 63 95 123 
133 564 217 64 96 125 
132 565 218 82 108 132 
132 565 219 77 106 131 
133 564 218 76 104 132 
133 564 219 86 110 134 
133 565 218 76 104 131 
133 565 219 84 108 132 
132 566 218 88 111 134 
132 566 219 89 112 135 
133 566 219 80 106 131 
134 564 219 90 111 134 
133 565 220 85 109 133 
133 565 221 82 108 132 
132 566 220 73 102 130 
132 567 220 88 112 137 
132 567 221 64 96 127 
133 566 220 71 100 127 
133 566 221 68 99 127 
132 567 222 59 93 125 
132 567 223 71 101 131 
133 566 222 86 111 136 
133 566 223 91 115 139 
133 567 222 79 106 133 
133 567 223 91 114 139 
134 564 220 89 110 132 
134 564 221 83 108 132 
134 565 220 86 109 132 
134 565 221 83 108 133 
135 564 220 79 102 125 
135 564 221 81 105 131 
134 564 222 85 111 136 
134 565 222 87 112 136 
134 565 223 88 112 135 
135 564 222 86 111 135 
135 564 223 96 117 139 
135 565 223 91 114 136 
134 566 223 91 115 138 
128 568 210 121 130 143 
128 568 211 115 127 143 
128 568 212 93 114 135 
128 568 213 74 104 130 
128 569 212 119 131 147 
128 569 213 96 117 138 
128 568 214 62 97 125 
128 568 215 50 84 115 
128 569 214 80 107 131 
128 569 215 73 100 126 
129 568 214 52 85 117 
129 568 215 43 79 112 
128 570 215 84 108 132 
128 569 216 53 88 119 
128 569 217 51 83 121 
129 568 216 51 85 119 
129 568 217 60 90 122 
129 569 217 50 84 121 
128 569 218 58 88 124 
129 568 218 58 90 120 
129 568 219 63 95 124 
129 569 218 60 91 123 
129 569 219 69 98 126 
128 570 216 94 114 136 
128 570 217 71 99 127 
128 570 218 57 84 122 
128 570 219 49 84 122 
128 571 218 62 88 121 
128 571 219 49 78 120 
130 568 218 53 89 119 
130 568 219 59 93 122 
129 569 220 77 103 131 
129 569 221 63 96 128 
128 570 220 55 89 124 
128 571 220 36 74 118 
128 571 221 51 85 122 
129 570 220 75 102 132 
129 570 221 80 106 135 
128 571 222 52 89 123 
128 571 223 48 89 124 
129 570 222 65 97 130 
129 570 223 54 90 127 
129 571 222 70 100 131 
129 571 223 49 87 126 
130 568 220 63 96 125 
130 568 221 58 93 126 
130 569 220 59 92 124 
130 569 221 54 91 124 
131 568 220 77 104 132 
131 568 221 74 102 132 
130 569 222 50 86 124 
130 569 223 49 85 123 
131 568 222 60 91 127 
131 568 223 47 84 122 
131 569 223 48 83 122 
130 570 222 50 90 126 
130 570 223 52 86 126 
128 572 221 43 72 118 
128 572 222 50 83 121 
128 572 223 58 90 127 
128 573 223 59 88 124 
129 572 223 43 83 125 
132 568 223 56 91 125 
136 560 214 120 128 141 
136 560 215 113 123 137 
136 561 215 123 130 142 
137 560 214 108 120 136 
137 560 215 103 117 135 
136 560 216 109 119 135 
136 561 216 113 123 137 
136 561 217 107 119 136 
137 560 216 105 118 135 
137 560 217 107 120 137 
136 561 218 104 119 137 
136 561 219 100 117 136 
137 560 218 104 119 138 
137 561 219 101 118 139 
136 562 219 92 111 132 
136 562 220 91 111 133 
136 563 221 89 112 136 
136 563 222 93 115 138 
137 563 223 94 115 136 
136 564 223 101 120 141 
132 567 224 83 109 136 
133 567 224 91 114 139 
133 567 225 89 112 137 
133 567 226 92 115 139 
134 565 224 92 115 138 
135 565 224 97 117 139 
135 565 225 100 119 140 
134 566 224 92 115 138 
134 566 225 96 116 139 
134 567 225 91 113 137 
134 566 226 95 116 139 
134 567 226 94 116 139 
134 567 227 82 106 132 
135 566 226 92 114 137 
135 566 227 73 97 126 
134 567 228 72 96 126 
135 567 228 75 96 126 
135 567 229 84 103 130 
129 571 224 48 85 125 
131 568 224 56 90 125 
131 569 224 55 90 125 
131 569 225 69 100 131 
131 569 226 79 105 135 
130 570 224 62 94 129 
130 570 225 71 101 132 
130 571 224 55 90 128 
130 571 225 69 100 132 
131 570 224 58 93 128 
131 570 225 71 101 132 
130 571 226 80 107 135 
130 571 227 90 113 139 
131 570 226 82 108 136 
131 570 227 95 116 141 
131 571 227 96 118 141 
131 570 228 98 119 141 
131 571 228 97 118 140 
131 571 229 81 101 130 
131 571 230 65 84 123 
128 572 224 59 90 128 
128 573 224 52 86 124 
128 573 225 62 96 128 
129 572 224 45 83 124 
129 572 225 63 97 130 
129 573 225 67 100 131 
128 573 226 73 104 133 
129 572 226 77 106 135 
129 573 226 75 105 133 
129 573 227 87 112 138 
128 574 224 44 79 120 
128 574 225 59 93 126 
128 574 226 70 101 131 
128 574 227 89 114 138 
128 575 226 76 104 132 
128 575 227 93 116 138 
129 574 227 95 119 142 
130 572 226 76 106 135 
130 572 227 89 113 139 
130 573 227 94 117 142 
129 573 228 91 116 140 
128 574 228 104 124 145 
128 575 228 108 126 146 
128 575 229 107 127 147 
129 574 228 99 121 143 
129 574 229 93 115 138 
128 575 230 85 109 137 
129 574 230 81 104 134 
129 574 231 71 90 131 
129 575 230 86 108 137 
129 575 231 63 87 128 
130 572 228 92 116 138 
130 572 229 78 103 130 
130 573 228 90 115 139 
130 573 229 74 102 129 
131 572 228 87 111 135 
131 572 229 76 100 129 
130 573 230 60 86 123 
130 573 231 55 80 126 
131 572 230 58 79 122 
131 572 231 42 73 120 
131 573 230 57 82 124 
131 573 231 43 70 121 
130 574 230 67 93 127 
130 574 231 64 84 129 
132 568 224 77 104 133 
132 568 225 81 107 135 
132 569 225 76 103 132 
133 568 225 88 112 137 
132 568 226 86 110 136 
132 569 226 86 109 136 
132 569 227 92 114 138 
133 568 226 89 112 137 
133 568 227 85 109 135 
133 569 227 84 108 135 
132 570 227 99 119 141 
134 568 227 76 100 128 
132 569 228 83 107 134 
133 568 228 75 100 127 
133 569 228 72 98 127 
133 569 229 60 88 121 
133 569 230 62 88 119 
133 569 231 90 107 132 
132 570 228 86 110 136 
132 570 229 73 98 129 
132 571 229 71 93 127 
132 570 230 55 81 122 
132 571 230 60 82 123 
132 571 231 52 77 118 
133 570 230 59 84 121 
133 570 231 85 103 129 
133 571 231 85 101 128 
134 568 228 71 95 125 
134 568 229 76 98 126 
134 568 230 96 112 134 
134 569 230 85 104 129 
134 569 231 100 114 135 
135 568 230 87 107 130 
135 569 231 98 111 131 
134 570 231 102 115 135 
132 572 231 35 70 115 
129 574 232 63 81 129 
129 575 232 52 76 125 
129 575 233 42 73 123 
129 575 234 33 71 121 
131 572 232 24 65 114 
131 573 232 41 74 122 
131 573 233 38 76 122 
131 573 234 44 82 126 
130 574 232 56 81 128 
130 574 233 49 82 126 
130 575 232 63 84 130 
130 575 233 48 80 127 
131 574 233 48 82 126 
130 574 234 48 82 127 
130 575 234 40 77 123 
130 575 235 46 78 122 
131 574 234 49 83 127 
131 574 235 57 88 129 
131 575 235 47 82 124 
130 575 236 69 90 127 
131 574 236 63 91 129 
131 574 237 65 92 125 
131 575 236 61 87 126 
131 575 237 78 100 129 
131 575 238 88 107 131 
131 575 239 101 115 132 
132 571 232 66 89 123 
133 570 232 107 118 136 
133 571 232 88 101 128 
133 571 233 108 119 137 
133 571 234 120 127 143 
135 569 232 95 107 124 
134 570 232 119 126 140 
134 570 233 117 124 138 
135 570 233 99 109 130 
134 571 234 122 129 144 
134 571 235 121 129 143 
135 570 234 101 113 129 
135 571 235 110 118 130 
135 571 236 99 109 122 
132 572 232 35 69 115 
132 572 233 33 75 116 
133 572 233 87 105 129 
132 572 234 58 88 120 
132 573 234 54 87 125 
132 573 235 69 96 128 
133 572 234 85 105 129 
133 572 235 98 113 133 
133 573 235 74 97 124 
132 574 235 58 90 126 
132 573 236 71 97 123 
133 572 236 99 114 131 
133 573 236 83 103 125 
133 573 237 80 101 123 
133 573 238 81 101 126 
132 574 236 66 94 126 
132 574 237 72 98 126 
133 574 237 75 99 125 
132 574 238 72 99 127 
132 575 238 73 98 126 
132 575 239 79 101 123 
133 574 238 74 99 125 
133 574 239 76 100 124 
134 572 236 116 127 141 
134 572 237 112 121 135 
134 573 238 88 104 124 
136 564 224 97 117 138 
136 565 226 85 108 132 
136 566 228 73 94 123 
136 567 229 81 103 129 
131 575 240 101 115 131 
132 575 240 84 103 122 
132 575 241 90 104 122 
133 574 240 81 100 120 
133 575 241 83 99 117 
128 576 228 108 126 146 
128 576 229 100 123 144 
128 576 230 74 105 134 
128 576 231 55 86 126 
128 577 231 45 83 124 
128 576 232 40 74 120 
128 576 233 34 70 119 
128 577 232 37 75 121 
128 577 233 48 80 124 
129 576 232 43 73 121 
129 576 233 36 70 120 
128 577 234 46 79 121 
128 577 235 37 70 119 
129 576 234 21 66 116 
129 576 235 22 62 115 
129 577 234 31 72 118 
129 577 235 19 61 115 
128 578 234 57 89 125 
128 578 235 51 83 124 
130 576 235 48 73 119 
129 576 236 62 81 122 
129 577 236 46 72 119 
129 577 237 75 90 125 
129 577 238 110 120 138 
129 577 239 126 131 144 
128 578 236 41 73 120 
128 578 237 51 73 118 
128 579 237 46 71 117 
128 578 238 71 88 120 
128 579 238 60 78 117 
128 579 239 87 103 127 
129 578 238 97 110 131 
129 578 239 117 125 141 
130 576 236 64 83 123 
130 576 237 91 106 132 
130 576 238 111 122 139 
130 576 239 129 135 146 
130 577 238 122 129 144 
130 577 239 133 138 147 
131 576 238 100 115 134 
131 576 239 116 125 139 
128 579 240 102 114 134 
129 578 240 121 129 142 
129 578 241 111 122 136 
129 579 240 112 122 140 
129 579 241 98 114 132 
129 579 242 81 99 123 
129 579 243 71 92 122 
130 577 240 131 135 146 
130 577 241 118 126 138 
131 576 240 120 128 141 
131 576 241 110 121 136 
131 577 241 120 128 140 
130 577 242 107 117 133 
131 576 242 104 116 133 
131 577 242 100 113 131 
131 577 243 81 96 119 
130 578 240 124 131 142 
130 578 241 109 119 133 
130 578 242 90 105 124 
130 578 243 84 100 123 
130 579 242 77 94 119 
130 579 243 80 97 122 
131 578 243 83 99 122 
130 578 244 87 102 125 
130 579 244 94 108 129 
130 579 245 113 121 135 
131 578 244 89 103 123 
131 578 245 96 106 120 
130 579 246 114 119 129 
131 579 246 103 109 119 
131 579 247 97 103 113 
128 580 240 100 114 133 
128 580 241 95 112 133 
128 580 242 78 102 128 
128 580 243 82 101 129 
128 581 242 68 94 127 
128 581 243 86 105 131 
129 580 242 79 99 126 
129 580 243 77 95 124 
128 580 244 92 106 128 
128 581 244 93 108 130 
128 581 245 113 122 137 
129 580 244 97 110 129 
129 580 245 116 124 137 
128 581 246 124 129 140 
128 581 247 128 131 140 
129 580 246 125 130 141 
129 580 247 128 131 140 
129 581 246 125 130 141 
129 581 247 130 132 139 
128 582 245 102 115 132 
128 582 246 120 126 139 
128 582 247 128 131 141 
128 583 247 118 124 135 
130 580 245 115 123 138 
130 580 246 124 129 139 
130 580 247 118 121 130 
132 576 240 99 113 130 
132 576 241 98 110 127 
132 576 242 89 103 123 
133 576 243 74 89 109 
132 577 244 76 90 111 
132 578 246 79 89 102 
132 579 247 83 90 101 
133 578 247 59 73 86 
129 581 248 127 128 135 
129 581 249 114 117 125 
128 582 248 130 133 141 
128 582 249 127 130 138 
128 583 249 123 128 139 
129 582 249 122 125 133 
128 582 250 117 122 132 
128 583 250 106 114 128 
128 583 251 87 99 117 
129 582 250 106 112 123 
129 582 251 82 95 110 
129 583 251 82 95 112 
130 580 248 111 113 121 
130 581 248 116 118 125 
130 581 249 103 106 114 
131 580 248 98 102 111 
131 580 249 89 94 103 
130 581 250 92 98 108 
131 581 250 86 91 101 
130 582 250 95 103 115 
130 582 251 68 83 99 
128 583 252 66 85 104 
129 583 252 71 86 103 
130 583 252 73 85 97 
130 583 253 84 90 100 
131 582 252 69 83 97 
131 583 254 91 93 99 
132 579 248 78 86 97 
132 580 249 81 87 96 
132 581 251 68 79 91 
132 583 255 84 87 94 
133 582 254 93 94 99 
134 582 255 83 88 95 
128 584 251 81 95 114 
128 584 252 73 90 110 
128 584 253 91 100 115 
128 585 253 93 102 119 
129 584 252 81 93 110 
129 584 253 89 97 109 
128 584 254 98 104 115 
128 585 254 103 110 121 
128 585 255 95 101 110 
129 584 254 92 98 107 
129 585 255 90 95 104 
128 586 255 96 103 113 
130 584 254 89 94 102 
130 584 255 89 92 99 
128 649 233 84 99 122 
128 649 234 84 98 119 
128 649 235 98 109 126 
128 649 236 103 113 132 
128 648 238 88 103 131 
128 648 239 77 93 123 
129 648 238 97 111 135 
129 648 239 93 108 132 
128 647 251 102 114 135 
128 648 240 81 98 124 
128 648 241 93 109 131 
129 648 240 93 111 132 
128 648 242 92 108 129 
128 648 243 97 110 131 
59 631 256 95 125 153 
61 629 256 116 124 136 
60 630 256 101 121 141 
60 631 256 85 115 141 
60 631 257 104 130 157 
61 630 256 112 126 142 
61 630 257 101 122 143 
61 631 257 92 122 149 
60 631 258 127 147 169 
61 630 258 93 120 146 
61 631 258 110 135 161 
61 631 259 118 142 167 
62 628 256 112 118 127 
62 629 256 114 121 132 
62 629 257 117 126 139 
63 628 256 110 116 124 
63 628 257 118 124 135 
62 629 258 108 124 141 
63 628 258 118 127 140 
63 629 258 116 127 141 
63 629 259 99 119 140 
62 630 258 96 119 143 
62 630 259 94 123 149 
62 631 259 110 137 164 
63 630 259 93 122 149 
63 629 260 87 116 142 
62 631 260 103 134 164 
63 630 260 100 129 156 
63 630 261 98 129 159 
63 631 260 101 133 163 
63 631 261 93 129 163 
63 631 262 98 136 170 
58 632 256 115 141 168 
58 633 256 124 146 172 
59 632 256 116 141 167 
59 632 257 137 156 178 
59 633 256 130 151 175 
59 633 257 136 154 177 
58 634 256 105 129 160 
59 634 256 100 125 158 
59 634 257 95 121 155 
59 635 256 80 104 145 
59 635 257 83 104 144 
60 632 257 132 152 174 
60 633 257 134 153 177 
60 632 258 138 156 178 
60 633 258 122 144 171 
61 632 258 137 155 177 
61 632 259 120 145 172 
61 633 259 104 132 166 
60 634 257 91 118 153 
60 635 257 86 104 143 
60 634 258 85 111 150 
60 635 258 81 97 137 
60 635 259 73 87 130 
61 634 259 77 102 144 
61 635 259 63 78 122 
61 635 260 55 71 114 
62 632 260 99 133 168 
62 633 260 99 130 166 
62 633 261 99 128 161 
63 632 261 101 136 171 
63 633 261 106 134 167 
63 632 262 111 144 177 
63 633 262 105 132 163 
62 634 260 75 101 138 
62 634 261 79 104 136 
62 635 260 58 75 115 
62 635 261 49 71 107 
63 634 261 73 97 130 
62 635 262 50 74 108 
63 634 262 54 72 111 
63 635 262 50 69 106 
63 635 263 66 89 116 
60 636 257 72 89 131 
60 636 258 67 82 123 
60 636 259 60 71 114 
60 637 258 59 72 114 
60 637 259 56 75 111 
61 636 259 49 66 108 
60 637 260 70 94 121 
61 636 260 50 72 109 
61 636 261 55 81 115 
61 637 260 63 87 116 
61 637 261 64 91 125 
61 637 262 67 92 131 
61 638 261 73 102 135 
61 638 262 72 99 137 
61 638 263 82 106 141 
62 636 261 51 76 111 
62 636 262 60 87 117 
62 637 262 70 95 130 
62 637 263 93 113 140 
63 636 262 63 91 118 
63 636 263 100 117 137 
63 637 263 114 129 148 
62 638 263 99 119 146 
62 639 263 110 128 151 
63 637 264 132 140 154 
62 638 264 121 135 155 
62 639 264 127 141 161 
63 638 264 144 151 163 
63 639 264 147 155 169 
63 639 265 136 147 166 
72 623 256 68 100 128 
72 623 257 69 102 132 
73 623 256 70 97 125 
73 623 257 69 102 131 
73 623 258 64 100 131 
73 623 259 63 100 131 
74 622 256 66 86 108 
74 622 257 61 85 110 
74 623 256 69 87 114 
74 623 257 64 93 121 
75 622 256 72 92 111 
75 622 257 67 87 109 
74 622 258 62 89 116 
74 622 259 65 96 125 
74 623 258 64 98 127 
74 623 259 65 100 130 
75 622 258 66 88 113 
75 622 259 62 88 116 
73 623 260 63 100 131 
74 623 260 63 100 131 
74 623 261 62 99 129 
75 622 260 63 89 118 
75 623 260 65 98 127 
75 623 261 66 100 130 
74 623 262 63 99 127 
75 623 262 64 100 129 
75 623 263 61 98 126 
76 621 256 70 89 109 
76 621 257 71 93 113 
77 621 256 66 85 103 
77 621 257 66 85 105 
76 621 258 65 90 112 
77 621 258 66 87 108 
77 621 259 67 91 113 
76 622 257 75 95 116 
76 622 258 68 90 113 
76 622 259 59 83 108 
78 620 256 53 70 88 
78 621 256 61 76 94 
78 621 257 66 82 100 
79 620 256 52 73 92 
79 620 257 59 78 97 
78 621 258 70 89 108 
78 621 259 69 92 112 
79 620 258 62 83 101 
79 620 259 64 86 105 
79 621 259 65 90 111 
77 621 260 67 95 118 
76 622 260 58 86 114 
76 622 261 59 93 122 
76 623 261 63 97 126 
77 622 260 63 92 117 
77 622 261 61 96 122 
76 622 262 59 97 125 
76 623 262 60 98 127 
76 623 263 54 95 125 
77 622 262 53 94 122 
77 622 263 49 92 122 
77 623 263 47 92 122 
78 621 260 66 95 118 
78 621 261 61 94 120 
79 620 260 67 91 112 
79 620 261 72 96 118 
79 621 261 66 94 118 
78 621 262 59 94 121 
78 621 263 69 100 126 
79 621 262 71 99 123 
79 621 263 76 104 129 
78 622 262 54 93 122 
78 622 263 56 94 123 
75 623 264 57 95 123 
76 623 264 50 91 120 
77 623 264 52 91 120 
77 623 265 70 99 124 
77 623 266 84 108 130 
77 623 267 84 108 132 
79 621 264 81 108 133 
79 621 265 82 110 134 
78 622 264 69 100 126 
78 622 265 84 109 132 
78 623 264 65 97 124 
78 623 265 85 109 132 
79 622 264 85 110 133 
79 622 265 84 110 134 
78 622 266 86 111 134 
78 623 266 87 111 134 
78 623 267 78 103 129 
79 622 266 79 104 130 
79 622 267 66 93 122 
77 623 268 78 105 130 
78 623 268 67 92 120 
78 623 269 59 85 115 
79 622 268 57 89 119 
79 623 268 61 90 119 
79 623 269 59 90 119 
79 623 270 60 90 118 
79 623 271 60 91 119 
64 627 256 95 95 98 
64 627 257 105 109 116 
65 626 256 43 46 53 
65 627 256 67 64 65 
65 627 257 85 87 92 
65 627 258 106 111 119 
65 627 259 104 114 125 
66 626 256 53 67 80 
66 626 257 57 62 70 
67 626 256 68 92 114 
67 626 257 59 79 96 
66 626 258 63 69 78 
66 627 258 84 87 94 
66 627 259 96 101 109 
67 626 258 56 72 87 
67 626 259 62 69 78 
65 627 260 102 115 129 
66 627 260 100 109 121 
66 627 261 88 106 124 
67 626 260 79 84 90 
67 627 260 97 102 110 
67 627 261 97 105 117 
66 627 262 79 103 126 
67 627 262 84 104 123 
67 627 263 77 105 130 
64 628 256 107 111 118 
64 628 257 113 118 127 
64 628 258 114 122 133 
64 628 259 111 123 139 
64 629 259 97 117 137 
65 628 259 107 118 131 
64 628 260 99 118 138 
64 629 260 87 114 140 
64 629 261 94 121 147 
65 628 260 96 114 133 
65 628 261 82 109 134 
65 629 261 86 115 141 
64 629 262 98 125 151 
65 628 262 87 116 143 
65 629 262 89 119 147 
65 629 263 81 116 146 
64 630 261 94 127 156 
64 630 262 84 121 153 
64 630 263 82 120 153 
64 631 262 91 130 164 
64 631 263 107 142 175 
65 630 263 87 123 155 
65 631 263 111 144 177 
66 628 260 93 110 128 
66 628 261 83 106 128 
66 628 262 81 109 134 
66 628 263 80 112 140 
66 629 263 79 114 144 
67 628 263 78 109 136 
68 625 256 67 98 125 
68 625 257 70 98 123 
69 624 256 64 93 121 
69 625 256 68 99 127 
69 625 257 67 99 126 
68 625 258 69 95 117 
69 625 258 67 97 121 
69 625 259 64 90 112 
68 626 257 70 95 118 
68 626 258 65 88 107 
68 626 259 57 76 93 
69 626 259 58 83 104 
70 624 256 65 93 121 
70 624 257 67 98 126 
70 625 257 67 99 127 
71 624 256 66 96 123 
71 624 257 67 98 126 
70 625 258 66 98 126 
70 625 259 66 96 121 
71 624 258 65 98 127 
71 624 259 64 97 126 
71 625 259 64 97 125 
69 625 260 59 83 102 
68 626 260 57 63 73 
68 626 261 79 81 87 
69 626 260 51 67 82 
69 626 261 55 54 61 
68 626 262 80 91 104 
68 627 262 90 102 115 
68 627 263 78 100 119 
69 626 262 69 72 80 
69 626 263 71 82 95 
69 627 263 73 91 108 
70 625 260 66 89 108 
70 625 261 53 72 89 
71 624 260 64 96 125 
71 625 260 63 94 120 
71 625 261 65 90 112 
70 625 262 41 58 75 
71 625 262 58 79 98 
71 625 263 54 72 91 
70 626 261 49 57 67 
70 626 262 48 47 58 
70 626 263 53 58 72 
65 631 264 118 151 182 
66 629 264 86 121 151 
67 628 264 76 111 140 
67 628 265 91 122 150 
67 629 264 82 118 148 
67 629 265 102 131 159 
67 629 266 109 135 162 
66 630 264 106 137 166 
66 630 265 113 143 173 
66 631 264 119 152 184 
66 631 265 117 150 185 
67 630 265 113 143 174 
67 630 266 109 142 173 
67 631 266 108 144 184 
68 627 264 72 103 129 
69 626 264 68 88 106 
69 627 264 69 97 120 
69 627 265 74 104 129 
69 627 266 86 113 137 
69 627 267 100 124 148 
71 625 264 54 75 96 
70 626 264 59 75 92 
70 626 265 64 92 115 
70 627 265 69 98 121 
71 626 264 52 70 91 
71 626 265 58 83 106 
70 626 266 70 98 122 
70 627 266 81 107 130 
70 627 267 96 119 141 
71 626 266 69 94 117 
71 626 267 84 105 126 
71 627 267 89 111 133 
70 627 268 101 125 149 
71 627 268 98 121 143 
71 627 269 92 121 148 
68 628 264 74 109 137 
68 628 265 87 117 144 
68 628 266 101 128 154 
68 629 266 109 135 161 
68 629 267 102 134 163 
69 628 266 97 123 148 
69 628 267 104 130 155 
69 629 267 103 132 161 
68 630 267 89 132 169 
68 631 266 105 144 185 
68 631 267 113 150 190 
69 631 267 133 163 197 
69 628 268 98 129 157 
69 629 268 86 126 160 
69 630 268 98 140 179 
69 630 269 88 132 171 
69 631 268 119 155 190 
70 628 268 99 127 154 
70 628 269 85 122 153 
70 629 269 82 125 162 
71 628 269 81 119 151 
71 628 270 79 119 153 
71 629 270 92 131 167 
70 630 269 105 142 179 
70 631 268 126 155 188 
70 631 269 131 158 190 
71 631 269 151 168 195 
71 630 270 116 145 180 
71 631 270 154 169 196 
64 632 262 118 148 180 
64 632 263 123 152 182 
64 633 262 104 129 161 
64 633 263 96 122 154 
65 632 263 124 153 184 
65 633 263 81 103 141 
64 634 263 42 59 103 
64 635 263 86 103 125 
65 634 263 44 62 105 
64 636 263 120 131 146 
65 632 264 122 151 183 
65 633 264 72 93 135 
65 634 264 51 71 108 
65 635 264 105 119 136 
66 632 264 111 141 177 
66 632 265 105 135 174 
66 633 264 71 93 136 
66 633 265 67 91 134 
67 632 266 108 135 176 
67 633 266 72 98 135 
66 634 264 61 82 114 
66 634 265 79 98 123 
66 635 265 125 136 151 
66 635 266 136 146 161 
67 634 266 109 125 142 
67 635 266 124 139 158 
64 636 264 127 137 150 
64 637 264 142 148 160 
64 637 265 152 156 166 
65 636 264 138 145 158 
65 636 265 144 151 163 
65 637 265 150 156 168 
64 638 264 153 157 167 
64 638 265 157 161 171 
64 639 265 135 147 165 
65 638 265 149 158 172 
65 639 265 119 136 163 
65 638 266 117 139 167 
65 639 266 99 122 161 
66 636 265 142 150 164 
66 637 265 139 151 166 
66 636 266 127 142 161 
66 637 266 100 126 157 
67 636 266 95 118 152 
67 637 266 71 104 155 
66 638 266 86 116 159 
66 639 266 85 109 159 
67 638 266 56 92 156 
67 638 267 56 93 158 
67 639 266 91 109 160 
68 632 266 120 144 182 
68 632 267 120 145 180 
68 633 266 78 104 136 
68 633 267 82 108 138 
69 632 267 110 136 171 
69 633 267 89 112 143 
68 634 266 119 133 150 
68 634 267 122 137 154 
68 635 266 116 134 155 
68 635 267 93 116 148 
69 634 267 121 137 157 
69 635 267 87 112 148 
69 632 268 114 141 175 
69 633 268 90 113 146 
69 634 268 119 135 159 
70 632 268 119 142 173 
70 632 269 140 161 187 
70 633 268 100 122 154 
71 632 269 132 148 176 
71 633 268 97 117 153 
71 633 269 96 115 154 
70 634 268 100 122 155 
70 635 268 83 109 155 
71 634 268 76 100 151 
71 634 269 76 99 149 
71 635 268 72 100 157 
68 636 267 81 106 153 
68 637 267 80 108 163 
69 636 267 81 106 156 
69 637 267 85 114 166 
68 638 267 64 98 159 
68 639 266 112 122 160 
68 639 267 104 118 160 
69 638 267 83 108 159 
69 639 267 111 114 145 
70 637 267 91 117 166 
70 638 267 94 107 150 
70 639 267 94 82 107 
71 639 267 99 72 78 
70 636 268 77 106 160 
70 637 268 89 114 162 
71 636 268 77 104 159 
71 637 268 88 105 151 
70 638 268 97 111 152 
71 638 268 93 93 126 
71 639 268 97 73 80 
72 624 256 67 101 129 
72 624 257 67 101 130 
72 624 258 66 100 130 
72 624 259 65 98 128 
73 624 259 63 100 131 
72 624 260 64 96 125 
72 624 261 67 97 121 
72 625 261 71 97 119 
73 624 260 62 98 128 
73 624 261 62 96 124 
72 624 262 73 99 122 
72 625 262 71 94 116 
72 625 263 64 87 109 
73 624 262 65 93 119 
73 624 263 59 87 114 
73 625 263 58 85 111 
74 624 261 61 98 128 
74 624 262 58 94 122 
74 624 263 59 92 119 
75 624 263 59 96 124 
72 625 264 52 80 103 
72 625 265 49 80 104 
73 625 264 55 86 111 
73 625 265 52 86 111 
72 625 266 49 80 104 
73 625 266 53 84 108 
73 625 267 60 87 109 
72 626 265 48 78 102 
72 626 266 59 86 108 
72 626 267 75 96 116 
73 626 267 71 93 113 
74 624 264 57 92 119 
74 624 265 52 89 116 
74 625 265 51 88 114 
75 624 264 54 92 120 
75 624 265 53 89 116 
74 624 266 51 86 113 
74 625 266 51 85 111 
74 625 267 56 86 109 
75 624 266 60 91 116 
75 624 267 66 93 116 
75 625 267 61 89 112 
73 625 268 73 95 114 
72 626 268 92 111 130 
72 627 269 92 118 142 
73 626 268 85 103 121 
73 626 269 94 112 131 
72 627 270 81 115 144 
73 626 270 92 113 134 
73 627 270 85 114 140 
73 627 271 77 113 143 
74 625 268 69 93 113 
74 625 269 79 98 115 
75 625 268 68 92 112 
75 625 269 71 90 107 
75 625 270 72 93 113 
75 625 271 68 87 108 
74 626 269 87 105 123 
74 626 270 89 107 125 
74 626 271 83 110 133 
75 626 271 75 97 118 
72 628 270 79 119 152 
72 628 271 82 121 153 
72 629 271 100 132 164 
73 628 271 82 120 152 
72 630 270 150 165 190 
72 630 271 149 165 187 
72 631 270 165 173 194 
73 630 271 166 173 189 
73 631 270 164 168 188 
73 631 271 175 178 193 
74 631 271 153 155 176 
75 631 271 125 129 157 
76 624 264 50 90 118 
76 624 265 57 92 119 
76 624 266 69 97 121 
76 624 267 76 100 122 
77 624 266 77 102 125 
77 624 267 83 107 129 
76 624 268 76 99 121 
76 624 269 70 95 117 
76 625 268 75 96 117 
76 625 269 69 92 113 
77 624 268 75 102 125 
77 624 269 66 95 120 
76 625 270 66 87 106 
76 625 271 60 79 100 
77 624 270 63 90 113 
77 624 271 59 83 106 
77 625 270 63 87 108 
77 625 271 59 82 103 
78 624 269 62 90 117 
78 624 270 61 91 118 
78 624 271 60 88 113 
79 624 270 60 87 116 
79 624 271 59 90 117 
72 632 269 109 123 160 
72 633 269 75 95 147 
73 633 269 71 87 150 
72 632 270 127 134 166 
73 632 270 106 111 156 
73 633 270 73 86 151 
72 634 269 70 92 151 
72 635 268 75 99 156 
72 635 269 78 99 154 
73 634 269 74 95 153 
73 635 269 84 100 147 
74 632 270 86 93 150 
74 632 271 100 107 153 
74 633 270 72 87 153 
75 632 271 101 109 153 
75 633 270 85 99 154 
75 633 271 98 109 156 
74 634 269 83 100 150 
74 635 269 84 93 134 
75 635 269 81 75 108 
74 634 270 77 96 155 
75 634 270 89 101 145 
75 635 270 81 77 110 
72 636 268 80 99 150 
72 637 268 82 86 128 
73 636 269 81 87 127 
73 637 268 79 69 102 
73 637 269 83 65 89 
72 638 268 85 68 87 
72 639 268 104 76 67 
73 638 268 95 69 70 
73 638 269 96 69 70 
73 639 268 112 83 65 
74 636 269 79 69 97 
74 637 269 94 69 71 
75 636 269 85 63 78 
75 637 269 102 75 68 
74 638 269 107 79 68 
74 639 269 118 89 69 
75 638 269 112 83 68 
75 639 269 119 90 70 
75 638 270 115 86 69 
75 639 270 122 92 71 
76 632 271 125 132 158 
76 633 270 106 116 153 
76 633 271 117 125 155 
77 632 271 125 130 150 
77 633 271 108 112 136 
76 634 270 88 90 124 
76 635 270 80 58 83 
77 634 270 81 71 99 
77 634 271 83 78 108 
77 635 270 83 57 69 
78 633 271 82 69 99 
78 634 271 76 53 78 
78 635 270 93 65 65 
78 635 271 89 62 67 
79 634 271 82 54 65 
79 635 271 98 72 65 
76 636 270 93 64 68 
76 637 270 108 80 69 
77 636 270 100 72 66 
77 637 270 112 84 69 
76 638 270 115 87 69 
76 639 270 123 92 71 
77 638 270 117 88 70 
77 638 271 119 90 69 
77 639 271 126 94 73 
78 636 271 106 78 70 
78 637 271 114 85 71 
79 636 271 107 78 69 
78 638 271 119 90 69 
78 639 271 128 96 75 
73 627 272 80 115 146 
74 626 272 77 108 134 
74 627 272 79 113 141 
74 627 273 85 113 142 
75 626 272 73 102 127 
75 626 273 75 107 133 
75 627 272 74 107 134 
75 627 273 83 110 137 
75 627 274 90 108 133 
73 628 272 88 119 152 
73 629 272 130 140 166 
73 630 272 170 170 185 
74 628 272 91 117 149 
74 628 273 101 102 139 
74 629 272 134 130 162 
74 629 273 124 104 144 
75 628 273 101 105 136 
75 629 273 123 78 122 
75 628 274 105 79 114 
75 628 275 105 61 95 
75 629 274 120 69 108 
74 630 272 161 153 172 
74 630 273 140 117 148 
74 631 272 160 158 175 
75 630 272 149 142 161 
75 630 273 140 109 137 
75 631 272 138 134 156 
76 625 272 58 78 99 
77 625 272 53 73 92 
77 625 273 56 76 95 
77 625 274 59 85 108 
77 625 275 63 96 122 
76 626 272 66 93 116 
76 626 273 72 101 126 
76 626 274 72 106 132 
76 626 275 75 105 132 
76 627 274 85 101 129 
76 627 275 84 98 124 
77 626 274 70 100 125 
77 626 275 70 103 130 
78 624 272 58 83 106 
78 624 273 56 76 97 
78 625 273 55 72 94 
79 624 272 57 89 114 
79 624 273 55 81 103 
78 624 274 56 71 92 
78 625 274 55 75 98 
78 625 275 58 84 109 
79 624 274 57 77 97 
79 624 275 57 78 99 
79 625 275 57 79 101 
76 627 276 89 95 122 
77 626 276 71 104 134 
77 627 276 80 103 134 
77 627 277 76 115 151 
78 625 276 62 98 125 
79 624 276 56 80 102 
79 625 276 60 90 116 
79 625 277 62 100 129 
79 625 278 64 106 138 
78 626 276 65 104 134 
78 626 277 65 108 140 
78 626 278 68 116 151 
78 627 278 78 128 168 
79 626 278 66 113 147 
79 626 279 76 125 162 
79 627 279 78 135 178 
76 628 275 103 72 104 
76 629 274 130 82 108 
76 629 275 114 78 106 
77 629 275 108 94 125 
76 630 273 133 107 133 
76 631 272 125 120 143 
76 631 273 128 106 131 
77 630 273 121 97 117 
77 631 272 127 118 138 
77 631 273 115 100 123 
76 630 274 128 99 123 
77 630 274 118 104 127 
77 630 275 111 109 140 
78 631 272 125 118 131 
78 631 273 110 103 121 
79 631 273 121 118 131 
78 630 274 107 111 137 
78 630 275 110 128 159 
78 631 274 102 102 128 
79 630 275 103 121 150 
79 631 274 104 107 129 
76 628 276 99 79 108 
77 628 276 90 102 135 
77 628 277 80 122 163 
77 629 276 100 108 140 
78 628 277 72 134 179 
78 629 276 98 135 171 
78 629 277 82 144 189 
79 629 276 101 150 189 
79 629 277 90 151 196 
78 628 278 76 140 188 
79 628 278 81 146 195 
79 628 279 80 142 189 
79 629 278 82 149 199 
78 630 276 109 140 174 
79 630 276 105 144 178 
77 632 272 133 131 150 
78 632 272 113 108 126 
