ply
format ascii 1.0
comment Created by CloudCompare v2.10.1 (Zephyrus)
comment Created 1/31/20 5:41 PM
obj_info Generated by CloudCompare!
element vertex 1970
property float x
property float y
property float z
property uchar red
property uchar green
property uchar blue
end_header
272 106 277 116 99 84 
273 106 278 116 101 88 
273 107 278 117 102 89 
274 106 279 115 100 89 
274 107 279 117 103 91 
275 105 281 112 99 88 
275 106 280 115 101 90 
275 107 280 117 103 92 
276 106 281 114 100 88 
276 107 281 116 101 90 
276 106 282 112 98 87 
277 106 283 112 98 88 
277 107 282 114 101 90 
277 107 283 113 100 89 
278 107 283 114 101 91 
278 106 284 112 99 89 
278 107 284 112 100 90 
279 107 284 113 101 91 
279 107 285 110 98 89 
276 108 281 118 103 92 
277 108 282 116 103 93 
278 108 283 116 103 93 
278 109 283 123 109 99 
279 108 284 115 102 92 
280 107 285 110 98 88 
280 107 286 108 96 86 
281 107 286 108 95 85 
281 107 287 107 94 85 
280 108 285 112 99 89 
280 108 286 110 97 87 
281 108 286 110 96 86 
281 108 287 106 93 84 
282 108 287 107 92 82 
281 107 288 103 91 83 
282 108 288 103 89 81 
282 108 289 101 88 78 
283 108 288 105 89 78 
283 108 289 103 88 76 
283 109 288 106 89 78 
283 108 290 104 87 73 
284 109 289 106 88 74 
284 109 290 106 88 72 
284 109 291 104 87 71 
285 109 290 106 87 70 
285 109 291 106 87 70 
285 110 290 107 87 69 
285 110 291 106 87 69 
286 110 291 107 86 68 
286 111 291 109 85 66 
285 109 292 105 87 70 
286 109 293 105 85 68 
287 109 295 107 84 68 
286 110 292 106 85 68 
286 110 293 106 85 68 
287 110 293 107 85 67 
287 111 292 108 84 66 
287 111 293 109 83 66 
287 110 294 108 84 67 
287 113 291 115 80 59 
287 112 292 110 83 65 
288 111 293 109 83 66 
288 110 294 108 84 68 
288 110 295 108 85 68 
288 111 294 109 84 67 
288 111 295 109 85 68 
289 111 295 109 85 68 
288 110 296 108 85 69 
289 110 297 110 87 71 
289 111 296 110 86 70 
289 111 297 111 87 71 
290 111 297 111 87 72 
288 112 292 111 82 64 
288 112 293 110 83 66 
288 113 292 113 82 63 
289 112 293 112 83 66 
289 112 294 110 84 68 
289 112 295 110 85 69 
290 112 294 112 85 68 
290 112 295 113 87 70 
290 113 294 114 87 68 
291 113 295 115 87 69 
291 114 295 114 86 68 
289 112 296 112 87 71 
290 112 296 113 88 73 
290 112 297 112 89 74 
291 113 296 114 88 72 
270 108 271 137 110 94 
270 109 271 147 121 108 
271 109 270 142 118 108 
271 110 271 161 130 106 
271 111 270 161 122 93 
271 111 271 160 124 99 
269 106 272 123 101 82 
269 106 273 121 99 81 
269 107 273 123 102 84 
270 107 272 123 100 81 
270 107 273 124 103 86 
271 107 273 126 104 87 
270 107 274 123 103 86 
271 107 274 125 104 88 
271 107 275 122 104 88 
270 108 272 132 106 89 
270 109 272 144 115 103 
271 108 272 133 111 94 
271 108 273 132 110 94 
271 109 272 146 115 103 
271 109 273 142 116 106 
271 108 274 127 106 90 
271 110 272 156 125 108 
271 110 273 149 122 107 
271 111 272 156 125 103 
271 112 271 164 118 85 
271 115 271 174 90 54 
272 111 271 162 125 96 
272 107 275 122 104 88 
272 107 276 120 102 87 
273 107 276 121 104 89 
273 107 277 119 103 88 
274 107 277 121 105 92 
274 107 278 118 103 91 
275 106 279 117 103 92 
275 107 278 119 105 94 
275 107 279 118 104 93 
272 109 273 138 116 102 
272 108 274 127 107 92 
272 108 275 124 106 90 
272 109 274 131 109 96 
273 108 275 125 108 92 
273 109 274 135 115 104 
273 109 275 130 111 100 
272 110 273 145 121 108 
272 111 272 150 121 100 
272 111 273 143 118 104 
273 110 273 137 120 108 
273 111 272 137 112 95 
273 111 273 129 107 94 
273 110 274 132 117 107 
274 109 274 132 117 110 
274 109 275 130 107 94 
274 111 273 124 101 89 
274 110 274 132 113 102 
274 110 275 128 114 106 
274 111 274 125 103 94 
274 111 275 128 110 102 
275 111 275 133 117 111 
272 108 276 121 104 89 
273 108 276 123 106 91 
274 108 276 126 108 93 
274 108 277 123 107 93 
274 109 276 130 107 94 
275 108 277 123 108 97 
275 109 276 133 111 101 
275 109 277 130 111 100 
275 108 278 122 108 97 
275 108 279 120 106 95 
275 109 278 126 112 101 
274 110 276 128 114 106 
274 111 276 128 116 112 
275 110 276 130 117 112 
275 110 277 134 118 109 
275 111 276 134 119 112 
275 111 277 142 128 118 
276 108 279 122 108 97 
276 109 278 128 115 105 
276 109 279 126 111 99 
277 109 279 126 113 102 
276 110 277 137 124 116 
276 111 277 138 124 115 
276 110 278 137 124 113 
276 110 279 134 120 108 
276 111 278 140 125 115 
277 110 279 141 127 118 
277 111 279 140 124 116 
276 107 280 117 102 91 
277 107 281 113 101 90 
276 108 280 121 105 94 
276 109 280 124 108 97 
277 108 281 115 103 94 
277 109 280 125 112 101 
277 109 281 125 111 100 
277 110 280 136 121 111 
277 110 281 145 129 119 
277 111 280 141 123 118 
278 109 281 128 114 103 
278 108 282 119 106 95 
278 109 282 127 113 102 
279 108 283 118 105 94 
279 109 282 133 118 107 
279 109 283 124 110 99 
278 110 280 139 123 112 
278 110 281 134 119 106 
278 111 280 137 121 105 
279 110 281 133 116 106 
279 111 281 129 114 101 
278 110 282 132 117 105 
279 110 282 136 120 107 
280 109 283 122 108 97 
280 110 282 136 120 106 
280 110 283 128 114 103 
280 111 282 133 115 102 
281 110 283 129 113 100 
281 111 282 142 120 99 
281 111 283 130 111 98 
280 108 284 115 102 92 
280 109 284 118 104 93 
281 108 285 113 99 88 
281 109 284 116 102 91 
281 109 285 114 99 89 
280 110 284 118 104 94 
281 110 284 121 105 93 
281 110 285 117 100 88 
281 111 284 126 108 95 
282 109 285 115 99 88 
282 108 286 110 95 84 
282 109 286 112 95 84 
283 108 287 107 91 80 
283 109 286 111 93 82 
283 109 287 109 91 79 
282 110 284 117 99 87 
282 110 285 117 98 85 
282 111 284 126 105 91 
283 110 285 118 97 83 
283 111 284 124 102 88 
283 111 285 120 98 84 
282 110 286 114 95 83 
283 110 286 115 94 81 
283 110 287 111 91 78 
283 111 286 118 94 80 
284 110 286 115 92 77 
284 110 287 112 90 76 
284 111 286 117 92 77 
285 110 287 113 88 73 
285 111 287 114 86 68 
272 112 271 160 115 84 
272 113 271 167 108 71 
273 112 271 146 108 85 
273 113 271 157 104 65 
272 114 270 174 95 61 
272 114 271 169 93 64 
272 115 271 174 89 44 
272 116 271 185 79 16 
272 117 270 192 80 14 
272 117 271 190 83 17 
272 118 270 189 80 19 
272 118 271 189 83 24 
272 119 270 182 82 37 
272 119 271 186 80 29 
273 119 271 188 89 32 
272 120 270 176 86 52 
272 120 271 174 87 55 
273 120 271 167 95 63 
273 121 270 163 99 72 
273 121 271 160 99 72 
273 122 269 165 97 70 
273 122 270 162 99 73 
274 122 268 166 97 68 
274 122 269 163 99 72 
274 123 268 165 97 70 
275 123 268 163 99 73 
275 123 269 161 101 75 
274 122 270 160 102 76 
274 122 271 157 104 81 
275 122 270 158 103 80 
275 122 271 156 104 82 
275 123 270 158 103 79 
275 124 267 165 97 70 
275 124 268 164 99 73 
276 123 268 160 102 78 
276 123 269 158 103 80 
277 123 269 156 104 81 
276 122 270 156 104 82 
276 122 271 153 106 86 
276 123 270 156 104 82 
277 122 271 151 107 88 
277 123 270 154 105 85 
277 123 271 152 107 88 
278 123 270 151 107 88 
278 123 271 149 107 90 
276 124 268 160 102 78 
272 112 272 148 115 93 
273 112 272 138 105 84 
273 113 272 153 105 71 
273 114 272 170 97 67 
273 115 272 176 97 48 
274 112 273 136 104 89 
274 113 272 154 104 74 
274 113 273 153 106 80 
274 112 274 129 105 94 
275 112 274 144 119 110 
275 112 275 143 122 111 
275 113 274 158 118 96 
275 113 275 155 122 98 
274 114 273 172 107 75 
274 115 273 179 103 60 
275 114 274 169 112 77 
275 114 275 168 116 79 
275 115 274 178 101 64 
275 115 275 177 102 69 
275 112 276 141 116 103 
272 116 272 184 79 19 
273 116 272 183 85 21 
273 116 273 182 86 26 
273 117 272 181 81 25 
273 117 273 180 87 35 
273 118 272 184 93 35 
273 118 273 180 93 39 
273 119 272 181 94 40 
274 116 273 171 88 39 
274 117 273 171 89 41 
274 116 274 179 91 54 
275 116 274 173 95 63 
275 116 275 167 99 70 
275 117 274 163 93 58 
275 117 275 162 98 68 
274 118 273 184 98 44 
274 119 273 180 99 53 
274 118 274 185 103 59 
274 119 274 183 101 58 
275 118 274 167 97 60 
275 118 275 172 102 67 
275 119 274 171 100 66 
276 114 275 170 112 75 
276 115 275 175 103 72 
276 112 276 152 127 109 
276 112 277 146 125 112 
276 113 276 153 120 96 
276 113 277 146 113 94 
276 112 278 141 125 118 
277 112 278 142 123 112 
277 112 279 150 128 115 
277 113 278 146 120 96 
277 113 279 142 118 94 
276 114 276 159 110 75 
276 114 277 149 104 76 
276 115 276 165 101 73 
276 115 277 160 100 73 
277 114 277 160 105 69 
277 115 277 157 98 72 
277 114 278 154 104 71 
277 114 279 142 109 74 
277 115 278 159 96 69 
278 112 279 146 126 110 
278 113 279 150 121 99 
278 114 279 157 104 69 
278 115 278 161 94 68 
278 115 279 162 92 66 
279 114 279 167 104 66 
279 115 279 160 93 68 
276 116 275 164 98 72 
276 117 275 170 101 69 
276 118 275 168 102 69 
276 119 275 164 100 69 
276 116 276 162 99 72 
276 117 276 160 98 71 
277 116 277 157 98 71 
277 117 276 163 100 71 
277 117 277 151 95 71 
277 116 278 157 95 70 
276 118 276 164 100 70 
276 119 276 159 100 72 
277 118 276 159 99 70 
277 118 277 146 95 71 
277 119 276 150 97 73 
277 119 277 146 96 72 
278 116 278 156 94 70 
278 116 279 156 93 69 
278 117 278 153 96 70 
279 116 279 155 94 69 
279 117 279 152 96 70 
278 119 277 145 95 72 
278 118 278 146 94 71 
278 119 278 145 94 71 
279 118 279 147 94 71 
279 119 278 144 94 72 
279 119 279 144 94 72 
278 112 280 142 122 108 
278 113 280 147 124 106 
279 112 280 137 117 105 
279 112 281 133 115 103 
279 113 280 147 117 98 
279 114 280 161 101 64 
279 115 280 158 93 67 
279 116 280 155 95 68 
279 117 280 150 95 71 
279 118 280 145 94 71 
273 120 272 157 99 71 
274 120 272 161 98 66 
274 120 273 170 99 60 
274 121 272 154 103 81 
275 120 273 169 101 66 
275 121 273 152 105 85 
275 120 274 165 101 71 
275 121 274 149 107 89 
274 122 272 156 104 82 
275 122 272 154 105 85 
275 122 273 151 106 88 
276 120 275 157 100 74 
276 121 274 146 107 92 
276 121 275 145 106 92 
277 121 275 143 106 92 
276 122 272 151 107 88 
276 122 273 148 108 91 
277 122 272 148 108 90 
277 122 273 146 108 92 
276 122 274 145 107 93 
277 122 274 144 108 92 
277 122 275 142 107 94 
278 122 272 147 108 91 
278 122 273 145 108 92 
278 123 272 147 108 92 
278 123 273 145 108 92 
279 123 272 146 108 92 
279 123 273 144 109 93 
278 122 274 141 108 94 
278 122 275 140 107 94 
278 123 274 142 108 93 
278 123 275 140 108 94 
279 123 274 141 108 94 
279 123 275 138 107 94 
277 120 276 149 98 75 
277 120 277 145 96 74 
277 121 276 140 106 93 
277 121 277 138 105 92 
277 122 276 139 106 94 
278 120 277 144 95 74 
278 121 277 138 103 88 
279 121 277 135 104 92 
278 120 278 143 94 73 
279 120 278 142 95 74 
279 120 279 141 94 73 
279 121 278 139 98 80 
279 121 279 139 96 76 
278 122 276 138 106 94 
278 122 277 136 106 94 
279 122 277 135 106 94 
279 123 276 136 107 95 
279 123 277 134 106 94 
279 122 278 134 104 92 
279 123 278 134 105 93 
280 112 281 134 115 102 
280 113 281 147 109 86 
280 112 282 141 112 94 
280 113 282 149 107 83 
281 112 282 149 117 96 
281 112 283 139 115 98 
281 113 282 145 112 92 
280 114 281 157 97 62 
280 115 281 154 93 66 
281 114 282 153 100 63 
281 115 282 151 95 63 
282 112 283 135 114 101 
282 113 282 150 108 80 
282 113 283 136 110 94 
282 114 282 150 101 63 
282 114 283 144 100 63 
282 115 282 146 95 63 
282 115 283 139 93 63 
282 112 284 129 108 96 
282 113 284 130 104 92 
283 112 284 126 103 91 
283 112 285 124 98 82 
283 113 284 132 104 88 
283 113 285 129 98 80 
282 114 284 138 96 64 
282 115 284 137 92 65 
283 114 284 135 97 72 
283 114 285 131 94 72 
283 115 284 134 91 66 
283 115 285 133 90 65 
280 116 280 154 94 68 
280 116 281 151 94 68 
280 117 280 148 95 71 
280 117 281 147 94 69 
281 117 281 145 94 69 
281 116 282 146 93 67 
281 117 282 141 93 68 
280 118 280 144 95 72 
280 118 281 145 95 72 
280 119 280 142 94 73 
280 119 281 140 94 73 
281 118 281 142 94 70 
281 119 281 140 94 71 
281 118 282 138 92 69 
281 119 282 137 91 69 
282 116 282 141 93 66 
282 116 283 138 92 65 
282 117 282 139 92 68 
282 117 283 137 91 66 
283 117 283 134 89 66 
282 118 282 137 91 68 
282 118 283 135 90 67 
282 119 282 135 90 68 
282 119 283 134 90 67 
283 118 283 133 89 66 
283 119 283 133 88 66 
282 116 284 136 91 65 
283 116 284 134 90 65 
283 116 285 132 89 65 
283 117 284 133 89 65 
283 117 285 132 88 64 
283 118 284 133 88 65 
283 118 285 132 87 64 
283 119 284 132 88 66 
283 119 285 131 87 64 
284 112 285 125 95 78 
284 113 285 127 95 77 
284 112 286 121 93 77 
284 113 286 124 92 74 
285 112 286 118 89 71 
285 112 287 116 86 67 
285 113 286 122 88 69 
284 114 285 128 91 71 
284 115 285 130 89 66 
285 114 286 125 88 67 
285 115 286 126 86 64 
286 112 287 117 85 65 
286 113 287 119 85 65 
286 114 287 121 85 64 
286 115 287 123 84 62 
287 115 287 122 83 62 
284 116 285 131 88 64 
284 117 285 131 87 63 
284 116 286 129 87 65 
284 117 286 129 87 64 
285 116 286 127 86 64 
285 116 287 126 85 63 
285 117 286 128 85 62 
285 117 287 126 84 61 
284 118 285 131 87 64 
284 119 285 130 86 64 
284 118 286 129 86 64 
284 119 286 128 85 64 
285 118 286 128 85 63 
285 118 287 126 84 62 
285 119 286 127 84 64 
285 119 287 126 83 63 
286 116 287 124 83 62 
286 117 287 125 83 61 
287 116 287 123 83 61 
286 118 287 125 83 62 
286 119 287 125 83 63 
280 123 273 142 109 94 
280 123 274 140 108 94 
280 123 275 137 107 95 
281 123 274 138 108 94 
281 123 275 137 107 95 
280 120 279 141 95 75 
280 121 279 137 96 78 
280 123 276 135 106 94 
280 123 277 134 106 94 
280 122 278 134 104 92 
280 122 279 133 101 88 
280 123 278 133 104 93 
280 123 279 132 103 91 
281 123 279 132 102 90 
281 124 275 136 107 94 
282 124 275 135 106 94 
280 124 277 133 105 94 
281 124 276 135 106 94 
281 124 277 133 105 93 
281 124 278 132 104 92 
281 124 279 131 102 91 
282 124 276 133 105 93 
282 124 277 132 104 92 
283 124 277 130 102 91 
282 124 278 131 102 91 
282 124 279 130 101 90 
283 124 278 129 101 90 
283 124 279 128 99 89 
284 124 278 127 99 89 
284 124 279 126 98 87 
285 124 279 124 96 86 
280 120 280 140 95 74 
280 121 280 136 96 77 
281 120 280 138 94 74 
281 120 281 136 93 73 
281 121 280 135 95 78 
281 121 281 133 93 75 
281 120 282 135 91 70 
280 122 280 135 97 80 
281 122 280 133 97 82 
281 122 281 132 95 80 
281 123 280 130 100 89 
281 123 281 130 99 87 
282 120 282 133 90 70 
282 121 282 132 91 72 
283 120 283 132 88 67 
283 121 283 130 88 69 
282 122 281 131 95 80 
282 123 281 129 96 84 
282 122 282 129 92 75 
282 123 282 128 92 78 
283 122 283 129 89 71 
283 123 283 127 89 75 
283 120 284 132 88 67 
283 120 285 131 87 65 
283 121 284 130 87 68 
283 122 284 129 87 70 
281 124 280 130 100 88 
282 124 280 128 99 88 
282 124 281 127 97 85 
283 124 280 127 97 87 
283 124 281 126 95 84 
282 124 282 127 94 82 
283 124 282 126 94 82 
283 124 283 124 91 79 
283 125 283 122 89 77 
284 123 283 126 87 72 
284 120 285 129 86 66 
284 121 284 129 86 68 
284 121 285 128 86 66 
285 121 285 125 84 66 
284 120 286 127 85 64 
285 120 286 126 83 64 
285 120 287 125 83 63 
285 121 286 124 83 65 
284 122 284 126 86 69 
284 123 284 125 86 71 
285 122 285 124 84 68 
285 123 285 123 85 69 
286 120 287 124 82 63 
286 121 286 123 82 65 
286 121 287 122 82 64 
286 123 285 121 84 69 
286 122 286 121 83 66 
286 122 287 120 82 66 
286 123 286 119 82 68 
287 122 287 119 80 63 
287 123 286 117 82 67 
287 123 287 116 80 64 
284 124 280 125 95 85 
284 124 281 123 93 83 
285 124 280 123 94 83 
285 124 281 122 92 82 
285 125 281 121 90 80 
284 124 282 122 91 80 
284 124 283 122 89 77 
284 125 283 122 89 78 
285 124 283 119 87 76 
285 125 282 121 90 79 
285 125 283 120 88 77 
286 124 281 119 90 80 
286 125 281 119 90 80 
286 124 283 119 88 77 
286 125 282 119 89 78 
286 125 283 119 88 78 
287 124 283 116 87 77 
287 125 282 117 88 78 
287 125 283 117 88 77 
284 124 284 123 87 73 
284 125 284 122 88 77 
285 124 284 121 86 72 
285 124 285 122 85 70 
285 125 284 121 88 77 
286 124 284 118 87 76 
286 124 285 118 84 71 
287 124 284 116 86 75 
287 124 285 115 85 74 
287 124 286 116 83 70 
284 109 288 108 89 76 
285 109 289 108 88 72 
284 110 288 110 89 74 
285 110 288 111 87 71 
285 110 289 109 87 71 
285 111 288 112 85 67 
286 110 289 111 85 68 
286 111 288 114 84 65 
286 111 289 114 83 64 
286 110 290 110 86 68 
286 111 290 111 83 64 
287 111 291 109 83 64 
286 112 288 116 84 64 
286 112 289 117 81 61 
286 113 288 118 83 63 
287 113 289 118 81 61 
286 112 290 117 80 60 
287 112 290 117 79 59 
287 112 291 113 81 60 
287 113 290 117 80 59 
286 114 288 120 83 63 
287 114 288 120 82 61 
287 114 289 118 81 61 
287 115 288 121 82 61 
286 117 288 124 83 61 
287 116 288 122 82 60 
287 117 288 123 82 60 
286 118 288 124 83 61 
286 119 288 123 82 62 
287 118 288 123 82 60 
287 118 289 122 81 60 
287 119 288 122 82 61 
287 119 289 121 81 60 
286 120 288 122 82 63 
286 121 288 121 81 63 
287 120 288 122 82 63 
287 120 289 120 81 63 
287 121 288 119 80 62 
287 121 289 118 80 62 
287 122 288 117 79 62 
288 123 287 115 79 63 
288 125 283 114 86 76 
288 124 284 113 85 74 
288 124 285 113 84 74 
288 125 284 114 86 75 
289 124 285 111 84 73 
289 125 284 111 84 74 
289 125 285 111 84 73 
288 124 286 113 82 69 
288 124 287 113 79 64 
289 124 286 111 82 71 
289 124 287 111 81 68 
290 124 287 109 81 69 
290 125 286 109 82 71 
290 125 287 108 81 69 
291 125 287 106 80 68 
288 112 291 114 80 60 
288 113 290 117 81 60 
288 113 291 115 80 60 
289 113 291 114 81 62 
288 114 289 118 81 60 
288 115 289 119 81 60 
289 115 289 119 81 60 
288 114 290 117 80 60 
289 114 290 116 80 60 
289 114 291 115 80 61 
289 115 290 118 81 60 
289 115 291 117 81 61 
290 115 291 117 81 61 
289 112 292 112 82 65 
289 113 292 113 81 63 
290 113 292 114 83 64 
290 113 293 114 85 66 
291 113 294 114 86 67 
290 114 292 115 83 63 
290 114 293 115 84 65 
290 115 292 116 82 62 
291 114 293 115 85 65 
291 115 292 116 82 63 
291 115 293 115 84 64 
291 114 294 115 85 66 
291 115 294 114 85 66 
288 116 288 120 81 60 
288 116 289 120 81 60 
288 117 288 121 81 60 
288 117 289 121 81 60 
289 116 289 119 81 60 
289 117 289 119 80 59 
289 116 290 118 81 60 
289 117 290 118 80 60 
288 118 289 121 81 60 
288 119 289 120 81 60 
289 118 289 120 80 59 
289 119 289 120 80 60 
289 118 290 118 80 59 
289 119 290 117 79 60 
290 116 291 117 81 61 
290 117 290 118 80 60 
290 117 291 117 80 60 
290 118 290 117 80 60 
290 118 291 116 80 60 
290 119 290 116 79 60 
290 119 291 116 79 60 
291 119 291 115 79 60 
290 116 292 116 81 61 
291 116 292 116 82 62 
291 116 293 115 83 64 
291 117 292 116 81 61 
291 117 293 115 81 62 
291 118 292 115 80 61 
291 118 293 115 81 62 
291 119 292 114 79 61 
292 114 295 114 86 68 
292 115 294 113 85 67 
292 115 295 113 86 67 
292 117 293 115 82 63 
292 116 294 114 84 66 
292 116 295 113 85 67 
292 117 294 114 83 65 
292 118 293 114 81 63 
292 119 292 113 80 62 
292 119 293 113 81 63 
293 119 293 112 81 64 
292 118 294 113 82 64 
293 118 294 112 83 65 
293 119 294 111 82 65 
288 120 289 118 80 61 
288 121 289 116 79 61 
288 121 290 116 79 62 
289 120 290 116 79 60 
289 121 290 115 79 61 
289 121 291 114 79 62 
288 122 289 115 79 62 
288 123 288 114 79 62 
288 123 289 113 78 61 
288 122 290 114 79 62 
288 123 290 113 78 62 
289 122 290 114 79 62 
289 122 291 112 78 61 
289 123 290 112 79 63 
289 123 291 111 78 62 
290 120 290 115 78 60 
290 120 291 115 79 60 
290 121 291 113 78 61 
291 120 291 114 79 61 
291 121 291 113 79 62 
290 122 291 112 78 62 
290 123 291 110 78 63 
291 121 292 111 79 62 
290 122 292 110 79 62 
290 123 292 108 79 63 
291 122 292 109 79 62 
291 123 292 107 79 63 
289 124 288 111 79 65 
289 124 289 111 79 64 
289 124 290 110 78 63 
290 124 288 109 81 67 
290 124 289 108 80 66 
290 125 288 108 81 68 
290 125 289 107 81 68 
291 125 288 106 80 68 
291 125 289 105 80 68 
290 124 290 108 79 64 
290 124 291 108 78 63 
291 124 291 106 79 64 
291 125 290 105 79 66 
291 125 291 103 79 65 
291 126 288 104 80 69 
290 124 292 107 77 62 
291 124 292 106 79 64 
292 120 292 112 80 62 
292 120 293 112 80 63 
292 121 292 110 79 63 
293 120 293 111 81 64 
293 121 293 109 80 63 
293 120 294 110 82 65 
292 122 292 109 79 63 
292 122 293 108 78 62 
292 123 292 106 78 63 
292 123 293 106 79 63 
293 122 293 107 79 62 
293 123 293 106 79 63 
293 122 294 107 80 64 
293 123 294 104 79 64 
292 125 289 103 81 69 
292 125 290 103 82 71 
292 125 291 102 80 66 
292 126 288 102 80 69 
292 126 289 102 81 70 
292 126 290 101 82 70 
292 126 291 101 82 70 
293 126 290 101 81 69 
293 126 291 99 81 69 
293 127 290 100 81 70 
293 127 291 100 81 70 
294 127 291 99 81 70 
292 124 292 105 79 64 
292 124 293 103 78 64 
292 125 292 102 80 66 
292 125 293 102 79 65 
293 124 293 103 79 63 
293 125 292 100 79 66 
293 125 293 101 79 66 
293 124 294 103 79 64 
293 125 294 101 79 65 
292 126 292 100 80 67 
293 126 292 99 79 67 
293 126 293 99 79 66 
293 127 292 98 79 68 
293 127 293 97 78 65 
293 126 294 100 79 66 
293 127 294 98 79 66 
294 128 291 98 81 70 
293 128 293 95 77 66 
294 128 292 99 82 70 
294 128 293 97 79 68 
246 115 255 183 78 11 
247 115 255 179 81 11 
246 116 254 182 82 13 
246 116 255 181 83 12 
246 117 254 181 81 15 
247 116 254 183 84 13 
247 116 255 179 86 12 
247 117 254 183 84 14 
246 118 253 181 84 30 
246 119 252 172 107 71 
246 119 253 182 94 51 
247 118 253 184 80 17 
247 119 253 175 100 60 
247 118 254 185 84 16 
246 120 252 169 112 81 
248 115 255 171 79 10 
248 116 255 172 83 11 
248 117 254 185 85 13 
248 117 255 177 86 11 
249 116 255 173 82 10 
249 117 255 175 87 11 
248 118 254 185 86 14 
246 109 259 154 85 27 
247 109 259 158 95 33 
246 110 259 163 77 15 
247 110 259 170 85 14 
247 111 259 171 84 16 
247 108 260 152 105 71 
250 107 261 138 106 86 
251 106 261 136 111 92 
251 107 261 133 103 85 
251 106 262 137 113 94 
251 107 262 136 112 94 
248 109 259 158 96 38 
249 109 259 157 97 43 
248 110 259 173 85 16 
248 111 258 173 82 12 
248 111 259 173 83 12 
249 110 258 172 81 17 
249 110 259 169 85 19 
249 111 258 174 81 12 
250 109 259 160 96 43 
251 109 259 160 107 70 
250 111 257 175 77 10 
251 111 257 159 82 11 
250 110 258 165 86 15 
250 110 259 165 88 24 
250 111 258 174 78 12 
251 110 258 162 86 12 
251 110 259 157 96 40 
251 111 258 168 80 10 
248 108 260 154 110 77 
248 109 260 158 106 63 
249 108 260 143 102 80 
249 108 261 139 105 89 
249 109 260 146 100 65 
250 108 260 143 101 82 
250 108 261 137 101 85 
250 109 260 150 102 71 
251 108 260 144 102 82 
252 104 263 131 111 95 
252 105 262 137 117 102 
252 105 263 134 114 97 
253 104 263 131 112 96 
253 105 262 136 116 100 
253 105 263 132 113 97 
252 106 261 139 116 97 
252 107 261 139 110 92 
253 106 261 141 118 100 
253 107 261 142 114 95 
252 106 262 137 115 99 
252 106 263 136 115 98 
252 107 263 136 112 95 
253 106 262 138 118 103 
254 104 263 130 111 95 
254 105 262 132 114 98 
254 105 263 131 113 97 
255 104 263 129 112 96 
255 105 262 132 114 99 
255 105 263 130 113 98 
254 106 261 138 115 96 
254 107 260 148 120 100 
254 107 261 145 118 98 
255 106 261 137 116 98 
255 107 261 151 123 101 
254 106 262 136 117 100 
255 106 262 135 116 101 
252 109 259 161 111 74 
253 109 259 161 84 10 
252 110 258 159 84 9 
252 110 259 160 93 32 
252 111 258 160 83 9 
253 110 259 177 79 10 
252 108 260 150 113 92 
252 109 260 162 116 87 
253 108 260 152 112 75 
253 108 261 145 115 96 
253 109 260 158 88 10 
254 108 260 155 110 63 
254 109 260 162 89 9 
255 108 261 168 132 104 
254 104 264 129 110 94 
254 105 264 127 108 92 
255 104 264 129 111 94 
255 105 264 128 110 94 
254 106 264 126 105 88 
254 107 264 125 102 87 
255 106 264 125 107 91 
255 107 264 128 104 85 
254 108 264 117 57 8 
255 108 264 137 103 83 
255 109 264 139 102 83 
247 113 258 181 84 12 
246 114 256 183 76 11 
246 114 257 183 76 11 
247 114 256 185 81 11 
247 114 257 184 80 11 
246 114 258 181 75 11 
246 115 258 174 74 12 
247 114 258 180 80 12 
247 114 259 173 78 11 
247 115 259 162 68 10 
248 113 257 186 82 11 
249 112 257 176 78 10 
249 113 257 176 76 9 
248 112 258 173 81 14 
248 112 259 169 80 13 
248 113 258 178 84 14 
248 113 259 170 79 12 
249 112 258 174 79 11 
248 114 256 177 79 10 
248 114 257 187 81 11 
248 115 256 171 79 10 
249 114 256 172 78 10 
249 115 256 172 79 9 
248 114 259 163 75 12 
250 112 257 166 77 11 
250 113 256 173 84 10 
250 113 257 162 77 10 
251 112 257 160 82 11 
251 113 257 160 80 11 
250 114 256 173 83 10 
250 115 256 174 85 11 
248 112 260 165 73 12 
248 113 260 163 72 12 
250 116 256 175 89 11 
256 104 263 130 113 98 
256 105 262 134 117 102 
256 105 263 133 116 101 
257 105 263 138 119 101 
256 106 262 137 117 101 
256 104 264 130 112 97 
256 105 264 132 115 100 
257 105 264 133 115 98 
258 105 264 137 118 101 
256 105 265 129 112 96 
257 105 265 131 114 98 
256 106 265 129 113 98 
256 107 265 131 109 90 
257 106 265 132 114 97 
257 107 265 130 109 88 
258 105 265 131 113 97 
259 105 265 131 113 98 
258 105 266 129 111 95 
259 105 266 129 111 95 
258 106 266 131 112 95 
258 107 266 128 105 84 
259 106 267 125 106 89 
256 108 265 138 104 84 
256 109 265 133 81 37 
257 108 265 136 103 83 
257 109 265 127 64 5 
257 111 265 129 65 9 
258 108 266 124 79 40 
258 109 266 127 64 4 
258 110 266 129 66 5 
260 105 266 131 113 96 
260 105 267 129 110 93 
261 105 267 129 110 91 
260 106 267 127 108 89 
260 107 267 113 83 50 
261 105 268 126 106 87 
261 106 268 126 106 87 
261 107 268 108 73 34 
262 104 268 126 106 86 
262 105 268 124 104 84 
263 104 269 122 101 80 
263 105 269 121 99 78 
262 106 268 124 104 84 
263 106 269 117 94 68 
263 107 269 116 80 31 
260 108 267 123 66 17 
260 109 267 126 59 2 
260 110 267 129 61 8 
263 108 269 126 64 5 
257 112 265 129 64 8 
257 113 265 129 63 5 
257 114 265 127 61 5 
246 120 251 165 120 109 
246 121 251 166 120 105 
247 120 251 162 119 109 
247 121 251 164 120 107 
247 120 252 165 115 96 
249 117 254 178 82 10 
248 118 253 184 84 17 
248 119 253 179 96 39 
249 119 253 180 85 13 
249 118 254 185 85 11 
249 119 254 186 88 11 
250 116 255 175 88 11 
250 117 254 169 77 9 
250 117 255 172 84 10 
251 116 255 176 90 11 
251 117 255 171 84 10 
250 118 254 174 82 9 
250 118 255 168 79 9 
250 119 254 174 77 9 
251 118 255 169 83 10 
251 119 254 174 80 10 
251 119 255 174 81 10 
252 117 255 173 88 10 
252 118 255 173 89 10 
252 119 255 175 84 10 
253 118 255 176 93 11 
253 119 255 175 86 10 
248 121 251 165 121 108 
248 122 251 163 117 99 
249 122 251 162 119 103 
249 123 251 160 124 113 
250 122 251 159 122 112 
250 123 251 149 127 122 
251 123 251 141 137 139 
248 120 252 166 108 78 
248 120 253 169 107 65 
248 121 252 161 117 110 
249 120 252 163 112 99 
249 120 253 167 90 32 
249 121 252 158 117 115 
249 121 253 161 112 103 
249 122 252 162 118 99 
250 120 253 165 95 54 
250 121 252 157 120 120 
250 121 253 159 115 109 
251 121 253 161 122 116 
250 120 254 170 83 10 
251 120 254 170 87 10 
251 121 254 158 111 72 
250 122 252 150 121 109 
250 123 252 135 127 127 
251 122 252 141 123 112 
251 122 253 145 121 103 
251 123 252 142 131 131 
251 123 253 138 132 134 
251 122 254 149 118 87 
250 124 251 142 137 139 
251 124 251 156 134 129 
251 125 251 160 132 124 
251 124 252 153 138 135 
251 125 252 155 142 136 
252 120 255 171 90 10 
252 121 254 154 103 18 
252 121 255 161 96 10 
253 120 255 169 92 10 
253 121 254 157 99 10 
253 121 255 161 98 23 
252 122 253 138 128 125 
252 123 253 136 134 139 
252 122 254 145 121 96 
252 123 254 133 135 141 
253 122 254 142 121 95 
253 122 255 143 120 88 
253 123 254 132 135 141 
254 120 255 168 88 10 
254 121 255 159 101 31 
255 121 255 163 94 31 
254 122 255 142 121 95 
254 123 254 129 133 141 
254 123 255 132 137 144 
255 122 255 141 123 100 
255 123 255 135 136 140 
252 125 251 160 132 124 
252 126 251 159 132 125 
253 127 251 158 132 126 
254 127 251 159 133 125 
255 127 251 159 133 126 
252 124 252 153 142 137 
252 124 253 151 143 141 
252 125 252 159 135 126 
252 125 253 162 133 124 
253 125 253 153 132 124 
252 124 254 150 143 142 
253 124 254 148 143 144 
253 125 254 149 136 129 
252 126 252 160 131 122 
252 126 253 161 132 122 
252 127 252 160 131 122 
253 126 253 160 132 123 
253 127 252 159 132 124 
253 127 253 159 131 122 
254 124 254 146 143 146 
254 124 255 143 143 149 
254 125 254 154 138 133 
255 124 254 144 148 156 
255 124 255 146 139 143 
255 125 254 158 135 132 
255 125 255 157 133 131 
254 126 253 160 132 123 
254 127 252 159 133 126 
254 127 253 159 132 124 
255 127 252 159 133 126 
255 127 253 159 131 123 
254 126 254 160 132 124 
255 126 254 160 132 124 
252 111 257 161 84 9 
253 110 258 174 71 9 
253 111 258 164 77 9 
254 109 259 175 81 9 
254 110 258 182 63 8 
254 110 259 180 65 8 
254 111 258 178 80 10 
255 110 259 179 70 8 
255 111 258 183 81 10 
255 111 259 182 76 9 
255 108 260 159 107 57 
255 109 260 163 88 9 
255 110 260 176 76 9 
251 113 256 161 81 11 
251 114 256 176 88 11 
251 115 256 175 89 11 
251 116 256 175 90 11 
252 112 257 162 84 9 
252 113 256 163 82 9 
252 113 257 162 81 9 
253 112 257 161 82 9 
253 113 257 161 79 9 
252 114 256 173 88 11 
252 115 256 177 89 10 
253 114 256 177 84 10 
253 114 257 179 81 10 
253 115 256 178 86 10 
254 112 257 177 91 11 
254 113 257 177 84 10 
255 113 257 180 81 9 
254 112 258 174 91 10 
255 112 258 185 82 10 
254 114 256 179 78 9 
254 114 257 180 78 9 
254 115 256 175 82 10 
255 114 257 179 79 9 
255 115 256 175 84 10 
255 115 257 175 84 9 
252 116 256 177 91 11 
252 117 256 177 91 11 
253 116 256 178 88 11 
253 117 256 176 88 10 
253 118 256 176 94 11 
253 119 256 175 84 10 
254 116 256 176 82 10 
254 117 256 176 82 10 
255 116 256 176 83 10 
255 117 256 177 78 9 
254 118 256 175 90 10 
254 119 256 175 84 9 
255 118 256 176 83 9 
255 119 256 175 81 9 
254 120 256 169 86 9 
255 120 256 170 83 9 
255 121 256 162 96 35 
255 122 256 145 118 77 
256 123 255 133 137 143 
257 123 255 135 143 154 
258 123 255 130 138 150 
256 127 251 159 133 125 
257 127 251 160 132 124 
258 127 251 160 132 124 
259 127 251 159 132 123 
256 124 255 142 147 156 
256 125 254 158 133 129 
256 125 255 154 138 137 
257 124 255 139 146 155 
257 125 254 156 132 129 
257 125 255 153 135 134 
256 126 253 160 132 124 
256 127 252 160 133 125 
256 127 253 160 133 124 
257 126 253 160 132 125 
257 127 252 160 132 124 
257 127 253 160 132 124 
256 126 254 159 133 128 
257 126 254 158 132 127 
258 124 255 135 143 155 
258 125 254 157 148 142 
258 125 255 142 144 150 
259 124 255 132 142 155 
259 125 254 159 129 122 
259 125 255 144 146 152 
258 127 252 160 131 123 
258 127 253 160 131 123 
259 127 252 160 131 122 
259 127 253 160 130 122 
258 126 254 159 131 124 
259 126 254 159 129 122 
260 127 251 160 131 122 
261 127 251 160 130 121 
262 127 251 160 129 120 
263 127 251 160 128 119 
260 124 255 129 140 154 
260 125 254 149 149 153 
260 125 255 138 145 156 
261 124 255 128 140 155 
261 125 255 133 144 157 
260 127 252 160 130 121 
260 127 253 160 128 119 
261 127 252 161 127 118 
261 127 253 162 126 116 
260 126 254 159 135 128 
260 127 254 160 128 119 
261 126 254 153 138 135 
261 126 255 143 147 154 
261 127 254 161 126 116 
262 125 255 132 143 158 
263 125 255 141 134 138 
262 126 253 162 124 113 
262 127 252 161 126 116 
262 127 253 162 124 113 
263 126 253 162 123 112 
263 127 252 162 125 115 
263 127 253 163 122 111 
262 126 254 157 129 123 
263 126 254 163 120 109 
263 126 255 164 119 109 
264 125 255 166 116 105 
264 127 252 162 124 114 
264 127 253 164 121 110 
264 126 254 165 118 106 
264 126 255 165 116 105 
264 127 254 165 118 106 
265 126 254 165 117 105 
265 126 255 166 115 103 
265 127 254 166 117 105 
266 126 255 168 113 99 
266 127 255 168 114 100 
263 128 251 160 129 121 
263 128 252 162 124 113 
257 105 262 141 122 104 
256 106 261 141 120 99 
256 107 261 157 129 102 
257 106 261 146 124 103 
257 107 261 155 128 107 
257 106 262 144 123 102 
258 105 263 142 122 102 
258 106 261 150 131 115 
258 107 261 158 130 112 
259 107 261 154 126 109 
258 106 262 146 127 110 
258 106 263 144 124 104 
259 106 262 147 127 114 
259 106 263 144 126 110 
259 107 262 151 128 113 
256 111 259 183 86 10 
257 111 259 182 87 10 
258 111 259 181 87 9 
256 108 260 169 129 98 
256 108 261 165 130 96 
256 109 260 166 115 74 
257 108 260 165 128 99 
257 108 261 162 129 103 
257 109 260 167 110 54 
256 110 260 178 97 20 
257 110 260 178 96 17 
257 111 260 182 89 10 
258 108 260 157 114 78 
258 108 261 157 123 97 
258 109 260 165 107 38 
259 108 260 159 109 62 
259 108 261 157 117 83 
259 109 260 165 101 24 
258 110 260 175 93 11 
258 111 260 178 91 10 
259 110 260 175 92 10 
259 111 260 179 91 10 
260 107 261 157 129 110 
260 106 262 146 126 115 
260 106 263 145 125 111 
260 107 262 151 128 115 
260 107 263 150 129 119 
261 106 263 150 128 115 
261 107 262 154 129 116 
261 107 263 157 133 120 
262 107 263 156 130 117 
260 108 261 158 119 87 
260 109 260 165 98 31 
260 109 261 163 103 53 
261 108 261 155 116 80 
261 109 260 173 91 10 
261 109 261 171 102 41 
260 108 262 161 126 107 
261 108 262 157 122 99 
261 109 262 170 110 63 
260 110 260 175 85 9 
260 111 260 182 86 9 
260 111 261 181 87 9 
261 110 260 175 86 9 
261 110 261 180 88 10 
261 111 261 185 84 9 
262 108 262 162 127 93 
262 108 263 166 130 100 
262 109 262 171 112 69 
262 109 263 175 109 68 
263 108 263 168 126 89 
263 109 263 173 112 82 
262 110 261 180 96 24 
262 111 261 188 84 9 
262 110 262 180 100 40 
262 111 262 187 83 9 
263 110 262 183 95 41 
263 110 263 183 95 52 
263 111 262 185 87 9 
263 111 263 185 88 9 
259 105 264 138 120 104 
260 105 264 136 118 101 
260 106 264 140 122 106 
261 106 264 146 125 111 
262 106 264 147 124 109 
262 107 264 152 127 112 
263 107 264 149 123 106 
263 108 264 160 128 102 
263 109 264 174 112 78 
263 110 264 180 105 76 
264 110 263 183 93 21 
264 111 263 177 95 28 
264 108 264 157 125 98 
264 109 264 163 112 76 
264 110 264 175 101 65 
264 111 264 176 96 27 
265 110 264 170 105 66 
265 111 264 175 96 37 
256 113 257 181 84 9 
257 113 257 188 83 10 
256 112 258 185 78 9 
256 113 258 188 82 10 
257 112 258 185 78 9 
257 112 259 186 84 10 
257 113 258 187 80 9 
256 114 257 179 79 9 
256 115 256 175 90 10 
256 115 257 175 86 9 
257 114 257 188 86 10 
257 115 256 185 93 11 
257 115 257 185 90 10 
258 112 259 186 83 9 
258 113 258 188 80 9 
258 113 259 187 78 9 
259 113 259 187 83 9 
258 114 257 186 85 10 
258 115 257 186 86 10 
258 114 258 187 82 9 
258 115 258 186 83 10 
259 114 258 185 83 9 
259 114 259 184 84 9 
259 115 258 185 84 9 
259 115 259 185 83 9 
258 112 260 184 89 10 
259 112 260 187 83 9 
259 113 260 191 80 9 
256 116 256 175 83 10 
256 117 256 180 79 9 
257 116 256 185 87 10 
257 116 257 186 85 10 
257 117 256 189 82 10 
257 117 257 188 81 9 
256 118 256 179 82 9 
256 119 256 175 80 9 
256 119 257 184 85 10 
257 118 256 187 82 9 
257 118 257 185 83 9 
257 119 257 182 87 9 
258 116 257 186 84 9 
258 117 257 187 83 9 
258 116 258 186 83 9 
258 117 258 186 87 9 
259 116 258 184 83 9 
259 116 259 184 83 9 
259 117 258 183 86 9 
258 118 257 183 82 9 
258 119 257 182 86 17 
259 119 257 183 79 20 
259 118 258 184 78 8 
259 119 258 185 74 8 
260 114 259 185 86 9 
260 115 259 187 85 9 
260 112 260 189 81 9 
260 112 261 190 77 9 
260 113 260 187 83 9 
260 113 261 187 78 9 
261 112 261 189 76 8 
261 113 261 184 81 9 
260 114 260 184 86 9 
260 115 260 185 83 8 
261 114 260 184 85 9 
261 114 261 183 84 9 
261 115 260 185 82 9 
261 115 261 184 77 8 
262 112 261 190 77 8 
262 112 262 190 79 9 
262 113 262 185 86 9 
263 112 262 186 79 8 
263 112 263 187 84 8 
263 113 262 187 84 9 
263 113 263 188 80 8 
262 114 261 183 83 9 
262 115 261 187 78 8 
262 114 262 186 84 8 
262 115 262 190 82 8 
263 114 262 187 84 8 
263 114 263 187 84 8 
263 115 262 188 81 8 
260 116 259 184 87 9 
260 117 258 184 87 9 
260 117 259 184 86 9 
260 118 258 186 82 8 
260 118 259 186 82 8 
260 119 258 184 75 23 
260 119 259 186 77 8 
261 118 259 185 81 8 
261 119 259 184 79 23 
262 119 259 182 81 39 
260 116 260 184 86 9 
261 116 260 185 85 9 
261 116 261 185 82 9 
261 117 260 186 82 9 
261 117 261 187 83 9 
261 118 260 185 82 8 
262 116 261 189 81 8 
262 117 261 188 79 8 
262 116 262 189 82 8 
263 116 262 187 76 8 
263 117 262 186 78 8 
262 118 260 184 81 9 
262 118 261 184 85 9 
262 119 260 183 79 18 
263 118 261 184 86 8 
263 119 260 181 89 40 
263 119 261 183 85 14 
263 118 262 184 82 8 
256 120 256 176 81 9 
256 120 257 183 87 16 
256 121 256 170 99 39 
256 121 257 180 96 38 
257 120 257 182 87 26 
257 121 257 175 99 43 
256 122 256 151 119 90 
256 123 256 141 133 135 
257 122 256 161 116 92 
257 122 257 163 112 80 
257 123 256 145 133 134 
257 123 257 158 120 111 
258 120 257 182 84 27 
258 121 257 176 93 36 
259 120 257 182 78 28 
259 121 257 179 89 35 
258 122 257 166 111 72 
258 123 256 142 133 136 
258 123 257 159 123 112 
259 122 257 168 112 72 
259 123 256 146 134 136 
259 123 257 161 124 116 
259 124 256 134 141 151 
260 120 257 182 75 33 
260 121 257 177 89 39 
260 120 258 182 75 36 
261 120 258 181 75 37 
261 121 258 179 84 41 
260 122 257 168 106 64 
260 123 256 151 131 130 
260 123 257 162 121 109 
261 122 257 170 101 54 
261 123 257 162 112 91 
261 122 258 173 94 46 
262 120 258 180 77 40 
262 120 259 181 77 40 
262 121 258 181 82 43 
263 120 258 182 84 43 
263 120 259 182 86 42 
263 121 258 182 85 43 
263 121 259 182 86 44 
262 123 257 159 110 91 
262 122 258 171 93 50 
262 123 258 162 104 70 
263 122 258 175 89 49 
263 122 259 176 90 49 
263 123 258 167 102 63 
263 120 260 182 89 41 
260 124 256 131 138 149 
261 124 256 129 138 149 
261 124 257 148 125 127 
261 125 256 126 140 156 
262 124 256 145 126 129 
262 124 257 158 117 114 
262 125 256 126 140 156 
262 125 257 167 112 106 
263 124 257 166 113 102 
263 125 256 141 131 135 
263 125 257 134 139 148 
263 124 258 168 113 91 
264 112 263 182 89 8 
264 113 263 188 78 7 
264 114 263 189 80 7 
264 115 263 187 80 7 
264 116 263 186 70 7 
264 117 262 185 81 8 
264 117 263 187 73 7 
264 119 261 184 87 37 
265 119 261 185 78 38 
264 118 262 187 78 7 
264 118 263 188 75 7 
264 119 262 186 78 20 
265 118 263 190 73 7 
265 119 262 187 76 19 
265 119 263 189 73 7 
266 119 261 185 85 38 
266 119 262 185 88 38 
266 119 263 189 84 7 
267 119 262 184 94 37 
267 119 263 187 91 17 
268 119 262 187 92 37 
268 119 263 188 92 32 
269 119 263 188 85 36 
264 112 264 181 88 10 
264 113 264 186 80 7 
265 112 264 180 88 20 
265 113 264 186 84 13 
264 114 264 186 79 7 
265 114 264 187 80 7 
265 115 264 188 79 7 
265 116 264 189 70 7 
265 117 264 190 69 6 
265 118 264 192 78 7 
266 117 264 193 73 7 
266 118 264 191 81 7 
266 119 264 192 85 8 
267 119 264 191 84 8 
268 119 264 188 81 7 
264 120 259 184 88 43 
264 121 259 183 85 45 
264 122 259 176 87 48 
264 123 259 168 97 56 
265 123 259 171 92 50 
264 120 260 183 83 42 
264 120 261 183 85 48 
265 120 260 182 79 41 
265 120 261 185 79 38 
265 121 260 184 81 43 
265 122 260 180 84 44 
265 123 260 168 97 53 
266 120 261 184 89 39 
266 121 260 185 85 42 
266 121 261 184 90 41 
267 120 261 183 97 39 
267 121 261 184 91 41 
267 120 262 185 94 39 
267 121 262 186 89 40 
266 122 260 181 88 43 
266 122 261 183 88 42 
266 123 260 172 93 44 
266 123 261 166 102 62 
267 122 261 182 92 42 
267 123 261 171 96 47 
267 123 262 170 101 47 
264 125 256 169 111 100 
264 125 257 168 111 100 
265 125 257 171 109 94 
264 124 258 164 110 94 
264 125 258 163 113 103 
265 124 258 164 110 95 
265 124 259 165 105 81 
265 125 258 168 110 96 
264 126 256 168 112 99 
265 126 256 169 112 98 
265 126 257 170 110 95 
266 124 259 166 109 91 
266 125 258 172 108 89 
266 125 259 173 107 86 
267 125 258 172 107 86 
267 125 259 173 106 84 
266 126 256 170 111 95 
266 126 257 171 109 92 
266 127 256 170 111 95 
267 126 257 172 108 90 
267 127 256 170 110 93 
267 127 257 171 109 91 
266 126 258 172 108 90 
267 126 258 172 107 88 
266 124 260 168 105 76 
267 124 260 167 109 85 
267 124 261 168 108 76 
267 125 260 173 107 82 
268 120 262 186 86 40 
268 120 263 188 85 37 
268 121 262 187 86 40 
268 121 263 187 86 40 
269 120 263 185 81 39 
269 121 263 183 83 40 
268 122 262 184 89 41 
268 122 263 183 87 41 
268 123 262 176 93 41 
269 122 263 182 85 40 
269 123 263 176 90 45 
268 125 259 173 105 81 
268 126 257 172 107 87 
268 127 257 172 107 88 
268 126 258 172 106 86 
268 126 259 173 105 83 
269 126 259 173 104 81 
268 124 261 172 105 77 
268 125 260 173 105 78 
268 125 261 172 103 75 
269 125 260 173 103 76 
269 125 261 172 102 73 
268 124 262 168 105 68 
268 125 262 172 101 73 
269 124 262 172 98 66 
269 124 263 173 96 61 
269 125 262 172 99 70 
269 126 260 172 103 77 
270 125 260 173 101 74 
270 125 261 172 100 73 
271 125 261 173 97 70 
270 124 263 173 95 62 
270 125 262 172 99 70 
270 125 263 172 97 67 
271 124 263 174 94 62 
271 125 262 174 95 66 
270 126 260 173 102 77 
270 126 261 172 101 74 
271 126 261 173 99 73 
268 120 264 185 81 28 
269 120 264 186 81 39 
270 120 264 183 81 42 
270 121 264 182 84 41 
270 122 264 182 84 41 
270 123 264 175 88 47 
271 123 264 175 91 56 
270 124 264 174 93 59 
270 125 264 173 95 62 
271 124 264 174 91 58 
272 124 263 174 92 60 
272 125 263 174 93 61 
272 124 264 174 91 59 
272 125 264 174 91 59 
273 124 264 174 91 59 
273 125 264 173 91 60 
273 126 264 173 91 60 
260 105 265 134 115 99 
261 105 265 138 119 102 
261 105 266 133 114 97 
261 106 265 142 123 107 
262 105 265 140 120 102 
263 105 265 138 117 100 
262 104 266 131 111 93 
262 104 267 128 108 89 
262 105 266 134 114 97 
262 105 267 129 109 90 
263 104 266 128 108 91 
263 104 267 127 106 87 
263 105 266 132 112 95 
262 106 265 143 123 107 
263 106 265 138 117 101 
263 107 265 146 122 107 
263 106 266 134 114 96 
263 104 268 124 103 83 
264 104 267 125 104 85 
264 105 266 129 109 91 
264 105 267 126 106 87 
265 105 266 127 108 90 
265 105 267 129 108 89 
264 106 265 135 114 96 
264 107 265 141 115 97 
264 106 266 131 112 94 
264 107 266 136 110 94 
265 106 266 131 110 91 
265 106 267 134 112 93 
265 107 266 137 111 93 
265 107 267 135 113 94 
266 105 267 132 111 92 
266 106 267 139 114 94 
266 107 266 141 114 94 
266 107 267 142 114 94 
267 107 267 142 113 91 
264 104 268 124 103 82 
264 104 269 122 100 79 
264 105 269 120 99 77 
265 104 269 123 101 79 
265 105 268 127 105 85 
265 105 269 124 101 80 
265 105 270 121 99 76 
266 104 269 123 100 78 
266 105 268 130 108 88 
266 105 269 126 103 81 
267 105 269 126 100 76 
266 104 270 122 97 74 
266 105 270 122 95 71 
266 105 271 120 96 74 
267 105 270 124 97 74 
267 105 271 121 97 75 
266 106 268 133 111 91 
267 106 268 129 107 86 
267 106 269 128 105 84 
267 107 268 138 111 89 
267 106 270 125 100 78 
264 108 265 154 126 106 
265 108 265 151 123 101 
265 109 265 162 115 75 
265 108 266 148 119 99 
265 108 267 144 114 94 
265 110 265 170 106 63 
265 111 265 177 94 42 
266 108 265 159 128 103 
266 109 265 161 125 93 
266 108 266 156 125 102 
267 108 266 156 125 102 
267 108 267 149 120 99 
267 109 266 160 126 100 
267 109 267 155 124 101 
266 110 265 170 113 72 
266 111 265 178 103 63 
267 110 265 169 118 80 
267 110 266 170 118 84 
267 111 266 179 112 80 
267 108 268 144 113 92 
268 105 270 126 101 79 
268 106 269 128 104 82 
268 107 268 139 110 89 
268 107 269 134 105 83 
269 107 269 137 106 87 
268 106 270 127 103 82 
268 106 271 123 101 81 
268 107 270 131 106 87 
268 107 271 128 105 86 
269 107 270 132 106 86 
269 107 271 126 104 86 
268 109 266 158 119 92 
268 109 267 155 122 96 
268 110 266 166 121 90 
268 110 267 163 121 91 
268 111 266 166 113 85 
268 111 267 168 110 80 
268 108 268 145 114 94 
268 109 268 155 126 102 
269 108 269 144 113 95 
269 109 268 147 116 93 
269 109 269 147 115 96 
268 108 270 137 108 90 
269 108 270 142 112 94 
269 108 271 137 109 92 
269 109 270 146 116 96 
269 109 271 145 116 100 
268 110 268 161 123 90 
269 110 268 156 121 91 
269 110 269 149 121 99 
269 111 268 162 109 76 
270 109 270 144 116 99 
270 110 269 149 121 99 
270 111 268 155 109 76 
270 111 269 154 112 82 
270 110 270 149 120 97 
270 110 271 158 128 106 
270 111 270 160 122 92 
268 106 272 121 97 78 
268 107 272 123 101 83 
269 107 272 126 104 85 
266 112 265 180 93 46 
266 113 265 186 85 19 
266 112 266 181 94 53 
267 112 266 177 102 66 
267 113 266 184 91 37 
266 114 265 187 86 7 
266 115 265 186 85 7 
267 114 266 184 90 7 
267 114 267 182 94 7 
267 115 266 186 90 7 
266 116 265 190 72 7 
266 117 265 193 77 7 
267 117 265 193 84 7 
267 116 266 190 78 7 
267 117 266 191 79 7 
266 118 265 192 85 8 
266 119 265 193 86 8 
267 118 265 193 86 8 
267 119 265 190 81 8 
267 118 266 190 79 7 
267 119 266 189 74 11 
268 112 267 177 103 67 
268 113 267 183 99 33 
268 114 267 180 92 10 
268 115 267 185 86 10 
269 112 268 171 101 64 
269 113 268 177 94 42 
269 114 268 185 91 31 
269 115 268 185 82 21 
270 112 268 165 99 66 
270 112 269 163 104 73 
270 113 268 176 92 55 
270 113 269 178 96 64 
271 112 270 169 113 80 
271 113 270 177 100 69 
270 114 269 187 93 43 
270 115 269 186 87 23 
270 114 270 186 95 55 
270 115 270 186 97 50 
271 114 270 179 94 61 
271 115 270 186 92 21 
268 116 267 190 76 7 
268 117 267 191 79 8 
269 116 267 191 70 6 
269 117 267 191 74 7 
268 118 267 189 77 11 
268 119 266 188 74 14 
268 119 267 188 77 16 
269 119 267 189 80 17 
269 116 268 191 70 7 
269 117 268 191 77 8 
269 118 268 189 80 13 
269 119 268 185 80 21 
270 116 269 188 75 9 
270 117 269 190 81 11 
271 116 270 186 80 11 
271 117 270 188 84 12 
270 118 268 187 81 10 
270 118 269 188 80 14 
270 119 268 185 84 23 
270 119 269 184 80 20 
271 118 269 189 82 19 
271 119 269 182 78 31 
271 118 270 189 82 16 
271 119 270 188 77 21 
267 120 265 186 80 10 
267 120 266 185 76 14 
268 120 265 184 80 23 
269 120 265 184 84 45 
269 121 265 177 87 54 
268 120 266 184 81 26 
268 120 267 185 82 17 
269 120 266 182 85 47 
269 120 267 180 85 29 
269 121 266 176 88 54 
269 121 267 174 88 55 
270 121 265 182 83 43 
271 121 265 181 83 44 
270 121 266 177 87 51 
270 121 267 173 90 56 
271 121 267 174 89 56 
270 122 265 180 85 46 
270 123 265 175 89 55 
271 122 265 181 82 46 
271 123 265 176 89 55 
271 122 266 181 82 46 
271 122 267 182 82 47 
269 120 268 181 84 24 
270 120 268 177 87 37 
270 120 269 177 88 42 
270 121 268 173 91 54 
271 120 269 176 82 47 
271 121 268 170 93 60 
271 121 269 173 90 55 
271 120 270 176 84 50 
271 124 265 174 91 57 
272 122 265 175 90 56 
272 123 265 175 90 57 
272 122 266 174 90 57 
272 122 267 172 92 60 
272 123 266 174 90 58 
273 122 266 173 91 59 
273 122 267 169 94 64 
273 123 266 173 91 59 
273 123 267 170 93 62 
274 123 267 167 96 67 
272 121 268 169 94 62 
272 121 269 167 95 65 
272 121 270 168 94 64 
272 122 268 168 95 65 
272 122 269 167 96 66 
273 122 268 167 95 65 
272 124 265 174 90 58 
273 124 265 173 91 59 
273 125 265 173 91 60 
273 124 266 172 91 60 
273 124 267 171 92 63 
273 125 266 172 91 61 
274 125 265 171 92 62 
274 124 266 169 93 64 
274 124 267 168 95 67 
274 125 266 170 93 63 
275 125 266 167 96 68 
274 126 265 171 92 61 
