ply
format ascii 1.0
comment Created by CloudCompare v2.10.1 (Zephyrus)
comment Created 1/31/20 5:40 PM
obj_info Generated by CloudCompare!
element vertex 2027
property float x
property float y
property float z
property uchar red
property uchar green
property uchar blue
end_header
277 125 258 170 97 73 
276 126 256 170 102 81 
278 125 256 169 101 80 
278 125 257 170 97 74 
279 124 256 169 97 75 
279 124 257 170 95 71 
279 125 256 170 98 77 
278 124 258 170 94 69 
278 124 259 169 94 68 
278 125 258 170 96 71 
279 124 258 169 93 70 
279 124 259 167 93 70 
276 125 260 171 94 68 
276 125 261 169 94 68 
277 124 260 169 94 68 
277 124 261 167 94 69 
276 124 262 167 94 67 
276 124 263 167 94 67 
276 125 262 168 94 67 
276 125 263 168 94 66 
277 124 262 166 94 68 
277 124 263 166 95 68 
277 125 262 167 94 68 
278 124 260 167 94 70 
278 124 261 165 94 69 
279 124 260 165 94 71 
279 124 261 165 94 70 
278 124 262 164 95 70 
278 124 263 164 96 71 
279 124 263 161 98 74 
274 125 264 171 92 62 
275 125 264 169 94 64 
274 126 264 171 92 62 
276 124 264 166 95 68 
276 125 264 168 94 65 
277 124 264 165 96 69 
277 125 264 165 96 70 
278 124 264 163 97 72 
279 124 264 161 99 75 
280 123 259 163 94 72 
281 123 258 164 93 71 
281 123 259 163 94 72 
282 123 256 169 92 69 
282 123 257 167 92 69 
283 123 256 168 92 67 
283 123 257 166 92 68 
282 123 258 165 93 71 
282 123 259 163 94 72 
283 123 258 164 93 71 
283 123 259 161 96 74 
280 123 260 163 95 72 
280 123 261 162 96 73 
281 123 260 162 95 73 
281 123 261 161 97 75 
280 123 262 161 97 74 
281 123 262 160 99 76 
281 123 263 159 100 77 
282 123 260 161 97 75 
282 123 261 159 100 78 
283 123 260 160 100 79 
283 123 261 158 102 81 
282 122 263 157 103 82 
282 123 262 158 101 80 
282 123 263 157 102 80 
283 122 263 156 104 84 
283 123 262 157 103 83 
280 124 256 170 96 74 
280 124 257 169 94 71 
281 124 256 169 94 72 
281 124 257 168 93 71 
280 124 258 168 93 70 
280 124 259 165 94 71 
281 124 258 166 93 71 
281 124 259 165 93 71 
282 124 257 168 93 70 
283 124 257 167 92 67 
280 124 263 160 99 75 
284 123 257 166 92 66 
285 123 257 166 91 65 
284 123 258 164 93 69 
284 123 259 160 99 78 
285 123 258 163 95 70 
285 123 259 160 100 79 
287 123 257 161 95 70 
286 123 258 162 96 72 
286 123 259 159 100 79 
287 123 258 160 97 73 
287 123 259 158 100 79 
284 123 260 158 102 82 
284 123 261 157 104 84 
285 123 260 158 102 82 
285 123 261 157 104 84 
284 122 262 156 104 85 
284 122 263 155 105 85 
284 123 262 157 104 84 
285 122 262 155 105 85 
285 122 263 154 105 86 
285 123 262 156 104 85 
286 123 260 157 103 83 
286 123 261 156 104 85 
287 123 260 156 102 83 
287 123 261 155 104 85 
286 122 262 155 105 86 
286 122 263 153 105 87 
287 122 262 153 105 86 
287 122 263 152 106 87 
284 124 256 168 91 66 
284 124 257 167 91 66 
285 124 256 167 91 65 
285 124 257 166 91 65 
286 124 256 165 91 65 
286 124 257 164 92 66 
287 124 256 164 92 66 
287 124 257 162 94 69 
280 123 264 159 100 77 
281 122 264 156 103 82 
281 123 264 157 102 80 
283 121 264 155 104 84 
282 122 264 156 104 83 
282 123 264 156 102 81 
283 122 264 155 104 84 
280 124 264 160 99 76 
284 121 264 154 105 86 
285 121 264 153 106 87 
285 122 264 154 106 87 
286 122 264 152 106 87 
287 122 264 150 106 88 
288 123 257 160 96 72 
289 123 257 159 96 73 
288 123 258 159 97 74 
288 123 259 157 100 79 
289 123 258 158 98 75 
289 123 259 156 99 79 
290 123 257 158 96 74 
291 123 257 156 97 76 
290 123 258 156 98 76 
290 123 259 154 99 80 
291 123 258 155 98 77 
291 123 259 153 99 80 
288 123 260 155 102 83 
288 123 261 153 103 85 
289 123 260 154 102 83 
289 123 261 152 103 85 
288 122 262 152 104 86 
288 122 263 150 105 87 
289 122 262 151 105 87 
289 122 263 149 105 88 
289 123 262 151 104 86 
290 123 260 153 101 83 
290 123 261 151 103 85 
291 123 260 151 101 83 
291 123 261 149 103 85 
290 122 263 149 105 88 
290 123 262 150 104 87 
290 123 263 148 105 88 
291 123 262 148 104 87 
291 123 263 146 105 89 
288 124 256 162 94 68 
288 124 257 161 95 71 
289 124 256 160 95 70 
289 124 257 160 96 72 
290 124 256 159 95 71 
290 124 257 158 96 73 
291 124 256 157 96 73 
291 124 257 156 97 75 
292 123 258 152 99 79 
292 123 259 151 99 81 
293 123 258 150 99 80 
293 123 259 149 100 82 
294 123 258 149 99 81 
294 123 259 148 100 83 
295 123 258 146 99 83 
295 123 259 145 100 84 
292 123 260 149 101 83 
292 123 261 147 103 86 
293 123 260 147 101 84 
293 123 261 145 103 87 
292 123 262 145 104 88 
292 123 263 143 105 89 
293 123 262 143 103 88 
293 123 263 141 105 89 
294 123 260 145 101 85 
294 123 261 143 103 87 
295 123 260 143 101 86 
295 123 261 139 103 89 
294 123 262 140 104 89 
294 123 263 138 105 90 
295 123 262 136 104 90 
295 123 263 134 105 92 
292 124 256 154 96 75 
292 124 257 153 97 77 
293 124 256 153 97 77 
293 124 257 151 98 79 
294 124 256 151 98 79 
294 124 257 150 98 80 
295 124 256 148 98 81 
295 124 257 148 99 82 
294 124 258 148 99 81 
295 124 258 147 99 82 
288 122 264 149 106 89 
289 122 264 147 106 89 
290 122 264 146 106 89 
291 122 264 143 106 90 
291 123 264 144 105 89 
292 123 264 141 106 90 
293 123 264 138 105 90 
294 123 264 136 105 91 
295 123 264 133 105 92 
296 123 258 142 100 86 
296 123 259 142 100 86 
297 123 258 139 101 87 
297 123 259 139 101 88 
298 123 258 137 102 89 
298 123 259 135 101 89 
299 123 259 131 102 91 
296 123 260 140 101 87 
296 123 261 135 103 91 
297 123 260 137 102 89 
297 123 261 132 104 92 
296 123 262 133 104 92 
296 123 263 131 105 92 
297 123 262 131 104 93 
297 123 263 130 105 93 
298 123 260 131 102 91 
298 123 261 129 104 93 
299 123 260 128 103 93 
299 123 261 127 104 94 
298 123 262 128 104 94 
298 123 263 127 105 94 
299 123 262 126 105 94 
299 123 263 125 105 95 
296 124 256 145 99 83 
296 124 257 144 99 84 
297 124 256 141 100 86 
297 124 257 141 100 86 
296 124 258 144 99 84 
297 124 258 140 101 87 
298 124 256 138 102 88 
298 124 257 138 101 88 
299 124 256 135 103 91 
299 124 257 135 102 91 
298 124 258 137 101 89 
299 124 258 134 102 91 
299 124 259 131 102 92 
300 123 259 127 103 94 
301 123 259 125 105 96 
300 123 260 126 104 94 
300 123 261 124 104 95 
301 123 260 123 104 96 
301 123 261 122 105 96 
300 123 262 123 105 96 
300 123 263 123 105 96 
301 123 262 121 105 97 
301 123 263 121 106 97 
302 123 260 122 105 96 
302 123 261 121 105 97 
303 123 260 121 106 97 
303 123 261 120 106 97 
302 123 262 121 106 97 
302 123 263 120 106 98 
303 123 262 120 106 98 
303 123 263 119 106 98 
300 124 256 130 104 94 
300 124 257 130 104 93 
301 124 256 127 105 96 
301 124 257 127 105 96 
300 124 258 129 103 93 
300 124 259 128 103 94 
301 124 258 126 105 96 
301 124 259 126 104 95 
302 124 256 125 106 97 
302 124 257 125 106 97 
303 124 256 124 107 98 
303 124 257 124 107 98 
302 124 258 124 105 96 
302 124 259 123 105 96 
303 124 258 123 106 97 
303 124 259 122 106 97 
296 123 264 131 105 93 
297 123 264 129 105 94 
298 123 264 127 106 95 
299 123 264 124 105 95 
300 123 264 122 105 96 
301 123 264 121 106 97 
302 123 264 120 106 98 
303 123 264 119 106 98 
304 123 260 120 107 98 
304 123 261 120 107 98 
305 123 261 120 108 99 
304 123 262 120 107 98 
304 123 263 119 107 99 
305 123 262 120 108 99 
305 123 263 119 108 100 
306 123 261 120 109 100 
307 123 261 120 109 100 
306 123 262 120 108 100 
306 123 263 119 108 100 
307 123 262 120 109 100 
307 123 263 120 109 100 
304 124 256 123 109 100 
304 124 257 123 108 99 
305 124 256 123 110 101 
305 124 257 122 109 100 
304 124 258 122 107 99 
304 124 259 122 107 98 
305 124 258 122 108 100 
305 124 259 121 108 99 
306 124 256 123 111 102 
306 124 257 122 110 101 
307 124 256 123 111 102 
307 124 257 123 111 102 
306 124 258 122 109 100 
306 124 259 121 109 100 
307 124 258 122 110 101 
307 124 259 122 110 101 
304 124 260 121 107 98 
305 124 260 120 108 99 
306 124 260 121 108 100 
307 124 260 121 109 101 
308 123 261 121 110 101 
309 123 261 122 111 102 
308 123 262 120 109 101 
308 123 263 120 109 101 
309 123 262 122 111 102 
309 123 263 121 110 102 
310 123 262 122 111 102 
310 123 263 122 111 102 
311 123 263 122 112 103 
308 124 256 123 112 103 
308 124 257 123 111 102 
309 124 256 124 113 103 
309 124 257 123 112 102 
308 124 258 123 111 102 
308 124 259 122 111 102 
309 124 258 123 111 102 
309 124 259 123 111 102 
310 124 256 124 113 103 
310 124 257 124 112 103 
311 124 256 125 113 103 
311 124 257 124 112 103 
310 124 258 123 111 102 
310 124 259 122 111 102 
311 124 258 123 111 102 
311 124 259 122 111 102 
308 124 260 122 110 101 
309 124 260 122 111 102 
309 124 261 122 111 102 
310 124 260 122 111 102 
310 124 261 122 111 102 
311 124 260 122 111 102 
311 124 261 122 111 102 
310 124 262 122 111 102 
311 124 262 122 112 103 
311 124 263 122 112 103 
304 123 264 119 107 99 
305 123 264 119 108 100 
306 123 264 119 108 100 
307 123 264 119 109 100 
308 123 264 120 109 101 
309 123 264 121 110 102 
310 123 264 121 111 102 
311 123 264 122 112 103 
312 123 259 122 111 102 
313 123 259 121 111 102 
312 123 260 121 111 102 
313 123 260 121 111 102 
312 124 256 124 113 103 
312 124 257 123 112 103 
313 124 256 124 112 103 
313 124 257 123 112 102 
312 124 258 122 111 102 
312 124 259 122 111 102 
313 124 258 122 111 102 
313 124 259 121 111 102 
314 124 256 123 112 103 
314 124 257 122 111 102 
315 124 256 123 112 102 
315 124 257 122 111 102 
314 124 258 122 111 102 
314 124 259 121 111 102 
315 124 258 121 111 102 
315 124 259 121 111 102 
312 124 260 122 111 102 
312 124 261 122 112 103 
313 124 260 121 111 102 
313 124 261 122 112 103 
312 124 262 122 112 103 
312 124 263 122 112 103 
313 124 262 122 112 103 
313 124 263 122 112 103 
314 124 260 121 111 102 
314 124 261 122 111 103 
315 124 260 122 111 102 
315 124 261 122 111 103 
314 124 262 122 112 103 
314 124 263 122 112 103 
315 124 262 122 112 103 
315 124 263 122 112 103 
316 124 256 122 111 102 
316 124 257 122 111 102 
316 125 256 122 111 102 
316 125 257 122 111 102 
317 125 256 122 111 102 
317 125 257 122 111 102 
316 124 258 121 111 102 
316 124 259 121 111 102 
317 125 258 121 111 102 
317 125 259 121 111 102 
318 125 256 122 111 102 
318 125 257 122 111 102 
319 125 256 122 111 102 
319 125 257 122 111 102 
318 125 258 121 111 102 
318 125 259 121 111 102 
319 125 258 121 111 102 
319 125 259 121 110 102 
319 126 256 122 111 102 
319 126 257 122 111 102 
319 126 258 121 111 102 
316 124 260 121 111 102 
316 124 261 121 111 103 
317 124 260 121 111 102 
317 124 261 121 111 102 
317 125 260 121 110 102 
317 125 261 121 111 102 
316 124 262 122 111 103 
316 124 263 122 111 103 
317 124 262 122 111 103 
317 124 263 122 112 103 
317 125 262 121 111 103 
318 125 260 121 111 102 
318 125 261 121 111 102 
319 125 260 121 111 102 
319 125 261 121 111 102 
318 125 262 122 111 103 
318 125 263 122 112 103 
319 125 262 122 111 102 
319 125 263 122 112 103 
312 123 264 122 112 103 
312 124 264 122 112 103 
313 124 264 122 112 103 
314 124 264 122 112 103 
315 124 264 122 112 103 
316 124 264 122 112 103 
317 124 264 122 112 103 
318 124 264 122 112 103 
318 125 264 122 112 103 
319 125 264 122 112 103 
320 126 256 122 111 102 
320 126 257 122 111 102 
321 126 256 122 111 102 
321 126 257 122 111 102 
320 126 258 121 111 102 
320 126 259 121 110 102 
321 126 258 122 111 102 
321 126 259 121 111 102 
322 126 256 122 111 102 
322 127 256 122 111 102 
322 127 257 122 111 102 
323 127 256 122 110 101 
323 127 257 123 112 103 
322 127 258 122 111 102 
322 127 259 122 111 102 
323 127 258 124 113 103 
323 127 259 124 112 103 
320 125 261 121 111 102 
320 125 262 122 111 102 
320 125 263 122 111 102 
320 126 260 121 110 102 
320 126 261 121 111 102 
321 126 260 121 110 102 
321 126 261 121 111 102 
320 126 262 122 111 102 
321 126 262 122 111 102 
321 126 263 122 111 102 
322 126 260 121 110 101 
322 126 261 121 110 101 
322 127 260 121 110 102 
323 127 260 122 110 101 
323 127 261 120 109 101 
322 126 262 122 111 102 
322 126 263 122 111 102 
322 127 262 121 110 101 
323 127 262 120 110 101 
323 127 263 122 111 102 
324 127 260 122 110 101 
324 127 261 119 107 98 
324 127 262 119 108 99 
324 127 263 122 111 102 
320 125 264 122 112 103 
321 125 264 122 112 102 
321 126 264 123 112 102 
322 126 264 123 112 102 
323 126 264 124 113 102 
323 127 264 124 113 103 
324 127 264 128 116 105 
275 125 265 168 94 65 
275 126 265 169 94 64 
278 123 267 156 104 81 
279 123 266 157 103 80 
279 123 267 155 105 83 
277 123 268 157 104 81 
278 123 268 155 105 83 
278 123 269 153 106 85 
279 123 268 153 106 85 
279 123 269 151 107 87 
279 123 270 149 108 90 
279 123 271 147 108 91 
276 125 265 166 96 68 
277 125 265 164 97 71 
276 124 267 162 99 74 
276 125 266 164 98 71 
276 125 267 164 98 71 
277 124 266 162 99 74 
277 124 267 159 102 78 
277 125 266 163 98 72 
277 125 267 162 99 73 
278 124 265 161 99 74 
278 125 265 162 99 74 
279 124 265 160 100 76 
278 124 266 160 100 76 
278 124 267 157 103 80 
279 124 266 158 101 79 
277 124 268 158 103 80 
278 124 268 156 104 81 
280 123 265 157 102 80 
281 122 265 155 104 83 
281 123 265 156 104 82 
280 123 266 156 104 82 
280 123 267 153 106 84 
281 122 266 154 105 84 
281 122 267 152 106 86 
281 123 266 155 105 83 
281 123 267 153 106 85 
283 121 265 153 105 85 
283 121 266 152 106 86 
283 121 267 149 107 88 
282 122 265 154 104 84 
282 122 266 152 106 85 
282 122 267 151 107 87 
283 122 266 151 106 86 
283 122 267 150 107 88 
280 123 268 151 107 87 
280 123 269 150 107 89 
281 122 268 150 108 88 
281 123 268 150 107 88 
281 123 269 149 108 90 
280 123 270 148 108 90 
280 123 271 146 108 91 
281 123 270 147 108 91 
281 123 271 145 109 92 
283 121 268 147 107 89 
282 122 268 149 108 89 
282 122 269 146 108 90 
283 122 268 147 107 89 
283 122 269 145 108 90 
282 122 270 145 109 91 
282 123 270 143 108 92 
282 123 271 143 109 93 
283 122 270 143 109 92 
283 122 271 141 109 93 
283 123 271 141 109 94 
284 121 265 152 106 87 
285 121 265 151 106 87 
284 121 266 150 106 87 
284 121 267 148 108 89 
285 121 266 149 107 89 
285 121 267 147 108 89 
284 122 267 148 108 89 
286 121 265 150 107 89 
286 121 266 148 108 90 
286 121 267 146 108 90 
287 121 266 147 108 90 
287 121 267 144 108 91 
286 122 265 150 107 89 
287 122 265 149 107 89 
287 122 266 147 108 90 
284 120 268 146 108 89 
284 121 268 147 107 89 
284 121 269 144 108 91 
285 120 268 145 108 90 
285 121 268 144 108 91 
285 121 269 142 108 91 
284 122 268 145 108 90 
284 122 269 143 109 91 
285 122 269 141 108 91 
284 122 270 141 109 92 
284 122 271 140 109 93 
285 122 270 140 109 92 
285 122 271 138 108 93 
286 121 268 143 108 91 
286 121 269 140 108 92 
287 121 268 142 108 91 
287 121 269 140 108 92 
287 122 269 138 108 92 
286 122 270 139 108 92 
286 122 271 136 107 92 
287 122 270 137 108 92 
287 122 271 134 106 91 
280 123 272 144 108 92 
281 123 272 143 109 94 
281 123 273 141 109 94 
282 123 272 141 109 94 
282 123 273 139 109 94 
283 123 272 140 109 94 
283 123 273 139 109 94 
283 124 273 137 107 93 
282 124 274 138 108 95 
283 124 274 136 107 93 
283 124 275 134 106 93 
283 124 276 132 104 92 
284 123 272 139 109 94 
284 123 273 137 108 94 
285 122 272 136 107 92 
285 122 273 133 105 92 
285 123 272 137 108 94 
285 123 273 135 106 92 
284 123 274 135 106 93 
285 123 274 132 104 91 
285 123 275 130 102 89 
286 122 272 134 106 91 
286 122 273 132 105 91 
287 122 272 132 104 90 
287 122 273 130 102 89 
286 123 274 130 103 90 
286 123 275 127 100 88 
287 122 274 128 101 88 
287 123 274 127 100 88 
287 123 275 124 98 86 
286 123 276 125 98 86 
287 123 276 122 96 85 
287 123 277 120 93 83 
284 124 274 134 105 92 
284 124 275 132 103 91 
285 124 274 132 103 90 
285 124 275 131 102 90 
286 124 275 128 100 88 
284 124 276 130 101 90 
284 124 277 128 100 89 
285 124 276 128 100 89 
285 124 277 126 98 88 
285 124 278 125 97 87 
286 124 276 126 98 87 
286 124 277 124 97 86 
287 124 277 121 93 83 
286 124 278 123 95 85 
286 124 279 121 93 83 
287 124 278 120 92 82 
287 124 279 118 91 81 
286 124 280 120 91 81 
287 124 280 118 90 80 
287 125 280 117 90 80 
287 125 281 117 88 78 
288 121 267 143 108 91 
288 122 265 147 107 90 
289 122 265 145 107 90 
288 122 266 145 107 90 
288 122 267 144 108 91 
289 122 266 144 107 91 
289 122 267 141 107 91 
290 122 265 144 107 90 
291 122 265 142 106 91 
290 122 266 142 107 91 
290 122 267 140 107 91 
291 122 266 140 107 91 
291 122 267 137 107 91 
288 121 268 141 108 91 
288 121 269 139 108 92 
288 122 268 140 108 92 
288 122 269 137 107 92 
289 122 268 139 107 92 
289 122 269 136 107 92 
288 122 270 135 107 92 
288 122 271 133 105 91 
289 122 270 134 107 92 
289 122 271 131 105 91 
290 122 268 137 107 92 
290 122 269 135 107 92 
291 122 268 134 106 92 
291 122 269 132 106 91 
290 122 270 132 106 91 
290 122 271 128 104 90 
291 122 270 130 104 91 
291 122 271 126 102 90 
292 122 265 138 106 91 
292 123 265 138 106 91 
293 122 265 136 105 91 
293 123 265 135 105 91 
292 122 266 136 106 91 
292 122 267 134 106 91 
293 122 266 134 105 91 
293 122 267 131 105 91 
294 123 265 133 105 91 
295 123 265 132 105 92 
294 122 267 128 104 91 
294 123 266 131 105 91 
294 123 267 129 104 91 
295 123 266 129 105 92 
295 123 267 127 104 91 
292 122 268 131 105 91 
292 122 269 129 104 91 
293 122 268 128 104 91 
293 122 269 125 103 91 
292 122 270 126 103 90 
292 122 271 122 100 89 
293 122 270 122 101 89 
293 122 271 119 99 88 
293 123 271 117 98 88 
294 122 268 125 103 91 
294 122 269 122 101 90 
295 122 268 123 102 91 
295 122 269 121 100 89 
295 123 268 122 101 90 
295 123 269 120 100 89 
294 122 270 119 99 88 
294 122 271 116 97 88 
294 123 271 114 96 86 
295 122 270 116 98 88 
295 123 270 116 98 88 
295 123 271 111 95 86 
296 123 265 130 105 93 
297 123 265 128 105 93 
296 123 266 128 105 92 
296 123 267 125 103 92 
297 123 266 127 105 93 
297 123 267 124 103 92 
298 123 265 126 105 94 
299 123 265 124 105 95 
298 123 266 125 104 93 
298 123 267 123 103 93 
299 123 266 123 105 94 
299 123 267 122 103 93 
296 123 268 121 101 90 
296 123 269 118 99 89 
297 123 268 120 101 91 
297 123 269 116 99 89 
296 123 270 114 97 87 
296 123 271 110 94 85 
297 123 270 113 97 88 
297 123 271 109 94 86 
298 123 268 119 101 91 
298 123 269 116 99 90 
299 123 268 119 101 92 
299 123 269 115 100 91 
298 123 270 112 97 89 
298 123 271 107 94 86 
299 123 270 111 98 90 
299 123 271 107 95 87 
300 123 265 122 105 96 
301 123 265 120 106 97 
300 123 266 121 105 96 
300 123 267 121 104 95 
301 123 266 120 106 96 
301 123 267 119 105 96 
302 123 265 119 106 98 
303 123 265 119 107 98 
302 123 266 119 106 97 
302 123 267 118 106 97 
303 123 266 119 107 98 
303 123 267 118 106 98 
300 123 268 118 103 93 
300 123 269 114 101 93 
301 123 268 117 104 95 
301 123 269 114 102 94 
300 123 270 112 99 91 
300 123 271 108 97 89 
301 123 270 112 100 92 
301 123 271 108 97 89 
302 123 268 117 105 96 
302 123 269 114 103 94 
303 123 268 117 105 97 
303 123 269 115 104 96 
302 123 270 112 101 93 
302 123 271 108 97 90 
303 123 270 113 102 93 
303 123 271 109 99 91 
288 122 272 129 103 89 
288 122 273 126 100 87 
289 122 272 129 103 89 
289 122 273 123 98 86 
288 122 274 124 99 87 
288 122 275 122 97 86 
288 123 275 121 96 85 
289 122 274 120 96 85 
289 122 275 118 94 83 
290 122 272 124 101 89 
290 122 273 121 99 88 
291 122 272 121 100 88 
291 122 273 118 98 87 
290 122 274 116 93 83 
290 122 275 113 91 81 
291 122 274 111 92 82 
291 122 275 109 88 80 
288 122 276 119 94 83 
288 123 276 119 94 83 
288 123 277 116 90 80 
289 122 276 115 92 82 
289 122 277 113 88 78 
289 123 277 114 89 79 
289 123 278 111 88 79 
290 122 276 111 89 80 
290 122 277 109 87 78 
291 122 276 107 87 78 
291 122 277 105 84 76 
290 122 278 108 85 77 
290 123 278 109 86 77 
290 123 279 107 84 76 
291 122 278 104 83 75 
291 122 279 104 82 74 
291 123 279 104 82 74 
288 124 278 116 90 80 
288 124 279 116 89 80 
289 124 278 113 89 80 
289 124 279 114 89 79 
289 125 279 114 88 79 
290 124 279 108 85 76 
291 124 279 105 83 74 
292 122 272 118 98 87 
292 122 273 114 95 85 
293 122 272 116 97 86 
293 122 273 108 91 82 
293 123 272 115 96 87 
293 123 273 113 95 85 
292 122 274 107 90 82 
292 122 275 104 88 80 
293 122 274 105 89 81 
293 122 275 102 87 79 
294 123 272 111 93 85 
294 123 273 106 90 82 
295 123 272 107 92 83 
295 123 273 102 88 81 
294 123 274 102 87 80 
294 123 275 98 85 78 
295 123 274 99 85 78 
295 123 275 94 82 75 
292 122 276 102 86 78 
292 122 277 102 82 75 
293 122 276 99 85 78 
293 122 277 97 81 74 
292 122 278 99 81 74 
292 122 279 99 80 72 
292 123 279 99 79 72 
293 122 278 96 78 71 
293 122 279 94 78 70 
293 123 279 94 77 70 
294 122 276 96 82 76 
294 122 277 93 78 72 
294 123 276 94 80 74 
294 123 277 93 78 71 
295 122 276 92 79 73 
295 122 277 91 78 72 
295 123 276 92 80 73 
295 123 277 90 77 70 
294 123 278 92 76 69 
294 123 279 92 76 68 
295 123 278 90 75 68 
295 123 279 89 74 67 
288 125 280 115 88 79 
288 125 281 115 88 78 
289 125 280 113 87 78 
289 125 281 113 87 77 
288 125 282 114 87 77 
289 125 282 111 86 77 
289 125 283 111 85 75 
290 124 280 109 85 76 
290 125 280 111 86 77 
290 125 281 110 85 76 
291 124 280 104 82 73 
291 124 281 105 83 73 
291 125 281 108 83 74 
290 125 282 110 85 76 
290 125 283 109 84 74 
291 125 282 107 83 73 
291 125 283 107 83 73 
290 125 284 109 83 72 
290 125 285 109 83 72 
291 125 284 107 83 72 
291 125 285 107 81 70 
291 125 286 107 81 69 
293 123 280 95 78 69 
294 123 280 92 76 68 
295 123 280 88 73 66 
292 124 280 99 79 71 
292 124 281 100 79 70 
292 125 281 105 82 73 
293 124 280 95 77 69 
293 124 281 96 77 68 
292 124 282 104 81 72 
292 125 282 104 82 72 
292 125 283 105 81 71 
293 124 282 98 78 68 
293 125 282 100 79 69 
293 125 283 100 79 68 
294 124 280 91 75 67 
294 124 281 93 76 67 
295 124 280 90 74 66 
295 124 281 89 74 65 
294 124 282 93 76 66 
294 125 283 95 76 66 
295 124 282 90 74 64 
295 125 283 91 74 64 
292 125 284 105 81 70 
292 125 285 105 80 69 
293 125 284 101 79 68 
293 125 285 101 79 68 
292 125 286 105 80 69 
292 126 285 104 80 69 
293 126 285 101 79 68 
292 126 286 104 80 68 
292 126 287 104 80 68 
293 126 286 101 79 68 
293 126 287 102 79 68 
293 127 287 100 81 69 
294 125 284 97 77 66 
295 125 284 93 75 65 
294 126 284 98 77 66 
294 126 285 98 77 66 
295 126 284 95 76 65 
295 126 285 95 76 65 
295 127 285 96 77 66 
294 126 286 99 78 67 
294 126 287 100 79 67 
294 127 286 98 78 67 
294 127 287 98 80 68 
295 127 286 96 79 67 
295 127 287 96 79 67 
296 123 272 104 90 83 
296 123 273 99 86 80 
297 123 272 104 91 83 
297 123 273 98 87 80 
296 123 274 95 83 77 
296 123 275 92 81 75 
297 123 274 94 83 77 
297 123 275 91 80 74 
298 123 272 103 91 84 
298 123 273 98 88 81 
299 123 272 103 92 84 
299 123 273 98 88 81 
298 123 274 94 84 78 
298 123 275 91 81 75 
299 123 274 93 83 77 
299 123 275 90 81 75 
296 123 276 89 78 72 
296 123 277 87 76 70 
297 123 276 88 78 72 
297 123 277 86 76 70 
296 123 278 87 75 68 
296 123 279 86 73 66 
297 123 278 85 74 67 
297 123 279 84 72 65 
298 123 276 88 78 72 
298 123 277 85 75 69 
299 123 276 88 78 72 
299 123 277 85 75 69 
298 123 278 83 74 67 
298 123 279 83 72 65 
299 123 278 83 74 67 
299 123 279 82 72 65 
300 123 272 102 92 85 
300 123 273 98 88 82 
301 123 272 103 93 86 
301 123 273 99 89 82 
300 123 274 94 85 78 
300 123 275 90 82 75 
301 123 274 94 86 79 
301 123 275 91 83 76 
302 123 272 104 94 86 
302 123 273 99 90 82 
303 123 272 105 95 87 
303 123 273 101 91 84 
302 123 274 96 87 79 
302 123 275 92 84 77 
303 123 274 97 88 81 
303 123 275 94 85 78 
300 123 276 88 79 73 
300 123 277 85 76 70 
301 123 276 89 80 73 
301 123 277 86 78 71 
300 123 278 84 75 68 
300 123 279 81 72 65 
301 123 278 84 75 68 
301 123 279 82 73 66 
302 123 276 90 81 74 
302 123 277 88 80 73 
303 123 276 92 83 76 
303 123 277 90 81 74 
302 123 278 86 77 69 
302 123 279 83 74 67 
303 123 278 88 79 71 
303 123 279 84 75 68 
296 123 280 85 72 64 
297 123 280 83 71 63 
297 123 281 84 70 62 
298 123 280 81 70 63 
298 123 281 80 69 61 
299 123 280 80 70 62 
299 123 281 79 68 60 
299 123 282 78 67 59 
299 123 283 78 67 58 
296 124 281 86 72 63 
297 124 281 83 70 62 
296 124 282 86 72 63 
296 124 283 85 71 62 
296 125 283 88 72 63 
297 124 282 83 70 61 
297 124 283 83 69 60 
297 125 283 84 70 61 
298 124 281 81 69 61 
298 124 282 80 68 59 
298 124 283 80 68 59 
299 124 282 79 68 59 
299 124 283 79 67 58 
296 125 284 88 73 63 
297 124 284 82 69 59 
297 125 284 85 71 61 
297 125 285 88 73 62 
296 126 284 92 74 64 
296 126 285 93 76 65 
297 126 285 90 74 64 
296 127 286 95 78 66 
296 127 287 96 78 67 
297 126 286 91 75 64 
297 126 287 91 75 64 
297 127 286 94 77 65 
297 127 287 94 77 66 
298 124 284 81 68 59 
298 125 284 82 68 59 
298 125 285 84 70 60 
299 124 284 80 67 58 
299 124 285 80 67 58 
299 125 285 82 68 58 
298 125 286 85 70 60 
299 125 286 84 70 59 
298 126 286 87 72 61 
298 126 287 89 74 63 
298 127 287 91 75 64 
299 126 286 85 70 60 
299 126 287 87 72 61 
299 127 287 89 74 63 
300 123 280 80 70 63 
300 123 281 78 69 61 
301 123 280 80 71 63 
301 123 281 79 69 62 
300 123 282 78 67 60 
300 123 283 78 67 58 
301 123 282 78 68 60 
301 123 283 77 66 58 
302 123 280 81 72 65 
302 123 281 79 70 63 
303 123 280 82 73 66 
303 123 281 80 71 64 
302 123 282 77 68 60 
302 123 283 77 67 59 
303 123 282 78 69 61 
303 123 283 77 68 60 
300 123 284 77 66 57 
301 123 284 77 66 58 
301 123 285 77 66 57 
301 123 286 77 66 57 
301 123 287 77 66 57 
302 123 284 77 67 59 
302 123 285 76 66 58 
303 122 284 76 67 59 
303 122 285 76 67 59 
303 123 284 76 67 59 
302 122 286 76 66 58 
302 123 286 76 66 58 
302 123 287 76 66 58 
303 122 286 76 67 59 
303 123 286 76 66 58 
303 123 287 77 66 58 
300 124 284 78 66 57 
300 124 285 78 66 57 
300 124 286 78 67 58 
300 125 286 82 69 58 
300 125 287 81 68 58 
301 124 286 78 67 58 
301 124 287 78 66 58 
301 125 287 78 67 58 
300 126 287 83 69 59 
302 124 287 77 66 57 
304 123 265 119 107 99 
305 123 265 119 108 100 
304 123 266 119 107 99 
304 123 267 118 107 99 
305 123 266 119 108 100 
305 123 267 119 108 99 
306 123 265 119 109 100 
307 123 265 120 109 101 
306 123 266 119 109 100 
306 123 267 120 109 100 
307 123 266 120 110 101 
307 123 267 120 110 101 
304 123 268 118 106 98 
304 123 269 116 105 97 
305 123 268 119 108 99 
305 123 269 117 107 98 
304 123 270 114 103 95 
304 123 271 112 101 93 
305 123 270 116 105 96 
305 123 271 113 103 94 
306 123 268 119 108 99 
306 123 269 118 108 98 
307 123 268 120 109 100 
307 123 269 119 109 99 
306 123 270 117 106 97 
306 123 271 115 104 95 
307 123 270 118 108 98 
307 123 271 116 106 97 
308 123 265 120 110 101 
309 123 265 121 110 101 
308 123 266 120 110 101 
308 123 267 121 110 101 
309 123 266 121 111 102 
309 123 267 122 111 102 
310 123 265 121 111 102 
311 123 265 122 111 102 
310 123 266 122 111 102 
310 123 267 122 111 102 
311 123 266 122 112 102 
311 123 267 122 112 102 
308 123 268 121 110 101 
308 123 269 121 110 100 
309 123 268 122 111 102 
309 123 269 122 111 101 
308 123 270 120 109 100 
308 123 271 118 108 98 
309 123 270 121 110 100 
309 123 271 120 109 99 
310 123 268 123 112 102 
310 123 269 123 112 102 
311 123 268 123 112 102 
311 123 269 123 112 102 
310 123 270 122 111 101 
310 123 271 121 110 100 
311 123 270 123 112 102 
311 123 271 122 111 101 
312 123 265 122 112 103 
313 123 265 122 112 103 
312 123 266 123 112 103 
312 123 267 123 113 103 
313 123 266 123 112 103 
313 123 267 123 113 103 
314 123 267 123 113 103 
312 123 268 124 113 103 
312 123 269 124 113 103 
313 123 268 124 113 103 
313 123 269 125 114 103 
312 123 270 124 113 102 
312 123 271 123 112 102 
313 123 270 125 113 103 
313 123 271 124 113 102 
314 123 268 124 113 103 
314 123 269 125 114 104 
315 123 269 125 114 103 
314 123 270 125 114 103 
314 123 271 125 114 103 
315 123 270 125 114 103 
315 123 271 125 114 103 
313 124 265 122 112 103 
314 124 265 122 112 103 
315 124 265 122 112 103 
314 124 266 123 112 103 
314 124 267 123 113 103 
315 124 266 123 112 103 
315 124 267 124 113 103 
314 124 268 124 113 103 
315 124 268 124 113 103 
315 124 269 125 114 104 
315 124 270 125 114 104 
316 124 265 122 112 103 
317 124 265 122 112 103 
316 124 266 123 112 103 
316 124 267 124 113 103 
317 124 266 123 112 103 
317 124 267 123 112 103 
318 124 265 122 112 103 
319 125 265 122 112 103 
318 124 266 123 112 103 
318 124 267 123 112 103 
319 124 267 123 112 102 
319 125 266 123 112 103 
319 125 267 123 112 102 
316 124 268 125 113 104 
316 124 269 125 114 104 
317 124 268 124 113 103 
317 124 269 125 114 103 
316 124 270 126 114 104 
316 124 271 126 114 104 
317 124 270 125 114 103 
317 124 271 126 114 104 
318 124 268 123 112 103 
318 124 269 124 113 103 
319 124 268 123 112 102 
319 124 269 123 112 102 
318 124 270 125 113 103 
318 124 271 125 114 103 
319 124 270 124 113 103 
319 124 271 124 113 103 
304 123 272 107 97 89 
304 123 273 103 94 86 
305 123 272 110 100 91 
305 123 273 106 96 88 
304 123 274 100 91 83 
304 123 275 97 88 80 
305 123 274 102 93 85 
305 123 275 99 90 82 
306 123 272 112 102 93 
306 123 273 108 98 90 
307 123 272 114 104 94 
307 123 273 111 101 92 
306 123 274 105 96 87 
306 123 275 101 92 83 
307 123 274 108 98 89 
307 123 275 105 95 86 
304 123 276 94 85 78 
304 123 277 92 83 76 
305 123 276 96 87 79 
305 123 277 94 85 77 
304 123 278 90 81 73 
304 123 279 86 78 70 
305 123 278 92 84 76 
305 123 279 88 80 72 
306 123 276 99 90 81 
306 123 277 96 87 79 
307 123 276 101 92 83 
307 123 277 99 90 81 
306 123 278 95 86 77 
306 123 279 92 83 75 
307 123 278 96 87 79 
307 123 279 94 86 78 
308 123 272 116 105 95 
308 123 273 114 104 94 
309 123 272 118 107 97 
309 123 273 116 105 96 
308 123 274 112 102 92 
308 123 275 109 99 90 
309 123 274 114 104 94 
309 123 275 112 102 92 
310 123 272 119 108 98 
310 123 273 118 107 97 
311 123 272 121 110 100 
311 123 273 119 108 98 
310 123 274 116 105 96 
310 123 275 114 104 94 
311 123 274 118 107 97 
311 123 275 116 106 96 
308 123 276 106 96 87 
308 123 277 102 93 84 
309 123 276 110 100 91 
309 123 277 106 96 87 
308 123 278 100 90 82 
308 123 279 97 89 80 
309 123 278 103 94 85 
309 123 279 101 91 83 
310 123 276 111 101 92 
310 123 277 108 99 90 
311 123 276 114 104 94 
311 123 277 111 101 92 
310 123 278 106 96 88 
310 123 279 103 94 86 
311 123 278 109 99 90 
311 123 279 107 97 88 
304 123 280 84 75 68 
304 123 281 82 73 65 
305 123 280 86 77 70 
305 123 281 84 75 68 
304 123 282 79 70 63 
304 123 283 77 68 61 
305 123 282 81 73 65 
305 123 283 79 70 62 
306 123 280 88 80 72 
306 123 281 86 77 70 
307 123 280 91 82 74 
307 123 281 88 80 72 
306 123 282 83 75 67 
306 123 283 81 72 65 
307 123 282 85 77 69 
307 123 283 84 75 68 
304 122 284 77 68 60 
304 122 285 76 67 59 
304 123 284 77 68 60 
305 122 285 77 68 60 
305 123 284 78 69 61 
305 123 285 78 69 61 
304 122 286 76 67 59 
304 122 287 77 67 59 
304 123 287 77 67 59 
305 122 286 76 67 59 
305 123 286 77 68 60 
305 123 287 76 67 59 
306 122 285 78 69 61 
306 123 284 80 71 63 
306 123 285 79 70 62 
307 123 284 82 73 65 
307 123 285 80 72 64 
306 123 286 78 69 61 
306 123 287 77 68 60 
307 123 286 79 70 62 
307 123 287 78 69 61 
306 124 287 77 68 60 
307 124 286 79 70 62 
307 124 287 77 68 60 
308 123 280 95 86 78 
308 123 281 92 83 75 
309 123 280 98 89 81 
309 123 281 96 87 79 
308 123 282 88 80 72 
308 123 283 86 77 69 
309 123 282 93 84 76 
309 123 283 89 81 73 
310 123 280 101 92 84 
310 123 281 98 89 81 
311 123 280 104 94 86 
311 123 281 102 92 84 
310 123 282 96 87 79 
310 123 283 93 84 76 
311 122 282 100 91 82 
311 123 282 98 89 80 
311 123 283 97 88 79 
308 123 284 84 76 68 
308 123 285 83 74 67 
309 123 284 88 79 71 
309 123 285 87 78 70 
308 123 286 82 73 66 
309 123 286 84 75 67 
310 123 284 92 83 75 
310 123 285 90 81 73 
311 123 284 95 86 77 
311 123 285 93 84 76 
310 123 286 87 78 70 
310 123 287 87 77 69 
311 123 286 93 83 75 
311 123 287 91 81 73 
308 124 286 80 71 64 
308 124 287 78 70 62 
309 124 287 80 71 64 
310 124 287 82 73 66 
311 124 287 88 79 71 
312 123 272 122 111 101 
312 123 273 121 110 100 
313 123 272 124 112 102 
313 123 273 123 112 101 
312 123 274 120 109 99 
312 123 275 118 107 98 
313 123 274 122 111 101 
313 123 275 121 110 100 
314 123 272 125 113 103 
314 123 273 124 113 102 
315 123 272 125 114 103 
315 123 273 125 113 103 
314 123 274 124 112 102 
314 123 275 123 112 102 
315 123 274 124 113 103 
315 123 275 124 113 102 
312 123 276 116 106 97 
312 123 277 114 104 95 
313 123 276 119 108 99 
313 123 277 117 107 97 
312 123 278 112 102 94 
312 123 279 110 101 92 
313 123 278 115 105 96 
313 123 279 114 104 95 
314 123 276 121 111 100 
314 123 277 119 108 99 
315 123 276 123 112 102 
315 123 277 121 110 101 
314 123 278 117 107 98 
314 123 279 115 105 96 
315 123 278 119 109 99 
315 123 279 118 108 98 
316 123 272 126 114 104 
316 123 273 126 114 103 
316 123 274 125 114 103 
316 123 275 125 114 103 
317 123 275 126 114 104 
316 123 276 124 113 103 
316 123 277 123 112 102 
317 123 276 125 114 103 
317 123 277 124 113 103 
316 123 278 122 111 101 
316 123 279 120 109 100 
317 123 278 123 112 102 
317 123 279 121 111 101 
316 124 272 126 114 104 
317 124 272 126 115 104 
317 124 273 126 114 104 
317 124 274 126 114 104 
317 124 275 126 114 104 
318 124 272 126 114 104 
318 124 273 126 114 104 
319 124 272 125 114 104 
319 124 273 126 114 104 
318 124 274 126 114 104 
318 124 275 126 114 104 
319 124 274 126 114 104 
319 124 275 126 114 104 
317 124 276 125 114 103 
317 124 277 124 113 103 
318 124 276 126 114 104 
318 124 277 125 114 103 
319 124 276 126 114 104 
319 124 277 126 114 104 
318 124 278 124 113 103 
318 124 279 122 111 101 
319 124 278 124 113 103 
319 124 279 123 112 102 
312 122 281 103 94 85 
312 123 280 108 98 89 
312 123 281 105 96 87 
313 122 281 107 97 88 
313 123 280 112 102 93 
313 123 281 109 99 91 
312 122 282 102 92 84 
312 122 283 100 91 82 
312 123 283 99 90 81 
313 122 282 105 95 86 
313 122 283 103 93 85 
313 123 283 104 94 85 
314 123 280 114 104 95 
314 123 281 111 101 92 
315 123 280 116 106 96 
315 123 281 114 103 94 
314 122 282 106 96 87 
314 122 283 106 96 87 
314 123 282 108 98 89 
314 123 283 105 96 87 
315 123 282 111 101 92 
315 123 283 108 98 89 
312 123 284 98 89 80 
312 123 285 96 86 77 
313 123 284 101 91 82 
313 123 285 99 89 80 
312 123 286 95 85 76 
313 123 286 98 88 79 
314 123 284 104 94 85 
314 123 285 102 92 83 
315 123 284 107 97 87 
315 123 285 105 95 85 
314 123 286 100 89 80 
314 123 287 100 89 80 
315 123 286 104 93 83 
315 123 287 102 91 81 
312 124 287 94 84 75 
313 124 286 97 87 78 
313 124 287 97 87 77 
314 124 287 99 88 79 
316 123 280 118 107 98 
316 123 281 116 106 96 
317 123 280 119 109 99 
317 123 281 118 107 97 
316 123 282 114 104 94 
316 123 283 112 102 92 
317 123 282 116 105 96 
317 123 283 115 104 94 
318 123 280 120 109 99 
318 123 281 119 108 98 
318 123 282 118 107 97 
318 123 283 116 105 95 
319 123 282 118 107 97 
319 123 283 118 107 96 
316 123 284 110 99 89 
316 123 285 108 97 88 
317 123 284 113 102 92 
317 123 285 111 100 90 
316 123 286 106 95 85 
316 123 287 105 94 84 
317 123 286 109 98 88 
317 123 287 108 96 86 
318 123 284 115 104 93 
318 123 285 113 102 91 
318 123 286 112 100 89 
318 123 287 110 98 87 
319 123 287 112 100 88 
318 124 280 121 110 100 
318 124 281 120 109 99 
319 124 280 122 110 100 
319 124 281 121 109 99 
318 124 282 119 108 97 
319 124 282 120 108 98 
319 124 283 118 107 96 
319 124 284 116 105 94 
319 124 285 115 103 92 
319 124 286 114 102 91 
319 124 287 113 100 89 
293 126 288 101 81 69 
293 127 288 99 80 69 
293 127 289 100 81 69 
294 127 288 99 80 69 
294 127 289 99 80 69 
295 127 288 97 79 68 
295 127 289 97 80 68 
294 127 290 99 80 69 
295 127 290 98 80 69 
296 127 288 96 79 67 
296 127 289 97 79 68 
297 127 288 96 79 67 
297 127 289 96 79 67 
298 127 288 93 76 64 
299 127 288 91 75 63 
303 123 288 76 66 58 
301 125 288 78 67 58 
300 126 288 83 69 59 
300 127 288 87 72 61 
300 127 289 88 73 62 
301 126 288 79 67 58 
301 127 288 83 70 60 
301 127 289 83 70 60 
302 124 288 77 66 58 
302 125 288 78 67 58 
303 124 288 77 66 57 
303 125 288 77 66 57 
303 125 289 79 67 57 
302 126 288 79 67 58 
302 126 289 79 67 58 
302 127 289 81 68 59 
303 126 289 79 67 57 
303 127 289 80 67 58 
302 127 290 82 69 59 
303 127 290 81 68 58 
304 123 288 77 66 58 
305 123 288 76 66 58 
304 124 288 77 66 58 
304 125 288 77 66 57 
304 125 289 77 66 57 
305 124 288 76 66 58 
305 124 289 76 66 57 
305 125 289 77 66 57 
305 125 290 76 65 56 
304 126 289 78 66 57 
304 126 290 78 66 56 
304 127 290 80 67 57 
305 126 290 78 65 56 
305 127 290 79 66 56 
305 127 291 80 67 56 
306 124 288 76 67 59 
306 124 289 76 66 58 
306 125 289 75 65 57 
307 124 288 75 67 59 
307 124 289 74 66 58 
306 125 290 76 65 56 
306 125 291 75 65 55 
307 124 290 73 65 57 
307 125 290 72 64 57 
307 125 291 74 64 56 
306 126 290 76 64 55 
306 126 291 76 64 54 
306 127 291 79 65 55 
307 126 291 74 64 55 
307 127 291 77 64 53 
307 127 292 77 64 52 
308 124 288 76 68 60 
308 124 289 74 66 58 
309 124 288 77 69 62 
309 124 289 75 67 60 
308 124 290 73 65 58 
308 125 290 72 65 58 
308 125 291 72 64 57 
309 124 290 74 66 59 
309 125 290 72 65 58 
309 125 291 72 64 57 
308 126 291 73 64 57 
309 126 291 70 63 56 
310 124 288 80 71 64 
310 124 289 77 68 61 
311 124 288 84 75 67 
311 124 289 82 73 65 
310 124 290 75 67 60 
310 124 291 74 66 59 
310 125 291 72 65 58 
311 124 290 77 69 61 
311 124 291 76 67 60 
311 125 291 74 65 58 
308 127 292 72 62 54 
309 126 292 70 63 56 
309 127 292 71 62 54 
309 127 293 71 62 54 
311 125 292 72 64 58 
310 126 292 69 62 56 
310 127 292 65 59 53 
310 127 293 71 62 55 
311 126 292 70 63 57 
311 126 293 70 63 57 
311 127 293 71 63 57 
315 123 288 101 90 80 
315 123 289 99 88 78 
312 124 288 91 81 72 
312 124 289 87 77 68 
313 124 288 96 86 76 
313 124 289 92 81 72 
312 124 290 84 74 66 
312 124 291 82 73 64 
312 125 291 77 69 61 
313 124 290 90 79 70 
313 124 291 87 77 68 
314 124 288 99 88 78 
314 124 289 97 86 76 
315 124 289 99 88 77 
314 124 290 94 84 74 
314 124 291 92 81 72 
315 124 290 97 86 75 
315 124 291 94 83 73 
312 125 292 76 67 60 
313 125 292 83 73 65 
312 126 293 71 63 58 
312 127 293 71 63 58 
313 126 293 76 66 60 
312 127 294 70 63 58 
313 127 294 73 63 58 
314 124 292 89 79 70 
314 125 292 87 76 67 
314 125 293 84 74 65 
315 124 292 92 81 71 
315 124 293 91 80 70 
315 125 293 88 77 68 
315 125 294 84 74 65 
315 125 295 84 73 64 
314 126 293 82 72 64 
314 126 294 81 71 62 
314 126 295 79 69 61 
314 127 294 75 65 58 
314 127 295 75 66 58 
315 126 295 81 71 62 
315 127 295 76 66 59 
316 123 288 103 92 82 
316 123 289 102 90 80 
317 123 288 106 94 83 
317 123 289 104 92 81 
317 123 290 102 90 79 
318 123 288 108 96 85 
318 123 289 106 94 83 
319 123 288 110 98 87 
319 123 289 108 96 85 
318 123 290 104 93 81 
318 123 291 104 92 81 
319 123 290 107 95 83 
319 123 291 106 94 82 
316 124 289 100 88 78 
316 124 290 99 88 77 
316 124 291 97 86 76 
317 124 290 101 90 79 
317 124 291 101 89 78 
318 124 291 103 91 80 
319 124 291 105 93 82 
316 124 292 94 83 73 
316 124 293 91 80 71 
317 124 292 98 87 76 
317 124 293 94 83 73 
316 124 294 90 79 69 
316 125 294 88 77 68 
316 125 295 86 75 66 
317 124 294 92 81 71 
317 124 295 92 80 71 
317 125 295 88 77 68 
318 124 292 101 89 78 
318 124 293 98 86 76 
319 124 292 104 92 81 
319 124 293 102 90 79 
318 124 294 96 84 74 
318 124 295 95 84 74 
319 124 294 100 88 77 
319 124 295 99 87 77 
314 127 296 75 65 59 
315 126 296 80 70 61 
315 127 296 75 65 59 
315 127 297 76 66 59 
316 125 296 84 73 64 
316 125 297 84 73 64 
317 124 296 92 80 70 
317 125 296 88 77 68 
317 125 297 88 77 68 
317 125 298 89 77 68 
317 125 299 89 77 68 
316 126 296 81 71 62 
316 126 297 81 70 62 
316 127 297 78 68 60 
316 126 298 80 69 61 
316 127 298 78 67 60 
316 127 299 77 67 59 
317 126 298 83 72 63 
317 126 299 82 70 62 
317 127 299 78 67 59 
318 124 296 95 83 73 
318 124 297 95 83 73 
318 125 297 92 80 71 
319 124 296 99 87 76 
319 124 297 98 87 77 
318 124 298 95 84 74 
318 124 299 97 85 75 
318 125 298 93 81 72 
318 125 299 93 81 72 
319 124 298 99 87 77 
319 124 299 99 87 77 
317 126 300 84 72 63 
317 127 300 80 69 60 
317 127 301 82 70 61 
318 125 300 93 82 72 
318 125 301 95 83 73 
319 124 300 98 86 76 
319 125 300 97 85 75 
319 125 301 98 86 76 
319 125 302 99 87 76 
318 126 300 87 75 65 
318 126 301 90 77 67 
318 127 301 86 74 64 
318 126 302 94 82 72 
318 127 302 91 79 69 
319 126 302 98 85 74 
319 126 303 98 85 74 
319 127 302 95 83 72 
319 127 303 96 83 73 
320 125 265 123 112 102 
321 125 265 123 112 102 
320 125 266 123 112 102 
320 125 267 123 112 102 
321 125 266 123 112 102 
321 125 267 123 112 102 
321 126 265 123 112 102 
321 126 266 123 112 102 
322 125 267 123 111 102 
322 126 265 124 112 103 
323 126 265 125 113 103 
323 127 265 126 114 103 
322 126 266 124 112 102 
322 126 267 123 111 102 
323 126 266 125 113 103 
323 126 267 123 111 101 
323 127 267 124 112 101 
320 124 268 123 112 102 
320 124 269 123 112 102 
320 125 268 123 112 102 
320 125 269 123 112 102 
321 125 268 123 111 102 
321 125 269 122 111 102 
320 124 270 123 112 102 
320 124 271 123 112 102 
321 124 271 123 112 102 
321 125 270 122 111 102 
321 125 271 122 111 102 
322 125 268 122 111 101 
322 125 269 122 111 101 
322 125 270 122 111 101 
322 125 271 121 110 101 
322 126 269 122 110 101 
323 126 268 122 110 100 
323 126 269 121 110 100 
322 126 271 121 110 101 
323 126 270 121 110 100 
323 126 271 120 109 100 
323 127 271 118 107 98 
324 127 265 129 116 105 
324 127 266 130 116 105 
324 127 267 127 113 101 
324 127 268 121 108 98 
324 127 269 118 107 98 
324 126 270 121 110 100 
324 126 271 120 109 100 
324 127 270 120 109 100 
324 127 271 120 109 99 
320 124 272 124 113 103 
320 124 273 125 113 103 
321 124 272 123 112 102 
321 124 273 124 112 102 
321 125 272 122 111 102 
320 124 274 125 113 103 
320 124 275 125 114 103 
321 124 274 124 113 103 
321 124 275 124 113 103 
322 125 272 121 110 101 
322 125 273 121 110 101 
323 125 273 119 108 99 
322 124 274 122 111 101 
322 124 275 123 112 102 
322 125 274 121 110 100 
322 125 275 120 109 100 
323 125 274 117 106 98 
323 125 275 117 106 98 
323 126 272 118 108 99 
323 126 273 117 106 98 
323 127 272 116 105 97 
323 127 273 116 105 97 
323 126 274 115 105 96 
323 126 275 114 104 96 
323 127 274 114 104 95 
323 127 275 113 103 95 
320 124 276 126 114 104 
320 124 277 126 115 104 
321 124 276 126 114 104 
321 124 277 127 115 104 
320 124 278 126 114 104 
320 124 279 124 113 102 
321 124 278 126 114 104 
321 124 279 125 113 103 
322 124 276 126 114 104 
322 124 277 127 115 105 
322 125 276 125 113 103 
322 125 277 128 116 105 
323 125 276 123 112 102 
322 124 278 126 114 104 
322 124 279 125 113 103 
322 125 278 128 115 105 
322 125 279 125 113 104 
323 125 278 128 116 105 
323 125 279 126 114 104 
323 126 276 122 111 102 
323 126 277 130 118 107 
323 127 276 120 110 101 
323 127 277 125 114 105 
323 126 278 129 116 106 
323 126 279 125 113 104 
323 127 278 129 118 108 
323 127 279 124 112 104 
320 123 287 113 101 89 
320 124 280 123 112 101 
320 124 281 122 111 100 
321 124 280 124 112 102 
321 124 281 124 112 101 
320 124 282 121 109 99 
320 124 283 120 108 97 
321 124 282 123 111 100 
321 124 283 121 109 98 
322 124 280 125 113 102 
322 124 281 125 113 102 
322 125 280 125 113 103 
322 125 281 127 114 103 
323 125 280 126 114 103 
323 125 281 128 116 104 
322 124 282 125 112 101 
322 124 283 124 111 100 
322 125 282 126 114 102 
323 125 282 128 116 104 
323 125 283 127 114 102 
323 126 280 123 111 102 
323 126 281 130 117 104 
323 127 280 119 107 100 
320 124 284 119 107 95 
320 124 285 117 105 93 
321 124 284 121 108 96 
321 124 285 119 106 94 
320 124 286 115 103 92 
320 124 287 114 102 90 
321 124 286 117 104 92 
321 124 287 116 103 91 
322 124 284 123 110 98 
322 124 285 120 108 96 
323 124 284 125 112 100 
323 124 285 123 110 97 
323 125 284 125 112 101 
323 125 285 125 111 99 
322 124 286 119 106 94 
322 124 287 118 105 93 
323 124 286 122 108 96 
323 124 287 121 107 94 
324 125 283 128 116 104 
324 126 281 130 117 104 
324 127 280 122 110 100 
324 127 281 131 117 104 
324 126 282 133 120 108 
324 126 283 131 118 106 
324 127 282 136 121 107 
324 127 283 135 121 108 
325 127 283 136 122 108 
324 125 284 127 114 102 
324 125 285 126 113 100 
324 124 286 124 110 98 
324 124 287 124 110 97 
324 125 286 126 112 99 
325 125 286 128 114 101 
325 125 287 129 114 99 
324 126 284 128 115 103 
324 126 285 126 113 101 
324 127 284 129 115 102 
325 126 285 128 114 102 
325 127 284 127 113 100 
325 127 285 127 113 101 
325 126 286 129 114 101 
325 127 286 129 114 101 
326 126 286 131 116 101 
326 126 287 131 116 101 
326 127 286 130 113 99 
326 127 287 132 116 99 
320 123 288 112 100 88 
320 123 289 111 98 86 
321 123 288 114 101 89 
321 123 289 112 99 87 
320 123 290 109 96 85 
320 123 291 108 96 84 
321 123 290 111 98 86 
320 124 288 113 101 89 
321 124 288 115 102 90 
321 124 289 114 101 89 
320 124 291 108 96 84 
321 124 290 112 99 87 
321 124 291 111 98 86 
322 124 288 117 104 92 
322 124 289 116 102 90 
323 124 288 119 105 93 
323 124 289 118 104 91 
322 124 290 114 101 89 
322 124 291 113 100 87 
323 124 290 116 103 90 
323 124 291 115 101 89 
320 124 292 107 94 83 
320 124 293 106 93 82 
321 124 292 110 97 85 
321 124 293 110 97 85 
320 124 294 105 93 81 
320 124 295 103 90 80 
321 124 294 110 97 85 
321 124 295 107 94 83 
322 124 292 113 99 87 
322 124 293 112 99 87 
323 124 292 114 101 88 
323 124 293 114 100 88 
322 124 294 111 98 86 
322 124 295 111 98 86 
323 124 294 114 100 88 
323 124 295 113 100 87 
324 124 288 123 109 95 
324 124 289 121 106 93 
325 124 288 126 111 97 
325 124 289 124 109 95 
325 125 288 127 113 98 
324 124 290 118 104 91 
324 124 291 117 103 90 
325 124 290 121 106 93 
325 124 291 119 105 91 
326 124 289 124 109 95 
326 125 288 131 115 100 
326 125 289 130 114 99 
327 125 289 131 115 99 
326 124 290 122 107 93 
326 124 291 121 106 92 
326 125 290 125 110 95 
326 125 291 121 106 93 
327 125 290 129 113 98 
327 125 291 122 106 93 
326 126 288 133 118 101 
326 126 289 135 118 100 
326 127 288 134 117 100 
327 126 289 136 119 100 
327 127 288 137 119 99 
327 127 289 139 120 98 
327 126 290 135 117 100 
327 127 290 139 120 100 
324 124 292 116 102 89 
324 124 293 116 102 89 
325 124 292 117 103 90 
325 124 293 118 104 90 
324 124 294 116 102 89 
324 124 295 116 102 89 
325 124 294 118 104 90 
325 124 295 118 104 90 
326 124 292 120 105 92 
326 124 293 121 106 92 
326 125 292 120 105 92 
327 124 293 122 107 93 
327 125 292 120 105 92 
327 125 293 122 107 93 
326 124 294 120 106 92 
326 124 295 120 106 92 
327 125 294 125 110 95 
327 125 295 125 109 95 
327 126 292 119 105 92 
320 124 296 101 89 79 
320 124 297 101 89 78 
321 124 296 105 92 82 
321 124 297 104 91 81 
320 124 298 100 88 78 
320 124 299 100 88 78 
321 124 298 103 91 80 
321 124 299 103 90 80 
322 124 296 109 96 84 
322 124 297 107 94 83 
323 124 296 111 98 86 
323 124 297 108 95 84 
322 124 298 105 92 82 
322 124 299 104 92 81 
323 124 298 107 94 83 
323 124 299 106 94 83 
320 124 300 101 89 78 
320 124 301 101 89 79 
321 124 300 103 90 80 
321 124 301 104 91 81 
320 124 302 102 90 80 
320 125 302 102 89 78 
320 125 303 102 90 78 
321 124 302 104 91 81 
321 125 302 103 91 80 
321 125 303 104 91 80 
320 126 303 102 89 77 
320 127 303 101 88 76 
321 126 303 105 92 80 
322 124 300 105 92 82 
322 124 301 105 92 81 
323 124 300 107 94 83 
323 124 301 106 94 83 
322 124 302 105 93 82 
322 125 302 104 92 81 
322 125 303 106 93 82 
323 124 302 107 94 83 
323 125 302 108 95 84 
323 125 303 108 95 83 
322 126 303 107 93 81 
323 126 303 110 96 84 
323 127 303 114 98 85 
324 124 296 114 100 88 
324 124 297 111 98 86 
325 124 296 117 103 90 
325 124 297 114 101 88 
324 124 298 110 97 85 
324 124 299 109 96 85 
325 124 298 113 100 88 
325 124 299 112 98 87 
325 125 299 113 100 88 
326 124 296 118 104 91 
326 124 297 117 103 90 
326 125 296 120 105 92 
326 125 297 118 104 91 
327 125 296 123 108 95 
327 125 297 119 105 92 
326 125 298 116 102 90 
326 125 299 115 101 89 
327 125 298 118 105 92 
327 125 299 118 104 92 
327 126 297 122 108 94 
326 126 299 117 103 91 
