ply
format ascii 1.0
comment Created by CloudCompare v2.10.1 (Zephyrus)
comment Created 1/31/20 6:08 PM
obj_info Generated by CloudCompare!
element vertex 1903
property float x
property float y
property float z
property uchar red
property uchar green
property uchar blue
end_header
175 851 296 118 89 63 
175 850 299 109 82 53 
175 850 300 107 80 51 
175 850 301 104 78 48 
175 850 302 104 78 48 
175 850 303 107 81 52 
175 849 305 110 84 56 
174 849 309 123 95 69 
175 849 308 117 91 64 
175 849 309 119 93 67 
181 847 294 136 105 77 
181 847 295 131 101 73 
182 847 294 137 106 77 
182 847 295 132 102 74 
183 846 294 136 106 77 
183 846 295 131 102 74 
179 847 302 107 79 49 
179 847 303 108 80 51 
181 847 296 125 97 68 
181 847 297 118 89 62 
180 847 298 111 83 56 
180 847 299 108 80 54 
181 847 298 111 83 57 
181 847 299 107 79 51 
182 846 297 117 89 64 
182 847 296 125 97 69 
182 847 297 117 89 62 
183 846 296 125 97 70 
183 846 297 116 89 64 
182 846 298 110 83 55 
182 847 298 110 82 56 
182 847 299 105 78 49 
183 846 298 108 82 55 
183 846 299 104 78 46 
180 847 300 108 81 52 
180 847 301 106 78 49 
181 847 300 105 77 47 
181 847 301 104 77 47 
180 847 302 107 78 49 
180 847 303 107 79 50 
181 846 303 106 79 49 
181 847 302 105 78 48 
181 847 303 106 79 49 
182 846 300 104 77 46 
182 846 301 104 78 47 
182 847 300 104 77 46 
182 847 301 104 77 46 
183 846 300 103 77 45 
183 846 301 104 78 46 
182 846 302 105 78 48 
182 846 303 106 79 49 
182 847 302 104 78 47 
183 846 302 106 79 48 
183 846 303 107 80 49 
186 843 294 134 105 78 
187 843 294 130 102 75 
187 843 295 123 96 69 
184 845 294 136 106 77 
184 845 295 132 103 75 
185 844 294 134 105 78 
185 844 295 131 102 75 
185 845 294 136 107 78 
185 845 295 130 101 74 
184 846 294 136 106 77 
184 846 295 131 102 74 
186 844 294 132 103 76 
186 844 295 127 100 73 
187 844 295 124 98 71 
189 841 294 127 94 69 
188 842 294 128 99 73 
188 843 294 127 99 73 
188 843 295 121 94 68 
189 842 294 126 95 70 
189 842 295 121 92 68 
189 843 295 119 91 66 
190 841 294 127 94 70 
191 841 294 126 93 70 
190 842 294 125 92 70 
190 842 295 119 89 67 
191 842 294 125 93 70 
191 842 295 120 90 67 
185 845 296 124 97 70 
185 845 297 114 89 62 
185 845 298 106 81 54 
185 845 299 102 77 50 
184 846 296 125 97 70 
184 846 297 116 89 62 
184 846 298 107 83 54 
184 846 299 104 79 48 
185 846 298 107 82 53 
185 846 299 102 78 49 
186 844 296 122 96 70 
186 844 297 114 89 62 
186 845 296 120 95 70 
186 845 297 112 87 61 
187 844 296 118 93 65 
187 844 297 110 85 57 
186 845 298 104 80 52 
186 845 299 101 77 50 
187 844 298 102 77 48 
187 845 298 102 78 48 
187 845 299 97 73 44 
186 846 299 100 75 49 
184 846 300 102 77 45 
184 846 301 104 78 45 
185 846 300 102 77 46 
185 846 301 103 78 45 
184 846 302 106 80 48 
184 846 303 107 81 50 
185 846 302 106 79 47 
185 846 303 107 80 49 
186 845 300 98 74 47 
186 845 301 100 74 46 
187 844 300 96 72 44 
187 844 301 98 74 46 
187 845 300 97 73 46 
187 845 301 98 73 45 
186 845 302 104 77 47 
186 845 303 105 79 48 
187 844 302 101 77 48 
187 844 303 104 80 50 
187 845 302 103 78 48 
187 845 303 104 79 47 
186 846 300 100 75 48 
186 846 301 102 76 46 
186 846 302 105 78 47 
186 846 303 107 79 49 
188 843 296 116 90 63 
188 843 297 111 85 58 
189 843 296 115 88 64 
189 843 297 109 83 57 
189 843 298 102 78 50 
190 842 296 115 87 64 
190 843 296 114 86 63 
190 843 297 108 82 56 
191 842 296 115 87 63 
191 842 297 111 84 60 
191 843 297 106 81 53 
190 843 298 100 77 48 
190 843 299 95 73 43 
191 843 298 100 77 49 
191 843 299 94 72 43 
191 843 300 92 71 42 
191 843 303 98 76 46 
188 844 297 109 83 55 
188 844 298 103 77 49 
188 844 299 97 72 43 
189 844 298 103 78 49 
189 844 299 96 74 44 
190 844 299 94 71 42 
188 844 300 95 71 43 
188 844 301 97 74 46 
189 844 300 94 71 42 
189 844 301 95 73 44 
188 844 302 101 78 49 
188 844 303 102 79 50 
189 844 302 99 76 48 
189 844 303 99 76 46 
190 844 300 94 72 44 
190 844 301 95 73 46 
191 844 300 93 71 43 
191 844 301 95 73 47 
190 844 302 97 74 46 
190 844 303 98 74 45 
191 844 302 97 75 47 
191 844 303 99 76 47 
178 847 305 110 82 51 
179 847 304 108 80 51 
179 847 305 109 81 52 
178 847 306 109 82 52 
178 847 307 111 84 55 
179 846 306 109 81 51 
179 846 307 109 82 52 
179 847 306 109 81 51 
179 847 307 109 81 52 
177 847 308 112 86 58 
178 847 308 112 85 56 
179 847 308 111 83 54 
181 845 306 109 82 51 
181 845 307 109 82 51 
180 846 305 108 80 49 
180 847 304 109 80 52 
180 847 305 108 81 51 
181 846 304 107 79 50 
181 846 305 108 80 50 
181 847 304 107 79 50 
180 846 306 108 81 50 
180 846 307 110 82 51 
180 847 306 108 81 50 
181 846 306 109 82 51 
181 846 307 109 81 51 
182 845 305 109 82 52 
183 845 305 109 82 52 
182 845 306 110 83 52 
182 845 307 110 82 52 
183 845 306 109 82 53 
183 845 307 110 82 53 
182 846 304 107 80 50 
182 846 305 109 81 51 
183 846 304 108 81 51 
183 846 305 109 82 52 
184 845 305 109 81 51 
185 845 304 108 80 50 
185 845 305 109 81 51 
184 845 306 109 81 52 
184 845 307 110 82 53 
185 844 306 110 82 52 
185 845 306 109 81 52 
184 846 304 108 81 51 
185 846 304 107 81 50 
186 844 305 107 80 50 
186 845 304 106 79 49 
186 845 305 107 80 49 
187 844 304 105 80 50 
187 844 305 106 81 50 
186 844 306 109 81 51 
187 844 306 108 81 51 
189 843 305 103 77 47 
188 843 306 107 81 49 
189 843 306 105 79 48 
190 843 304 101 77 47 
190 843 305 101 76 46 
191 843 304 99 76 45 
191 843 305 100 76 44 
190 843 306 104 78 46 
191 843 306 103 78 46 
188 844 304 104 80 50 
188 844 305 105 80 49 
189 844 304 100 76 46 
189 844 305 102 77 47 
188 844 306 106 80 49 
189 844 306 104 79 48 
190 844 304 99 75 45 
177 849 295 129 99 70 
176 850 295 125 95 68 
176 851 294 130 99 73 
176 851 295 125 95 69 
177 850 294 131 100 72 
177 850 295 127 98 70 
177 851 294 132 101 74 
177 851 295 127 97 70 
178 849 294 133 102 72 
178 849 295 128 97 69 
179 848 294 134 102 73 
179 848 295 129 98 70 
179 849 294 136 103 74 
179 849 295 130 99 71 
178 850 294 133 102 73 
180 848 294 136 104 75 
180 848 295 130 100 71 
177 849 296 121 93 64 
177 849 297 115 87 59 
177 849 298 111 84 56 
177 849 299 108 82 54 
176 850 296 121 92 64 
176 850 297 114 86 58 
176 851 296 120 91 64 
177 850 296 122 93 65 
177 850 297 116 87 60 
176 850 298 110 83 55 
176 850 299 108 81 52 
177 850 298 111 83 55 
177 850 299 109 82 54 
178 849 296 124 94 66 
178 849 297 116 88 60 
179 848 296 124 94 67 
179 848 297 116 88 60 
178 848 298 110 82 54 
178 848 299 109 81 53 
178 849 298 110 83 55 
178 849 299 108 81 52 
179 848 298 111 83 54 
179 848 299 108 80 53 
176 849 301 105 79 50 
177 849 300 107 80 52 
177 849 301 106 79 50 
176 849 302 105 78 49 
176 849 303 106 79 51 
177 848 302 106 79 49 
177 848 303 109 79 51 
177 849 302 104 77 48 
176 850 300 106 80 51 
176 850 301 105 79 49 
178 848 300 107 80 52 
178 848 301 106 79 51 
178 849 300 107 80 52 
178 849 301 107 80 52 
179 848 300 107 79 52 
179 848 301 106 78 49 
178 848 302 107 80 49 
178 848 303 108 80 50 
179 848 302 106 78 48 
179 848 303 108 79 50 
180 848 296 125 96 68 
180 848 297 117 89 61 
180 848 298 111 83 56 
180 848 299 108 80 54 
176 849 304 108 82 53 
176 849 305 110 83 55 
177 848 304 109 81 52 
177 848 305 109 82 52 
176 848 306 111 85 57 
176 848 307 112 87 59 
176 849 306 112 86 59 
176 849 307 113 88 60 
177 848 306 110 84 54 
177 848 307 112 86 57 
178 848 304 109 81 51 
178 848 305 109 82 51 
179 848 304 111 82 54 
178 848 306 109 83 52 
176 848 308 114 89 61 
176 849 308 115 89 62 
177 848 308 112 86 59 
192 841 294 126 93 69 
192 841 295 123 91 68 
193 841 294 128 94 68 
193 841 295 124 92 67 
192 842 295 121 91 67 
193 842 295 121 90 65 
194 840 294 130 97 68 
194 841 294 128 96 68 
194 841 295 122 92 65 
195 840 294 131 98 69 
195 841 294 128 96 68 
195 841 295 123 93 65 
196 840 294 131 97 68 
196 841 294 128 96 67 
196 841 295 124 93 65 
197 840 294 130 95 65 
197 841 295 125 92 64 
198 840 294 131 95 65 
198 841 295 126 93 64 
199 840 294 130 95 65 
199 841 295 126 93 64 
192 842 296 115 86 62 
192 842 297 108 82 55 
192 843 297 103 79 51 
193 842 296 115 87 62 
193 842 297 108 82 54 
193 843 297 103 78 49 
192 843 298 99 76 47 
192 843 299 94 72 44 
193 843 298 99 76 46 
193 843 299 95 73 45 
194 842 296 115 87 60 
194 842 297 106 80 51 
195 842 296 115 87 59 
195 842 297 107 80 50 
194 843 298 97 74 43 
194 843 299 94 71 42 
195 842 298 100 74 43 
195 843 298 97 72 41 
195 843 299 95 71 40 
192 843 300 93 71 44 
193 843 300 93 72 44 
193 843 301 93 72 43 
192 843 303 97 74 44 
193 843 302 96 74 44 
193 843 303 97 74 45 
194 843 300 95 72 43 
194 843 301 95 72 42 
195 843 300 95 71 40 
195 843 301 95 71 41 
194 843 302 95 72 42 
194 843 303 96 73 43 
195 842 303 96 73 41 
195 843 302 95 71 40 
195 843 303 96 73 41 
192 844 300 92 71 45 
192 844 301 95 73 47 
193 844 301 96 74 47 
192 844 302 96 74 46 
192 844 303 98 75 46 
196 841 296 119 89 61 
197 841 296 120 89 61 
196 842 296 115 85 57 
196 842 297 108 80 50 
197 842 296 116 86 58 
197 842 297 109 80 51 
196 842 298 102 75 44 
196 842 299 97 71 41 
196 843 299 96 71 39 
197 842 298 105 77 47 
197 842 299 101 74 44 
198 841 296 122 90 61 
199 841 296 120 89 60 
198 842 296 118 87 59 
198 842 297 112 83 54 
199 842 297 115 85 57 
198 842 298 107 80 51 
198 842 299 104 77 47 
199 842 298 109 82 53 
199 842 299 106 80 50 
196 842 300 96 71 40 
196 842 301 96 72 42 
196 843 300 95 71 38 
196 843 301 95 70 41 
197 842 300 99 73 43 
197 842 301 98 74 43 
196 842 302 97 73 43 
196 842 303 98 74 44 
197 842 302 97 74 43 
197 842 303 99 75 44 
198 842 300 101 76 45 
198 842 301 99 75 43 
199 842 300 102 76 45 
199 842 301 99 74 43 
198 842 302 98 74 43 
198 842 303 99 74 44 
199 842 302 99 74 44 
199 842 303 98 74 43 
200 840 294 129 94 63 
200 840 295 126 93 63 
200 841 295 125 93 63 
201 840 294 127 93 61 
201 840 295 124 93 62 
201 841 295 124 93 63 
202 840 294 125 91 60 
202 840 295 123 92 62 
202 841 295 122 92 62 
203 840 294 122 88 58 
203 840 295 121 89 61 
203 841 295 120 89 61 
204 840 294 120 85 56 
204 840 295 119 86 58 
204 841 295 118 86 58 
200 841 296 121 91 62 
201 841 296 122 92 64 
201 841 297 120 91 63 
200 842 297 116 87 59 
201 842 297 117 89 62 
200 842 298 112 84 56 
200 842 299 108 82 53 
201 842 298 113 87 59 
201 842 299 109 82 55 
202 841 296 120 91 64 
202 841 297 118 90 63 
203 841 296 119 89 62 
203 841 297 116 88 61 
202 842 297 117 89 63 
203 842 297 115 88 59 
202 842 298 114 87 60 
202 842 299 111 83 55 
203 842 298 113 86 58 
203 842 299 112 84 54 
200 842 300 103 77 47 
200 842 301 100 75 45 
201 842 300 106 79 50 
201 842 301 103 76 46 
200 842 302 99 73 43 
200 842 303 99 75 44 
201 842 302 100 75 43 
201 842 303 100 76 44 
202 842 300 108 80 52 
202 842 301 105 77 47 
203 842 300 109 81 50 
203 842 301 106 79 47 
202 842 302 102 76 45 
202 842 303 101 76 46 
203 842 302 104 77 44 
203 842 303 102 77 46 
204 841 296 117 86 58 
204 841 297 115 84 56 
204 842 297 114 84 55 
204 842 298 112 83 53 
204 842 299 111 83 51 
204 842 300 110 82 50 
204 842 301 106 78 45 
204 842 302 104 77 44 
204 842 303 103 77 45 
192 843 304 99 76 45 
192 843 305 100 76 46 
193 843 304 99 75 45 
193 843 305 99 75 44 
192 843 306 101 77 46 
193 843 306 101 76 45 
194 842 305 100 75 43 
194 843 304 97 73 42 
194 843 305 99 74 43 
195 842 304 99 75 43 
195 842 305 99 75 42 
195 843 304 98 74 43 
196 842 304 99 75 43 
196 842 305 100 75 43 
197 842 304 99 75 44 
197 842 305 101 76 44 
198 842 304 101 76 46 
198 842 305 103 78 47 
199 842 304 101 77 48 
199 842 305 104 79 50 
200 842 304 102 78 48 
200 842 305 104 80 52 
201 842 304 103 79 49 
201 842 305 104 80 52 
202 842 304 103 79 50 
202 842 305 104 81 52 
203 842 304 102 78 49 
203 842 305 103 80 51 
204 842 304 102 78 48 
204 842 305 103 79 48 
204 843 305 104 80 48 
204 843 306 106 82 49 
172 827 262 190 142 114 
172 827 263 190 141 114 
172 828 262 190 142 115 
173 828 262 189 141 114 
173 828 263 188 140 113 
173 829 262 187 140 113 
173 829 263 185 138 112 
173 830 262 185 137 111 
174 829 263 184 137 111 
174 830 262 184 136 109 
174 830 263 184 136 111 
174 831 262 184 137 111 
174 831 263 183 135 109 
172 827 264 189 140 113 
173 827 264 187 138 112 
173 827 265 185 134 109 
173 827 266 183 131 108 
174 827 266 183 131 107 
174 827 267 182 131 106 
175 827 267 182 134 108 
175 827 268 181 133 107 
175 827 269 180 133 108 
173 828 264 186 137 111 
173 828 265 185 134 110 
173 829 264 184 137 111 
174 828 264 184 135 110 
174 828 265 184 134 110 
174 829 264 183 135 110 
174 829 265 183 135 110 
174 828 266 184 133 109 
174 828 267 183 134 108 
174 829 266 183 133 108 
175 828 267 183 134 108 
175 829 266 183 134 108 
175 829 267 183 135 108 
174 830 264 183 135 110 
174 830 265 183 134 109 
174 831 264 182 134 109 
174 831 265 183 135 110 
175 830 265 182 133 108 
175 831 265 183 135 109 
175 830 266 182 133 108 
175 830 267 182 134 108 
175 831 266 182 133 107 
175 831 267 182 133 106 
175 828 268 182 135 109 
175 828 269 180 134 109 
175 829 268 182 135 109 
175 830 268 182 134 108 
175 831 268 180 133 106 
176 827 269 179 132 108 
176 827 270 176 130 106 
176 827 271 175 129 105 
177 827 271 175 129 105 
176 828 269 180 134 109 
176 829 269 180 133 108 
176 828 270 177 131 107 
176 829 270 177 131 106 
177 828 271 176 130 106 
177 829 271 175 130 105 
176 830 268 180 134 108 
176 830 269 179 133 107 
176 831 268 180 133 107 
176 831 269 178 131 106 
176 830 270 176 130 106 
176 831 270 176 130 105 
177 830 271 174 129 104 
177 831 271 174 129 103 
177 827 272 173 129 104 
178 827 272 173 128 104 
178 827 273 172 128 103 
178 827 274 171 128 103 
179 827 274 171 128 103 
179 827 275 171 127 102 
177 828 272 174 130 105 
177 829 272 173 130 104 
177 830 272 173 130 104 
177 831 272 171 129 102 
178 828 272 173 130 104 
178 828 273 172 129 103 
178 829 273 171 129 103 
178 828 274 171 129 103 
178 829 274 170 129 102 
179 828 274 170 128 103 
179 828 275 170 128 102 
179 829 275 168 127 100 
178 830 273 170 129 102 
178 831 273 169 129 101 
178 830 274 169 128 101 
178 831 274 168 128 100 
178 831 275 166 126 98 
179 830 275 167 127 100 
179 831 275 166 125 98 
179 828 276 168 127 100 
179 829 276 168 126 99 
179 830 276 166 124 98 
179 831 276 164 122 95 
180 827 275 171 127 102 
180 827 276 170 128 102 
181 827 276 170 128 102 
181 827 277 170 127 101 
182 827 278 169 125 99 
182 827 279 168 124 98 
183 827 279 168 122 97 
180 828 276 169 127 101 
180 828 277 167 125 98 
180 829 276 167 125 98 
180 829 277 166 123 96 
181 828 277 168 126 99 
181 829 277 167 123 96 
181 828 278 168 124 98 
181 829 278 165 122 95 
180 830 276 165 123 96 
180 830 277 164 121 93 
180 831 276 163 122 94 
180 831 277 162 119 91 
180 831 278 160 117 90 
181 830 278 162 118 92 
181 830 279 161 118 91 
181 831 278 160 117 90 
181 831 279 159 116 89 
182 828 278 168 124 98 
182 828 279 166 122 96 
182 829 279 163 119 93 
183 828 279 164 119 94 
183 829 279 163 119 93 
182 830 279 160 117 90 
182 831 279 158 116 89 
183 828 280 163 117 92 
183 829 280 160 116 90 
182 830 280 158 115 89 
182 831 280 157 115 88 
183 830 280 158 115 88 
183 830 281 158 115 88 
183 831 280 157 115 88 
183 831 281 157 114 88 
183 831 282 155 113 87 
184 827 280 163 117 93 
185 827 281 161 116 91 
185 827 282 160 115 90 
186 827 282 159 115 89 
186 827 283 159 116 90 
187 827 283 159 116 90 
187 827 284 159 116 90 
184 828 280 162 116 91 
184 828 281 160 115 89 
184 829 280 161 116 91 
184 829 281 159 115 89 
185 828 281 159 115 89 
184 829 282 158 115 89 
185 828 282 159 115 90 
185 829 282 158 116 89 
185 829 283 158 117 92 
184 830 281 158 115 88 
184 830 282 157 115 89 
184 831 282 155 113 87 
184 831 283 153 111 85 
185 830 282 157 115 89 
185 830 283 154 113 88 
185 831 283 153 112 86 
186 828 282 158 115 89 
186 828 283 158 115 90 
186 829 282 158 116 91 
186 829 283 158 116 92 
187 828 283 158 116 90 
185 831 284 152 112 88 
186 829 284 155 114 89 
187 828 284 158 117 91 
187 829 284 155 113 88 
187 829 285 152 110 84 
186 830 284 152 110 86 
186 831 284 151 110 86 
186 831 285 150 108 85 
187 830 284 151 110 84 
187 830 285 152 110 86 
187 831 285 150 108 84 
187 831 286 149 107 83 
188 827 284 159 117 92 
189 827 285 160 117 92 
190 827 286 160 115 90 
190 827 287 159 113 88 
191 827 287 162 115 92 
188 828 284 159 117 92 
188 828 285 157 116 91 
188 829 285 154 111 86 
189 828 285 156 113 88 
189 828 286 157 113 86 
189 829 286 155 112 88 
189 829 287 157 114 89 
188 830 285 153 112 87 
188 830 286 153 111 88 
188 831 286 151 109 85 
188 831 287 153 110 86 
189 830 286 155 113 90 
189 830 287 158 115 92 
189 831 287 156 114 89 
190 828 286 156 111 84 
190 828 287 158 113 88 
190 829 287 160 116 92 
191 828 287 161 115 91 
190 830 287 161 117 94 
191 828 288 163 117 94 
191 829 288 162 117 94 
190 830 288 162 118 94 
190 831 288 160 116 92 
191 830 288 163 118 95 
191 831 288 162 117 93 
191 831 289 162 118 93 
174 832 262 185 139 112 
174 832 263 183 135 109 
174 833 262 184 138 110 
175 832 263 182 135 108 
175 833 262 184 137 109 
175 833 263 183 136 108 
175 834 262 183 137 109 
175 834 263 182 136 107 
175 835 262 182 137 108 
175 835 263 181 135 106 
175 836 262 180 135 106 
175 836 263 180 135 105 
175 837 262 180 136 107 
175 837 263 179 134 105 
175 838 262 177 133 104 
175 838 263 177 131 103 
175 839 262 177 133 104 
174 832 264 182 134 108 
175 832 264 183 135 109 
175 832 265 182 135 107 
175 833 264 182 135 107 
175 833 265 181 134 105 
175 832 266 182 134 106 
175 832 267 182 134 107 
175 833 266 181 134 105 
175 833 267 180 133 105 
175 834 264 181 135 106 
175 834 265 180 134 104 
175 835 264 180 135 105 
175 835 265 179 134 104 
175 834 266 180 133 104 
175 834 267 179 133 103 
175 835 266 179 133 103 
175 835 267 179 133 103 
175 832 268 181 133 106 
175 833 268 180 133 104 
175 834 268 179 132 103 
175 836 264 179 133 103 
175 836 265 179 133 103 
175 837 264 178 133 103 
175 836 266 178 133 103 
175 851 279 149 111 83 
175 853 274 151 114 87 
175 853 275 150 113 86 
175 854 272 152 115 88 
175 854 273 152 115 88 
175 854 274 151 114 87 
175 854 275 149 112 86 
175 852 277 150 112 85 
175 853 276 150 113 86 
175 853 277 149 112 85 
175 852 278 150 112 85 
175 852 279 149 111 84 
175 853 278 150 112 85 
175 853 279 150 112 85 
175 851 280 150 112 85 
175 851 281 151 114 87 
175 851 282 152 115 88 
175 851 283 153 117 91 
175 851 284 149 112 85 
175 851 285 148 111 83 
175 851 286 149 112 84 
175 851 287 151 114 86 
175 852 280 150 113 85 
175 852 281 151 114 88 
175 853 280 151 114 86 
175 853 281 152 116 89 
175 852 282 152 116 90 
175 852 283 151 116 89 
175 853 282 152 116 88 
175 852 284 148 111 84 
175 852 285 149 113 85 
175 852 286 150 114 86 
175 852 287 152 115 87 
176 838 263 176 130 102 
176 839 262 176 132 104 
176 839 263 175 129 102 
176 835 267 178 132 102 
176 832 268 179 132 105 
176 832 269 177 130 104 
176 833 268 178 131 102 
176 833 269 176 130 102 
176 832 270 175 129 103 
176 833 270 174 129 102 
177 832 271 173 129 102 
177 833 271 172 128 101 
176 834 268 177 131 101 
176 834 269 176 130 102 
176 835 268 177 131 102 
176 835 269 175 130 102 
176 834 270 174 130 102 
176 835 270 173 130 102 
177 834 271 172 129 102 
177 835 271 171 129 101 
176 836 265 177 132 102 
176 837 264 177 132 103 
176 837 265 176 131 102 
176 836 266 178 133 103 
176 836 267 177 132 103 
176 837 266 176 131 103 
176 837 267 176 131 102 
176 838 264 176 130 102 
176 838 265 175 130 102 
176 839 264 174 128 101 
176 839 265 174 129 101 
176 838 266 176 131 103 
176 838 267 176 131 103 
176 839 266 174 129 101 
176 839 267 174 129 101 
176 836 268 176 130 102 
176 836 269 175 130 102 
176 837 268 175 130 101 
176 837 269 174 129 101 
176 836 270 172 129 100 
176 837 270 171 127 100 
177 836 271 169 127 98 
177 837 271 168 125 97 
176 838 268 175 129 101 
176 838 269 173 128 101 
176 839 268 174 129 102 
176 839 269 172 127 101 
176 838 270 171 126 99 
176 839 270 170 125 98 
177 838 270 169 125 98 
177 838 271 167 123 96 
177 839 270 169 124 97 
177 839 271 166 122 95 
176 840 262 175 131 103 
176 840 263 173 129 101 
176 841 262 173 130 102 
176 841 263 172 128 101 
176 842 262 172 129 102 
176 842 263 171 128 101 
176 843 262 171 129 101 
176 843 263 171 129 101 
176 844 262 172 130 102 
176 844 263 171 130 102 
176 845 263 171 130 101 
177 845 262 171 130 101 
177 845 263 171 130 101 
177 846 262 170 130 101 
177 846 263 171 131 103 
177 847 262 171 131 103 
177 847 263 171 131 103 
176 840 264 173 127 100 
176 840 265 173 128 101 
176 841 264 171 127 100 
176 841 265 172 128 101 
176 840 266 173 129 101 
176 840 267 174 130 101 
176 841 266 172 129 101 
176 841 267 173 130 102 
176 842 264 171 128 101 
176 842 265 171 128 100 
176 843 264 171 128 101 
176 843 265 170 128 100 
176 842 266 171 129 101 
176 842 267 172 130 102 
176 843 266 170 129 100 
176 843 267 170 129 100 
176 840 268 173 129 102 
176 840 269 170 126 99 
176 841 268 172 128 102 
176 841 269 170 126 100 
177 841 269 169 125 98 
176 840 270 169 124 96 
177 840 270 168 124 97 
177 840 271 165 122 96 
177 841 270 167 124 97 
177 841 271 164 122 95 
176 842 268 170 127 100 
176 843 268 169 128 100 
177 842 268 168 125 98 
177 842 269 168 124 98 
177 843 268 168 126 99 
177 843 269 165 123 96 
177 842 270 165 122 95 
177 842 271 162 120 93 
177 843 270 163 120 94 
177 843 271 160 118 92 
176 844 264 171 129 101 
176 844 265 170 129 100 
176 845 264 171 130 102 
176 845 265 170 131 102 
177 845 264 171 131 102 
177 845 265 170 130 101 
176 844 266 170 130 101 
176 844 267 170 129 101 
177 844 266 169 129 99 
177 844 267 169 128 99 
177 845 266 168 128 99 
177 845 267 167 127 98 
176 847 265 166 127 98 
177 846 264 171 132 104 
177 846 265 168 129 100 
177 847 264 169 130 102 
177 847 265 167 128 98 
176 847 266 166 126 97 
176 847 267 165 124 95 
177 846 266 166 127 98 
177 846 267 166 126 97 
177 847 266 166 126 97 
177 847 267 165 125 95 
177 844 268 167 126 98 
177 844 269 164 122 94 
177 845 268 166 125 97 
177 845 269 164 122 95 
177 844 270 162 120 93 
177 844 271 159 118 91 
177 845 270 161 119 92 
177 845 271 159 117 91 
177 846 268 165 125 97 
177 846 269 164 122 96 
177 847 268 165 124 96 
177 847 269 163 122 95 
177 846 270 161 119 91 
177 846 271 158 116 89 
177 847 270 161 119 92 
177 847 271 159 117 90 
177 832 272 170 129 102 
177 833 272 169 128 100 
177 834 272 168 127 100 
177 834 273 166 125 97 
177 835 272 168 127 99 
177 835 273 165 123 95 
178 832 273 168 128 100 
178 833 273 166 126 97 
178 832 274 166 126 98 
178 832 275 164 124 96 
178 833 274 163 123 94 
178 833 275 162 122 93 
179 832 275 163 123 95 
179 833 275 161 120 91 
178 834 273 164 123 94 
178 835 273 162 120 92 
178 834 274 162 121 92 
178 834 275 161 121 92 
178 835 274 161 119 90 
178 835 275 159 118 90 
179 834 275 159 118 90 
179 835 275 159 118 90 
179 832 276 161 119 91 
179 833 276 159 117 89 
179 834 276 157 116 89 
179 835 276 158 117 90 
179 835 277 156 114 88 
177 836 272 164 122 94 
177 837 272 163 120 92 
177 837 273 160 117 90 
177 838 272 163 120 93 
177 838 273 159 117 90 
177 839 272 163 120 93 
177 839 273 159 117 89 
177 838 274 157 116 88 
177 839 274 156 115 87 
177 839 275 154 113 85 
178 836 273 160 117 90 
178 837 273 159 117 90 
178 836 274 160 118 90 
178 836 275 159 118 90 
178 837 274 159 117 90 
178 837 275 157 116 89 
179 836 275 159 118 91 
178 838 274 157 116 89 
178 838 275 155 114 86 
178 839 275 155 113 86 
178 837 276 155 114 87 
179 836 276 156 115 88 
179 836 277 153 112 84 
179 837 276 154 114 86 
179 837 277 151 111 83 
179 836 278 150 109 81 
179 837 278 151 110 83 
179 837 279 150 109 83 
178 838 276 154 112 85 
178 838 277 152 112 85 
178 839 276 153 112 86 
178 839 277 152 112 86 
179 838 277 151 112 84 
178 839 278 151 111 84 
178 839 279 150 110 83 
179 838 278 151 112 84 
179 838 279 151 110 84 
179 839 278 151 111 84 
179 839 279 150 110 84 
180 832 277 159 117 88 
180 833 277 157 115 87 
180 832 278 158 115 89 
180 833 278 156 115 88 
180 833 279 156 115 89 
181 832 279 157 115 89 
181 833 279 155 114 88 
180 834 277 156 115 87 
180 835 277 155 114 86 
180 834 278 155 114 87 
180 834 279 154 113 87 
180 835 278 153 112 85 
180 835 279 151 109 83 
181 834 279 154 113 87 
180 836 277 153 111 84 
180 836 278 151 109 81 
180 836 279 149 106 80 
180 837 279 150 108 83 
179 838 280 150 109 83 
179 839 280 150 109 83 
179 839 281 149 108 82 
179 839 282 148 107 81 
181 832 280 156 114 89 
181 833 280 154 113 87 
180 835 280 150 107 81 
181 834 280 152 110 84 
181 834 281 151 109 81 
181 835 280 149 106 80 
181 835 281 149 106 79 
181 835 282 151 108 82 
182 832 280 156 115 88 
182 832 281 156 114 87 
182 833 280 154 113 86 
182 833 281 153 112 84 
183 832 281 155 114 87 
182 833 282 151 110 83 
183 832 282 154 112 85 
183 832 283 153 111 85 
183 833 282 152 111 84 
183 833 283 151 110 84 
182 834 281 150 108 81 
182 834 282 150 108 81 
182 834 283 151 109 83 
182 835 282 150 109 82 
182 835 283 152 111 85 
183 834 283 151 109 83 
183 835 283 153 111 85 
183 834 284 153 112 87 
183 835 284 154 113 89 
180 836 280 149 106 81 
180 836 281 150 109 83 
180 837 280 150 108 82 
180 837 281 151 110 83 
181 836 280 149 106 80 
181 836 281 150 109 83 
180 837 282 151 111 84 
181 836 282 153 111 86 
181 836 283 153 112 87 
181 837 282 151 111 85 
181 837 283 153 112 87 
180 838 280 151 110 84 
180 838 281 151 110 84 
180 839 281 150 109 83 
180 838 282 151 110 84 
180 838 283 151 111 84 
180 839 282 149 108 82 
180 839 283 150 109 83 
181 838 283 151 112 85 
182 836 283 153 112 85 
181 837 284 153 112 87 
180 839 284 151 110 85 
181 838 284 152 111 86 
181 838 285 152 111 86 
181 839 284 151 111 85 
181 839 285 152 111 86 
182 836 284 154 113 87 
182 837 284 154 113 88 
182 837 285 153 112 87 
183 836 284 154 113 88 
183 836 285 154 113 87 
183 837 285 153 112 87 
183 837 286 152 113 87 
182 838 285 152 112 87 
182 839 285 152 112 87 
182 838 286 153 114 89 
182 839 286 153 114 88 
183 838 286 153 114 89 
183 838 287 154 116 90 
183 839 287 153 116 90 
177 840 272 160 118 91 
177 840 273 157 115 87 
177 841 272 158 117 90 
177 841 273 156 115 87 
177 840 274 155 114 86 
177 840 275 153 112 84 
177 841 274 154 114 86 
177 841 275 153 113 85 
177 842 272 158 117 90 
177 842 273 155 115 87 
177 843 272 157 116 89 
177 843 273 155 115 88 
177 842 274 154 114 86 
177 842 275 153 114 85 
177 843 274 154 115 87 
177 843 275 153 114 85 
177 840 276 152 111 84 
177 840 277 151 111 84 
177 841 276 152 112 85 
177 841 277 151 111 84 
177 841 278 150 111 83 
177 841 279 150 111 83 
177 842 276 152 113 86 
177 842 277 151 112 86 
177 843 276 152 113 85 
177 843 277 150 111 84 
177 842 278 150 111 84 
177 842 279 149 110 82 
177 843 278 149 110 82 
177 843 279 149 110 81 
178 840 276 153 112 85 
178 840 277 152 112 85 
178 840 278 150 111 83 
178 840 279 149 110 82 
178 841 279 150 110 82 
177 844 272 157 116 90 
177 844 273 154 115 87 
177 845 272 157 116 89 
177 845 273 155 115 88 
177 844 274 154 115 86 
177 844 275 153 115 86 
177 845 274 154 115 87 
177 845 275 154 116 87 
176 847 272 156 116 89 
176 847 273 155 116 89 
177 846 272 155 114 87 
177 846 273 155 115 88 
177 847 272 156 115 88 
177 847 273 155 116 89 
176 847 274 154 116 89 
176 847 275 152 114 86 
177 846 274 154 116 88 
177 846 275 154 116 87 
177 847 274 154 116 89 
177 847 275 153 115 87 
177 844 276 151 113 84 
177 844 277 149 110 82 
177 845 276 151 113 84 
177 845 277 149 110 82 
177 844 278 148 108 80 
177 844 279 147 107 79 
177 845 278 148 109 82 
177 845 279 148 109 81 
176 847 276 151 114 86 
176 847 277 149 111 83 
177 846 276 152 114 85 
177 846 277 150 111 84 
177 847 276 151 114 85 
177 847 277 149 111 84 
176 847 278 148 109 82 
176 847 279 148 109 82 
177 846 278 148 110 82 
177 846 279 148 109 82 
177 847 278 148 109 82 
177 847 279 148 109 82 
177 842 280 149 109 82 
177 843 280 149 110 82 
177 843 281 149 110 84 
177 843 282 149 110 84 
178 840 280 148 108 81 
178 840 281 147 107 81 
178 841 280 148 108 82 
178 841 281 148 108 83 
179 840 280 148 107 81 
179 840 281 148 107 81 
178 841 282 149 109 83 
179 840 282 149 108 82 
179 840 283 149 108 83 
179 841 282 149 108 83 
179 841 283 150 109 84 
178 842 280 149 109 83 
178 842 281 149 109 84 
178 843 281 149 110 84 
178 842 282 150 110 85 
178 842 283 150 110 84 
178 843 282 149 110 84 
178 843 283 150 110 85 
179 840 284 150 110 84 
179 841 284 151 111 85 
179 841 285 152 111 87 
178 842 284 150 110 84 
178 843 284 150 110 85 
179 842 284 151 110 85 
179 842 285 151 111 85 
179 843 284 150 110 84 
179 843 285 151 111 85 
179 843 286 151 113 86 
177 844 280 148 109 82 
177 844 281 148 110 83 
177 845 280 148 109 81 
177 845 281 149 109 82 
177 844 282 148 109 82 
177 844 283 149 110 83 
177 845 282 149 110 83 
177 845 283 150 111 85 
176 847 280 148 109 82 
176 847 281 149 110 82 
177 846 280 148 109 81 
177 846 281 149 110 82 
177 847 281 149 111 83 
176 847 282 150 111 85 
177 846 282 150 111 83 
177 846 283 150 111 84 
177 847 282 150 111 84 
177 847 283 150 111 84 
178 844 283 149 110 83 
177 844 284 150 110 84 
177 845 284 150 110 83 
177 846 284 149 110 82 
177 846 285 151 112 84 
177 847 284 150 111 84 
177 847 285 152 115 88 
178 844 284 149 110 83 
178 844 285 151 111 84 
178 845 284 150 110 83 
178 845 285 151 112 84 
179 844 285 151 112 85 
178 845 286 152 114 87 
179 844 286 151 113 86 
179 844 287 152 115 89 
179 845 286 153 116 89 
179 845 287 153 116 89 
178 846 285 151 113 84 
178 847 285 152 115 87 
178 846 286 153 116 89 
178 847 286 153 116 90 
178 847 287 150 113 86 
179 846 287 152 116 89 
179 847 287 149 112 84 
180 840 283 149 108 83 
180 840 284 151 110 85 
180 840 285 151 111 86 
180 841 284 152 111 87 
180 841 285 152 112 87 
181 840 285 151 111 85 
180 841 286 152 113 87 
181 840 286 152 113 87 
181 841 286 153 114 88 
181 841 287 153 115 89 
180 842 285 151 112 86 
180 842 286 152 114 87 
180 842 287 151 114 87 
180 843 286 152 114 87 
180 843 287 151 114 87 
181 842 287 152 115 88 
181 843 287 151 114 86 
182 840 286 153 114 88 
182 840 287 153 116 90 
182 841 287 153 116 90 
183 840 287 153 116 90 
180 844 287 152 116 90 
184 832 282 153 111 85 
184 832 283 152 112 85 
184 833 283 152 112 86 
184 832 284 152 111 86 
184 833 284 151 111 85 
185 832 284 151 110 85 
185 832 285 149 107 82 
185 833 284 151 110 85 
185 833 285 150 108 84 
184 834 284 153 112 88 
184 834 285 152 111 86 
184 835 284 153 113 88 
184 835 285 153 113 88 
185 834 285 151 110 86 
185 834 286 152 110 86 
185 835 286 152 111 87 
186 832 285 150 108 84 
186 832 286 149 107 83 
186 833 286 150 108 84 
187 832 286 150 108 84 
187 833 286 150 109 85 
187 833 287 152 111 87 
186 834 286 152 110 87 
186 834 287 153 112 88 
186 835 286 153 112 88 
186 835 287 154 114 91 
187 834 287 154 114 89 
187 835 287 155 115 91 
184 836 285 153 113 87 
184 836 286 153 113 87 
184 837 286 152 113 87 
184 837 287 153 114 88 
185 836 286 152 112 87 
185 836 287 153 113 89 
185 837 287 153 114 90 
184 838 287 153 115 90 
184 839 287 153 116 91 
186 836 287 155 115 92 
188 832 286 149 107 84 
188 832 287 153 111 87 
188 833 287 155 114 90 
189 832 287 155 112 87 
176 848 263 168 129 100 
176 849 263 167 128 99 
177 848 262 171 132 104 
177 848 263 169 130 102 
177 849 262 169 130 101 
176 850 263 166 128 98 
176 851 263 165 128 98 
177 850 262 167 128 99 
177 851 262 166 128 98 
177 851 263 165 128 98 
176 852 263 165 128 98 
176 853 263 164 128 98 
177 852 262 166 128 98 
177 852 263 165 129 99 
177 853 262 166 129 100 
177 853 263 165 129 99 
176 854 263 164 128 98 
177 854 262 164 128 99 
177 854 263 164 127 98 
177 855 262 163 127 98 
177 855 263 163 126 97 
176 848 264 166 127 98 
176 848 265 165 127 97 
176 849 264 165 127 98 
176 849 265 166 127 98 
177 848 264 167 128 100 
176 848 266 165 126 96 
176 848 267 165 125 96 
176 849 266 166 126 97 
176 849 267 165 125 96 
176 850 264 165 128 99 
176 850 265 166 128 99 
176 851 264 165 128 99 
176 851 265 165 127 98 
176 850 266 166 127 98 
176 850 267 165 125 96 
176 851 266 165 126 97 
176 851 267 164 125 95 
176 848 268 164 123 95 
176 848 269 163 121 94 
176 849 268 164 123 95 
176 849 269 163 122 95 
176 848 270 161 120 92 
176 848 271 158 118 90 
176 849 270 161 120 93 
176 849 271 159 120 91 
176 850 268 164 124 95 
176 850 269 163 122 94 
176 851 268 164 123 94 
176 851 269 162 122 94 
176 850 270 161 122 93 
176 850 271 160 122 93 
176 851 270 161 122 94 
176 851 271 159 122 93 
176 852 264 164 127 98 
176 852 265 164 126 97 
176 853 264 164 127 97 
176 853 265 164 127 98 
176 852 266 164 126 96 
176 852 267 164 126 97 
176 853 266 164 126 97 
176 853 267 164 127 98 
176 854 264 164 128 98 
176 854 265 164 127 98 
176 855 264 163 126 96 
176 855 265 163 125 96 
177 855 264 162 125 95 
176 854 266 164 127 98 
176 854 267 164 127 98 
176 855 266 163 125 96 
176 855 267 163 125 96 
176 852 268 163 124 95 
176 852 269 162 123 94 
176 853 268 163 125 96 
176 853 269 162 124 95 
176 852 270 159 122 93 
176 852 271 158 121 93 
176 853 270 159 123 94 
176 853 271 157 121 93 
176 854 268 163 126 96 
176 854 269 162 124 96 
176 854 270 160 124 95 
176 854 271 156 120 92 
176 848 272 156 117 90 
176 848 273 155 116 89 
176 849 272 156 119 91 
176 849 273 154 117 89 
176 848 274 153 116 89 
176 848 275 152 114 87 
176 849 274 152 115 87 
176 849 275 152 115 87 
176 850 272 156 120 91 
176 850 273 153 116 87 
176 851 272 155 119 90 
176 851 273 152 116 86 
176 850 274 152 115 87 
176 850 275 152 115 87 
176 851 274 152 116 87 
176 851 275 151 115 87 
176 848 276 151 113 84 
176 848 277 149 111 83 
176 849 276 151 113 85 
176 849 277 149 111 83 
176 848 278 148 110 82 
176 848 279 148 110 83 
176 849 278 148 110 83 
176 849 279 148 109 82 
176 850 276 151 113 85 
176 850 277 149 112 84 
176 851 276 150 114 85 
176 851 277 150 112 85 
176 850 278 149 111 84 
176 850 279 149 110 83 
176 851 278 149 111 84 
176 851 279 149 110 83 
176 852 272 155 119 90 
176 852 273 152 116 87 
176 853 272 154 117 90 
176 853 273 152 115 88 
176 852 274 152 115 87 
176 852 275 150 114 86 
176 853 274 151 114 87 
176 853 275 150 113 86 
176 854 272 153 116 89 
176 852 276 150 113 85 
176 852 277 150 112 85 
176 848 280 148 109 81 
176 848 281 149 110 83 
176 849 280 149 110 83 
176 849 281 149 110 83 
176 848 282 150 111 85 
176 848 283 150 111 85 
176 849 282 149 111 84 
176 849 283 150 112 86 
177 848 283 150 111 85 
176 850 280 149 111 84 
176 850 281 150 112 86 
176 851 280 150 111 84 
176 851 281 150 113 87 
176 850 282 150 113 86 
176 850 283 151 115 89 
176 848 284 151 113 86 
176 849 284 152 115 89 
176 849 285 152 115 89 
177 848 284 151 113 86 
177 848 285 153 117 90 
177 849 285 153 116 91 
176 849 286 148 111 83 
177 848 286 151 114 86 
177 848 287 149 111 83 
177 849 286 150 112 84 
177 849 287 150 113 85 
176 850 284 152 116 89 
176 850 285 148 111 83 
176 851 284 150 114 87 
176 851 285 146 109 80 
176 850 286 148 111 83 
176 850 287 151 115 87 
176 851 286 148 111 83 
176 851 287 151 115 86 
178 848 286 150 113 86 
178 848 287 149 111 82 
175 852 288 151 114 86 
175 852 289 150 113 84 
179 846 288 148 111 84 
179 847 288 148 111 82 
179 847 289 149 113 86 
181 842 288 152 116 89 
181 843 288 153 117 91 
182 841 288 152 115 89 
183 840 288 152 115 89 
183 841 288 151 115 88 
183 841 289 151 115 89 
182 842 288 152 116 89 
182 842 289 152 117 91 
182 843 288 152 117 92 
182 843 289 151 116 91 
183 842 289 151 115 90 
183 843 289 149 114 89 
183 843 290 146 110 85 
180 844 288 152 116 91 
180 845 288 151 114 88 
180 845 289 148 111 84 
181 844 288 153 117 92 
181 844 289 150 114 89 
181 845 289 147 110 84 
181 845 290 146 111 83 
180 846 288 148 111 84 
180 846 289 147 110 83 
180 847 289 149 113 86 
181 846 289 146 110 83 
180 846 290 147 112 84 
180 847 290 148 113 86 
180 847 291 148 113 85 
181 846 290 147 112 85 
181 846 291 146 112 84 
181 847 291 147 112 83 
182 844 289 148 112 86 
182 844 290 144 108 82 
182 845 290 145 110 82 
182 845 291 144 110 82 
183 844 290 144 107 81 
183 844 291 142 107 80 
183 845 291 143 108 81 
182 846 291 146 112 84 
180 847 292 146 112 83 
181 846 292 145 111 83 
181 847 292 145 111 82 
181 847 293 142 109 80 
183 844 292 142 108 80 
183 845 292 143 109 81 
183 845 293 142 109 81 
182 846 292 145 111 83 
182 846 293 142 109 81 
182 847 293 140 108 80 
183 846 292 143 110 82 
183 846 293 141 109 80 
187 835 288 156 116 91 
185 837 288 154 114 91 
184 838 288 152 115 90 
184 839 288 152 115 90 
185 838 288 153 115 91 
185 839 288 152 114 90 
185 839 289 150 112 87 
186 836 288 155 115 92 
186 837 288 154 115 91 
186 837 289 154 116 91 
187 836 288 157 117 92 
187 836 289 157 117 92 
187 837 289 154 115 89 
186 838 288 153 115 91 
186 838 289 152 113 89 
186 839 289 151 113 88 
187 838 289 152 114 88 
187 838 290 152 114 89 
187 839 290 151 114 89 
188 832 288 157 115 91 
188 833 288 158 117 92 
189 832 288 158 116 91 
189 833 288 160 118 94 
189 833 289 161 119 95 
188 834 288 158 116 92 
188 835 288 157 116 91 
188 835 289 158 117 92 
189 834 289 161 120 95 
189 835 289 160 118 93 
190 832 288 161 119 94 
190 832 289 164 121 97 
190 833 289 163 121 97 
191 832 289 164 120 96 
191 833 289 166 124 100 
190 834 289 164 122 98 
190 835 289 160 119 95 
191 834 289 166 125 101 
190 835 290 159 117 92 
191 834 290 163 122 98 
191 835 290 160 118 93 
188 836 289 156 115 90 
188 837 289 154 114 89 
189 836 289 157 115 89 
188 836 290 154 113 87 
188 837 290 154 115 89 
189 836 290 156 115 89 
189 837 290 156 117 91 
188 838 290 153 115 90 
188 839 290 152 115 90 
188 839 291 151 115 90 
189 838 290 155 117 91 
189 838 291 155 116 92 
189 839 291 152 114 90 
190 836 290 158 117 93 
190 837 290 157 117 93 
190 837 291 157 117 93 
191 836 290 159 118 93 
191 836 291 158 118 95 
191 837 291 157 118 94 
190 838 291 156 117 93 
190 839 291 154 116 92 
191 838 291 157 119 95 
190 839 292 151 115 90 
191 838 292 156 119 95 
191 839 292 152 116 92 
184 840 288 151 114 88 
184 840 289 150 114 88 
184 841 288 150 114 87 
184 841 289 150 115 89 
185 840 289 150 113 88 
185 841 289 151 115 90 
184 841 290 150 115 90 
185 841 290 149 114 89 
184 842 289 149 113 88 
184 842 290 147 111 86 
184 843 290 145 109 83 
184 843 291 141 106 79 
185 842 290 146 112 87 
185 842 291 142 107 82 
185 843 291 139 104 77 
186 840 289 150 114 88 
186 840 290 149 114 89 
186 841 290 147 112 87 
186 841 291 145 110 85 
187 840 290 149 113 89 
187 840 291 146 111 87 
187 841 291 141 108 82 
186 842 291 140 106 81 
184 843 292 140 106 79 
185 843 292 138 105 78 
186 842 292 136 103 76 
186 843 292 136 104 76 
186 843 293 136 106 78 
187 842 292 136 103 76 
187 842 293 133 103 77 
187 843 293 134 104 77 
184 844 291 141 106 79 
184 844 292 141 108 81 
184 845 292 141 108 80 
184 845 293 139 109 80 
185 844 292 139 108 80 
185 844 293 138 108 80 
185 845 293 139 109 81 
186 844 293 136 107 79 
188 840 291 146 111 87 
188 841 291 141 107 81 
189 840 291 147 111 87 
188 840 292 141 106 82 
188 841 292 137 103 77 
188 841 293 131 98 72 
189 840 292 145 109 86 
189 841 292 137 102 77 
189 841 293 131 97 71 
188 842 292 133 101 74 
188 842 293 131 100 74 
190 840 292 144 108 84 
190 840 293 135 100 75 
190 841 293 130 95 71 
191 840 292 146 111 87 
191 840 293 137 102 78 
191 841 293 129 94 70 
177 849 288 151 115 87 
177 849 289 151 116 87 
176 850 288 152 116 88 
176 850 289 151 115 86 
176 851 288 152 115 87 
176 851 289 150 114 85 
177 850 288 151 116 88 
177 850 289 151 116 87 
176 850 290 149 114 84 
176 851 290 148 113 83 
176 851 291 146 111 82 
177 850 290 148 114 84 
177 850 291 146 112 82 
178 848 288 149 112 84 
178 848 289 150 114 86 
178 849 289 150 115 86 
179 848 289 149 114 86 
178 848 290 149 114 85 
178 849 290 149 114 85 
178 849 291 146 111 82 
179 848 290 149 113 85 
179 848 291 146 111 83 
176 851 292 142 109 80 
176 851 293 136 104 76 
177 850 292 142 109 80 
177 850 293 137 105 77 
178 849 292 142 108 79 
178 849 293 139 106 77 
179 848 292 144 109 81 
179 848 293 141 107 78 
179 849 293 139 106 77 
178 850 292 141 108 79 
178 850 293 138 106 77 
180 848 291 147 112 85 
180 848 292 146 111 84 
180 848 293 141 108 79 
192 827 287 163 116 93 
203 827 287 164 118 93 
204 827 287 165 120 95 
204 828 287 166 121 96 
204 829 287 166 122 98 
192 827 288 164 117 93 
193 827 288 167 120 96 
194 827 288 170 124 99 
195 827 288 170 124 100 
192 828 288 164 118 94 
192 829 288 165 119 96 
192 829 289 167 121 99 
193 828 288 166 119 95 
193 828 289 168 121 97 
193 829 288 167 121 98 
193 829 289 168 122 99 
192 830 288 165 120 98 
192 830 289 167 122 99 
192 831 289 165 121 96 
193 830 289 168 123 100 
193 831 289 167 123 99 
194 828 288 170 123 99 
194 828 289 169 122 99 
194 829 289 169 124 100 
195 828 289 169 123 100 
195 829 289 168 123 100 
194 830 289 168 123 100 
194 831 289 168 124 100 
195 830 289 166 122 98 
195 831 289 166 122 99 
196 827 288 169 123 99 
197 827 288 167 119 97 
198 827 288 166 117 94 
199 827 288 165 116 93 
196 828 289 168 122 99 
196 829 289 166 121 97 
197 828 289 165 119 96 
197 829 289 164 119 95 
196 830 289 164 120 96 
196 831 289 164 121 97 
197 830 289 164 119 96 
197 831 289 163 119 96 
198 828 289 164 117 93 
198 829 289 164 118 94 
199 828 288 164 115 91 
199 828 289 164 116 92 
199 829 289 163 117 93 
198 830 289 164 118 95 
198 831 289 163 118 95 
199 830 289 163 117 93 
199 831 289 162 117 93 
200 827 288 164 115 92 
201 827 288 163 113 90 
202 827 288 164 115 92 
203 827 288 164 117 93 
200 828 288 163 114 90 
200 829 288 163 115 92 
200 829 289 163 116 92 
201 828 288 163 114 91 
201 829 288 163 115 92 
200 830 289 163 117 93 
200 831 289 162 117 93 
201 830 288 164 118 93 
201 831 288 164 119 94 
201 831 289 163 119 94 
202 828 288 164 115 92 
202 829 288 164 117 93 
203 828 288 165 119 95 
203 829 288 165 119 95 
202 830 288 165 119 94 
202 831 288 166 121 96 
203 830 288 167 121 95 
203 831 288 167 123 97 
204 829 288 166 121 97 
204 830 288 168 123 97 
204 831 288 168 123 98 
192 832 289 165 122 97 
192 833 289 167 124 100 
193 832 289 167 124 100 
193 833 289 167 124 100 
192 833 290 165 123 99 
193 832 290 167 125 101 
193 833 290 165 123 98 
192 834 290 163 122 97 
192 835 290 160 119 93 
193 834 290 161 119 94 
193 835 290 159 118 93 
194 832 289 167 124 100 
195 832 289 166 123 100 
194 832 290 167 124 100 
194 833 290 164 121 97 
195 832 290 165 122 98 
195 833 290 161 119 94 
194 834 290 160 117 92 
194 835 290 159 117 92 
194 835 291 159 118 93 
195 834 290 158 116 91 
195 835 290 158 117 92 
195 835 291 158 118 93 
192 836 290 159 119 94 
192 836 291 159 119 94 
192 837 291 158 119 95 
193 836 291 159 120 94 
193 837 291 158 119 94 
194 836 291 159 120 94 
194 837 291 157 119 93 
195 836 291 158 119 93 
195 837 291 156 118 91 
193 837 292 157 119 94 
192 838 292 156 119 95 
192 839 292 152 116 92 
193 838 292 154 118 93 
193 839 292 151 115 90 
193 839 293 148 112 88 
194 837 292 155 118 92 
195 837 292 155 118 90 
194 838 292 154 117 91 
194 839 292 151 116 90 
194 839 293 147 113 87 
195 838 292 154 117 90 
195 839 292 151 116 90 
195 839 293 148 114 87 
196 832 289 164 121 98 
197 832 289 161 118 94 
196 832 290 162 120 96 
196 833 290 159 117 93 
197 832 290 161 118 94 
197 833 290 158 116 91 
196 834 290 157 115 90 
196 835 290 157 115 90 
196 835 291 157 116 91 
197 834 290 156 114 89 
197 835 290 155 114 88 
197 835 291 155 114 89 
198 832 289 161 118 94 
199 832 289 161 117 94 
199 833 289 158 115 91 
198 833 290 157 115 90 
199 833 290 156 114 89 
198 834 290 155 114 88 
198 835 290 154 113 87 
198 835 291 154 113 87 
199 834 290 154 113 87 
199 835 290 153 113 87 
199 835 291 153 113 87 
196 836 291 156 117 91 
196 837 291 155 117 90 
197 836 291 154 114 88 
197 837 291 153 115 87 
198 836 291 152 113 87 
199 836 291 151 113 86 
196 837 292 154 117 89 
197 837 292 151 113 85 
196 838 292 152 116 89 
196 839 293 149 115 88 
197 838 292 149 113 85 
197 839 293 147 112 85 
198 837 292 150 111 85 
199 837 292 149 111 84 
198 838 292 147 110 83 
198 839 293 143 108 81 
199 838 292 146 109 83 
199 839 293 141 105 78 
192 840 293 141 106 81 
192 841 293 130 95 70 
193 840 293 139 103 78 
194 840 293 138 103 77 
195 840 293 136 102 74 
196 840 293 138 104 76 
197 840 293 138 102 74 
198 840 293 138 102 74 
200 832 289 161 116 92 
200 833 289 158 116 91 
201 832 289 161 118 93 
201 833 289 158 116 90 
200 833 290 156 114 89 
201 833 290 155 113 87 
200 834 290 154 113 86 
200 835 290 153 113 86 
200 835 291 152 113 86 
201 834 290 153 112 85 
201 835 290 152 112 85 
201 835 291 152 113 85 
202 832 289 163 120 95 
202 833 289 158 116 90 
203 832 288 167 124 98 
203 832 289 164 121 96 
203 833 289 160 117 91 
202 833 290 155 114 87 
203 833 290 156 114 87 
202 834 290 153 112 85 
202 835 290 152 112 84 
202 835 291 151 113 85 
203 834 290 153 112 85 
203 835 290 151 112 84 
203 835 291 151 112 84 
200 836 291 150 112 85 
201 836 291 150 112 84 
202 836 291 149 111 83 
202 837 291 146 109 81 
203 836 291 148 110 83 
203 837 291 146 109 81 
200 837 292 148 110 84 
201 837 292 146 109 82 
200 838 292 145 109 83 
200 838 293 144 108 82 
200 839 293 139 103 76 
201 838 292 144 107 80 
201 838 293 142 106 80 
201 839 293 137 101 73 
202 837 292 145 108 80 
203 837 292 143 106 78 
202 838 292 143 106 79 
202 838 293 141 104 78 
202 839 293 134 98 70 
203 838 292 140 104 77 
203 838 293 138 102 76 
203 839 293 131 95 67 
204 832 288 168 124 99 
204 832 289 166 124 99 
204 833 289 161 118 93 
204 833 290 156 114 87 
204 834 290 152 111 84 
204 835 290 151 111 84 
204 835 291 150 111 84 
204 836 291 147 109 82 
204 837 291 145 108 80 
204 837 292 141 104 77 
204 838 292 138 102 75 
204 838 293 135 100 72 
204 839 293 128 92 64 
