ply
format ascii 1.0
comment Created by CloudCompare v2.10.1 (Zephyrus)
comment Created 1/31/20 5:41 PM
obj_info Generated by CloudCompare!
element vertex 2097
property float x
property float y
property float z
property uchar red
property uchar green
property uchar blue
end_header
313 166 258 50 47 55 
313 166 259 50 48 56 
313 167 258 50 47 56 
313 167 259 49 47 56 
314 164 256 42 41 57 
314 164 257 45 46 58 
314 165 256 48 43 51 
314 165 257 48 43 50 
314 164 258 46 46 59 
314 166 256 48 43 51 
314 166 257 50 46 53 
314 167 256 49 44 51 
314 167 257 51 48 56 
313 164 260 49 44 55 
313 164 261 51 43 54 
313 165 260 51 42 51 
313 165 261 50 41 50 
313 164 262 51 42 52 
313 164 263 49 41 53 
313 165 262 52 44 51 
313 165 263 53 45 53 
313 166 260 50 46 54 
313 166 261 46 43 52 
313 167 260 48 46 54 
313 167 261 46 45 53 
313 166 262 48 44 51 
313 166 263 51 46 54 
313 167 262 47 44 51 
313 167 263 48 44 52 
313 161 264 43 65 98 
313 162 264 37 48 75 
313 163 264 41 38 61 
314 160 264 39 74 112 
314 161 264 39 61 96 
314 162 264 34 49 79 
313 164 264 50 39 55 
313 165 264 53 44 54 
313 166 264 51 46 55 
313 167 264 48 44 53 
313 168 256 48 42 49 
313 168 257 49 44 51 
313 169 256 51 45 51 
313 169 257 50 45 51 
312 169 259 52 44 54 
313 168 258 50 45 53 
313 168 259 50 45 54 
313 169 258 52 45 53 
313 169 259 53 46 55 
313 170 256 52 48 55 
313 170 257 50 45 53 
313 171 256 49 45 54 
313 171 257 50 43 54 
312 170 258 49 44 53 
312 170 259 51 42 53 
312 171 258 52 42 53 
312 171 259 56 42 51 
313 170 258 51 45 54 
314 168 256 49 43 50 
314 169 256 50 42 49 
312 168 260 49 43 50 
312 168 261 49 45 51 
312 169 260 50 42 52 
312 169 261 50 43 51 
313 168 260 49 43 51 
313 168 261 47 45 51 
312 168 262 48 45 52 
312 168 263 47 43 51 
312 169 262 50 43 51 
312 169 263 50 42 51 
313 168 262 47 44 51 
312 170 260 51 41 52 
312 170 261 50 41 49 
312 171 260 58 42 50 
312 171 261 58 38 45 
312 170 262 51 40 47 
312 170 263 52 41 48 
312 171 262 59 38 46 
312 171 263 62 42 48 
312 172 257 54 43 55 
312 173 257 58 43 51 
313 172 256 47 41 52 
313 172 257 50 42 54 
313 173 256 50 39 52 
313 173 257 52 42 51 
312 172 258 58 39 50 
312 172 259 64 41 49 
312 173 258 64 39 46 
312 173 259 75 36 43 
312 172 260 71 45 51 
312 172 261 73 37 47 
312 173 260 91 46 55 
312 173 261 96 42 55 
312 172 262 74 34 45 
312 172 263 79 42 48 
312 173 262 96 37 52 
312 173 263 100 47 55 
312 168 264 48 41 50 
312 169 264 50 41 51 
312 170 264 52 41 48 
312 171 264 61 42 46 
312 172 264 79 43 46 
312 173 264 101 51 57 
323 135 256 164 76 8 
323 135 257 162 71 8 
323 134 258 161 70 7 
323 134 259 162 73 8 
323 135 258 159 67 7 
323 135 259 159 70 7 
323 133 263 161 77 9 
323 134 260 163 76 9 
323 134 261 164 84 10 
323 135 260 162 77 9 
323 135 261 163 81 8 
322 135 262 161 80 8 
322 135 263 161 78 8 
323 134 262 164 84 10 
323 134 263 163 82 10 
323 135 262 162 82 8 
323 135 263 162 79 9 
324 128 256 121 110 101 
324 128 257 125 113 104 
325 128 256 117 107 99 
325 128 257 124 113 104 
325 129 256 106 100 95 
325 129 257 117 108 100 
324 128 258 127 115 105 
324 128 259 126 114 104 
325 128 258 130 117 108 
325 128 259 131 117 107 
325 129 258 131 118 107 
325 129 259 136 122 111 
325 130 257 107 99 91 
325 130 258 121 107 93 
325 130 259 134 117 100 
325 131 258 128 100 71 
325 131 259 139 110 74 
326 130 256 95 89 83 
326 130 257 100 92 83 
326 131 256 113 94 73 
326 131 257 113 90 67 
326 130 258 118 104 87 
324 128 260 122 110 99 
324 128 261 116 104 95 
325 128 260 125 112 100 
325 128 261 109 98 90 
325 129 260 128 114 103 
325 129 261 113 101 92 
324 128 262 115 105 96 
324 128 263 122 111 102 
325 128 262 111 102 94 
325 128 263 115 108 100 
325 129 262 111 101 94 
325 129 263 116 106 98 
325 130 260 138 121 104 
325 130 261 130 115 101 
325 131 260 147 115 77 
325 131 261 143 112 74 
324 131 263 143 84 20 
325 130 262 122 109 96 
325 130 263 119 103 86 
325 131 262 139 105 63 
325 131 263 133 96 55 
324 133 256 164 77 11 
324 133 257 162 72 10 
325 132 256 136 93 48 
325 132 257 137 86 34 
325 133 256 156 80 13 
325 133 257 159 76 11 
324 133 258 162 68 8 
324 133 259 163 71 8 
325 132 258 145 85 26 
325 132 259 152 89 26 
325 133 258 159 73 9 
325 133 259 162 72 9 
324 134 256 164 78 10 
324 134 257 162 75 9 
324 135 256 164 78 10 
324 134 258 161 71 8 
324 134 259 162 73 10 
324 132 260 163 85 19 
324 132 261 163 86 17 
324 133 260 164 80 10 
324 133 261 166 86 10 
325 132 260 158 92 29 
325 132 261 156 94 29 
324 132 262 159 86 15 
324 132 263 157 79 12 
324 133 262 165 84 10 
324 133 263 163 79 10 
325 132 262 156 91 26 
324 134 260 164 80 9 
324 134 261 164 86 10 
324 134 262 164 87 10 
323 133 264 158 71 8 
322 134 264 160 75 11 
322 135 264 160 75 8 
323 134 264 160 77 9 
323 135 264 160 76 14 
324 128 264 129 117 106 
325 128 264 132 119 107 
325 129 264 130 117 105 
324 131 264 143 81 24 
325 130 264 124 101 80 
325 131 264 127 89 52 
324 132 264 156 72 8 
324 133 264 160 71 8 
321 139 256 166 79 9 
321 139 257 163 74 8 
321 139 258 161 70 8 
321 139 259 160 70 7 
322 136 256 164 77 8 
322 137 256 163 80 8 
322 137 257 161 76 8 
323 136 256 165 77 8 
323 136 257 162 72 7 
323 137 257 161 72 7 
322 137 258 159 70 6 
322 137 259 159 69 6 
323 136 258 159 68 6 
323 136 259 157 66 6 
323 137 258 160 72 7 
323 137 259 159 68 6 
322 138 256 163 80 9 
322 138 257 161 77 11 
322 139 256 164 80 10 
322 139 257 163 77 9 
323 138 257 160 76 8 
322 138 258 160 71 9 
322 138 259 160 70 7 
322 139 258 160 70 10 
322 139 259 160 69 7 
323 138 258 160 73 10 
321 137 261 162 76 8 
321 137 262 164 80 7 
321 137 263 164 82 7 
321 138 261 163 78 10 
321 139 260 160 72 8 
321 139 261 162 77 8 
321 138 262 164 82 9 
321 138 263 164 82 9 
321 139 262 164 82 10 
321 139 263 163 82 9 
322 136 260 159 72 6 
322 136 261 161 75 7 
322 137 260 161 72 6 
322 137 261 162 75 7 
323 136 260 159 71 6 
323 136 261 161 78 8 
322 136 262 162 80 7 
322 136 263 162 81 7 
322 137 262 163 79 7 
322 137 263 164 83 7 
322 138 260 161 73 7 
322 138 261 163 78 9 
320 141 257 158 84 32 
321 140 256 166 79 9 
321 140 257 165 78 10 
321 141 256 162 83 23 
321 141 257 163 80 18 
320 141 258 157 81 32 
320 141 259 154 79 33 
321 140 258 162 73 11 
321 140 259 158 70 10 
321 141 258 163 77 19 
320 142 256 143 100 70 
320 142 257 142 101 73 
320 143 256 126 117 114 
320 143 257 126 121 121 
321 142 256 149 94 54 
320 142 258 141 102 78 
320 142 259 136 103 82 
320 143 258 127 123 125 
320 143 259 127 121 121 
321 140 260 158 70 11 
321 140 261 160 74 12 
321 141 260 155 74 26 
321 141 261 155 75 25 
320 141 262 154 85 35 
320 141 263 156 84 29 
321 140 262 163 81 11 
321 140 263 163 82 9 
321 141 262 157 81 25 
321 141 263 161 83 18 
320 142 260 144 93 61 
320 142 261 138 91 68 
320 143 260 125 121 122 
320 143 261 123 119 119 
321 142 260 150 83 44 
321 142 261 145 87 56 
320 142 262 138 97 75 
320 142 263 140 98 69 
320 143 262 124 118 117 
320 143 263 125 117 114 
321 142 262 142 92 66 
321 136 264 162 81 7 
321 137 264 164 80 7 
321 138 264 164 79 8 
321 139 264 164 80 8 
322 136 264 162 78 7 
320 140 264 164 80 9 
320 141 264 160 82 18 
321 140 264 164 80 10 
320 142 264 143 95 60 
320 143 264 126 118 114 
320 144 256 124 135 146 
320 144 257 122 133 145 
320 144 264 125 138 153 
319 139 266 163 71 9 
319 139 267 163 71 8 
319 138 269 162 80 9 
319 139 268 164 76 12 
319 139 269 163 80 9 
319 138 270 160 77 8 
319 138 271 159 73 8 
319 139 270 161 80 12 
319 139 271 159 77 15 
319 140 265 158 78 17 
319 141 265 154 81 23 
319 140 266 161 74 12 
319 140 267 159 72 13 
319 141 266 149 81 32 
319 141 267 147 83 39 
319 142 265 136 98 72 
319 143 265 122 125 131 
319 142 266 130 103 87 
319 142 267 126 108 100 
319 143 266 123 130 139 
319 143 267 121 131 143 
319 140 268 159 79 16 
319 140 269 159 83 21 
319 141 268 144 89 49 
319 141 269 143 93 47 
319 140 270 156 85 29 
319 140 271 156 84 29 
319 141 270 142 96 53 
319 141 271 142 94 52 
319 142 268 126 111 102 
319 142 269 126 108 93 
319 143 268 120 130 143 
319 143 269 120 132 146 
319 142 270 123 112 103 
319 142 271 123 117 115 
319 143 270 120 130 143 
319 143 271 119 131 144 
319 138 272 156 67 6 
319 139 272 156 72 12 
319 139 273 153 68 13 
319 140 272 154 80 28 
319 140 273 148 74 28 
319 141 272 138 95 68 
319 141 273 135 97 79 
319 141 274 131 98 78 
319 142 272 120 118 119 
319 142 273 120 120 123 
319 143 272 120 132 146 
319 143 273 120 133 146 
319 142 274 122 122 126 
319 142 275 119 124 130 
319 143 274 121 133 147 
319 143 275 120 132 146 
319 141 276 136 93 58 
319 141 277 130 101 76 
319 142 276 117 122 128 
319 142 277 118 120 124 
319 143 276 118 130 145 
319 143 277 117 128 143 
319 142 278 116 125 136 
319 143 278 118 130 145 
319 143 279 119 131 145 
319 144 265 126 138 152 
319 145 265 129 138 152 
319 144 266 129 141 155 
319 144 267 130 142 157 
319 145 266 129 141 155 
319 145 267 127 140 155 
318 147 265 86 77 102 
319 146 265 93 104 124 
319 147 265 81 82 110 
318 147 266 80 74 102 
318 147 267 64 76 112 
319 146 266 89 109 130 
319 146 267 86 111 134 
319 147 266 66 75 107 
319 147 267 58 82 114 
317 146 271 41 91 125 
319 144 268 130 142 157 
319 144 269 128 141 157 
319 145 268 128 142 158 
319 145 269 123 140 158 
319 144 270 125 139 156 
319 144 271 123 137 154 
319 145 270 114 134 155 
319 145 271 109 130 152 
318 146 268 69 103 130 
318 146 269 73 108 135 
318 147 268 55 80 116 
318 147 269 54 87 121 
319 146 268 99 122 144 
319 146 269 102 126 148 
318 146 270 66 105 134 
318 146 271 55 99 131 
318 147 270 48 85 119 
318 147 271 37 79 114 
319 146 270 91 120 145 
317 148 265 96 88 96 
317 149 265 99 80 91 
317 149 266 99 88 97 
317 149 267 93 84 101 
316 150 265 109 67 80 
316 151 265 93 66 85 
317 150 265 107 71 85 
316 150 266 115 74 79 
316 150 267 110 76 82 
316 151 266 102 68 84 
316 151 267 107 70 82 
317 150 266 112 80 83 
317 150 267 112 84 89 
318 148 265 94 87 101 
318 148 266 95 86 103 
318 148 267 83 79 106 
316 149 268 97 88 103 
316 149 269 97 90 103 
317 148 268 74 73 104 
317 148 269 68 75 106 
317 149 268 90 86 104 
317 149 269 88 90 109 
316 149 270 104 92 107 
316 149 271 104 85 101 
317 148 270 63 80 109 
317 148 271 64 85 112 
317 149 270 85 90 108 
317 149 271 88 85 105 
316 150 268 107 77 90 
316 150 269 108 81 96 
316 151 268 104 69 77 
316 151 269 113 76 86 
316 150 270 114 80 96 
316 150 271 118 77 93 
316 151 270 115 75 83 
316 151 271 124 78 81 
317 150 271 114 76 93 
318 148 268 76 77 109 
318 148 269 68 76 110 
318 148 270 59 86 115 
318 148 271 55 83 114 
315 154 265 43 89 124 
315 155 265 44 90 124 
315 154 266 38 88 123 
315 154 267 50 93 126 
315 155 266 40 90 125 
315 155 267 49 95 128 
315 153 270 71 83 103 
315 153 271 83 82 97 
315 154 268 50 96 127 
315 154 269 49 93 123 
315 155 268 53 94 126 
315 155 269 39 84 118 
315 154 270 60 92 121 
315 154 271 58 85 117 
315 155 270 49 85 118 
315 155 271 53 84 114 
315 156 265 41 87 123 
315 157 265 40 82 121 
314 156 266 37 85 120 
314 156 267 45 87 122 
314 157 266 24 75 115 
314 157 267 37 79 116 
315 156 266 34 84 120 
315 156 267 50 89 123 
315 157 266 27 76 116 
315 157 267 33 75 111 
314 159 265 48 81 117 
315 158 265 47 83 120 
315 159 265 46 81 118 
314 158 267 31 63 103 
314 159 266 38 71 107 
314 159 267 29 55 95 
315 158 266 38 74 113 
315 158 267 29 61 102 
314 157 268 49 84 115 
314 157 269 46 79 111 
315 156 268 57 90 121 
315 156 269 38 74 108 
315 157 268 53 88 119 
315 157 269 41 76 110 
314 156 270 42 72 105 
314 156 271 38 71 101 
314 157 270 54 81 111 
314 157 271 64 85 112 
315 156 270 32 69 103 
314 158 268 39 66 101 
314 158 269 37 64 98 
314 159 268 35 49 90 
314 159 269 42 49 91 
314 158 270 31 51 89 
314 158 271 43 57 89 
314 159 270 44 48 89 
314 159 271 46 54 89 
316 152 265 60 69 95 
316 153 265 51 75 109 
316 152 266 77 66 88 
316 152 267 106 81 94 
316 153 266 62 77 108 
316 153 267 77 81 105 
316 154 265 40 84 120 
316 154 266 40 81 117 
316 152 268 112 84 93 
316 152 269 115 86 91 
316 153 268 87 90 108 
316 153 269 85 84 98 
316 152 270 120 97 97 
316 152 271 125 92 88 
316 153 270 96 88 95 
316 153 271 112 94 92 
316 154 268 58 97 125 
316 154 269 57 97 125 
318 144 272 119 135 152 
318 144 273 118 134 151 
318 145 272 83 113 141 
318 145 273 81 112 138 
319 144 272 124 137 153 
319 144 273 126 139 154 
319 145 272 103 126 149 
318 144 274 113 131 150 
318 144 275 106 126 147 
318 145 274 78 110 137 
318 145 275 74 108 135 
319 144 274 123 136 152 
319 144 275 119 133 150 
318 146 272 51 95 129 
318 146 273 33 84 120 
318 147 272 39 79 114 
318 147 273 41 76 113 
318 146 274 36 85 120 
318 146 275 41 88 122 
318 147 274 39 77 113 
318 147 275 46 83 114 
318 145 276 69 103 131 
318 145 277 56 95 124 
319 144 276 109 127 146 
319 144 277 100 120 140 
319 145 276 84 112 136 
319 145 277 71 103 129 
319 144 278 103 121 141 
319 144 279 107 123 141 
319 145 278 67 99 125 
319 145 279 70 99 123 
318 146 276 43 89 121 
318 146 277 49 89 118 
318 147 276 56 90 118 
318 147 277 66 93 117 
318 146 278 56 89 117 
318 147 278 65 90 112 
318 147 279 65 84 105 
319 146 278 44 84 113 
319 146 279 55 86 112 
319 147 279 67 85 107 
317 148 272 62 83 112 
317 148 273 72 83 109 
317 149 272 100 87 106 
317 149 273 105 83 101 
317 148 274 73 77 103 
317 149 274 97 78 98 
317 149 275 88 75 94 
316 150 272 120 76 84 
316 150 273 116 71 75 
316 151 272 128 82 80 
316 151 273 128 86 85 
317 150 272 114 77 91 
317 150 273 117 73 81 
316 151 274 124 85 81 
316 151 275 126 91 85 
317 150 274 112 72 78 
317 150 275 101 68 75 
317 151 274 115 74 74 
317 151 275 110 71 68 
318 148 272 50 78 109 
318 148 273 57 77 109 
318 148 274 59 77 108 
318 148 275 66 81 107 
318 149 275 81 78 101 
317 150 276 97 69 77 
317 150 277 100 65 73 
317 151 276 110 76 72 
317 151 277 122 86 78 
317 150 278 110 69 70 
317 151 278 129 93 83 
317 151 279 129 95 82 
318 148 276 67 84 109 
318 148 277 69 85 106 
318 149 276 83 76 97 
318 149 277 85 76 95 
318 148 278 67 81 101 
318 148 279 67 71 90 
318 149 278 89 75 92 
318 149 279 84 63 80 
319 148 279 66 70 90 
318 150 277 101 72 84 
318 150 278 103 67 77 
318 150 279 107 66 69 
318 151 279 129 96 81 
319 145 280 67 97 121 
318 147 280 69 78 97 
319 146 280 63 87 111 
319 146 281 65 91 113 
319 147 280 74 81 100 
319 147 281 73 75 95 
319 146 282 64 86 108 
319 147 282 65 71 92 
319 147 283 65 67 88 
318 149 280 93 65 80 
318 149 281 100 64 77 
319 148 280 74 62 82 
319 148 281 73 55 78 
319 149 280 86 62 80 
319 149 281 97 63 77 
319 148 282 71 54 75 
319 148 283 78 60 78 
319 149 282 99 65 76 
319 149 283 105 73 80 
318 150 280 110 72 70 
318 150 281 116 79 72 
318 151 280 126 94 78 
318 151 281 125 94 77 
319 150 281 111 71 72 
318 150 282 119 81 67 
319 150 282 114 73 71 
319 150 283 120 80 74 
319 151 282 121 90 73 
319 151 283 122 88 77 
319 150 284 128 89 80 
319 151 284 125 91 81 
315 153 272 69 60 80 
315 153 273 71 46 60 
315 154 272 52 64 98 
315 154 273 64 57 86 
315 155 272 45 68 100 
315 155 273 42 52 90 
315 154 274 82 62 81 
315 154 275 92 73 85 
315 155 274 55 60 92 
315 155 275 60 60 89 
315 154 276 92 73 82 
315 155 276 56 61 82 
314 156 272 38 65 97 
314 156 273 42 68 98 
314 157 272 56 76 105 
314 157 273 54 79 104 
315 156 273 39 63 97 
314 157 274 60 85 108 
315 156 274 50 72 104 
315 156 275 59 77 105 
315 157 274 63 87 111 
315 157 275 69 93 115 
314 158 272 39 55 91 
314 158 273 28 55 90 
314 159 272 46 58 93 
314 159 273 41 58 95 
314 158 274 34 61 94 
314 159 274 43 66 98 
314 159 275 56 79 106 
315 158 274 43 71 99 
315 158 275 38 68 95 
315 159 275 47 70 100 
315 156 276 65 86 107 
315 156 277 77 99 119 
315 157 276 78 100 120 
315 157 277 79 101 121 
315 158 276 46 72 98 
315 158 277 50 73 100 
315 159 276 56 77 105 
315 159 277 65 88 114 
315 158 278 42 68 97 
315 159 278 67 90 115 
315 159 279 71 94 119 
316 152 272 119 82 71 
316 152 273 123 86 72 
316 153 272 81 55 62 
316 153 273 81 48 52 
316 152 274 127 91 82 
316 152 275 125 87 77 
316 153 274 89 50 53 
316 153 275 103 54 51 
316 154 275 103 67 67 
316 152 276 114 73 63 
316 153 276 106 57 47 
316 153 277 107 63 51 
317 152 276 112 79 68 
317 152 277 114 77 67 
317 153 277 109 63 52 
317 152 278 116 75 64 
317 152 279 117 82 67 
317 153 278 111 64 55 
317 153 279 114 78 63 
316 154 276 114 84 76 
316 154 277 118 89 79 
316 155 276 84 74 80 
316 155 277 79 74 81 
316 154 278 115 88 80 
316 154 279 116 86 76 
316 155 278 76 66 73 
316 155 279 72 63 74 
317 154 278 122 88 78 
317 154 279 118 92 81 
317 155 279 90 70 72 
316 156 277 64 86 107 
316 156 278 62 83 105 
316 156 279 62 83 105 
316 157 278 72 97 118 
316 157 279 65 94 118 
316 158 278 45 70 98 
316 158 279 48 76 105 
316 159 279 52 78 108 
317 152 280 112 79 63 
317 153 280 112 82 67 
317 154 280 120 99 85 
317 155 280 76 59 71 
317 155 281 78 60 66 
317 155 282 77 54 56 
318 152 280 116 86 69 
318 152 281 109 80 64 
318 153 280 113 84 69 
318 153 281 109 79 66 
318 152 282 102 76 67 
318 153 282 112 80 69 
318 153 283 119 88 76 
319 152 282 109 86 73 
319 152 283 100 67 57 
319 153 283 107 76 65 
318 154 281 120 97 81 
318 155 281 98 76 61 
318 154 282 125 98 81 
318 154 283 125 96 80 
318 155 282 94 67 53 
318 155 283 95 64 51 
319 154 283 123 91 76 
319 152 284 99 63 51 
319 152 285 104 71 59 
319 153 284 108 76 64 
319 153 285 107 77 67 
319 154 284 117 84 71 
319 154 285 109 78 74 
319 155 284 96 64 51 
319 155 285 96 67 60 
319 155 286 90 60 53 
316 156 280 62 82 104 
316 157 280 57 87 111 
317 156 280 60 79 103 
317 156 281 66 74 96 
317 157 281 51 78 103 
317 156 282 79 70 83 
317 157 282 59 73 93 
316 158 280 47 79 105 
316 158 281 47 78 104 
316 159 280 71 95 119 
316 159 281 75 99 121 
317 158 281 40 74 102 
317 158 282 45 75 100 
317 158 283 54 74 94 
317 159 282 76 101 122 
317 159 283 84 105 125 
318 156 282 87 80 93 
318 156 283 98 80 82 
318 157 283 73 72 85 
318 158 283 59 72 90 
318 159 283 83 102 120 
318 156 284 104 90 91 
318 157 284 79 75 86 
319 156 284 104 87 82 
319 156 285 103 90 83 
319 157 284 97 90 91 
319 157 285 87 83 87 
319 156 286 113 97 89 
319 157 286 88 83 83 
318 158 284 63 71 88 
318 159 284 77 95 113 
319 158 285 68 78 93 
319 159 285 78 95 111 
319 158 286 61 74 91 
319 159 286 77 96 115 
313 163 265 47 44 62 
314 160 265 43 75 110 
314 161 265 34 56 92 
314 160 266 42 71 105 
314 160 267 41 61 98 
314 161 266 42 59 95 
314 161 267 42 56 92 
314 162 265 36 44 75 
314 163 265 42 44 66 
314 162 266 48 55 84 
314 162 267 56 64 92 
314 163 266 49 53 73 
314 163 267 57 67 85 
313 161 271 25 53 92 
313 162 269 58 79 105 
313 163 269 73 90 108 
313 162 270 47 67 99 
313 162 271 48 70 102 
313 163 270 56 78 100 
313 163 271 50 73 97 
314 160 268 53 69 103 
314 160 269 59 77 107 
314 161 268 39 57 92 
314 161 269 36 61 96 
314 160 270 54 75 104 
314 160 271 61 82 108 
314 161 270 27 52 92 
314 161 271 28 52 91 
314 162 268 58 72 100 
314 162 269 47 66 98 
314 163 268 71 86 102 
314 162 270 40 56 94 
313 164 265 51 41 56 
313 165 265 52 42 53 
313 164 266 49 44 58 
313 165 266 52 42 52 
313 165 267 51 42 49 
313 166 265 49 44 54 
313 167 265 48 45 52 
313 166 266 49 44 54 
313 166 267 49 43 53 
313 167 266 48 44 53 
313 167 267 47 43 53 
314 164 266 46 46 60 
314 164 267 46 49 62 
314 165 266 50 41 49 
314 165 267 50 41 50 
313 164 268 44 52 67 
313 164 269 48 57 72 
313 165 268 52 45 52 
313 165 269 52 46 55 
313 164 270 37 51 70 
313 164 271 33 45 67 
313 165 270 49 42 54 
313 165 271 51 43 54 
313 166 268 48 45 52 
313 166 269 52 47 55 
313 167 268 47 44 54 
313 167 269 49 45 56 
313 166 270 52 46 55 
313 166 271 52 44 54 
313 167 270 49 42 57 
313 167 271 51 40 57 
314 164 268 50 59 73 
314 165 268 49 45 55 
312 168 265 50 41 50 
312 169 265 51 40 52 
313 168 265 49 43 50 
312 168 266 52 43 50 
312 168 267 51 43 49 
312 169 266 51 41 51 
312 169 267 50 41 50 
313 168 266 50 45 51 
313 168 267 50 45 50 
312 170 265 51 41 50 
312 171 265 58 40 45 
312 170 266 51 42 51 
312 170 267 52 41 52 
312 171 266 61 42 49 
312 171 267 60 42 53 
313 171 267 66 43 51 
312 169 268 51 43 50 
312 169 269 52 46 53 
313 168 268 52 45 52 
313 168 269 55 49 57 
313 169 269 57 50 56 
312 168 270 55 48 57 
312 169 270 52 46 55 
312 169 271 50 45 54 
313 168 270 54 46 58 
313 168 271 56 45 58 
313 169 271 53 45 55 
312 170 268 52 43 51 
312 170 269 52 47 55 
312 171 268 63 44 52 
312 171 269 59 45 54 
312 170 270 48 45 54 
312 170 271 49 45 57 
312 171 270 52 42 53 
312 171 271 49 41 56 
312 172 265 74 39 41 
312 173 265 100 47 53 
312 172 266 77 37 42 
312 172 267 94 53 56 
312 173 266 98 37 47 
312 173 267 104 42 52 
313 172 267 84 46 50 
312 172 268 80 48 53 
312 172 269 73 45 50 
312 173 268 104 44 54 
312 173 269 97 47 53 
312 172 270 61 39 47 
312 172 271 54 38 50 
312 173 270 82 42 46 
312 173 271 67 39 45 
313 161 272 31 58 95 
313 161 273 33 57 94 
313 162 272 53 78 107 
313 162 273 57 79 107 
313 163 272 60 80 104 
313 163 273 56 78 102 
313 162 274 59 82 108 
313 163 274 53 76 101 
314 160 272 62 84 109 
314 160 273 63 85 110 
314 161 272 37 62 96 
314 161 273 30 61 95 
314 160 274 66 86 112 
314 160 275 61 82 108 
314 161 274 36 60 94 
314 161 275 36 58 91 
315 160 275 59 80 107 
315 161 275 33 60 91 
314 162 274 52 74 103 
314 162 275 52 73 101 
314 163 274 55 79 104 
314 163 275 51 73 99 
314 161 276 27 50 88 
315 160 276 58 81 110 
315 160 277 58 84 112 
315 161 276 34 58 93 
315 161 277 35 59 94 
315 160 278 56 80 108 
315 160 279 50 76 105 
315 161 278 33 62 94 
315 161 279 42 63 96 
314 162 276 53 72 101 
314 162 277 56 75 104 
314 163 276 52 72 99 
314 163 277 43 67 97 
315 162 277 45 65 98 
315 163 277 57 78 107 
315 162 278 58 80 107 
315 162 279 63 85 111 
315 163 278 49 72 104 
315 163 279 46 69 105 
313 164 272 39 42 69 
313 164 273 35 43 74 
313 165 272 51 44 56 
313 165 273 47 39 62 
313 164 274 37 44 76 
313 164 275 44 50 79 
313 165 274 51 46 69 
313 165 275 60 61 79 
313 166 272 51 45 56 
313 166 273 50 41 58 
313 167 272 55 43 60 
313 167 273 54 43 62 
313 166 274 51 41 62 
313 166 275 53 47 67 
313 167 274 55 43 64 
313 167 275 53 42 64 
314 164 275 40 54 83 
313 165 276 71 72 87 
313 166 276 55 53 72 
313 166 277 48 44 67 
313 167 276 51 39 63 
313 167 277 52 36 62 
314 164 276 50 62 89 
314 164 277 48 65 93 
314 165 276 75 81 100 
314 165 277 76 87 104 
314 164 278 44 63 95 
314 165 278 78 93 112 
314 165 279 81 97 117 
315 164 278 38 59 96 
315 164 279 38 61 98 
315 165 279 70 90 113 
314 166 277 61 65 84 
314 167 277 48 35 61 
314 166 278 56 61 83 
314 166 279 51 58 83 
314 167 278 51 40 64 
314 167 279 50 45 69 
315 166 279 65 79 101 
315 160 280 52 75 102 
315 161 280 40 63 94 
315 162 280 65 88 114 
315 162 281 66 88 114 
315 163 280 46 72 105 
315 163 281 42 65 99 
315 164 280 38 65 101 
315 164 281 50 75 103 
315 165 280 63 86 111 
315 165 281 63 85 107 
315 165 282 64 83 104 
314 167 280 50 44 68 
315 166 280 49 58 87 
315 166 281 49 61 88 
315 167 280 48 42 69 
315 167 281 51 49 76 
315 167 282 55 61 84 
316 160 280 50 71 98 
316 160 281 57 78 103 
316 161 280 41 64 93 
316 161 281 37 60 89 
316 160 282 51 72 99 
317 160 282 73 94 118 
317 160 283 75 94 119 
317 161 282 48 62 92 
317 161 283 54 69 99 
316 162 280 64 85 110 
316 162 281 72 90 113 
316 163 281 52 74 103 
316 162 282 70 87 109 
316 163 282 54 73 99 
316 163 283 47 63 93 
317 162 282 63 79 103 
317 162 283 61 81 106 
317 163 283 46 69 100 
318 160 283 74 94 118 
318 161 283 41 64 97 
317 161 284 37 62 93 
317 162 284 52 80 106 
317 163 284 41 68 102 
317 163 285 41 72 102 
318 160 284 73 95 118 
318 160 285 57 81 105 
318 161 284 46 73 100 
318 161 285 55 85 112 
319 160 285 63 86 109 
319 161 285 56 87 115 
319 160 286 57 84 109 
319 160 287 52 84 112 
319 161 286 60 91 118 
319 161 287 63 92 120 
318 162 284 56 84 108 
318 162 285 59 88 114 
318 163 285 54 83 111 
318 162 286 55 86 116 
318 163 286 50 78 108 
318 163 287 60 81 109 
319 162 286 60 90 118 
319 162 287 60 88 117 
319 163 287 53 79 107 
316 164 281 43 68 95 
316 164 282 60 79 102 
316 164 283 56 74 102 
316 165 282 72 86 107 
316 165 283 64 79 105 
316 166 282 53 65 92 
316 166 283 52 66 95 
316 167 282 57 65 89 
316 167 283 63 72 92 
316 165 284 65 85 111 
317 164 284 54 79 107 
317 164 285 57 81 109 
317 165 284 59 85 110 
317 165 285 56 84 110 
317 164 286 63 89 114 
317 165 286 61 90 116 
317 165 287 70 94 119 
316 166 284 57 74 102 
316 167 284 69 80 102 
316 167 285 63 74 100 
317 166 285 59 82 108 
317 167 285 60 77 102 
317 166 286 62 88 114 
317 166 287 59 84 111 
317 167 286 57 80 103 
317 167 287 57 82 105 
318 164 286 63 88 114 
318 164 287 68 91 117 
318 165 286 63 90 116 
318 165 287 63 85 113 
318 166 287 55 80 108 
318 167 287 59 83 104 
312 169 272 55 46 58 
312 169 273 56 44 60 
313 168 272 61 49 63 
313 168 273 62 52 67 
313 169 273 62 51 66 
313 168 274 62 50 68 
313 168 275 62 51 69 
313 169 274 59 45 63 
313 169 275 59 47 64 
312 170 272 51 44 58 
312 170 273 49 40 57 
312 171 272 51 45 59 
312 171 273 48 43 58 
312 170 274 52 39 58 
312 170 275 53 40 58 
312 171 274 49 43 59 
312 171 275 51 43 59 
313 170 275 54 41 58 
313 168 276 57 48 66 
313 168 277 56 43 63 
313 169 276 56 46 63 
313 169 277 55 41 62 
313 168 278 56 42 63 
313 169 278 55 39 60 
313 170 276 55 44 60 
313 170 277 62 49 65 
313 171 276 51 42 58 
313 171 277 55 45 62 
313 170 278 62 48 65 
313 170 279 59 46 63 
313 171 278 55 44 63 
313 171 279 52 44 62 
314 168 278 55 42 63 
314 168 279 57 46 65 
314 169 279 55 38 59 
314 170 279 59 45 61 
312 172 272 50 40 55 
312 172 273 50 42 56 
312 173 272 55 38 50 
312 173 273 54 42 55 
312 172 274 49 43 57 
312 172 275 48 41 57 
312 173 274 56 47 58 
312 173 275 56 45 58 
313 173 275 61 45 57 
313 172 276 47 40 57 
313 172 277 48 37 57 
313 173 276 55 40 56 
313 173 277 54 41 58 
313 172 278 50 38 61 
313 172 279 52 42 65 
313 173 278 55 40 61 
313 173 279 59 46 68 
314 168 280 58 47 68 
314 169 280 56 38 61 
314 169 281 57 37 63 
315 168 281 55 43 68 
315 169 281 56 36 66 
315 168 282 60 56 78 
315 169 282 58 44 70 
315 169 283 60 49 73 
314 170 280 59 45 62 
314 170 281 65 51 68 
314 171 280 53 44 61 
314 171 281 56 46 61 
314 170 282 72 59 75 
314 171 282 62 49 67 
315 170 282 70 57 76 
315 170 283 70 58 76 
315 171 282 64 49 69 
315 171 283 61 44 66 
315 171 284 59 40 65 
313 172 280 54 44 67 
313 173 280 61 49 71 
314 172 280 54 44 65 
314 172 281 54 42 62 
314 173 280 61 49 70 
314 173 281 57 46 66 
314 172 282 57 41 63 
314 173 282 58 42 65 
315 172 283 58 43 63 
315 173 283 58 44 64 
315 172 284 59 43 64 
315 173 284 60 45 63 
315 173 285 62 41 61 
316 168 283 61 60 83 
316 169 283 66 56 80 
316 168 284 66 69 92 
316 168 285 68 73 96 
316 169 284 61 56 82 
316 169 285 57 53 79 
317 168 285 63 70 94 
317 169 285 59 54 79 
317 168 286 62 70 91 
317 168 287 62 74 94 
317 169 286 57 52 75 
317 169 287 58 58 78 
316 170 284 65 53 76 
316 170 285 57 42 69 
316 171 284 60 43 67 
316 171 285 60 41 67 
316 171 286 65 42 67 
317 170 286 60 46 69 
317 170 287 60 46 69 
317 171 286 65 41 66 
317 171 287 70 42 66 
316 172 285 68 44 67 
316 173 285 63 41 61 
316 172 286 67 42 68 
316 173 286 73 46 65 
317 172 286 68 41 66 
317 172 287 74 45 65 
317 173 287 82 49 66 
318 163 288 61 83 109 
319 162 288 62 88 114 
319 163 288 52 79 106 
319 163 289 50 79 107 
318 164 288 69 94 119 
318 165 288 61 83 111 
319 164 288 59 87 114 
319 164 289 60 89 116 
319 165 288 56 86 114 
319 165 289 58 89 116 
318 166 288 56 80 107 
318 166 289 64 84 110 
318 167 288 63 83 108 
318 167 289 72 89 115 
319 166 289 55 82 109 
319 167 289 69 86 111 
319 166 290 53 80 108 
319 167 290 63 84 109 
317 169 288 58 61 81 
317 170 288 65 45 66 
317 171 288 74 48 66 
318 168 288 60 71 95 
318 168 289 58 71 100 
318 169 288 61 62 84 
318 169 289 61 59 83 
319 168 289 58 69 98 
319 169 289 60 56 83 
319 168 290 57 73 99 
319 169 290 71 70 92 
318 170 288 67 56 74 
318 170 289 80 61 79 
318 171 288 83 52 70 
318 171 289 97 62 79 
319 170 289 74 61 82 
319 170 290 85 67 86 
319 170 291 96 73 90 
319 171 290 105 64 84 
319 171 291 109 67 85 
317 172 288 81 51 64 
317 173 288 92 51 67 
318 172 288 85 55 66 
318 172 289 101 60 71 
318 173 289 106 58 69 
318 172 290 112 60 73 
318 173 290 115 56 70 
319 172 290 115 53 76 
319 172 291 115 48 73 
319 173 290 115 45 66 
319 173 291 115 40 64 
323 129 271 131 100 65 
323 131 269 159 77 9 
323 130 270 138 85 25 
323 130 271 143 86 26 
323 131 270 157 74 9 
323 131 271 158 68 8 
321 135 265 159 73 6 
321 135 266 160 75 7 
321 135 267 161 81 7 
323 133 265 158 70 8 
323 133 266 158 74 8 
323 133 267 159 80 8 
322 134 265 158 70 8 
322 135 265 159 73 6 
322 134 266 157 71 6 
322 134 267 159 78 7 
322 135 266 159 75 6 
322 135 267 160 80 7 
321 135 268 161 83 7 
321 135 269 161 83 7 
321 134 271 161 78 7 
321 135 270 161 80 7 
321 135 271 159 77 7 
322 133 269 163 81 10 
323 132 268 163 82 10 
323 132 269 162 80 9 
323 133 268 161 83 9 
323 133 269 163 82 9 
322 133 270 163 79 9 
322 133 271 160 72 7 
323 132 270 161 78 9 
323 132 271 159 70 8 
323 133 270 162 80 9 
323 133 271 160 73 8 
322 134 268 161 83 8 
322 134 269 162 82 8 
322 134 270 162 79 7 
322 134 271 160 73 7 
324 128 265 137 122 109 
325 128 265 141 126 111 
325 129 265 137 122 107 
324 128 266 136 121 108 
325 128 266 140 124 109 
325 128 267 135 119 104 
325 129 266 141 125 108 
325 129 267 141 124 107 
324 131 265 141 89 38 
325 130 265 131 108 86 
324 130 267 147 118 82 
324 131 266 150 93 35 
324 131 267 154 94 35 
325 130 266 139 118 95 
325 130 267 145 121 93 
324 128 268 117 105 96 
324 128 269 113 102 94 
324 129 268 136 118 99 
324 129 269 124 106 91 
325 128 268 123 109 96 
325 129 268 137 119 102 
324 128 270 119 107 97 
324 128 271 121 109 97 
324 129 270 121 102 81 
324 129 271 124 106 84 
324 130 268 144 114 77 
324 130 269 138 99 52 
324 131 268 154 91 22 
324 131 269 154 83 11 
325 130 268 147 126 101 
324 130 270 137 89 36 
324 132 265 157 73 8 
324 132 266 158 77 9 
324 132 267 161 79 10 
324 132 268 162 81 10 
320 137 265 163 76 7 
321 136 265 161 76 7 
321 137 265 163 78 7 
320 136 267 163 79 7 
320 137 266 162 75 7 
320 137 267 162 78 8 
321 136 266 162 76 7 
321 136 267 162 79 7 
321 137 266 162 74 7 
321 137 267 162 78 8 
320 139 265 165 77 9 
321 138 265 164 76 8 
321 139 265 164 77 8 
320 138 266 163 71 7 
320 138 267 163 74 11 
320 139 266 163 71 8 
320 139 267 163 71 8 
320 136 268 164 79 7 
320 136 269 163 80 8 
320 137 268 163 80 8 
320 137 269 162 80 8 
321 136 268 163 80 7 
321 136 269 162 81 8 
321 137 269 164 79 8 
320 136 270 162 79 7 
320 137 270 161 77 8 
320 137 271 159 73 7 
321 136 270 161 78 7 
321 136 271 159 74 6 
320 138 268 164 78 10 
320 138 269 163 80 9 
320 138 270 161 79 9 
320 138 271 158 71 9 
320 140 265 163 77 13 
320 141 265 151 86 38 
320 140 266 163 73 9 
320 142 265 133 105 87 
320 143 265 124 124 126 
323 128 272 124 110 98 
323 128 273 130 115 99 
323 129 272 139 114 85 
323 129 273 148 119 82 
323 128 274 131 116 99 
323 128 275 125 108 91 
323 129 274 149 117 78 
323 129 275 143 110 72 
322 130 272 154 82 12 
322 130 273 157 87 14 
322 131 272 160 72 8 
322 131 273 161 79 9 
323 130 272 146 95 34 
323 130 273 152 105 47 
323 131 272 160 68 8 
322 130 274 156 94 25 
322 130 275 153 90 21 
322 131 274 161 82 10 
322 131 275 159 82 9 
323 128 276 122 103 85 
323 128 277 123 107 88 
323 129 276 138 97 57 
323 129 277 139 95 46 
323 128 278 129 113 96 
323 128 279 128 113 97 
323 129 278 138 95 43 
323 129 279 137 95 44 
322 130 276 152 81 14 
322 130 277 155 75 9 
322 131 276 157 77 9 
322 131 277 156 74 8 
323 130 277 153 77 9 
322 131 278 156 75 9 
322 131 279 156 77 9 
323 130 278 153 75 9 
323 130 279 153 75 9 
323 131 279 155 74 9 
321 133 273 157 72 7 
321 133 274 156 77 7 
321 133 275 155 78 8 
321 134 272 159 73 7 
321 134 273 158 73 7 
321 135 272 157 74 6 
321 135 273 157 74 6 
321 134 274 155 74 6 
321 134 275 155 77 6 
321 135 274 156 76 6 
321 135 275 156 77 6 
322 132 272 159 70 8 
322 132 273 159 77 8 
322 133 272 158 68 7 
322 133 273 158 74 8 
323 132 272 159 69 8 
322 132 274 160 83 9 
322 132 275 157 81 9 
322 133 274 158 81 8 
322 134 272 158 69 6 
321 133 276 154 75 8 
321 133 277 154 71 7 
321 133 278 155 70 7 
321 133 279 155 72 7 
321 134 276 155 74 6 
321 134 277 155 70 7 
321 135 276 155 76 6 
321 135 277 155 74 7 
321 134 278 155 69 7 
321 134 279 155 71 7 
321 135 278 154 72 7 
321 135 279 155 73 7 
322 132 276 155 76 8 
322 132 277 153 74 8 
322 133 277 154 70 7 
322 132 278 154 74 8 
322 132 279 154 78 8 
322 133 278 155 71 8 
322 133 279 155 73 7 
324 128 272 121 108 95 
323 128 280 128 112 97 
323 129 280 137 91 38 
323 129 281 142 83 18 
323 130 280 153 73 9 
323 130 281 154 73 8 
323 131 280 156 76 9 
323 131 281 157 75 9 
321 133 280 155 76 7 
321 134 280 156 75 7 
321 134 281 157 79 8 
321 135 280 155 76 7 
321 135 281 157 79 8 
322 132 280 154 79 8 
322 132 281 155 80 8 
322 133 280 156 79 8 
322 133 281 157 80 8 
323 132 280 154 79 9 
323 132 281 156 79 9 
322 133 282 157 80 9 
323 132 282 156 79 9 
323 132 283 156 78 9 
323 133 282 158 80 9 
323 133 283 157 75 9 
322 134 281 157 80 8 
322 135 281 157 80 8 
322 134 282 158 79 8 
322 134 283 158 77 8 
322 135 282 158 80 8 
322 135 283 158 77 8 
323 134 283 158 76 9 
323 135 283 158 77 8 
323 132 284 156 75 8 
323 133 284 156 73 8 
323 134 284 158 76 9 
323 134 285 157 75 9 
323 135 284 157 76 8 
323 135 285 156 74 8 
323 135 286 155 74 8 
324 128 280 127 111 96 
324 128 281 132 116 97 
324 129 280 131 104 70 
324 129 281 133 95 49 
324 128 282 138 120 101 
324 128 283 143 127 111 
324 129 282 135 100 57 
324 129 283 141 91 34 
325 128 283 137 115 89 
325 129 283 139 98 50 
324 130 281 152 75 9 
324 131 281 158 72 8 
324 130 282 151 77 12 
324 130 283 152 78 14 
324 131 282 158 75 9 
324 131 283 157 75 9 
325 130 283 147 83 20 
325 128 284 134 114 90 
325 128 285 131 109 83 
325 129 284 139 95 39 
325 129 285 140 93 40 
325 129 286 143 89 31 
324 131 284 157 74 9 
325 130 284 152 82 16 
325 130 285 153 78 11 
325 131 284 157 74 9 
325 131 285 157 74 9 
325 130 286 155 80 10 
325 131 286 158 76 10 
326 128 286 132 108 81 
326 128 287 133 105 73 
326 129 286 142 93 35 
326 129 287 144 87 29 
326 130 286 155 78 10 
326 130 287 154 76 13 
326 131 286 158 75 10 
326 131 287 159 75 10 
324 132 282 156 79 9 
324 132 283 157 77 9 
324 132 284 157 75 9 
324 132 285 158 76 9 
324 133 285 157 74 8 
325 132 285 158 75 9 
324 132 286 157 74 8 
324 133 286 158 75 9 
325 132 286 159 76 9 
325 132 287 159 75 9 
325 133 286 159 76 9 
325 133 287 159 76 9 
324 134 285 158 75 9 
324 134 286 158 76 9 
324 135 286 155 74 8 
324 135 287 154 75 8 
325 134 287 159 76 9 
325 135 287 155 75 8 
326 132 287 160 75 10 
320 137 272 158 69 6 
320 137 273 154 67 6 
321 136 272 156 73 6 
321 136 273 156 73 6 
321 137 272 157 69 6 
321 137 273 155 69 6 
320 136 274 155 76 6 
320 136 275 154 77 6 
320 137 274 154 71 6 
320 137 275 154 74 6 
321 136 274 154 74 6 
321 136 275 154 78 6 
321 137 275 153 75 6 
320 138 272 155 64 6 
320 138 273 154 64 5 
320 139 272 154 66 6 
320 139 273 154 66 6 
320 138 274 154 68 6 
320 138 275 155 72 7 
320 139 274 153 69 12 
320 139 275 154 73 12 
320 137 276 153 76 7 
320 137 277 154 73 7 
321 136 276 154 78 8 
321 136 277 154 76 7 
321 137 276 152 77 7 
321 137 277 153 74 7 
320 137 278 154 70 7 
321 136 278 154 74 7 
321 136 279 154 74 6 
321 137 278 153 71 6 
321 137 279 153 70 6 
320 138 276 156 74 8 
320 138 277 156 74 8 
320 139 276 156 77 14 
320 139 277 154 76 12 
321 138 277 155 73 7 
320 138 278 156 72 8 
320 139 278 155 76 12 
320 139 279 153 73 8 
321 138 278 156 72 7 
321 138 279 154 68 6 
321 139 279 154 71 7 
320 140 273 153 69 11 
320 140 274 146 74 23 
320 140 275 148 79 29 
320 141 274 136 88 56 
320 141 275 131 96 73 
320 140 276 148 82 31 
320 140 277 148 82 30 
320 141 276 130 101 77 
320 141 277 129 99 74 
320 140 278 149 82 32 
320 140 279 146 78 31 
320 141 278 130 101 81 
320 141 279 134 97 73 
321 140 279 149 73 16 
320 142 278 116 120 124 
320 142 279 116 122 128 
320 143 279 120 132 146 
321 136 280 155 76 8 
321 136 281 156 78 8 
321 137 280 154 70 7 
321 137 281 155 71 7 
321 138 280 155 69 7 
321 138 281 155 69 7 
321 139 280 153 71 12 
321 139 281 153 72 11 
321 138 282 155 71 8 
321 139 282 154 73 11 
321 139 283 154 73 13 
322 136 281 157 79 8 
322 137 281 154 71 10 
322 136 282 157 81 8 
322 136 283 157 78 9 
322 137 282 154 73 8 
322 137 283 154 74 7 
322 138 282 154 71 7 
322 138 283 155 72 8 
322 139 283 154 70 8 
322 136 284 157 76 8 
322 137 284 153 73 7 
323 136 284 156 74 7 
323 136 285 154 72 7 
323 137 284 152 71 7 
323 137 285 151 70 7 
323 136 286 152 71 7 
323 137 286 151 69 6 
322 138 284 152 69 7 
322 138 285 150 68 6 
322 139 284 153 69 8 
322 139 285 151 68 8 
323 138 285 150 69 6 
322 139 286 150 67 9 
323 138 286 150 70 7 
323 138 287 151 71 7 
323 139 286 151 68 9 
323 139 287 150 69 10 
320 141 280 131 96 74 
321 140 280 148 77 28 
321 140 281 147 79 27 
321 141 280 135 93 68 
321 141 281 136 94 66 
321 140 282 147 79 26 
321 140 283 147 80 29 
321 141 282 134 93 65 
321 141 283 131 94 68 
320 142 280 117 121 128 
320 142 281 117 128 140 
320 143 280 122 133 146 
320 143 281 123 133 146 
321 142 281 119 120 125 
320 143 282 122 133 146 
321 142 282 118 123 129 
321 142 283 118 121 126 
321 143 282 123 133 146 
321 143 283 124 133 146 
321 140 284 146 75 19 
321 141 284 129 92 65 
321 141 285 127 90 62 
321 142 284 115 119 125 
321 142 285 115 118 123 
321 143 284 123 132 145 
321 143 285 121 131 145 
321 143 286 123 134 147 
322 140 284 147 72 16 
322 140 285 145 72 18 
322 141 285 130 87 57 
322 140 286 146 71 19 
322 140 287 142 72 23 
322 141 286 127 87 62 
322 141 287 127 87 60 
323 140 287 146 69 15 
323 141 287 133 76 36 
322 142 286 113 115 119 
322 142 287 113 112 115 
322 143 286 119 130 143 
322 143 287 118 129 141 
324 136 286 152 73 7 
324 136 287 152 74 7 
324 137 287 151 70 7 
324 138 287 150 69 7 
320 144 280 111 125 142 
320 144 281 114 127 142 
320 145 280 87 110 131 
320 145 281 78 104 127 
320 144 282 110 123 139 
320 144 283 105 120 136 
320 145 282 70 98 122 
320 145 283 65 94 118 
321 144 283 120 131 145 
320 146 281 60 93 119 
320 146 282 56 88 114 
320 146 283 58 83 106 
320 147 283 63 71 92 
320 144 284 100 116 133 
320 145 284 62 90 112 
321 144 284 112 124 139 
321 144 285 111 123 137 
321 145 284 78 99 118 
321 145 285 60 84 103 
321 144 286 116 127 140 
321 145 286 66 85 103 
321 145 287 63 83 101 
320 146 284 48 72 95 
320 146 285 59 71 89 
320 147 284 72 71 88 
320 147 285 77 70 83 
321 146 285 42 63 85 
320 147 286 78 70 79 
321 146 286 58 70 86 
321 146 287 55 67 84 
321 147 286 76 76 86 
321 147 287 74 67 76 
322 144 287 116 126 139 
322 145 287 83 99 115 
320 149 283 107 75 82 
320 150 283 119 76 77 
320 148 284 81 62 75 
320 148 285 86 61 69 
320 149 284 106 73 78 
320 149 285 107 71 69 
320 148 286 90 67 72 
320 149 286 111 73 70 
320 149 287 113 76 71 
321 148 287 88 65 68 
321 149 287 116 81 75 
320 150 284 123 79 74 
320 150 285 125 83 73 
320 151 285 133 101 89 
320 150 286 126 86 70 
320 150 287 123 85 65 
320 151 286 128 97 80 
320 151 287 126 95 74 
321 150 287 117 79 65 
320 152 285 116 84 72 
320 152 286 106 73 58 
320 152 287 102 69 50 
320 153 286 113 85 72 
320 153 287 115 90 74 
320 154 286 102 73 66 
320 154 287 106 82 70 
320 155 286 94 66 59 
320 155 287 96 68 58 
320 156 286 114 97 89 
320 156 287 108 88 80 
320 157 286 88 82 80 
320 157 287 93 83 80 
320 158 286 59 71 89 
320 158 287 59 72 91 
320 159 286 73 91 110 
320 159 287 66 89 110 
326 128 288 134 106 76 
326 129 288 142 88 45 
327 128 288 135 104 74 
327 128 289 136 104 73 
327 129 288 142 87 45 
327 129 289 145 89 44 
327 128 290 139 115 88 
327 129 290 149 89 32 
326 130 288 157 75 9 
326 131 288 160 75 10 
326 131 289 161 76 10 
327 130 288 157 77 10 
327 130 289 158 74 9 
327 131 289 161 75 10 
327 130 290 159 75 9 
327 130 291 162 78 10 
327 131 290 163 78 10 
327 131 291 166 82 11 
325 132 288 161 75 10 
325 133 288 159 75 9 
325 134 288 159 77 9 
325 135 288 154 76 8 
325 135 289 154 77 9 
326 132 288 161 75 10 
326 132 289 161 76 10 
326 133 289 159 76 9 
326 132 290 162 78 10 
326 133 290 160 76 9 
327 132 290 164 82 13 
327 132 291 165 83 12 
327 133 290 162 77 10 
327 133 291 162 78 10 
326 134 289 158 77 9 
326 135 289 154 76 8 
326 134 290 158 76 9 
326 135 290 153 75 8 
326 135 291 153 73 8 
327 134 291 158 76 9 
327 135 291 153 74 7 
327 132 292 165 83 12 
327 133 292 162 79 10 
327 134 292 160 78 10 
327 134 293 159 78 9 
327 135 292 155 76 8 
327 135 293 154 75 8 
324 128 303 119 101 86 
324 129 303 120 97 74 
325 128 302 120 103 87 
325 128 303 120 100 83 
325 129 303 125 94 63 
327 128 300 122 104 86 
327 128 301 129 110 90 
326 128 302 124 106 88 
326 129 302 132 103 74 
326 129 303 127 94 60 
327 129 302 136 99 60 
326 130 303 132 82 25 
326 131 303 139 73 9 
327 130 302 138 84 26 
327 130 303 139 81 18 
327 131 303 141 72 7 
327 132 303 140 73 7 
327 133 303 141 72 8 
323 139 288 151 70 9 
323 140 288 142 71 21 
323 140 289 143 74 23 
323 141 288 127 83 54 
323 141 289 123 95 77 
323 141 290 126 93 70 
322 142 288 112 117 124 
322 143 288 119 128 140 
323 142 288 113 111 112 
323 142 289 112 116 123 
323 143 288 117 126 137 
323 143 289 120 128 139 
323 143 290 123 131 141 
324 137 288 152 72 7 
325 136 288 153 76 8 
325 136 289 152 77 8 
325 137 288 153 75 8 
325 137 289 152 75 8 
325 136 290 150 73 9 
325 137 290 150 73 8 
324 138 288 151 70 8 
324 138 289 151 72 8 
324 139 288 151 70 9 
324 139 289 151 71 11 
325 138 289 152 72 8 
324 139 290 151 71 10 
325 138 290 152 70 8 
325 138 291 152 70 7 
325 139 290 153 71 12 
325 139 291 154 69 7 
326 136 290 150 73 8 
326 136 291 150 73 8 
326 137 290 150 73 9 
326 137 291 149 71 7 
327 136 291 151 73 7 
326 138 291 151 72 8 
326 137 292 150 70 7 
327 136 292 151 72 7 
327 136 293 151 69 6 
327 137 292 151 70 7 
327 137 293 151 69 7 
327 136 294 151 68 7 
327 137 294 151 69 7 
326 138 292 152 73 9 
326 139 292 155 71 10 
327 138 292 152 73 10 
327 138 293 152 73 8 
327 139 292 153 73 7 
327 139 293 154 73 13 
327 138 294 151 72 9 
327 139 294 152 73 11 
324 140 289 147 75 20 
324 140 290 141 80 34 
324 140 291 142 79 36 
324 141 290 125 98 81 
324 141 291 126 98 81 
325 140 291 146 74 24 
324 142 290 114 118 124 
324 142 291 115 116 121 
324 143 290 120 129 140 
324 143 291 122 131 142 
325 142 291 117 111 111 
325 140 292 141 78 41 
325 141 292 126 94 78 
324 143 292 126 134 145 
325 142 292 115 115 120 
325 142 293 115 123 132 
325 143 292 121 130 142 
325 143 293 123 132 143 
326 140 292 146 75 26 
326 140 293 148 77 28 
326 141 292 133 82 54 
326 141 293 130 92 73 
327 140 293 149 79 28 
327 140 294 148 78 22 
327 140 295 148 75 18 
327 141 294 133 94 70 
327 141 295 133 98 74 
326 142 293 115 115 119 
326 143 293 120 129 140 
326 142 294 117 116 121 
326 143 294 122 131 141 
327 142 294 119 117 120 
327 142 295 120 119 123 
327 143 294 124 133 144 
327 143 295 124 132 143 
327 143 296 127 134 144 
328 128 290 142 111 79 
328 128 291 143 115 88 
328 129 290 149 102 59 
328 129 291 153 103 53 
328 130 291 161 82 11 
328 128 292 142 116 89 
328 128 293 132 107 84 
328 129 292 154 104 53 
328 129 293 150 98 43 
329 128 293 133 106 80 
329 129 293 144 101 56 
328 128 294 126 105 84 
328 128 295 137 112 86 
328 129 295 141 105 63 
329 128 294 127 102 76 
329 129 294 135 90 40 
329 129 295 141 98 42 
328 130 292 161 83 15 
328 130 293 160 80 10 
328 131 292 166 80 11 
328 131 293 165 80 10 
329 130 293 147 84 17 
328 130 294 156 81 11 
328 130 295 155 83 10 
328 131 294 164 78 10 
328 131 295 162 76 10 
329 130 294 143 83 9 
329 130 295 153 83 10 
329 131 295 160 75 9 
328 132 292 165 83 11 
328 132 293 165 79 11 
328 133 293 163 79 10 
328 132 294 164 77 11 
328 132 295 162 75 10 
328 133 294 161 77 9 
328 133 295 160 76 9 
328 134 293 160 79 9 
328 135 293 158 76 9 
328 134 294 161 80 10 
328 134 295 161 80 9 
328 135 294 156 74 8 
328 135 295 157 77 8 
329 134 295 160 79 9 
328 128 296 138 114 86 
328 128 297 135 112 87 
328 129 296 142 106 67 
328 129 297 145 104 64 
329 129 296 148 102 49 
328 128 298 131 108 86 
328 128 299 121 96 76 
328 129 298 144 105 69 
329 129 298 147 98 45 
329 129 299 138 96 56 
328 131 296 161 78 10 
329 130 296 154 86 15 
329 130 297 155 90 19 
329 131 296 159 79 10 
329 131 297 157 81 10 
329 130 298 153 85 12 
329 130 299 150 82 15 
329 131 298 155 78 9 
329 131 299 152 74 9 
328 128 300 123 99 79 
328 128 301 133 107 84 
328 129 300 133 92 52 
328 129 301 135 97 54 
329 129 300 132 91 56 
328 130 301 141 80 16 
328 131 301 146 71 9 
329 130 300 146 78 16 
329 131 300 149 71 7 
329 131 301 146 69 10 
328 130 302 142 80 11 
328 131 302 144 72 7 
328 132 296 161 78 10 
328 133 296 160 77 9 
328 133 297 160 78 9 
329 132 296 160 80 10 
329 132 297 158 81 10 
329 133 296 160 78 10 
329 133 297 161 80 10 
329 132 298 155 80 9 
329 132 299 151 76 8 
329 133 298 158 80 9 
329 133 299 155 79 8 
328 134 296 160 79 9 
328 134 297 159 77 9 
328 135 296 157 76 8 
328 135 297 157 77 8 
329 134 297 159 77 8 
329 135 297 157 77 7 
329 134 298 159 79 8 
329 134 299 159 80 8 
329 135 298 158 78 7 
329 135 299 157 78 7 
328 132 301 144 72 9 
328 133 301 144 70 6 
329 132 300 148 74 7 
329 132 301 145 71 7 
329 133 300 152 77 7 
329 133 301 147 72 6 
328 132 302 143 72 7 
328 132 303 142 74 9 
328 133 302 144 72 7 
328 133 303 143 72 9 
329 134 300 157 79 7 
329 134 301 152 74 6 
329 135 300 156 77 7 
329 135 301 153 74 6 
328 134 302 147 71 6 
328 134 303 145 71 7 
328 135 302 147 68 5 
328 135 303 146 69 6 
329 135 302 150 71 5 
328 136 294 152 69 8 
328 136 295 153 71 7 
328 137 295 150 69 6 
328 138 294 151 73 9 
328 138 295 150 72 7 
328 139 294 152 74 9 
328 139 295 151 76 10 
328 140 295 148 80 20 
328 141 295 132 100 76 
328 142 295 122 117 115 
328 136 296 154 74 8 
328 136 297 154 76 7 
328 137 296 150 70 6 
328 137 297 151 72 6 
329 136 297 155 76 7 
328 136 298 154 76 7 
328 137 298 151 72 7 
329 136 298 155 76 7 
329 136 299 156 78 7 
329 137 298 152 72 6 
329 137 299 152 73 6 
328 138 296 149 71 9 
328 138 297 148 70 8 
328 139 296 149 76 14 
328 139 297 147 73 14 
328 138 298 148 69 7 
328 139 298 146 74 15 
328 139 299 145 75 17 
329 138 299 149 70 7 
329 139 299 146 72 13 
329 136 300 155 77 9 
329 136 301 153 75 8 
329 137 300 154 76 7 
329 137 301 154 77 7 
328 136 303 147 70 6 
328 137 303 149 73 7 
329 136 302 150 71 6 
329 137 302 152 75 7 
329 137 303 152 75 7 
329 138 300 151 72 10 
329 138 301 153 76 8 
329 139 300 147 71 15 
329 139 301 149 73 15 
328 138 303 153 77 9 
329 138 302 154 76 8 
329 138 303 153 77 8 
329 139 302 150 76 11 
329 139 303 151 77 11 
328 140 296 145 83 26 
328 140 297 143 81 27 
328 141 296 130 99 73 
328 141 297 128 99 75 
328 140 298 142 80 29 
328 140 299 141 80 29 
328 141 298 125 91 64 
328 141 299 122 95 75 
329 140 299 138 81 34 
329 141 299 131 87 48 
328 142 296 121 121 123 
328 142 297 117 117 119 
328 143 296 125 132 142 
328 143 297 124 131 141 
328 142 298 113 114 117 
328 142 299 113 113 115 
328 143 298 117 125 134 
328 143 299 114 120 131 
328 140 300 136 80 33 
328 141 300 125 93 66 
329 140 300 139 78 30 
329 140 301 140 80 30 
329 141 300 120 99 84 
329 141 301 123 95 72 
329 140 302 143 82 29 
329 140 303 145 83 27 
329 141 302 124 96 72 
329 141 303 127 97 74 
328 142 300 113 114 117 
328 143 300 116 123 135 
329 142 300 113 115 119 
329 142 301 114 116 121 
329 143 300 116 123 133 
329 143 301 116 123 132 
329 142 302 113 116 122 
329 142 303 112 117 123 
329 143 302 118 125 134 
329 143 303 119 126 135 
321 146 288 60 68 86 
321 147 288 66 61 75 
322 144 288 118 128 141 
322 144 289 125 134 146 
322 145 288 66 82 100 
322 145 289 53 65 86 
323 144 289 118 128 139 
323 145 289 82 95 111 
323 144 290 118 127 138 
323 145 290 63 76 95 
323 145 291 69 81 98 
322 146 288 51 65 84 
322 146 289 67 69 87 
322 147 288 62 64 82 
322 147 289 64 59 78 
322 146 290 70 64 83 
322 147 290 74 65 84 
323 146 290 64 61 83 
323 146 291 71 64 87 
323 147 290 79 70 89 
323 147 291 78 62 84 
323 147 292 69 49 76 
321 148 288 82 61 71 
321 149 288 112 78 70 
