ply
format ascii 1.0
comment Created by CloudCompare v2.10.1 (Zephyrus)
comment Created 1/31/20 5:51 PM
obj_info Generated by CloudCompare!
element vertex 2019
property float x
property float y
property float z
property uchar red
property uchar green
property uchar blue
end_header
329 186 217 77 116 147 
329 187 216 65 111 145 
329 187 217 74 116 148 
329 186 218 76 116 149 
329 186 219 72 115 149 
329 187 218 74 116 149 
329 187 219 71 113 148 
330 184 216 67 109 142 
330 184 217 71 117 151 
330 185 216 64 104 135 
330 185 217 77 117 148 
330 184 218 72 119 154 
330 184 219 69 115 150 
330 185 218 76 118 152 
330 185 219 66 113 148 
330 186 218 75 116 149 
330 186 219 68 112 147 
329 186 220 69 114 148 
329 186 221 63 110 145 
329 187 220 69 114 149 
329 187 221 62 110 146 
329 186 222 61 107 143 
329 186 223 62 109 145 
329 187 222 55 106 143 
329 187 223 60 109 144 
330 184 220 69 112 146 
330 184 221 72 115 148 
330 185 220 66 112 146 
330 185 221 68 114 148 
330 184 222 66 110 144 
330 184 223 63 110 145 
330 185 222 67 112 146 
330 185 223 62 110 145 
330 186 220 68 113 147 
330 186 221 63 111 145 
330 186 222 63 109 144 
330 186 223 62 109 144 
328 189 216 76 125 162 
329 188 216 78 122 156 
329 188 217 80 122 155 
329 189 216 76 124 159 
329 189 217 74 121 157 
329 188 218 73 117 151 
329 188 219 74 118 152 
329 189 218 75 120 155 
329 189 219 77 121 155 
328 190 216 72 123 161 
328 190 217 70 119 156 
328 191 216 79 121 154 
328 191 217 85 119 148 
329 190 217 69 119 156 
328 190 218 76 119 153 
328 190 219 77 118 150 
328 191 218 90 118 142 
328 191 219 92 117 142 
329 190 218 74 120 155 
329 190 219 75 119 153 
329 188 220 70 115 150 
329 188 221 61 112 149 
329 189 220 70 117 152 
329 189 221 58 114 151 
328 189 223 74 110 142 
329 188 222 53 110 147 
329 188 223 58 107 142 
329 189 222 54 111 149 
329 189 223 59 106 142 
328 190 220 84 120 151 
328 190 221 75 116 149 
328 191 220 103 120 142 
328 191 221 106 121 141 
329 190 220 75 119 153 
329 190 221 62 114 151 
328 190 222 71 113 146 
328 190 223 87 108 136 
328 191 222 109 118 134 
328 191 223 124 111 127 
322 174 239 97 80 91 
322 175 239 98 79 92 
323 174 238 104 84 93 
323 174 239 96 78 88 
323 175 238 106 92 101 
325 175 235 118 104 109 
326 174 235 112 84 86 
326 175 235 107 94 100 
327 174 234 104 52 63 
327 174 235 106 62 71 
327 175 234 102 77 88 
324 174 237 97 77 82 
324 175 236 100 84 94 
324 175 237 101 87 94 
325 174 236 116 94 96 
325 174 237 109 87 90 
325 175 236 109 91 98 
324 174 238 100 79 85 
326 174 236 123 105 106 
326 175 236 122 107 111 
331 174 224 53 78 117 
331 174 225 48 76 114 
331 175 224 50 76 117 
331 175 225 42 73 116 
331 174 226 41 73 108 
331 174 227 53 77 106 
331 175 226 44 71 113 
331 175 227 48 72 108 
329 174 231 75 67 95 
329 175 231 68 56 89 
330 174 229 35 67 97 
330 175 229 42 71 103 
331 174 228 53 73 103 
331 174 229 47 72 101 
331 175 228 43 69 103 
331 175 229 36 64 98 
330 174 230 45 74 102 
330 174 231 64 78 104 
330 175 230 52 74 102 
330 175 231 59 61 93 
332 174 224 42 72 110 
328 174 233 108 57 75 
328 175 233 106 71 85 
329 174 232 85 64 87 
329 174 233 101 57 77 
329 175 232 96 69 91 
328 174 234 108 56 69 
320 174 241 94 80 92 
320 175 241 90 74 90 
321 174 240 99 87 97 
321 174 241 96 83 94 
321 175 240 98 83 97 
321 175 241 90 78 90 
320 174 242 95 74 89 
320 175 242 100 81 97 
322 174 240 100 86 96 
322 175 240 101 86 98 
327 183 231 94 88 98 
321 177 239 95 66 87 
321 178 239 108 84 101 
321 179 239 96 64 90 
323 176 237 93 81 91 
323 177 237 104 95 102 
322 176 238 104 83 94 
322 176 239 101 78 95 
322 177 238 104 85 96 
322 177 239 97 73 89 
323 176 238 95 77 89 
323 177 238 104 91 98 
323 178 237 106 96 104 
323 179 237 101 84 96 
322 178 238 102 82 93 
322 178 239 102 78 94 
322 179 238 103 78 93 
322 179 239 102 72 92 
323 178 238 109 94 103 
323 179 238 100 78 93 
323 180 237 100 79 97 
322 180 239 99 60 88 
322 181 239 104 72 98 
323 180 238 105 75 95 
323 181 238 105 80 99 
322 182 239 108 83 104 
322 183 239 107 70 92 
323 182 238 102 82 100 
323 182 239 107 85 103 
323 183 238 107 80 97 
323 183 239 107 78 95 
325 176 235 96 83 95 
325 177 235 103 93 106 
325 178 235 100 85 102 
325 179 234 104 92 107 
325 179 235 90 74 94 
327 176 233 110 97 108 
327 177 233 102 100 108 
326 176 234 97 94 104 
326 176 235 99 93 104 
326 177 234 99 96 106 
326 177 235 93 88 101 
327 176 234 97 88 100 
327 177 234 107 105 114 
327 178 232 96 92 105 
327 178 233 101 97 106 
327 179 232 106 100 111 
327 179 233 107 102 111 
326 178 234 101 97 106 
326 179 234 105 100 110 
324 176 236 104 89 102 
324 176 237 108 97 105 
324 177 236 105 90 102 
324 177 237 102 92 101 
325 176 236 95 75 90 
325 177 236 112 96 109 
324 178 236 104 88 102 
324 178 237 106 95 106 
324 179 236 97 81 97 
324 179 237 103 91 102 
325 180 234 93 89 103 
325 180 235 98 89 108 
325 181 235 99 91 108 
325 182 235 97 85 105 
325 183 235 93 80 100 
326 180 233 107 105 112 
327 180 232 88 78 94 
327 180 233 104 102 110 
327 181 232 89 83 96 
327 181 233 99 100 107 
326 180 234 101 101 111 
326 181 234 94 94 103 
327 182 232 100 96 107 
327 182 233 97 96 104 
327 183 232 96 90 100 
327 183 233 100 95 107 
326 182 234 95 93 101 
326 182 235 98 94 108 
326 183 234 101 93 107 
326 183 235 99 82 102 
327 183 234 99 95 106 
324 180 236 105 93 107 
324 180 237 98 82 99 
324 181 236 103 89 107 
324 181 237 106 90 105 
325 181 236 104 90 110 
324 182 237 108 95 111 
324 183 237 98 81 97 
325 182 236 98 84 104 
325 183 236 103 86 105 
325 183 237 106 88 105 
324 183 238 104 82 97 
326 183 236 112 93 109 
327 186 231 102 86 96 
327 187 231 109 86 97 
327 191 227 167 105 93 
327 188 231 129 93 95 
327 189 230 155 106 99 
327 189 231 148 96 85 
327 190 228 160 101 97 
327 190 229 164 106 97 
327 191 228 165 102 95 
327 191 229 160 96 85 
327 190 230 166 111 99 
327 190 231 161 98 78 
327 191 230 165 106 90 
327 191 231 166 101 84 
322 184 239 130 66 83 
322 185 239 144 59 66 
323 184 238 122 69 87 
323 184 239 126 66 84 
323 185 238 138 72 85 
323 185 239 144 66 77 
323 186 237 143 75 85 
323 187 237 148 64 64 
322 186 239 150 59 59 
322 187 239 152 66 63 
323 186 238 150 73 78 
323 186 239 150 61 66 
323 187 238 147 55 55 
323 188 237 153 71 63 
322 188 239 151 62 65 
322 189 239 150 59 59 
323 188 238 150 62 63 
323 189 238 155 69 71 
323 189 239 155 68 72 
323 190 237 158 77 75 
323 191 237 153 67 69 
322 190 239 158 73 73 
322 191 239 158 69 72 
323 190 238 155 66 69 
323 190 239 153 62 65 
323 191 238 150 54 60 
323 191 239 158 69 71 
325 186 235 121 83 97 
325 187 234 144 86 83 
325 187 235 141 84 88 
327 184 232 97 91 98 
327 184 233 109 104 113 
327 185 232 107 103 107 
327 185 233 100 94 100 
326 184 234 98 87 101 
326 184 235 99 80 96 
326 185 234 97 82 92 
326 185 235 102 87 98 
327 184 234 99 91 101 
327 185 234 91 81 90 
326 187 233 127 88 93 
327 186 232 105 95 102 
327 186 233 106 91 101 
327 187 232 111 84 94 
327 187 233 121 89 98 
326 186 234 106 85 98 
326 186 235 108 84 96 
326 187 234 129 86 93 
324 184 237 115 83 100 
324 185 237 126 81 96 
325 184 236 112 93 106 
325 184 237 108 83 101 
325 185 236 103 76 95 
325 185 237 115 82 101 
324 184 238 120 77 94 
324 185 238 126 72 88 
324 186 236 125 71 86 
324 186 237 133 72 84 
324 187 236 148 79 80 
324 187 237 152 78 76 
325 186 236 120 75 91 
325 187 236 141 89 95 
326 184 236 111 88 105 
326 185 236 102 83 97 
324 188 235 154 79 61 
325 188 234 155 88 75 
325 188 235 157 83 68 
325 189 235 155 80 61 
325 190 234 154 75 61 
325 190 235 156 80 70 
325 191 234 159 83 68 
325 191 235 152 69 60 
326 188 233 144 84 76 
326 189 233 157 87 69 
327 188 232 135 90 89 
327 188 233 138 83 79 
327 189 232 153 94 77 
327 189 233 154 87 73 
326 188 234 153 91 79 
326 189 234 158 83 65 
326 190 232 162 92 66 
326 190 233 157 85 61 
326 191 232 159 87 62 
326 191 233 157 84 57 
327 190 232 161 94 70 
327 191 232 162 91 69 
326 190 234 154 76 57 
326 191 234 161 91 66 
324 188 236 157 83 71 
324 188 237 157 80 71 
324 189 236 151 71 54 
324 189 237 149 62 54 
325 189 236 153 79 59 
324 190 236 150 68 58 
324 190 237 156 75 70 
324 191 236 156 76 80 
324 191 237 156 75 79 
325 190 236 152 73 60 
325 191 236 149 62 61 
331 176 224 38 72 115 
331 176 225 39 75 119 
331 177 224 49 89 126 
331 177 225 48 88 127 
331 176 226 47 78 120 
331 176 227 32 62 108 
331 177 226 37 77 120 
331 177 227 32 79 120 
330 179 225 68 112 147 
331 178 224 69 112 144 
331 178 225 67 110 144 
331 179 224 70 114 148 
331 179 225 71 115 149 
330 178 226 70 112 144 
330 178 227 66 109 141 
330 179 226 77 117 148 
330 179 227 68 109 141 
331 178 226 57 101 135 
331 178 227 50 97 132 
329 176 231 72 72 100 
329 177 230 69 96 123 
329 177 231 86 96 116 
328 178 231 95 92 110 
328 179 231 94 84 104 
329 178 230 86 108 131 
329 178 231 94 102 120 
329 179 230 93 104 123 
329 179 231 95 92 111 
330 176 228 46 81 115 
330 176 229 54 88 118 
330 177 228 53 98 130 
330 177 229 69 108 137 
331 176 228 41 72 110 
330 176 230 51 75 106 
330 177 230 67 102 129 
330 178 228 70 112 144 
330 178 229 73 113 144 
330 179 228 66 106 137 
330 179 229 77 107 135 
330 178 230 78 112 139 
329 182 227 61 105 139 
329 183 226 66 113 148 
329 183 227 71 108 139 
330 180 224 67 112 147 
330 180 225 66 111 146 
330 181 224 69 114 148 
330 181 225 64 109 145 
330 180 226 68 111 145 
330 180 227 62 106 138 
330 181 226 56 106 142 
330 181 227 53 103 137 
330 182 224 68 114 147 
330 182 225 61 110 146 
330 183 224 63 110 145 
330 183 225 60 108 145 
330 182 226 52 106 144 
330 182 227 52 104 139 
330 183 226 61 112 149 
329 180 229 79 101 123 
329 181 228 57 93 121 
329 181 229 79 96 114 
328 180 231 96 81 100 
328 181 230 103 92 100 
328 181 231 101 86 99 
329 180 230 91 90 105 
329 181 230 96 95 106 
328 182 229 102 104 114 
329 182 228 71 101 128 
329 182 229 92 103 119 
329 183 228 87 106 127 
329 183 229 93 97 114 
328 182 230 100 98 106 
328 182 231 97 91 100 
328 183 230 97 95 107 
328 183 231 102 99 108 
329 182 230 100 103 114 
330 180 228 62 100 130 
330 180 229 75 102 127 
330 181 228 55 97 127 
328 176 232 104 97 105 
328 176 233 115 102 109 
328 177 232 102 103 112 
328 177 233 104 101 109 
329 176 232 88 81 99 
329 177 232 100 102 113 
328 178 232 92 88 103 
328 179 232 100 90 108 
329 184 225 54 103 141 
329 185 224 63 110 145 
329 185 225 61 107 141 
329 184 226 69 110 143 
329 184 227 79 108 136 
329 185 226 78 111 139 
329 185 227 77 101 127 
329 186 224 67 112 145 
329 186 225 75 111 140 
329 187 224 67 110 142 
329 187 225 84 112 136 
328 186 227 95 97 118 
328 187 226 96 99 121 
328 187 227 106 100 120 
329 186 226 76 103 130 
329 186 227 87 101 125 
329 187 226 89 103 127 
330 184 224 62 110 145 
330 184 225 55 104 141 
330 185 224 61 111 146 
328 184 229 99 99 113 
328 185 228 99 103 121 
328 185 229 102 101 116 
329 184 228 84 99 120 
329 184 229 88 93 110 
329 185 228 88 98 119 
328 184 230 105 102 116 
328 184 231 104 100 109 
328 185 230 97 91 106 
328 185 231 105 99 107 
328 186 228 101 98 118 
328 186 229 104 98 112 
328 187 228 102 88 107 
328 187 229 111 95 111 
328 186 230 100 89 99 
328 186 231 109 98 105 
328 187 230 117 99 107 
328 187 231 113 95 102 
328 188 225 105 112 126 
328 189 224 93 110 131 
328 189 225 109 103 115 
329 188 224 79 111 137 
329 188 225 93 111 130 
328 188 226 98 96 114 
328 188 227 103 84 104 
328 189 226 115 95 109 
328 189 227 115 81 98 
328 190 224 119 110 123 
328 190 225 136 109 111 
328 191 224 147 109 111 
328 191 225 161 113 100 
328 190 226 141 97 98 
328 190 227 140 86 90 
328 191 226 158 100 86 
328 191 227 157 92 83 
328 188 228 121 96 113 
328 188 229 123 94 109 
328 189 228 136 96 105 
328 189 229 150 108 110 
328 188 230 123 91 99 
328 188 231 121 92 96 
328 189 230 147 102 101 
328 190 228 149 95 96 
328 190 229 161 109 103 
320 176 241 106 89 104 
320 177 241 100 75 96 
321 176 240 95 74 93 
321 177 240 95 68 90 
320 176 242 103 84 99 
320 177 242 97 67 88 
320 178 241 98 70 95 
320 179 241 103 83 105 
321 178 240 102 77 100 
321 179 240 101 76 100 
320 178 242 102 74 97 
320 179 242 98 81 100 
320 180 241 93 72 95 
320 181 241 86 59 87 
321 180 240 95 64 93 
321 180 241 95 72 99 
321 181 240 97 66 95 
321 181 241 90 58 89 
320 180 242 97 80 100 
320 180 243 108 82 103 
320 181 242 101 67 91 
320 181 243 109 65 91 
321 182 240 99 65 92 
321 182 241 109 71 93 
321 183 241 125 59 78 
320 182 242 124 67 83 
320 182 243 127 58 72 
320 183 242 141 66 66 
320 183 243 146 70 59 
321 183 242 133 50 62 
322 182 240 102 68 95 
322 183 240 115 66 87 
321 184 241 140 54 66 
321 185 241 151 72 73 
320 184 242 147 59 49 
320 185 242 146 53 46 
321 184 242 148 60 61 
321 186 241 150 69 64 
321 187 240 152 69 68 
321 187 241 146 53 54 
320 186 242 143 44 37 
320 187 242 144 47 44 
322 184 240 136 63 75 
322 185 240 144 57 59 
322 186 240 151 67 63 
322 187 240 155 75 70 
320 188 241 150 55 59 
320 189 241 147 43 46 
321 188 240 146 44 49 
321 188 241 150 55 59 
321 189 240 152 61 60 
321 189 241 152 61 60 
320 188 242 147 48 46 
320 189 242 144 35 37 
320 190 241 145 32 44 
320 191 241 153 52 63 
321 190 240 155 65 64 
321 190 241 151 54 53 
321 191 240 148 39 49 
320 190 242 142 25 35 
322 188 240 146 48 49 
322 189 240 152 63 59 
322 190 240 159 77 74 
320 192 207 156 113 112 
320 193 207 150 108 105 
321 192 207 153 107 111 
320 194 207 149 112 104 
320 195 207 151 119 108 
320 193 208 144 101 101 
321 192 208 144 102 108 
321 193 208 143 105 104 
321 193 209 147 112 110 
320 194 208 146 112 103 
320 195 208 152 124 111 
320 195 209 150 125 110 
321 194 208 147 115 105 
321 194 209 145 116 106 
321 195 209 143 117 102 
322 192 208 139 105 112 
322 192 209 133 101 109 
322 193 209 142 111 111 
323 192 209 125 102 110 
323 192 210 117 100 108 
323 193 210 138 109 104 
323 193 211 146 112 101 
322 194 209 146 115 109 
322 194 210 143 112 101 
322 195 210 146 114 103 
322 195 211 139 103 93 
323 194 210 146 114 100 
323 194 211 147 112 93 
323 195 211 143 112 98 
320 196 208 155 129 116 
320 196 209 152 128 114 
320 197 208 157 132 117 
320 197 209 146 121 108 
321 196 209 148 124 109 
321 197 209 141 116 102 
321 196 210 142 115 101 
321 197 210 140 117 106 
320 198 209 146 117 105 
320 199 209 141 108 96 
320 198 210 139 112 101 
320 199 210 141 110 99 
321 198 210 138 117 113 
321 199 210 138 116 108 
321 199 211 128 117 120 
322 196 210 141 111 100 
322 196 211 139 109 101 
322 197 210 129 108 98 
322 197 211 127 107 101 
323 196 211 135 112 110 
323 197 211 123 110 113 
322 198 210 137 118 112 
322 198 211 128 119 123 
322 199 211 129 125 133 
323 198 211 124 116 120 
323 196 212 124 114 119 
323 197 212 127 123 131 
322 199 212 125 126 140 
323 198 212 126 127 137 
323 198 213 127 129 140 
323 199 212 123 125 137 
323 199 213 130 131 143 
324 192 210 106 91 109 
324 192 211 121 93 111 
324 193 210 135 106 107 
324 193 211 144 111 111 
325 192 211 104 91 121 
324 194 211 143 106 90 
324 195 211 145 116 99 
325 192 212 98 101 128 
325 193 212 129 102 113 
325 193 213 117 102 114 
324 194 212 137 102 94 
324 195 212 144 122 116 
325 194 212 135 104 102 
325 194 213 137 120 118 
325 195 213 134 123 122 
325 195 214 134 128 130 
326 192 212 75 101 132 
326 192 213 95 119 145 
326 193 213 113 114 129 
326 192 214 102 129 156 
326 193 214 127 138 154 
327 192 214 104 133 159 
327 192 215 93 125 152 
327 193 214 121 136 155 
327 193 215 113 129 147 
326 194 213 131 118 123 
326 194 214 133 131 136 
326 194 215 133 132 137 
326 195 214 138 134 140 
326 195 215 134 133 139 
327 194 215 114 119 128 
324 196 212 132 123 126 
324 196 213 137 134 138 
324 197 212 128 127 135 
324 197 213 128 131 141 
325 196 213 132 131 137 
325 196 214 127 127 136 
325 197 214 122 125 135 
324 198 213 127 130 140 
324 199 213 139 139 150 
324 198 214 130 131 139 
324 199 214 136 135 145 
325 198 214 135 135 142 
325 198 215 138 139 146 
325 199 214 125 126 135 
325 199 215 130 130 138 
326 196 214 117 118 127 
326 196 215 118 121 131 
326 197 215 122 127 138 
326 198 215 130 134 143 
327 192 216 98 121 143 
327 193 216 113 123 136 
327 194 216 128 130 139 
327 194 217 121 122 128 
327 195 216 115 118 126 
327 195 217 125 127 136 
327 194 218 130 128 132 
327 195 218 124 123 130 
327 195 219 123 120 127 
327 195 220 129 121 125 
327 195 221 129 114 112 
327 194 222 143 109 100 
327 194 223 161 101 85 
327 195 222 139 106 99 
327 195 223 161 104 89 
325 199 216 144 143 149 
326 196 216 117 123 135 
326 197 216 120 127 140 
326 197 217 104 111 126 
327 196 216 112 118 130 
327 196 217 110 114 128 
327 197 217 107 111 127 
327 196 218 109 111 122 
327 196 219 134 131 136 
327 197 218 119 118 130 
327 197 219 121 115 119 
326 198 216 125 129 137 
326 198 217 125 126 134 
326 199 216 151 149 154 
326 199 217 133 133 137 
326 198 218 122 121 126 
326 198 219 118 117 122 
326 199 218 119 119 124 
326 199 219 138 128 135 
327 198 218 121 120 128 
327 198 219 133 121 125 
327 196 220 133 120 119 
327 196 221 140 115 110 
327 197 220 136 113 108 
327 197 221 152 112 106 
327 196 222 149 108 95 
327 196 223 162 106 89 
327 197 222 155 103 93 
327 197 223 160 106 90 
326 199 220 153 118 116 
326 199 221 169 118 103 
327 198 220 153 122 120 
327 198 221 162 110 104 
327 199 220 153 118 117 
327 199 221 167 114 102 
326 198 223 163 107 80 
326 199 222 172 111 95 
326 199 223 165 106 75 
327 198 222 167 108 101 
327 198 223 166 109 92 
327 199 222 174 114 102 
320 200 209 146 113 107 
320 200 210 136 107 99 
320 201 210 131 105 100 
321 200 210 125 104 98 
321 200 211 128 117 121 
321 201 211 129 117 118 
320 202 210 135 115 114 
320 202 211 131 116 118 
320 203 211 127 113 121 
321 202 211 134 125 127 
321 203 211 138 129 138 
321 201 212 123 119 125 
320 203 212 130 118 132 
321 202 212 143 141 146 
321 203 212 151 143 153 
322 200 212 136 135 147 
322 201 212 125 123 134 
322 201 213 122 123 136 
323 200 213 123 123 136 
323 201 213 122 123 136 
323 200 214 117 117 131 
323 201 214 126 128 140 
322 202 212 134 135 143 
322 202 213 135 136 145 
322 203 213 130 125 136 
323 202 213 138 140 151 
322 203 214 120 109 125 
323 202 214 129 133 146 
323 203 214 129 127 140 
320 204 211 119 99 117 
320 205 211 130 107 127 
320 204 212 126 110 128 
320 205 212 135 114 135 
321 204 212 136 121 138 
321 204 213 141 123 141 
321 205 213 133 108 129 
320 206 212 136 117 134 
320 206 213 134 113 132 
320 207 212 127 111 130 
320 207 213 126 107 128 
321 206 213 127 103 123 
321 207 213 119 98 118 
321 206 214 115 96 114 
321 207 214 111 97 111 
322 204 213 138 119 136 
322 204 214 121 102 124 
322 205 214 124 104 126 
322 205 215 120 98 121 
323 204 214 119 103 124 
323 204 215 124 110 130 
323 205 215 116 89 116 
322 206 214 119 103 121 
322 206 215 115 99 117 
322 207 215 115 102 116 
323 206 215 113 89 113 
323 207 215 125 107 124 
324 200 214 126 129 140 
324 201 214 132 137 149 
324 201 215 124 130 142 
325 200 215 136 138 148 
325 201 215 120 126 137 
324 202 214 123 130 143 
324 202 215 118 126 138 
324 203 215 134 138 150 
324 204 215 128 119 136 
323 205 216 119 92 118 
323 206 216 114 83 111 
323 207 216 128 95 120 
323 207 217 150 85 119 
323 207 218 168 85 112 
325 200 216 122 125 133 
325 201 216 112 120 132 
325 201 217 129 136 145 
324 202 216 118 127 139 
324 203 216 111 119 131 
325 202 216 120 129 141 
325 202 217 107 117 130 
325 203 216 106 116 129 
325 203 217 113 118 131 
325 202 218 131 118 123 
325 203 218 143 127 134 
325 203 219 168 113 112 
326 200 217 127 130 137 
326 201 217 143 146 154 
326 200 218 126 127 133 
326 200 219 136 121 129 
326 201 218 137 132 139 
326 201 219 137 112 117 
326 202 218 138 128 132 
326 202 219 154 117 116 
326 203 219 165 113 103 
325 203 220 167 85 77 
325 203 221 172 91 80 
325 202 223 166 83 71 
325 203 222 175 95 80 
325 203 223 168 83 74 
326 200 220 159 123 124 
326 200 221 173 123 107 
326 201 220 164 122 120 
326 201 221 170 117 96 
326 200 222 168 105 78 
326 200 223 165 102 67 
326 201 222 169 107 75 
326 201 223 171 107 80 
326 202 220 169 113 102 
326 202 221 175 116 90 
326 203 220 172 106 89 
326 203 221 179 116 91 
326 202 222 180 119 90 
326 202 223 172 101 79 
326 203 222 185 124 98 
324 204 216 114 109 124 
324 204 217 109 96 117 
324 205 216 120 95 119 
324 205 217 126 91 119 
325 204 217 114 109 125 
324 205 218 148 102 123 
325 204 218 138 112 126 
325 204 219 164 95 108 
325 205 218 152 107 124 
325 205 219 162 77 100 
324 206 216 120 86 114 
324 206 217 148 99 127 
324 207 217 153 85 117 
324 206 218 155 86 109 
324 206 219 171 83 101 
324 207 218 162 82 100 
324 207 219 167 79 86 
325 206 219 173 84 97 
325 204 220 163 73 81 
325 204 221 170 74 87 
325 205 220 168 78 91 
325 205 221 168 68 84 
325 204 222 168 67 75 
325 204 223 166 66 71 
325 205 222 164 62 79 
325 205 223 165 69 85 
324 207 220 169 75 91 
324 207 221 173 85 101 
325 206 220 172 79 92 
325 206 221 169 74 89 
324 206 223 166 84 94 
324 207 222 172 91 102 
324 207 223 167 86 93 
325 206 222 169 81 93 
325 206 223 165 77 92 
328 192 216 93 121 145 
328 192 217 104 120 138 
328 193 216 105 116 131 
328 193 217 114 117 125 
328 192 218 110 121 135 
328 192 219 108 113 128 
328 193 218 123 121 127 
328 193 219 128 120 132 
328 194 217 112 112 116 
328 194 218 128 124 128 
328 194 219 126 120 128 
328 192 220 115 116 131 
328 192 221 119 117 128 
328 193 220 112 105 121 
328 193 221 119 112 120 
328 192 222 124 113 118 
328 192 223 147 113 113 
328 193 222 133 112 109 
328 193 223 157 106 97 
328 194 220 119 111 122 
328 194 221 123 112 115 
328 195 220 128 119 125 
328 194 222 137 113 107 
328 194 223 157 101 87 
320 208 213 116 94 123 
320 209 213 120 98 126 
320 208 214 123 105 122 
320 209 214 113 93 116 
321 208 214 126 112 125 
321 208 215 127 115 128 
321 209 214 122 106 123 
321 209 215 128 105 126 
320 210 214 120 105 126 
320 210 215 132 116 134 
320 211 215 136 103 122 
321 210 215 142 100 128 
321 211 215 154 84 118 
322 208 215 122 104 120 
322 209 215 132 98 121 
320 212 215 148 101 114 
320 213 215 152 89 97 
321 210 216 164 92 124 
321 211 216 173 80 110 
321 211 217 176 77 92 
322 208 216 126 98 118 
322 209 216 145 94 119 
322 209 217 162 94 117 
323 208 216 137 94 120 
323 208 217 161 91 124 
323 209 217 165 88 116 
323 208 218 165 67 96 
323 208 219 160 62 77 
323 209 218 166 68 94 
323 209 219 165 80 94 
322 210 216 162 93 119 
322 210 217 168 85 104 
322 211 217 175 85 97 
322 211 218 172 80 85 
322 211 219 171 91 84 
323 210 218 174 86 97 
323 210 219 162 72 83 
323 211 218 174 88 90 
323 211 219 164 77 77 
323 210 220 165 78 89 
323 210 221 170 91 86 
323 211 220 173 95 99 
323 211 221 166 81 81 
323 210 222 166 83 78 
323 210 223 165 74 84 
323 211 222 166 79 81 
323 211 223 167 76 84 
320 212 216 165 82 103 
320 213 216 165 79 91 
320 213 217 174 91 102 
321 212 216 170 71 94 
321 212 217 170 68 80 
321 213 217 174 91 102 
321 212 218 164 65 75 
321 213 218 171 84 95 
320 214 216 176 94 103 
320 214 217 174 90 101 
320 215 216 178 91 101 
320 215 217 170 83 94 
321 214 217 176 96 109 
320 215 218 172 88 97 
321 214 218 165 69 84 
321 214 219 159 62 60 
321 215 218 170 84 91 
321 215 219 169 85 85 
322 212 218 166 71 79 
322 212 219 177 104 101 
322 213 218 167 78 87 
322 213 219 173 93 92 
323 212 219 170 96 91 
322 214 219 172 85 82 
322 215 219 176 91 89 
321 215 220 160 65 66 
322 213 220 172 90 74 
323 212 220 169 89 88 
323 212 221 165 76 79 
323 213 220 170 88 77 
323 213 221 178 95 86 
323 212 222 167 76 80 
323 212 223 170 84 85 
323 213 222 171 79 75 
323 213 223 167 78 74 
322 214 220 176 88 76 
322 214 221 171 72 58 
322 215 220 169 78 73 
322 215 221 168 76 69 
322 214 222 170 68 65 
322 214 223 169 72 79 
322 215 222 175 89 90 
322 215 223 166 70 81 
323 214 222 173 79 73 
323 214 223 167 72 74 
324 208 219 160 69 84 
324 209 219 167 88 106 
324 208 220 169 86 105 
324 208 221 174 91 109 
324 209 220 162 75 96 
324 209 221 167 84 97 
324 208 222 167 77 95 
324 208 223 174 91 101 
324 209 222 171 91 99 
324 209 223 172 87 100 
324 210 221 169 91 91 
324 210 222 169 90 90 
324 210 223 166 77 88 
320 216 217 171 98 102 
320 216 218 165 89 91 
320 216 219 164 92 89 
320 217 218 160 95 92 
320 217 219 168 107 105 
321 216 219 165 87 88 
321 217 219 167 103 105 
320 218 218 165 107 103 
320 218 219 152 87 86 
320 219 219 149 90 84 
321 216 220 167 89 91 
321 216 221 167 95 97 
321 217 220 157 86 90 
321 217 221 153 76 84 
321 217 222 159 86 97 
320 219 220 154 103 95 
320 219 221 143 83 76 
321 218 220 147 84 83 
321 218 221 157 96 100 
321 219 220 159 109 105 
321 219 221 147 87 85 
321 218 222 152 79 92 
321 218 223 146 56 81 
321 219 222 136 54 67 
321 219 223 144 59 82 
322 216 221 167 89 91 
322 216 222 165 82 90 
322 216 223 165 82 97 
322 217 222 156 74 86 
322 217 223 157 76 94 
320 220 219 154 102 93 
320 220 220 142 77 65 
320 220 221 149 85 82 
320 221 220 159 97 95 
320 221 221 161 96 99 
320 220 222 151 83 89 
320 221 222 148 65 77 
320 221 223 145 58 81 
321 220 222 150 80 88 
321 220 223 142 54 79 
320 222 221 153 73 86 
320 222 222 145 47 71 
320 222 223 150 60 83 
320 223 222 154 65 89 
320 223 223 143 40 71 
327 193 224 164 97 76 
327 193 225 164 97 76 
327 192 226 164 103 84 
327 192 227 163 101 79 
327 193 226 166 105 87 
327 193 227 163 98 77 
327 194 224 168 100 80 
327 194 225 165 95 77 
327 195 224 167 100 75 
327 195 225 167 99 74 
326 195 227 169 94 61 
327 194 226 163 93 73 
327 194 227 167 99 77 
327 195 226 166 94 70 
327 195 227 170 99 70 
327 192 228 164 100 83 
327 192 229 162 99 83 
327 193 228 164 101 81 
327 193 229 168 107 91 
326 192 231 161 92 73 
326 193 230 161 97 77 
326 193 231 161 94 75 
327 192 230 163 103 85 
327 192 231 163 98 80 
327 193 230 163 101 82 
327 193 231 157 90 70 
326 194 229 168 98 81 
326 195 228 170 95 66 
326 195 229 169 92 69 
327 194 228 168 100 78 
327 194 229 168 102 86 
326 194 230 168 105 88 
326 194 231 165 97 80 
326 195 230 170 99 82 
326 195 231 169 98 86 
327 196 224 163 101 76 
327 196 225 166 105 85 
327 197 224 165 110 91 
327 197 225 164 107 92 
326 196 227 168 97 71 
326 197 226 167 108 94 
326 197 227 168 105 87 
327 196 226 167 102 83 
327 196 227 166 95 66 
327 197 226 167 108 96 
326 198 224 167 110 89 
326 198 225 166 108 88 
326 199 224 171 113 87 
326 199 225 174 118 95 
327 198 224 169 115 97 
326 198 226 167 109 91 
326 198 227 166 105 88 
326 199 226 166 107 86 
326 199 227 162 98 83 
325 196 231 170 94 81 
325 197 230 169 103 74 
325 197 231 168 93 75 
325 198 229 174 117 93 
325 199 228 167 100 78 
325 199 229 170 104 73 
325 198 230 174 118 91 
325 198 231 168 101 81 
325 199 230 167 101 65 
325 199 231 165 94 71 
326 196 228 175 106 80 
326 196 229 173 99 73 
326 197 228 170 106 82 
326 197 229 170 103 74 
326 196 230 167 89 65 
326 196 231 168 93 76 
326 197 230 168 99 70 
326 198 228 163 98 78 
326 198 229 166 104 79 
326 199 228 164 100 82 
321 193 239 158 74 76 
321 194 239 165 85 85 
321 195 239 154 61 59 
323 192 237 150 54 67 
323 193 237 160 74 87 
322 192 239 159 70 76 
322 193 239 154 61 68 
323 192 238 162 79 88 
323 193 238 163 82 92 
323 194 237 158 64 71 
323 195 237 151 49 45 
322 194 238 152 50 59 
322 194 239 156 63 69 
322 195 238 161 72 71 
322 195 239 161 72 72 
323 194 238 154 56 66 
323 195 238 150 46 47 
323 198 235 157 75 80 
323 199 235 156 63 86 
320 197 239 156 58 76 
321 196 239 154 57 59 
321 197 239 152 49 64 
320 198 239 148 28 67 
320 199 239 148 39 70 
321 198 238 149 37 61 
321 198 239 151 43 68 
321 199 238 147 35 67 
322 197 237 159 73 75 
323 196 236 154 62 58 
323 196 237 157 68 66 
323 197 236 152 62 62 
323 197 237 161 78 78 
322 196 238 164 82 81 
322 197 238 156 59 66 
322 198 237 152 57 63 
322 199 236 144 27 61 
322 199 237 145 33 63 
323 198 236 161 83 85 
323 198 237 163 86 84 
323 199 236 147 44 65 
322 198 238 147 35 54 
325 192 234 158 78 54 
325 192 235 157 76 68 
325 193 234 162 84 59 
325 193 235 165 90 83 
325 194 233 165 88 79 
325 195 232 163 86 80 
325 195 233 161 81 79 
324 195 235 155 59 62 
325 194 234 165 87 77 
325 194 235 159 70 69 
325 195 234 156 66 69 
325 195 235 154 54 63 
326 192 232 164 94 72 
326 192 233 164 94 66 
326 193 232 167 98 79 
326 193 233 164 89 63 
326 192 234 164 91 62 
326 194 232 161 82 67 
326 194 233 161 80 61 
326 195 232 164 89 81 
324 192 236 153 67 76 
324 192 237 150 58 70 
324 193 236 157 71 78 
324 193 237 154 63 78 
325 192 236 156 75 76 
325 193 236 164 87 86 
324 194 236 156 64 66 
324 194 237 158 68 77 
324 195 236 157 64 62 
325 196 232 163 80 75 
325 196 233 155 60 62 
325 197 232 160 67 66 
325 197 233 158 59 65 
324 196 234 166 85 87 
324 196 235 166 84 86 
324 197 234 164 78 81 
324 197 235 159 72 76 
325 196 234 156 63 69 
325 197 234 164 73 79 
324 198 233 164 81 89 
324 199 232 160 71 73 
324 199 233 153 50 67 
325 198 232 162 80 75 
325 198 233 165 79 84 
325 199 232 159 80 71 
324 198 234 158 68 82 
324 198 235 153 62 73 
324 199 234 151 47 73 
324 199 235 156 64 86 
324 196 236 160 76 73 
323 205 231 153 42 83 
323 207 229 156 46 82 
323 206 230 154 39 84 
323 206 231 154 38 81 
323 207 230 156 45 83 
323 207 231 156 37 80 
325 200 227 162 99 86 
325 201 226 168 103 86 
325 201 227 163 94 86 
325 202 224 167 82 76 
325 202 225 171 89 82 
325 203 224 164 74 79 
325 203 225 168 80 90 
325 202 226 169 88 84 
325 202 227 163 75 80 
325 203 226 165 77 85 
325 203 227 159 62 73 
326 200 224 169 108 76 
326 200 225 169 113 84 
326 201 224 167 99 68 
326 201 225 168 104 74 
326 200 226 164 106 83 
326 200 227 160 99 84 
326 201 226 167 106 83 
326 202 224 169 93 77 
326 202 225 174 99 79 
325 200 228 169 106 92 
325 200 229 169 103 78 
325 201 228 163 91 88 
325 201 229 163 90 84 
324 200 231 173 103 99 
324 201 231 158 72 80 
325 200 230 171 107 84 
325 200 231 177 114 99 
325 201 230 161 86 79 
325 201 231 164 91 85 
324 203 228 163 66 77 
324 203 229 160 59 72 
325 202 228 157 60 73 
325 202 229 157 67 76 
325 203 228 158 55 68 
325 203 229 159 58 69 
324 202 230 160 68 81 
324 202 231 156 56 81 
324 203 230 158 50 71 
324 203 231 157 51 82 
325 202 230 159 73 80 
325 204 224 165 68 78 
325 204 225 162 67 78 
325 205 224 163 56 77 
325 205 225 163 59 72 
324 205 226 169 81 85 
324 205 227 166 79 85 
325 204 226 164 72 79 
325 204 227 159 66 73 
325 205 226 166 73 77 
324 206 224 165 71 85 
324 206 225 167 77 87 
324 207 224 167 86 91 
324 207 225 168 81 92 
324 206 226 170 84 92 
324 206 227 165 75 88 
324 207 226 164 68 83 
324 207 227 162 63 82 
324 204 228 159 62 75 
324 204 229 159 60 76 
324 205 228 160 66 82 
324 205 229 157 54 82 
325 204 228 157 58 70 
324 204 230 152 41 70 
324 204 231 152 39 79 
324 205 230 153 40 80 
324 205 231 150 34 78 
324 206 228 156 53 82 
324 206 229 156 47 85 
324 207 228 156 48 79 
324 207 229 154 41 82 
324 206 230 154 39 84 
324 207 230 156 44 85 
323 200 234 155 48 79 
323 200 235 151 43 77 
323 201 234 147 17 67 
323 201 235 146 32 68 
323 202 233 145 0 68 
323 203 232 151 37 81 
323 203 233 149 33 77 
322 203 235 150 49 79 
323 202 234 146 17 68 
323 202 235 150 43 73 
323 203 234 153 49 83 
323 203 235 152 51 81 
321 200 237 144 28 67 
321 201 237 140 24 65 
320 200 239 149 48 75 
320 201 238 146 37 69 
320 201 239 149 44 72 
321 200 238 144 33 66 
321 201 238 144 34 70 
321 202 237 143 31 69 
321 203 237 143 30 69 
320 202 238 145 21 67 
320 202 239 145 22 63 
320 203 238 145 18 66 
320 203 239 149 30 69 
321 202 238 148 38 74 
321 203 238 146 32 71 
322 200 236 142 23 64 
322 200 237 145 32 69 
322 201 236 147 41 74 
322 201 237 141 23 66 
323 200 236 143 24 64 
323 201 236 148 43 74 
322 202 236 146 39 73 
322 203 236 143 34 69 
323 204 232 153 45 86 
323 204 233 154 48 86 
323 205 232 156 51 87 
323 205 233 154 46 83 
322 204 235 150 48 78 
322 205 235 149 39 74 
323 204 234 155 55 88 
323 204 235 154 57 86 
323 205 234 150 33 75 
323 205 235 148 34 74 
322 207 233 154 33 75 
323 206 232 153 37 75 
323 206 233 152 34 73 
323 207 232 153 30 74 
323 207 233 154 35 74 
322 206 234 154 32 73 
322 206 235 151 30 71 
322 207 234 154 34 75 
322 207 235 155 45 79 
323 206 234 152 26 71 
321 204 236 146 46 73 
321 204 237 143 28 67 
321 205 236 143 31 66 
321 205 237 141 22 65 
320 204 238 146 26 69 
320 205 238 143 25 67 
320 206 237 145 34 72 
320 207 237 141 20 66 
321 206 236 146 38 72 
321 206 237 145 37 72 
321 207 236 148 41 77 
321 207 237 143 27 70 
320 206 238 143 32 68 
320 207 238 144 37 68 
322 204 236 147 46 76 
322 205 236 147 38 71 
322 206 236 148 33 70 
322 207 236 153 47 81 
324 200 232 162 70 80 
324 200 233 152 33 66 
324 201 232 150 36 68 
324 201 233 147 10 66 
324 200 234 155 45 77 
324 201 234 148 20 68 
324 202 232 151 31 75 
324 202 233 146 5 68 
324 203 232 150 33 78 
324 204 232 152 44 85 
328 192 224 158 105 94 
328 192 225 162 102 82 
328 193 224 161 98 81 
328 193 225 159 90 67 
328 192 226 163 103 83 
320 192 240 154 54 66 
320 192 241 153 56 65 
320 193 240 158 68 75 
320 193 241 149 55 60 
321 192 240 150 40 53 
321 193 240 158 68 74 
320 194 240 154 67 65 
320 194 241 148 57 55 
320 195 240 155 70 69 
321 194 240 163 84 83 
320 196 240 155 64 71 
320 197 240 153 55 76 
320 198 240 148 37 70 
323 208 227 159 50 76 
323 209 226 164 50 82 
323 209 227 160 44 77 
323 210 224 176 90 104 
323 210 225 168 66 90 
323 211 224 171 81 94 
323 211 225 165 63 87 
323 210 226 163 47 86 
323 210 227 160 36 82 
323 211 226 161 45 86 
323 211 227 160 42 85 
323 208 228 160 57 84 
323 208 229 160 61 91 
323 209 228 159 51 83 
323 209 229 161 58 92 
323 208 230 160 56 89 
323 208 231 158 46 85 
323 209 230 161 55 93 
323 209 231 157 40 84 
322 211 228 164 65 94 
322 211 229 159 48 86 
323 210 228 157 37 81 
323 210 229 159 48 87 
323 211 228 162 55 89 
323 211 229 159 48 85 
322 210 231 153 30 76 
322 211 230 157 39 83 
322 211 231 158 46 85 
323 210 230 159 46 87 
323 210 231 155 34 80 
323 211 230 157 40 81 
323 212 224 164 70 80 
323 212 225 164 64 84 
323 213 224 167 79 85 
323 213 225 161 62 82 
322 212 227 160 51 86 
322 213 226 162 64 94 
322 213 227 164 67 97 
323 212 226 164 61 91 
323 212 227 161 53 88 
323 213 226 165 67 94 
322 214 224 165 65 84 
322 214 225 155 44 77 
322 215 224 159 59 83 
322 215 225 149 40 80 
323 214 224 168 79 88 
322 214 226 155 45 88 
322 214 227 160 66 95 
322 215 226 141 27 75 
322 215 227 147 50 85 
321 215 231 138 72 93 
322 212 228 161 58 89 
322 212 229 159 54 91 
322 213 228 160 56 88 
322 213 229 159 57 92 
322 212 230 156 43 90 
322 212 231 160 65 100 
322 213 230 151 43 91 
322 213 231 140 26 81 
322 214 228 157 59 87 
322 214 229 151 51 85 
322 215 228 152 68 93 
322 215 229 145 56 87 
322 214 230 142 41 82 
322 214 231 133 36 78 
322 215 230 138 50 82 
322 215 231 136 59 86 
324 208 224 170 85 93 
324 208 225 165 69 80 
324 209 224 169 73 92 
324 209 225 168 67 86 
324 208 226 165 68 80 
324 208 227 161 56 76 
324 209 226 167 62 84 
324 209 227 163 55 78 
324 210 224 173 81 99 
324 210 225 171 74 93 
324 208 228 159 54 79 
321 209 235 155 62 85 
321 210 235 155 61 84 
321 211 235 154 60 86 
322 208 233 151 28 75 
322 209 232 154 34 78 
322 209 233 154 39 80 
323 208 232 156 38 80 
323 208 233 152 32 75 
323 209 232 154 33 78 
322 208 234 150 29 73 
322 208 235 154 48 81 
322 209 234 155 50 84 
322 209 235 156 60 87 
322 210 232 152 35 74 
322 210 233 157 56 86 
322 211 232 157 51 82 
322 211 233 154 49 79 
322 210 234 159 64 90 
322 210 235 159 67 90 
322 211 234 151 46 78 
322 211 235 154 55 82 
320 208 237 143 36 72 
320 209 237 145 46 76 
321 208 236 148 44 78 
321 208 237 143 37 73 
321 209 236 147 47 77 
320 208 238 144 35 68 
320 209 238 146 46 74 
320 210 237 148 55 81 
320 211 237 137 41 71 
321 210 236 148 50 77 
321 211 236 148 53 81 
320 210 238 141 49 74 
320 211 238 127 36 61 
321 212 235 149 63 90 
321 213 234 146 62 91 
321 213 235 143 57 87 
321 215 232 132 67 87 
321 215 233 128 56 81 
321 214 234 130 46 77 
321 214 235 129 41 72 
321 215 234 126 41 72 
321 215 235 127 36 68 
322 212 232 159 68 96 
322 212 233 156 67 91 
322 213 232 137 28 77 
322 213 233 144 55 87 
322 212 234 151 59 86 
322 212 235 153 59 86 
322 213 234 146 62 92 
322 214 232 125 31 71 
322 214 233 128 43 76 
322 215 232 129 57 82 
322 215 233 128 56 81 
322 214 234 136 54 85 
320 212 237 123 38 60 
320 213 237 122 40 58 
321 212 236 139 51 78 
321 213 236 131 44 70 
320 212 238 121 49 66 
320 214 237 127 53 73 
320 215 237 117 51 68 
321 214 236 130 52 73 
321 215 236 132 53 77 
320 214 238 109 53 69 
321 216 227 137 46 84 
321 217 226 141 55 89 
321 217 227 139 48 87 
321 218 224 140 51 82 
321 218 225 146 69 95 
321 219 224 138 50 83 
321 219 225 130 39 78 
321 218 226 138 57 86 
321 218 227 133 44 79 
321 219 226 139 63 93 
321 219 227 138 60 89 
322 216 224 155 68 94 
322 216 225 140 44 82 
322 217 224 149 66 92 
322 217 225 143 62 92 
322 216 226 138 47 84 
322 216 227 139 46 83 
322 217 226 139 54 89 
321 216 228 137 46 85 
321 216 229 144 68 102 
321 217 228 141 54 89 
321 217 229 138 53 90 
321 216 230 142 72 104 
321 216 231 137 72 99 
321 217 230 125 38 81 
321 217 231 122 43 82 
321 218 228 136 51 80 
321 218 229 134 50 81 
321 219 228 128 42 72 
321 219 229 126 44 73 
321 218 230 120 36 70 
321 218 231 121 40 73 
321 219 230 127 55 78 
321 219 231 125 51 78 
322 216 228 138 49 84 
322 216 229 143 63 95 
322 216 230 144 73 101 
320 221 224 148 65 96 
320 221 225 144 63 91 
321 220 224 140 48 87 
321 220 225 144 63 97 
321 221 224 142 52 88 
321 221 225 149 75 101 
320 221 226 141 63 89 
320 221 227 133 51 84 
321 220 226 134 52 87 
321 220 227 136 60 90 
321 221 226 139 61 89 
321 221 227 133 52 83 
320 222 224 151 71 98 
320 222 225 137 47 78 
320 223 224 145 57 85 
320 223 225 146 66 90 
320 222 226 141 61 86 
320 222 227 138 57 88 
320 223 226 134 44 76 
320 223 227 137 49 85 
320 221 228 132 52 83 
320 221 229 134 59 81 
321 220 228 134 57 86 
321 220 229 134 62 88 
321 221 228 138 65 89 
321 221 229 135 65 85 
320 221 230 134 66 83 
320 221 231 134 65 86 
321 220 230 131 59 88 
321 220 231 131 58 87 
321 221 230 129 57 79 
321 221 231 128 54 80 
320 222 228 129 39 75 
320 222 229 130 48 74 
320 223 228 136 49 85 
320 223 229 139 56 88 
320 222 230 138 70 87 
320 222 231 144 78 95 
320 223 230 128 48 78 
320 223 231 131 55 82 
321 216 232 128 60 85 
321 216 233 125 48 75 
321 217 232 130 63 88 
321 217 233 135 71 90 
321 216 234 132 55 81 
321 216 235 133 46 77 
321 217 234 133 59 82 
321 217 235 130 43 71 
321 218 232 130 61 84 
321 218 233 130 62 82 
321 219 232 123 41 74 
321 219 233 121 40 69 
320 218 235 126 47 68 
320 219 235 129 60 79 
321 218 234 125 50 75 
321 218 235 123 39 64 
321 219 234 128 50 81 
320 216 236 121 33 68 
320 216 237 109 41 63 
320 217 236 120 40 66 
320 217 237 107 50 69 
321 216 236 128 40 73 
321 217 236 126 40 69 
320 218 236 122 55 72 
320 218 237 108 63 75 
320 219 236 122 67 81 
320 219 237 101 63 78 
320 221 232 132 58 80 
320 221 233 128 54 72 
321 220 232 130 52 83 
321 220 233 130 55 81 
321 221 232 134 63 85 
321 221 233 130 59 79 
320 220 234 126 50 76 
320 220 235 117 52 76 
320 221 234 122 47 68 
320 221 235 104 35 69 
321 220 234 130 53 82 
320 222 232 133 53 79 
320 222 233 125 39 64 
320 223 232 132 47 83 
320 223 233 133 52 85 
320 222 234 131 55 79 
320 222 235 115 53 81 
320 223 234 127 56 87 
320 223 235 109 62 91 
320 220 236 104 59 79 
320 220 237 87 51 76 
320 221 236 87 41 69 
320 221 237 76 43 71 
320 222 236 87 50 75 
320 223 236 86 70 91 
320 224 224 142 57 79 
320 224 225 142 61 84 
320 224 226 141 65 93 
320 224 227 137 60 91 
320 225 226 145 81 107 
320 225 227 141 87 111 
320 224 228 138 59 91 
320 224 229 137 57 90 
320 225 228 131 71 99 
320 225 229 127 60 90 
320 224 230 126 44 82 
320 224 231 123 52 84 
320 225 230 127 67 99 
320 225 231 126 71 102 
320 226 228 131 95 117 
320 226 229 128 84 110 
320 226 230 119 73 103 
320 226 231 123 85 111 
320 224 232 125 67 91 
320 224 233 128 82 102 
320 225 232 117 83 107 
320 225 233 110 98 115 
320 224 234 121 92 111 
320 224 235 100 87 113 
320 225 234 103 105 122 
320 225 235 79 92 115 
320 226 234 90 104 124 
320 224 236 74 74 103 
290 257 207 153 16 56 
291 256 206 161 115 133 
291 256 207 163 117 132 
291 257 207 150 38 72 
290 258 207 167 8 56 
291 258 207 160 6 53 
292 256 207 168 140 144 
292 257 207 145 53 77 
293 256 207 182 165 155 
292 257 208 145 50 70 
293 256 208 172 139 136 
293 257 208 148 56 79 
292 258 208 154 3 48 
293 258 208 146 0 45 
293 258 209 153 3 48 
294 256 208 169 121 117 
294 256 209 168 104 114 
294 257 209 150 49 81 
295 256 209 176 105 112 
295 257 209 154 46 80 
295 257 210 154 32 73 
294 258 209 150 1 50 
294 258 210 158 7 56 
295 258 210 154 3 54 
296 256 209 184 107 115 
296 256 210 176 91 102 
296 257 210 151 24 57 
296 257 211 152 23 58 
297 256 210 181 105 108 
297 256 211 167 72 85 
297 257 211 152 17 62 
296 258 210 152 0 51 
296 258 211 156 5 53 
297 258 211 151 0 54 
298 256 211 169 69 83 
297 258 212 156 5 59 
298 256 212 164 51 80 
298 257 212 153 16 70 
299 256 212 168 61 87 
299 256 213 162 57 93 
299 257 212 155 29 79 
299 257 213 150 9 67 
298 258 212 153 3 59 
298 258 213 156 6 57 
299 258 213 154 5 57 
300 256 212 170 69 95 
300 256 213 171 73 104 
300 257 213 151 19 73 
300 256 214 169 69 103 
300 257 214 150 19 70 
301 256 214 170 65 101 
301 256 215 166 57 96 
301 257 214 153 32 78 
301 257 215 147 13 62 
300 258 214 152 3 55 
300 258 215 159 10 55 
301 258 215 154 4 51 
302 256 215 171 67 102 
302 257 215 151 16 66 
302 256 216 166 57 93 
302 257 216 151 10 63 
303 256 216 171 66 100 
303 256 217 167 53 93 
303 257 216 154 15 72 
303 257 217 151 8 65 
303 257 218 150 4 61 
302 258 216 158 9 62 
302 258 217 161 9 65 
303 258 217 154 5 62 
303 258 218 159 10 66 
304 256 217 174 63 98 
304 256 218 171 64 93 
304 257 218 154 17 65 
304 257 219 154 5 64 
305 256 218 169 55 88 
305 256 219 169 50 92 
305 257 219 161 22 73 
304 258 218 161 11 64 
304 258 219 166 11 69 
305 258 219 165 10 65 
306 256 219 176 71 104 
305 256 220 162 35 84 
305 257 220 161 12 68 
305 258 220 170 16 72 
305 258 221 170 19 76 
306 256 220 167 54 96 
306 256 221 160 44 88 
306 257 220 158 15 71 
306 257 221 158 10 67 
307 256 221 168 68 99 
306 257 222 162 13 67 
307 256 222 154 29 73 
307 256 223 152 19 59 
307 257 222 157 8 61 
307 257 223 160 14 60 
306 258 221 167 14 70 
306 258 222 165 30 82 
307 258 223 166 32 83 
308 256 223 158 40 80 
307 256 224 155 15 59 
307 257 224 162 15 69 
307 257 225 163 21 73 
307 257 226 159 35 79 
307 257 227 155 46 84 
308 256 224 155 22 74 
308 256 225 161 15 73 
308 256 226 166 17 74 
308 256 227 168 20 74 
308 257 226 168 29 76 
308 257 227 165 49 89 
309 256 227 166 11 71 
308 256 228 168 22 77 
308 257 228 160 56 96 
308 257 229 154 69 102 
309 256 228 167 16 72 
309 256 229 165 28 75 
308 256 230 155 68 101 
309 256 230 163 39 84 
309 256 231 152 69 102 
309 256 232 142 88 114 
309 256 233 139 101 121 
309 256 234 138 107 126 
287 366 247 188 144 97 
287 367 247 174 89 24 
287 367 248 163 88 26 
285 370 246 148 142 156 
285 371 247 150 138 141 
286 368 246 168 87 78 
286 369 246 165 109 102 
286 369 247 177 79 51 
287 368 247 184 54 11 
286 370 247 169 102 79 
287 368 248 179 64 11 
287 368 249 170 90 22 
287 369 248 184 67 13 
287 369 249 180 79 14 
287 369 250 172 90 20 
286 370 248 180 92 42 
286 371 248 170 115 81 
287 370 248 183 79 18 
287 370 249 182 84 20 
287 371 249 182 97 35 
287 370 250 179 83 21 
287 371 250 179 84 26 
285 372 248 156 149 153 
285 373 248 148 141 149 
285 373 249 149 142 152 
284 374 248 171 156 153 
284 375 248 171 156 147 
284 375 249 172 157 150 
285 374 249 150 139 143 
285 375 249 156 143 140 
286 372 248 164 140 128 
286 372 249 162 134 119 
286 373 249 150 145 152 
287 372 249 172 111 70 
286 373 250 149 142 147 
287 372 250 172 95 50 
287 372 251 174 81 33 
287 373 250 151 128 126 
287 373 251 158 101 87 
286 374 249 147 141 151 
286 374 250 146 141 152 
286 375 250 145 133 135 
287 374 250 147 144 155 
287 374 251 146 134 139 
287 375 251 145 141 145 
287 374 252 151 117 115 
287 375 252 143 140 146 
283 378 249 166 119 77 
283 379 249 161 122 80 
283 378 250 160 112 64 
283 379 250 156 111 64 
281 382 249 127 112 102 
281 383 249 139 125 119 
281 383 250 142 129 122 
282 380 249 139 117 96 
282 381 250 136 119 104 
283 380 250 149 120 90 
283 380 251 152 125 101 
283 381 250 131 111 90 
283 381 251 131 112 92 
282 382 250 132 117 108 
282 383 250 142 128 121 
283 382 250 139 122 108 
283 382 251 143 127 114 
283 383 251 150 135 127 
284 376 249 172 153 142 
284 377 249 173 146 130 
285 376 249 178 166 162 
284 377 250 179 154 142 
285 376 250 174 162 160 
285 377 250 180 164 161 
284 378 250 164 124 95 
284 379 250 158 105 61 
285 378 250 169 142 129 
285 378 251 168 141 131 
285 379 250 164 122 101 
285 379 251 168 119 99 
286 376 250 159 147 146 
286 377 250 178 168 170 
286 377 251 166 158 161 
287 376 251 145 136 137 
287 377 251 154 146 149 
286 378 251 171 158 158 
286 379 251 166 135 127 
287 378 251 164 161 169 
287 376 252 139 136 141 
287 377 252 138 133 140 
287 378 252 150 150 160 
287 379 252 163 158 165 
284 380 250 158 107 65 
284 380 251 160 112 82 
284 381 251 156 130 111 
285 380 251 162 92 69 
285 381 251 177 128 116 
284 382 251 149 131 116 
284 383 251 162 146 136 
286 380 251 161 97 81 
285 380 252 173 104 90 
285 381 252 184 137 126 
284 382 252 170 149 137 
284 383 252 173 156 146 
285 382 252 189 162 151 
285 383 252 187 169 158 
285 383 253 188 171 160 
286 380 252 171 100 84 
286 381 252 180 110 94 
287 380 252 175 133 122 
287 380 253 174 139 129 
287 381 253 180 100 72 
286 382 252 192 148 132 
286 382 253 189 145 124 
286 383 253 192 167 150 
287 382 253 179 104 70 
287 383 253 178 136 109 
288 366 249 186 156 125 
288 366 250 189 160 132 
288 367 250 191 156 120 
288 367 251 196 167 141 
288 367 252 192 166 140 
288 368 250 177 127 72 
288 368 251 192 155 117 
288 369 250 173 104 38 
288 369 251 181 133 75 
288 370 250 177 92 22 
288 370 251 174 98 30 
288 371 251 174 80 21 
288 368 252 194 166 138 
288 368 253 188 162 135 
288 369 252 189 154 114 
288 369 253 192 164 134 
288 370 252 172 122 62 
288 370 253 182 148 105 
288 371 252 167 89 27 
288 371 253 165 109 48 
288 372 251 175 74 25 
288 372 252 172 75 23 
288 372 253 169 73 17 
288 373 252 169 77 44 
288 373 253 171 69 22 
288 374 252 158 98 87 
288 374 253 162 78 50 
288 375 252 143 128 132 
288 375 253 145 104 102 
288 376 252 138 140 149 
288 376 253 134 134 144 
288 377 252 128 128 136 
288 377 253 129 133 144 
288 378 253 138 143 157 
288 379 253 148 155 169 
288 380 253 169 150 148 
277 389 245 139 105 100 
278 388 247 135 83 90 
278 389 247 160 143 132 
279 387 248 109 69 58 
278 389 248 160 143 135 
279 388 248 126 83 86 
279 388 249 131 102 101 
279 389 248 153 136 128 
279 389 249 144 125 118 
280 384 248 130 117 107 
280 385 249 146 132 124 
281 384 249 136 123 117 
281 384 250 137 121 115 
281 385 250 138 120 114 
280 386 249 152 136 125 
280 387 249 141 121 110 
280 386 250 154 138 127 
280 387 250 155 139 128 
281 386 250 148 130 122 
281 386 251 150 133 123 
281 387 250 156 141 130 
281 387 251 153 137 126 
282 384 250 150 134 127 
282 384 251 155 139 133 
282 385 251 150 130 128 
283 384 251 156 140 132 
283 385 251 159 140 136 
282 386 251 152 133 128 
282 387 251 151 134 125 
283 386 251 163 143 140 
283 385 252 160 142 135 
282 387 252 149 131 121 
283 386 252 164 145 140 
283 387 252 164 146 139 
280 388 249 127 99 96 
280 389 249 138 121 114 
280 388 250 139 119 113 
280 389 250 127 110 103 
281 388 250 147 131 122 
281 388 251 155 140 131 
281 389 250 124 106 98 
281 389 251 127 113 102 
282 388 251 152 136 126 
282 388 252 145 129 119 
282 389 252 146 132 123 
283 388 252 143 127 115 
283 388 253 138 121 108 
283 389 252 145 131 122 
283 389 253 137 121 108 
284 384 251 165 149 140 
284 384 252 173 156 148 
284 385 252 164 145 137 
284 385 253 173 156 146 
285 384 252 180 164 156 
285 384 253 178 161 152 
285 385 253 178 160 150 
284 386 252 162 142 135 
284 386 253 153 136 127 
284 387 252 169 152 145 
284 387 253 161 145 136 
285 386 253 165 149 139 
285 386 254 177 161 151 
