ply
format ascii 1.0
comment Created by CloudCompare v2.10.1 (Zephyrus)
comment Created 1/31/20 10:55 AM
obj_info Generated by CloudCompare!
element vertex 2026
property float x
property float y
property float z
property uchar red
property uchar green
property uchar blue
end_header
288 370 349 85 105 128 
288 371 348 75 96 121 
288 370 350 83 103 129 
288 370 351 73 96 126 
288 371 351 67 91 127 
289 372 344 62 79 105 
289 372 345 71 87 112 
289 373 344 64 82 107 
289 373 345 70 87 110 
288 372 346 72 90 116 
288 372 347 74 94 121 
288 373 346 77 94 118 
288 373 347 82 100 124 
289 372 346 70 88 114 
288 374 345 72 90 111 
288 375 345 72 89 110 
289 374 344 63 82 105 
289 374 345 68 86 108 
289 375 344 62 83 104 
289 375 345 70 88 109 
288 374 346 79 95 117 
288 374 347 86 103 126 
288 375 346 85 100 119 
288 375 347 93 109 128 
288 372 348 75 95 122 
289 376 343 58 80 103 
289 377 343 61 83 106 
289 378 343 52 77 104 
289 379 343 46 70 101 
290 376 343 59 81 105 
288 380 343 53 72 102 
288 381 343 56 75 103 
289 380 343 50 71 102 
289 381 343 57 76 104 
288 382 343 68 84 106 
288 383 343 77 90 109 
289 382 343 69 85 108 
289 383 343 75 89 109 
288 376 345 69 88 107 
288 377 344 66 86 106 
288 377 345 70 89 108 
289 376 344 59 81 102 
289 376 345 68 87 106 
289 377 344 61 82 105 
288 376 346 83 99 117 
288 377 346 76 94 112 
288 378 344 52 78 101 
288 378 345 61 84 104 
288 379 344 43 70 98 
288 379 345 46 72 98 
288 378 346 65 86 106 
288 379 346 54 79 101 
288 380 344 49 70 100 
288 380 345 48 69 99 
288 381 344 57 74 102 
288 381 345 57 74 100 
288 382 344 71 85 107 
288 383 344 79 91 110 
288 370 352 64 88 122 
288 371 352 56 82 122 
288 372 352 48 77 121 
287 388 343 85 93 110 
287 389 343 82 89 110 
287 390 343 85 91 111 
287 391 343 87 92 112 
283 388 351 57 80 120 
283 389 351 58 80 112 
283 390 351 44 71 104 
283 391 350 41 61 96 
283 391 351 31 59 98 
285 384 347 81 93 110 
285 385 347 81 93 109 
285 386 347 77 91 108 
285 387 347 72 87 106 
286 384 345 82 94 111 
286 385 345 82 95 112 
287 384 344 81 93 110 
287 384 345 82 94 111 
287 385 344 79 92 109 
287 385 345 79 93 110 
286 384 346 82 94 111 
286 384 347 84 94 109 
286 385 346 81 94 111 
286 385 347 80 93 110 
287 386 344 79 92 110 
287 386 345 75 90 108 
287 387 344 81 92 110 
287 387 345 76 90 108 
286 386 346 79 92 109 
286 387 346 77 91 109 
284 385 349 49 76 100 
285 384 348 71 87 106 
285 384 349 65 86 108 
285 385 348 69 86 105 
285 385 349 63 83 105 
284 384 350 70 93 120 
284 384 351 72 97 128 
284 385 350 55 81 112 
284 385 351 58 83 123 
285 384 350 72 94 117 
284 386 349 53 79 102 
284 387 349 63 84 104 
285 386 348 70 88 105 
285 386 349 61 83 103 
285 387 348 71 88 106 
284 386 350 47 75 109 
284 386 351 49 76 121 
284 387 350 50 77 108 
284 387 351 43 73 118 
285 388 347 78 91 106 
285 389 346 82 86 104 
285 389 347 78 87 104 
285 390 346 78 84 106 
285 390 347 77 86 107 
285 391 346 84 87 106 
285 391 347 83 87 103 
286 388 345 78 90 105 
286 389 345 75 86 105 
287 388 344 84 93 110 
287 388 345 78 90 106 
287 389 344 82 91 109 
287 389 345 82 91 109 
286 388 346 79 91 107 
286 389 346 79 87 104 
286 390 345 78 86 107 
286 391 345 88 93 110 
287 390 344 81 88 109 
287 391 344 85 90 111 
286 390 346 78 84 106 
286 391 346 85 89 108 
284 388 349 65 82 101 
284 389 349 67 82 101 
285 388 348 76 88 104 
285 389 348 76 86 104 
284 388 350 56 78 106 
284 388 351 54 79 117 
284 389 350 55 75 102 
284 390 349 59 76 100 
284 391 348 73 80 102 
284 391 349 67 76 99 
285 390 348 72 83 103 
285 391 348 84 89 105 
284 390 350 47 69 98 
284 391 350 50 66 96 
287 392 343 91 94 113 
287 393 343 92 94 112 
287 394 343 89 94 111 
287 395 343 89 94 111 
287 396 343 92 97 113 
287 397 343 93 97 112 
286 399 343 95 99 114 
287 398 343 93 97 112 
287 399 343 94 98 113 
283 392 350 49 65 98 
283 392 351 31 57 98 
283 393 350 57 70 100 
283 393 351 41 62 101 
283 395 349 76 86 109 
283 394 350 62 78 105 
283 394 351 50 73 106 
283 395 350 67 82 109 
283 395 351 65 85 114 
283 396 349 81 93 113 
283 397 349 83 95 112 
282 396 351 62 85 112 
282 397 351 63 84 111 
283 396 350 75 89 111 
283 396 351 63 85 113 
283 397 350 74 90 111 
283 397 351 65 84 110 
283 398 349 86 97 113 
283 399 349 86 97 112 
282 398 350 70 87 109 
282 398 351 64 85 112 
282 399 350 72 87 109 
282 399 351 64 84 111 
283 398 350 74 90 112 
283 399 350 76 91 111 
285 392 346 93 95 106 
285 392 347 90 93 105 
285 393 346 93 95 107 
285 393 347 96 97 109 
284 395 347 82 89 112 
285 394 346 90 94 109 
285 394 347 91 94 111 
285 395 346 89 93 111 
285 395 347 83 89 111 
286 392 345 96 98 112 
286 393 344 93 95 111 
286 393 345 96 98 112 
287 392 344 91 94 113 
287 393 344 92 95 112 
286 392 346 91 93 107 
286 393 346 93 95 109 
286 394 344 91 94 111 
286 394 345 94 95 112 
286 395 344 91 95 111 
286 395 345 93 96 111 
287 394 344 91 94 111 
287 395 344 88 93 111 
286 394 346 94 96 111 
286 395 346 94 97 113 
284 392 348 83 87 105 
284 392 349 73 79 102 
284 393 348 89 92 107 
284 393 349 77 84 106 
285 392 348 89 93 106 
284 392 350 62 72 99 
284 393 350 70 79 104 
284 394 348 87 91 108 
284 394 349 75 83 107 
284 395 348 86 91 110 
284 395 349 74 84 108 
284 394 350 73 84 107 
284 396 347 92 100 116 
284 397 347 101 108 117 
285 396 346 95 100 114 
285 396 347 92 101 115 
285 397 346 99 104 114 
285 397 347 99 105 114 
285 399 345 98 102 115 
284 398 347 99 106 116 
284 399 347 96 103 116 
285 398 346 100 104 115 
285 398 347 98 103 112 
285 399 346 97 102 115 
285 399 347 97 100 112 
286 396 344 93 98 113 
286 396 345 95 100 114 
286 397 344 96 101 114 
286 397 345 98 104 115 
286 398 344 98 101 114 
286 398 345 100 105 116 
286 399 344 96 100 114 
286 399 345 97 101 115 
284 396 348 92 98 113 
284 396 349 86 97 115 
284 397 348 97 103 113 
284 397 349 89 98 111 
284 398 348 96 103 114 
284 399 348 98 103 115 
286 400 343 91 95 113 
287 400 343 92 96 114 
287 401 343 88 93 112 
287 402 343 87 94 113 
287 403 343 85 93 115 
287 404 343 79 87 113 
287 405 343 76 85 113 
287 406 343 78 89 115 
287 407 343 79 90 116 
283 400 349 93 101 114 
283 401 348 88 94 111 
283 401 349 89 97 114 
282 400 350 80 92 114 
282 400 351 70 88 114 
282 401 350 85 94 115 
282 401 351 75 89 116 
283 400 350 84 95 113 
283 401 350 90 98 117 
283 402 348 84 92 112 
283 402 349 75 86 110 
283 403 348 74 85 111 
283 403 349 71 84 112 
282 402 350 74 85 111 
282 402 351 66 82 114 
282 403 350 72 84 113 
282 403 351 60 78 115 
283 402 350 82 91 113 
283 403 350 79 89 114 
281 405 351 56 79 119 
281 406 351 54 77 121 
281 407 351 47 74 118 
283 404 348 61 76 109 
283 404 349 66 81 111 
283 405 348 76 90 114 
283 405 349 69 86 114 
282 404 350 69 85 115 
282 404 351 59 78 115 
282 405 350 67 86 118 
282 405 351 59 81 121 
283 406 348 74 90 115 
283 406 349 69 85 118 
283 407 348 66 85 114 
283 407 349 55 77 113 
282 406 350 61 82 117 
282 406 351 50 75 120 
282 407 350 54 77 114 
282 407 351 45 72 116 
285 400 345 94 98 114 
285 401 345 86 91 110 
284 400 347 90 96 112 
284 401 347 80 87 108 
285 400 346 91 95 111 
285 400 347 89 93 109 
285 401 346 82 88 108 
285 401 347 80 86 106 
285 402 345 83 89 111 
285 403 345 79 88 111 
284 402 347 75 84 108 
284 403 347 70 83 111 
285 402 346 81 89 111 
285 402 347 78 86 108 
285 403 346 74 84 111 
286 400 344 91 96 113 
286 400 345 91 96 112 
286 401 344 86 92 112 
286 401 345 86 91 110 
286 402 344 85 91 111 
286 402 345 84 91 111 
286 403 344 84 91 111 
286 403 345 81 89 112 
287 402 344 87 94 113 
287 403 344 85 92 114 
284 400 348 96 101 113 
284 401 348 91 96 111 
284 402 348 82 89 111 
284 403 348 71 81 110 
285 404 345 76 86 111 
285 405 345 80 88 111 
284 404 347 71 84 112 
284 405 346 69 81 110 
284 405 347 75 85 112 
285 404 346 66 78 110 
285 405 346 72 83 111 
285 406 345 77 88 112 
285 407 345 78 89 114 
284 406 346 72 85 113 
284 406 347 74 86 113 
284 407 346 71 85 116 
284 407 347 73 86 115 
285 406 346 75 87 113 
285 407 346 75 87 116 
286 404 344 78 87 111 
286 404 345 79 87 111 
286 405 344 75 85 111 
287 404 344 81 89 113 
286 406 344 77 88 113 
286 407 344 77 88 116 
284 404 348 72 86 112 
284 407 348 69 84 114 
287 408 343 77 89 116 
287 409 343 78 89 118 
287 410 343 84 95 120 
287 411 343 86 97 120 
286 412 343 85 96 120 
286 413 343 84 95 121 
287 412 343 90 100 122 
287 413 343 93 102 124 
286 414 343 89 100 124 
286 415 343 89 101 125 
281 408 351 46 75 120 
281 409 351 44 75 116 
281 410 351 43 73 116 
281 411 351 49 77 120 
282 409 349 57 78 111 
283 408 348 63 81 112 
283 408 349 56 76 111 
283 409 348 61 80 112 
283 409 349 59 79 112 
282 408 350 52 75 113 
282 408 351 46 73 115 
282 409 350 60 81 113 
282 409 351 57 82 114 
282 410 349 60 80 114 
282 411 349 63 82 116 
283 410 348 61 79 112 
283 410 349 61 80 113 
283 411 348 65 83 114 
283 411 349 63 82 114 
282 410 350 60 81 113 
282 410 351 58 80 113 
282 411 350 60 81 115 
282 411 351 59 81 114 
283 413 347 64 84 117 
283 414 347 65 86 119 
283 415 347 72 92 123 
281 412 351 53 79 120 
281 413 351 55 80 121 
281 414 351 47 75 119 
281 415 351 50 81 122 
282 412 349 64 82 117 
282 413 349 64 84 119 
283 412 348 69 87 119 
283 412 349 65 84 118 
283 413 348 64 84 118 
283 413 349 61 82 117 
282 412 350 67 85 118 
282 412 351 60 83 116 
282 413 350 62 83 118 
282 413 351 62 84 118 
282 414 349 51 76 115 
283 414 348 60 83 117 
283 414 349 35 69 111 
283 415 348 66 87 120 
283 415 349 45 77 114 
282 414 350 50 76 115 
282 414 351 39 68 115 
282 415 350 45 74 116 
282 415 351 46 76 121 
283 415 350 56 82 120 
285 408 345 72 86 114 
285 409 345 71 86 115 
284 408 346 67 83 114 
284 408 347 67 84 114 
284 409 346 66 82 112 
284 409 347 61 80 112 
285 408 346 77 90 115 
285 409 346 68 83 112 
285 410 345 73 88 116 
285 411 345 74 89 116 
284 410 346 67 84 114 
284 410 347 64 82 113 
284 411 346 72 89 120 
284 411 347 68 84 115 
285 410 346 69 85 117 
285 411 346 74 90 119 
286 408 344 73 86 115 
286 409 344 76 88 116 
286 409 345 73 87 116 
286 410 344 79 91 118 
286 410 345 76 90 118 
286 411 344 82 95 119 
286 411 345 77 91 118 
284 408 348 65 81 113 
285 412 345 80 94 121 
285 413 345 82 96 124 
284 412 346 72 89 118 
284 412 347 74 89 119 
284 413 346 73 91 121 
284 413 347 70 88 120 
285 414 344 78 92 121 
285 414 345 81 96 125 
285 415 344 80 95 124 
285 415 345 76 94 124 
284 414 346 74 92 122 
284 414 347 71 89 122 
284 415 346 73 91 121 
284 415 347 72 92 123 
286 412 344 82 95 120 
286 412 345 86 98 123 
286 413 344 79 92 120 
286 414 344 79 91 120 
286 415 344 81 93 121 
283 387 352 46 79 123 
283 387 353 45 80 122 
283 388 352 51 80 123 
283 388 353 46 79 121 
283 389 352 65 88 124 
283 389 353 53 83 124 
283 388 354 45 78 121 
283 389 354 46 79 123 
283 390 352 59 84 117 
283 390 353 59 86 123 
283 391 352 41 68 107 
283 391 353 62 86 121 
283 390 354 50 79 123 
283 390 355 33 69 119 
283 391 354 63 88 127 
283 391 355 46 76 125 
284 384 352 72 99 131 
284 384 353 74 101 136 
284 385 352 58 86 128 
284 385 353 70 95 135 
284 384 354 65 96 135 
284 385 354 69 98 135 
284 386 352 51 82 127 
284 386 353 60 88 130 
284 387 352 43 77 123 
284 387 353 53 84 125 
284 386 354 80 102 138 
284 387 354 75 97 134 
284 388 354 58 85 127 
282 393 353 52 79 117 
283 392 352 26 60 102 
283 392 353 53 79 115 
283 393 352 36 66 106 
282 392 354 70 94 125 
282 393 354 73 96 128 
283 392 354 77 100 132 
283 392 355 71 96 135 
283 393 354 79 103 133 
283 393 355 86 109 142 
282 394 352 50 77 114 
282 394 353 61 86 122 
282 395 352 61 86 118 
282 395 353 60 86 124 
283 394 352 48 75 110 
282 394 354 72 96 130 
282 394 355 81 108 138 
282 395 354 60 89 128 
282 395 355 70 100 135 
283 394 355 88 113 143 
283 395 355 82 110 142 
281 399 353 54 84 124 
281 399 354 56 88 130 
282 396 352 60 85 117 
282 396 353 55 84 124 
282 397 352 57 83 117 
282 397 353 53 81 123 
282 396 354 48 82 128 
282 396 355 54 87 133 
282 397 354 52 83 130 
282 397 355 49 83 133 
283 396 355 68 99 141 
282 398 352 60 84 116 
282 398 353 56 84 124 
282 399 352 58 82 115 
282 399 353 56 83 122 
282 398 354 52 83 130 
282 398 355 52 85 136 
282 399 354 56 86 132 
282 399 355 61 92 140 
281 400 352 55 80 116 
281 400 353 50 82 120 
281 401 352 58 79 117 
281 401 353 51 78 119 
281 400 354 55 89 128 
281 400 355 70 100 140 
281 401 354 51 82 124 
281 401 355 63 94 136 
281 402 352 55 76 117 
281 402 353 47 72 118 
281 403 352 53 74 117 
281 403 353 47 72 118 
281 402 354 43 73 122 
281 402 355 54 86 131 
281 403 354 44 73 123 
281 403 355 48 81 131 
282 400 352 57 82 115 
282 401 352 63 81 115 
282 400 355 67 98 142 
282 402 352 63 83 118 
281 402 356 54 89 138 
281 403 356 48 83 135 
281 404 352 54 75 119 
281 404 353 54 78 123 
281 405 352 53 79 123 
281 405 353 57 84 128 
280 404 355 55 85 134 
280 405 354 60 90 136 
280 405 355 57 89 135 
281 404 354 54 82 129 
281 404 355 49 83 132 
281 405 354 59 88 133 
281 405 355 49 84 134 
281 406 352 54 81 126 
281 406 353 57 86 129 
281 407 352 57 81 125 
281 407 353 59 85 129 
280 406 354 59 92 136 
280 406 355 58 90 136 
280 407 354 59 90 135 
281 406 354 61 92 135 
281 406 355 48 85 132 
281 407 354 62 90 134 
281 407 355 52 85 133 
281 404 356 45 82 135 
281 405 356 55 88 138 
281 406 356 71 99 146 
281 407 356 74 102 148 
281 408 352 58 82 124 
281 408 353 53 81 126 
281 409 352 55 82 122 
281 409 353 56 81 126 
281 408 354 52 83 129 
281 408 355 56 85 132 
281 409 354 51 77 125 
281 409 355 52 80 128 
281 410 352 56 81 122 
281 410 353 57 81 128 
281 411 352 55 81 122 
281 411 353 51 79 128 
280 411 354 45 77 128 
281 410 354 51 78 127 
281 410 355 62 90 136 
281 411 354 46 75 126 
281 411 355 63 92 139 
281 408 356 75 103 148 
281 409 356 74 102 147 
281 412 352 54 80 124 
281 412 353 50 80 130 
281 413 352 57 83 124 
281 413 353 51 82 131 
280 412 354 41 78 130 
280 413 354 49 84 133 
280 413 355 57 86 135 
281 412 355 64 93 141 
281 413 354 43 79 129 
281 413 355 66 94 144 
281 414 352 54 79 122 
281 414 353 50 81 131 
281 415 352 56 81 126 
281 415 353 56 82 132 
280 414 354 53 86 135 
280 414 355 62 91 141 
280 415 354 56 86 136 
280 415 355 63 94 145 
281 414 355 69 98 147 
281 415 355 71 99 150 
281 414 356 69 98 149 
281 415 356 71 99 150 
285 417 343 76 93 121 
285 418 343 75 91 121 
285 419 343 74 89 125 
286 416 343 92 105 127 
286 417 343 82 98 123 
286 418 343 79 95 122 
283 416 348 61 85 118 
283 416 349 50 79 117 
282 416 350 56 83 131 
282 416 351 55 80 127 
282 417 351 52 78 127 
283 416 350 53 82 123 
283 416 351 49 74 122 
283 417 350 54 80 129 
283 417 351 53 79 129 
283 419 348 52 83 123 
283 419 349 55 84 124 
282 419 351 54 82 133 
283 418 350 57 83 134 
283 418 351 53 81 133 
283 419 350 58 87 132 
283 419 351 55 84 134 
284 416 345 77 96 124 
285 416 344 82 96 124 
285 416 345 71 91 123 
285 417 344 86 100 125 
285 417 345 71 91 121 
284 416 346 74 94 123 
284 416 347 67 90 121 
284 417 346 70 89 122 
284 417 347 63 86 121 
284 418 345 66 86 119 
284 419 344 70 89 125 
284 419 345 71 91 123 
285 418 344 88 102 126 
285 418 345 68 87 120 
285 419 344 81 96 125 
284 418 346 71 90 122 
284 418 347 67 89 123 
284 419 346 72 91 122 
284 419 347 56 82 122 
286 416 344 93 103 126 
286 417 344 90 103 125 
284 416 348 51 79 114 
284 416 349 46 73 116 
284 417 348 42 71 115 
284 417 349 51 76 120 
284 417 350 54 78 126 
284 418 348 44 72 118 
284 418 349 49 72 121 
284 419 348 47 78 120 
284 419 349 50 77 122 
284 418 350 59 82 130 
284 419 350 54 79 126 
281 416 352 60 81 129 
281 416 353 55 81 134 
281 417 352 56 80 129 
281 417 353 54 80 137 
280 416 354 56 86 139 
280 416 355 59 90 144 
280 417 354 58 87 142 
280 417 355 62 92 147 
281 416 355 69 97 150 
281 417 355 69 96 151 
280 419 353 58 87 141 
281 418 352 44 72 127 
281 418 353 58 84 140 
281 419 352 45 76 129 
281 419 353 47 77 131 
280 418 354 55 86 142 
280 418 355 63 92 147 
280 419 354 55 85 142 
280 419 355 64 93 147 
281 418 355 66 95 150 
282 416 352 60 83 127 
282 417 352 55 80 128 
282 418 352 53 80 133 
282 419 352 52 81 132 
281 416 356 71 99 150 
281 417 356 69 98 152 
280 419 356 66 97 149 
281 418 356 69 98 152 
281 419 356 68 98 151 
288 384 343 80 92 109 
288 385 343 81 93 110 
288 386 343 82 93 110 
288 387 343 84 93 110 
288 388 343 84 93 110 
288 389 343 84 92 110 
288 390 343 83 90 110 
288 391 343 89 93 112 
288 384 344 80 92 110 
288 385 344 80 92 110 
288 386 344 80 92 110 
288 392 343 89 93 112 
288 393 343 89 93 111 
288 394 343 92 95 111 
303 376 315 61 86 115 
303 377 315 65 88 113 
302 378 314 91 97 109 
302 379 314 110 109 114 
302 379 315 98 107 120 
303 378 315 71 92 115 
303 377 316 66 87 115 
303 378 316 65 85 114 
303 378 317 67 83 115 
303 379 316 70 88 116 
303 379 317 67 82 115 
303 379 318 77 91 117 
306 371 318 66 90 115 
305 373 317 79 101 125 
304 375 316 62 89 119 
304 375 317 68 92 120 
305 374 318 84 106 128 
305 374 319 87 107 128 
305 375 318 83 103 125 
305 375 319 85 104 124 
306 372 319 78 99 121 
306 373 319 87 107 129 
304 376 316 65 85 116 
304 376 317 64 86 116 
304 377 317 66 85 115 
304 376 318 72 92 118 
304 377 318 73 92 118 
305 376 318 81 99 123 
305 376 319 81 100 122 
305 377 319 76 95 120 
304 378 317 65 85 115 
304 378 318 72 91 117 
304 378 319 76 93 116 
304 379 318 74 92 117 
304 379 319 83 95 119 
305 378 319 72 92 116 
305 375 320 86 102 121 
306 373 320 78 100 122 
306 373 321 80 102 124 
306 374 320 84 104 123 
306 374 321 87 106 126 
306 375 321 94 109 128 
306 374 322 86 105 125 
305 376 320 84 100 120 
305 376 321 90 103 121 
305 377 320 78 98 119 
305 377 321 83 99 118 
305 377 322 84 99 118 
305 377 323 84 99 118 
304 378 320 75 92 115 
304 378 321 78 95 116 
305 378 320 74 94 116 
305 378 321 77 95 116 
305 378 322 77 93 114 
305 378 323 79 94 114 
302 319 301 152 104 60 
303 318 302 160 120 63 
303 319 303 155 116 64 
305 302 302 149 108 55 
305 302 303 144 102 41 
306 302 303 147 106 49 
306 303 303 145 104 49 
305 302 304 140 97 28 
305 302 305 139 94 26 
306 302 304 141 98 32 
306 302 305 139 95 27 
306 303 304 141 99 43 
306 303 305 144 101 36 
306 302 306 130 90 27 
306 302 307 124 91 47 
306 303 306 140 98 30 
306 303 307 132 92 33 
305 302 309 117 104 93 
305 303 309 123 96 67 
305 302 310 105 100 100 
305 302 311 92 94 101 
305 303 310 115 100 87 
305 303 311 107 100 98 
306 302 308 125 99 69 
306 302 309 120 105 91 
306 303 308 127 92 47 
306 303 309 126 99 69 
305 302 312 89 95 104 
305 302 313 96 102 112 
305 303 312 97 97 101 
305 303 313 95 99 108 
305 302 314 100 103 111 
305 302 315 111 110 114 
305 303 314 97 102 111 
305 303 315 102 105 112 
305 302 316 124 119 119 
305 302 317 129 122 121 
305 303 316 117 114 117 
305 303 317 129 122 122 
305 302 318 133 125 122 
305 302 319 135 127 125 
305 303 318 133 126 124 
305 303 319 136 128 126 
305 305 307 141 99 42 
305 306 307 144 103 50 
306 304 304 147 106 54 
306 304 305 146 105 49 
306 305 304 152 110 61 
306 305 305 151 109 58 
306 304 306 146 103 41 
306 304 307 140 98 34 
306 305 306 148 106 52 
306 305 307 143 100 42 
306 306 304 157 116 65 
306 306 305 155 114 64 
306 307 304 159 120 70 
306 307 305 157 116 67 
306 306 306 151 110 61 
306 306 307 147 106 55 
306 307 306 152 111 64 
306 307 307 147 105 58 
305 304 308 132 91 30 
305 304 309 129 93 45 
305 305 308 134 90 30 
305 305 309 132 91 27 
305 304 310 124 98 68 
305 304 311 117 101 86 
305 305 310 133 99 55 
305 305 311 127 101 69 
305 306 308 140 98 40 
305 306 309 132 89 23 
305 307 308 144 102 50 
305 307 309 139 96 33 
305 306 310 129 87 29 
305 306 311 134 98 53 
305 307 310 131 87 22 
305 307 311 129 88 32 
306 304 308 133 93 32 
306 308 304 161 121 74 
306 308 305 159 118 70 
306 309 305 160 119 73 
306 308 306 154 112 64 
306 308 307 150 108 58 
306 309 306 157 115 65 
306 309 307 151 110 58 
306 310 305 161 120 73 
306 311 305 156 114 67 
306 310 306 160 119 69 
306 310 307 155 114 62 
306 311 306 156 114 67 
306 311 307 157 115 64 
305 308 308 144 101 51 
305 308 309 140 97 38 
305 309 308 149 108 54 
305 309 309 145 103 45 
305 308 310 137 94 26 
305 308 311 131 88 26 
305 309 310 138 92 30 
305 309 311 131 85 20 
305 310 309 148 107 53 
305 310 310 145 102 42 
305 310 311 139 94 26 
305 311 310 148 106 52 
305 311 311 142 100 36 
306 308 308 148 106 54 
306 309 308 150 108 55 
306 310 308 152 111 59 
306 310 309 149 108 56 
306 311 308 155 113 63 
306 311 309 154 112 60 
306 311 310 152 111 58 
305 304 312 112 104 101 
305 304 313 105 104 108 
305 305 312 116 100 84 
305 305 313 109 101 97 
305 304 314 99 102 111 
305 304 315 99 102 111 
305 305 314 102 101 105 
305 305 315 97 100 108 
305 306 312 131 103 71 
305 306 313 120 101 82 
305 307 312 138 102 60 
305 307 313 135 108 79 
305 306 314 107 99 96 
305 306 315 100 99 103 
305 307 314 118 102 88 
305 307 315 107 100 95 
305 304 316 108 108 113 
305 304 317 124 119 120 
305 305 316 100 102 110 
305 305 317 110 109 114 
304 304 319 134 127 125 
304 305 318 121 117 118 
304 305 319 128 122 122 
305 304 318 131 124 123 
305 304 319 136 128 126 
305 305 318 117 114 116 
305 306 316 95 98 107 
305 306 317 97 101 109 
305 307 316 96 98 104 
305 307 317 93 98 107 
304 306 318 108 108 113 
304 306 319 119 116 118 
304 307 318 100 103 110 
304 307 319 109 109 114 
305 306 318 102 104 110 
305 307 318 95 100 108 
305 308 312 133 91 44 
305 308 313 141 107 66 
305 309 312 130 85 26 
305 308 314 134 109 81 
305 308 315 120 103 86 
305 309 315 133 109 82 
305 310 315 139 110 79 
306 309 312 132 88 31 
306 309 313 138 100 52 
306 308 314 138 111 79 
306 309 314 141 109 72 
306 310 312 128 81 12 
306 310 313 134 91 35 
306 311 312 134 90 17 
306 311 313 127 82 26 
306 310 314 139 103 57 
306 310 315 140 108 71 
306 311 314 135 96 47 
306 311 315 139 106 63 
305 308 316 104 99 97 
305 308 317 96 98 104 
305 309 316 114 101 91 
305 309 317 97 95 97 
304 308 318 96 101 109 
304 308 319 103 105 113 
304 309 318 94 97 105 
304 309 319 98 102 110 
305 308 318 96 100 108 
305 309 318 93 95 100 
305 310 316 126 107 88 
305 310 317 108 99 94 
305 311 316 135 110 80 
305 311 317 119 104 90 
304 310 318 92 94 99 
304 310 319 94 97 105 
304 311 318 103 99 98 
304 311 319 101 100 104 
305 310 318 98 95 95 
305 311 318 103 97 94 
305 313 304 160 120 73 
305 314 304 159 120 73 
306 312 305 158 117 68 
306 312 306 156 115 66 
306 312 307 157 114 65 
306 313 306 159 118 71 
306 313 307 160 118 69 
307 313 307 159 119 70 
306 314 306 160 119 74 
306 315 306 162 121 72 
307 314 307 158 116 70 
307 315 307 162 120 70 
305 312 310 154 112 58 
305 312 311 150 109 51 
305 313 311 153 111 55 
305 314 311 155 112 59 
305 315 311 157 115 61 
306 312 308 156 114 64 
306 312 309 154 112 61 
306 313 308 157 115 65 
306 313 309 156 113 63 
307 313 308 157 116 67 
306 312 310 153 112 59 
306 312 311 147 106 47 
306 313 310 155 112 60 
306 314 309 157 116 65 
306 315 309 158 116 65 
307 314 308 157 116 67 
307 314 309 157 116 66 
307 315 308 161 119 68 
307 315 309 158 117 66 
306 314 310 157 116 64 
306 315 310 157 116 63 
305 316 305 161 125 81 
305 317 305 161 127 83 
304 318 304 160 126 85 
304 319 304 160 125 83 
304 319 305 162 129 89 
305 318 305 157 121 80 
305 319 305 162 128 85 
305 319 306 163 126 80 
306 316 306 159 120 72 
306 316 307 159 118 68 
306 317 306 162 124 75 
306 317 307 160 119 70 
306 318 307 162 122 73 
306 319 307 161 122 74 
305 316 311 157 114 60 
305 317 311 158 116 62 
305 318 311 158 115 66 
305 319 311 159 118 67 
306 316 309 159 117 66 
307 316 308 162 120 68 
307 316 309 161 119 66 
307 317 308 161 119 69 
307 317 309 160 118 67 
306 316 310 159 116 63 
306 316 311 157 114 60 
306 317 310 160 117 65 
306 317 311 159 117 64 
306 318 309 162 121 69 
307 318 308 162 121 71 
307 318 309 160 118 68 
307 319 308 162 121 73 
307 319 309 162 120 70 
306 318 310 160 117 67 
306 318 311 159 116 68 
306 319 310 161 120 69 
306 319 311 160 119 68 
305 312 312 142 100 35 
305 313 312 148 105 40 
305 313 313 135 91 17 
305 312 315 139 103 54 
305 313 315 132 92 38 
305 314 312 151 108 48 
305 314 313 141 96 23 
305 315 312 156 113 56 
305 315 313 150 106 40 
305 314 314 130 82 6 
305 314 315 129 85 19 
305 315 314 138 89 16 
305 315 315 128 76 8 
306 312 312 137 95 26 
306 312 313 128 83 20 
306 313 313 128 83 14 
306 312 314 128 87 32 
306 312 315 135 97 47 
306 313 314 125 80 19 
305 312 316 140 109 68 
305 312 317 131 110 86 
305 313 316 139 103 57 
305 313 317 139 110 74 
304 312 318 108 100 95 
304 312 319 105 101 102 
304 313 319 114 104 97 
305 312 318 116 104 94 
305 313 318 126 108 89 
305 314 316 135 95 41 
305 314 317 141 106 61 
305 315 316 132 87 31 
305 315 317 139 101 53 
304 314 319 120 105 90 
304 315 319 125 105 83 
305 314 318 136 108 75 
305 315 318 139 106 66 
305 316 312 155 112 57 
305 316 313 152 109 49 
305 317 312 156 113 60 
305 317 313 153 110 55 
305 316 314 143 98 26 
305 316 315 132 82 12 
305 317 314 148 104 39 
305 317 315 137 91 19 
304 318 313 155 114 57 
305 318 312 157 114 63 
305 318 313 155 112 60 
305 319 312 159 117 66 
305 319 313 156 114 63 
305 318 314 153 111 53 
305 318 315 145 102 36 
305 319 314 155 112 61 
305 319 315 150 108 48 
305 316 316 128 82 17 
305 316 317 132 92 40 
305 317 316 129 83 11 
305 317 317 127 85 25 
304 316 319 128 104 77 
304 317 319 136 104 65 
305 316 318 138 103 62 
305 317 318 136 98 49 
305 317 319 137 102 62 
305 318 316 133 88 18 
305 318 317 124 79 14 
305 319 316 138 95 23 
305 319 317 127 82 7 
304 318 319 138 102 59 
304 319 318 126 81 22 
304 319 319 134 94 44 
305 318 318 129 87 32 
305 319 318 124 78 14 
303 308 321 136 130 129 
303 309 321 127 123 125 
303 310 321 113 113 118 
303 311 321 102 105 113 
303 312 320 97 101 110 
303 312 321 99 103 113 
303 313 320 101 102 109 
303 313 321 99 103 111 
302 312 322 104 109 118 
302 313 322 100 106 116 
303 312 322 104 107 116 
303 313 322 100 106 116 
303 314 320 105 101 102 
303 314 321 100 101 106 
303 315 320 111 102 96 
303 315 321 104 101 102 
302 314 322 100 106 117 
302 315 322 101 106 115 
303 314 322 99 104 114 
303 315 322 100 103 110 
303 316 320 115 102 91 
303 316 321 107 99 94 
303 317 320 122 105 88 
303 317 321 110 99 89 
302 316 322 101 105 112 
302 317 322 101 101 105 
303 316 322 101 100 104 
303 317 322 101 96 95 
303 318 320 124 102 75 
303 318 321 114 97 80 
303 319 320 128 100 65 
303 319 321 122 100 75 
303 318 322 107 101 99 
303 319 322 109 99 91 
305 302 320 136 128 127 
305 303 320 136 128 126 
304 304 320 135 128 126 
304 304 321 131 125 124 
304 305 320 133 126 125 
304 305 321 132 126 125 
305 304 320 136 128 126 
304 306 320 130 124 124 
304 306 321 137 130 129 
304 307 320 124 120 121 
304 307 321 135 129 128 
304 308 320 114 113 118 
304 308 321 131 125 126 
304 309 320 112 112 118 
304 309 321 122 120 122 
304 310 320 100 104 112 
304 311 320 97 101 110 
304 312 320 98 99 106 
304 313 320 102 98 100 
304 314 320 108 99 94 
304 315 320 115 100 86 
304 316 320 123 103 82 
304 317 320 129 106 79 
304 318 320 132 104 70 
304 319 320 134 100 56 
302 320 302 152 106 54 
302 321 302 153 106 53 
302 321 303 156 115 56 
303 320 303 156 117 63 
303 321 303 155 115 60 
302 322 302 151 103 53 
302 322 303 157 115 55 
302 323 302 145 87 46 
302 323 303 152 106 43 
302 324 302 139 62 54 
302 324 303 146 94 42 
302 325 303 140 72 48 
302 326 303 138 56 60 
302 327 303 139 54 72 
301 329 303 140 66 78 
301 330 303 143 71 81 
301 331 303 145 73 82 
302 328 303 137 53 71 
302 329 303 136 59 73 
301 332 303 143 72 83 
301 333 303 142 74 85 
303 320 304 160 125 78 
303 321 304 156 118 68 
303 321 305 160 126 82 
303 322 304 156 115 61 
303 322 305 159 122 75 
303 323 304 158 117 60 
303 323 305 160 122 73 
302 325 304 153 108 48 
303 324 304 158 117 57 
303 324 305 159 121 72 
303 325 304 155 111 51 
303 325 305 158 119 65 
302 326 304 151 99 48 
302 327 304 149 92 47 
302 327 305 153 101 47 
303 326 304 153 105 46 
303 326 305 157 116 56 
303 327 305 155 110 50 
303 326 306 160 123 69 
303 327 306 159 120 63 
303 325 319 137 86 7 
303 326 319 138 90 7 
302 328 304 144 77 49 
302 328 305 150 96 41 
302 329 304 139 62 55 
302 329 305 149 92 42 
303 328 305 153 103 45 
302 329 306 153 102 44 
303 328 306 156 113 52 
303 328 307 159 120 71 
303 329 306 155 110 47 
303 329 307 159 120 66 
302 330 304 140 57 65 
302 330 305 143 75 42 
302 331 304 140 57 73 
302 331 305 138 56 48 
302 330 306 151 99 37 
302 330 307 152 105 44 
302 331 306 146 87 34 
302 331 307 151 101 41 
303 330 307 156 116 58 
303 331 307 155 111 51 
303 330 308 155 117 66 
303 331 308 158 119 62 
302 332 304 138 50 76 
302 332 305 137 50 59 
302 333 304 139 58 83 
302 333 305 136 46 63 
302 332 306 143 79 40 
302 332 307 149 96 34 
302 333 306 139 66 42 
302 333 307 146 89 33 
303 332 307 155 107 46 
303 333 307 152 101 42 
302 334 304 140 64 86 
302 334 305 136 47 70 
302 335 305 138 55 73 
302 334 306 137 57 49 
302 334 307 142 78 31 
302 335 306 138 57 58 
302 335 307 140 66 38 
303 334 307 148 92 25 
303 335 307 144 81 24 
303 332 308 157 115 58 
303 333 308 155 109 50 
303 333 309 158 114 57 
303 334 308 154 105 40 
303 334 309 157 112 50 
303 335 308 150 98 34 
303 335 309 154 109 48 
303 328 319 137 91 16 
302 336 305 137 52 73 
302 337 305 139 55 75 
302 336 306 137 52 55 
302 336 307 140 63 45 
302 337 306 136 47 58 
302 337 307 141 62 48 
303 336 307 143 76 40 
303 337 307 144 76 41 
302 338 305 139 57 75 
302 338 306 136 48 60 
302 338 307 139 61 49 
303 338 307 141 69 48 
303 339 307 138 68 48 
303 336 308 149 95 33 
303 336 309 155 110 51 
303 337 308 146 90 36 
303 337 309 154 107 48 
303 336 310 159 116 59 
303 337 310 158 115 59 
303 338 308 144 86 40 
303 338 309 152 104 45 
303 339 308 142 86 39 
303 339 309 149 100 41 
303 338 310 158 114 56 
303 339 310 155 109 51 
303 340 307 137 67 44 
303 340 308 141 86 38 
303 340 309 145 94 36 
304 320 304 159 125 82 
304 320 305 160 126 86 
304 321 305 162 129 89 
304 321 306 164 132 93 
305 320 306 163 127 85 
305 321 306 162 128 87 
305 321 307 162 128 86 
304 322 305 161 127 84 
304 323 305 160 124 78 
304 322 306 163 131 93 
304 323 306 160 127 89 
305 322 306 163 133 96 
305 322 307 164 134 98 
305 323 306 159 129 95 
305 323 307 160 131 98 
306 320 307 162 124 78 
306 321 307 163 127 80 
306 322 307 164 131 90 
307 320 308 161 120 75 
307 320 309 159 118 73 
307 321 309 162 121 75 
306 320 310 159 117 72 
306 320 311 159 117 70 
306 321 310 160 118 73 
306 321 311 161 119 71 
307 321 310 160 119 74 
307 322 309 162 122 75 
307 323 309 163 126 79 
306 322 311 161 119 71 
306 323 311 160 117 69 
307 322 310 162 121 73 
307 323 310 163 123 73 
307 323 311 160 119 69 
304 324 305 159 123 80 
304 325 305 159 123 77 
304 324 306 163 130 94 
304 325 306 161 128 89 
305 324 307 161 132 100 
305 325 307 162 134 102 
304 326 306 160 126 83 
304 326 307 160 128 93 
304 327 306 161 124 76 
304 327 307 161 127 85 
305 326 307 162 133 101 
305 327 307 162 133 100 
306 324 308 161 130 92 
306 325 308 162 132 98 
307 324 309 164 128 82 
307 325 309 162 128 87 
306 324 311 161 119 70 
306 325 311 162 120 71 
307 324 310 164 125 74 
307 325 310 159 120 75 
307 325 311 160 119 72 
306 326 308 161 133 101 
307 326 310 160 123 79 
307 326 311 159 118 72 
307 327 310 162 126 82 
307 327 311 162 123 74 
305 320 312 158 117 66 
305 320 313 158 116 65 
305 321 312 159 117 68 
305 321 313 157 115 67 
304 321 315 153 110 58 
305 320 314 156 115 64 
305 320 315 152 109 55 
305 321 314 157 115 64 
305 321 315 156 113 62 
305 322 313 158 116 65 
305 323 313 159 117 65 
304 322 315 154 111 59 
304 323 315 154 112 58 
305 322 314 157 114 65 
305 322 315 156 113 64 
305 323 314 157 114 63 
305 323 315 156 113 62 
306 321 312 159 117 69 
306 322 312 161 118 69 
306 323 312 160 117 67 
306 323 313 158 115 64 
304 320 316 143 99 35 
304 320 317 132 85 12 
304 321 316 147 104 43 
304 321 317 137 90 19 
305 320 316 141 97 28 
305 320 317 125 78 2 
304 320 318 123 76 5 
304 320 319 129 86 30 
304 321 318 127 77 3 
304 321 319 123 77 16 
304 322 316 149 107 50 
304 322 317 142 97 24 
304 323 316 150 108 49 
304 323 317 144 101 31 
304 322 318 132 82 7 
304 322 319 123 74 8 
304 323 318 137 88 15 
304 323 319 128 75 9 
305 324 313 158 115 62 
304 324 315 153 110 54 
305 324 314 156 114 60 
305 324 315 154 111 58 
305 325 314 157 114 61 
305 325 315 153 111 57 
305 326 315 152 109 58 
305 327 315 150 107 55 
306 324 312 159 116 66 
306 324 313 157 115 62 
306 325 312 158 117 68 
306 325 313 157 115 64 
306 325 314 156 115 63 
306 326 312 157 115 69 
306 326 313 154 112 64 
306 327 312 157 115 67 
306 327 313 157 115 66 
307 327 312 159 118 69 
306 326 314 154 112 63 
306 326 315 151 107 60 
306 327 314 155 113 63 
306 327 315 152 109 59 
304 324 316 150 107 46 
304 324 317 146 103 36 
304 325 316 149 107 47 
304 325 317 148 105 40 
304 324 318 141 94 22 
304 324 319 132 80 11 
304 325 318 144 99 26 
304 325 319 135 85 10 
304 326 316 148 106 48 
304 326 317 148 106 43 
304 327 317 148 106 45 
305 326 316 150 108 55 
305 326 317 148 106 47 
305 327 316 148 106 52 
305 327 317 148 106 49 
304 326 318 145 102 29 
304 326 319 142 96 16 
304 327 318 146 103 35 
304 327 319 141 95 18 
304 328 307 160 125 81 
305 328 307 161 131 95 
304 329 308 157 125 86 
305 328 308 163 135 104 
305 329 308 157 127 94 
305 329 309 159 130 97 
304 330 308 157 122 79 
304 330 309 159 127 87 
304 331 308 157 119 71 
304 331 309 156 121 76 
305 330 309 160 130 95 
304 331 310 156 124 86 
305 330 310 157 125 89 
305 330 311 159 124 81 
305 331 310 159 127 88 
305 331 311 158 125 84 
306 328 309 159 129 96 
306 329 309 160 130 96 
306 329 310 159 125 84 
306 329 311 159 122 77 
307 328 310 162 126 83 
307 328 311 161 122 75 
307 329 311 160 122 77 
306 330 310 156 123 81 
306 330 311 157 121 75 
304 332 309 160 122 73 
304 333 309 158 117 66 
304 332 310 161 128 86 
304 332 311 161 128 88 
304 333 310 158 122 77 
304 333 311 161 128 87 
305 332 311 156 122 82 
305 333 311 157 124 83 
304 334 309 159 117 63 
304 335 309 157 114 59 
304 334 310 158 118 67 
304 334 311 158 122 77 
304 335 310 159 119 66 
304 335 311 160 123 74 
305 331 312 160 124 79 
305 331 313 159 121 71 
306 329 312 159 120 73 
306 329 313 154 113 66 
307 328 312 159 119 70 
307 328 313 157 116 65 
307 329 312 156 115 68 
307 329 313 153 111 65 
306 328 314 156 114 61 
306 328 315 155 113 57 
306 329 314 154 111 63 
306 329 315 154 111 59 
307 328 314 156 114 63 
306 330 312 158 119 71 
306 330 313 157 116 66 
306 331 312 157 121 76 
306 331 313 157 118 67 
306 330 314 157 115 64 
306 330 315 155 113 61 
306 331 314 153 111 58 
306 331 315 153 110 56 
305 328 316 153 111 52 
305 328 317 150 108 49 
305 329 317 153 110 49 
304 328 318 147 104 38 
304 328 319 142 97 25 
304 329 318 147 103 33 
304 329 319 142 97 23 
305 328 318 149 107 45 
305 329 318 150 107 39 
305 330 317 149 106 48 
304 330 319 142 95 18 
305 330 318 146 102 36 
305 330 319 140 93 20 
305 331 318 144 98 35 
305 331 319 136 89 18 
306 328 316 154 112 51 
306 329 316 153 110 55 
306 329 317 151 108 51 
306 330 316 153 109 58 
306 330 317 150 106 51 
306 331 316 153 111 55 
306 331 317 150 107 46 
306 331 318 146 102 37 
306 331 319 142 97 29 
305 332 312 157 121 78 
305 332 313 159 120 71 
305 333 312 157 123 80 
305 333 313 158 120 74 
305 332 314 156 116 62 
305 333 314 155 115 65 
304 334 312 156 121 79 
304 335 312 158 122 75 
305 334 312 157 123 79 
305 334 313 159 123 77 
305 335 313 157 119 70 
305 334 314 157 117 67 
305 335 314 157 117 67 
306 332 314 156 114 59 
306 332 315 155 111 56 
306 333 315 155 113 59 
306 334 315 154 111 58 
306 335 315 155 111 58 
305 332 319 136 90 24 
306 332 316 151 108 51 
306 332 317 148 103 42 
306 333 316 150 107 49 
306 333 317 147 103 37 
306 332 318 144 100 33 
306 332 319 141 97 30 
306 333 318 144 99 32 
306 333 319 137 93 26 
306 334 316 149 106 45 
306 334 317 148 104 42 
306 335 316 152 108 50 
307 334 317 146 101 37 
307 335 316 151 107 48 
307 335 317 148 103 36 
306 334 318 141 97 31 
306 334 319 133 90 24 
306 335 319 129 87 15 
307 334 318 141 96 28 
307 335 318 139 96 26 
307 335 319 132 90 14 
304 336 310 158 117 65 
304 336 311 158 119 71 
304 337 310 159 117 62 
304 337 311 159 118 67 
304 339 309 152 105 46 
304 338 311 159 117 64 
304 339 310 156 111 54 
304 339 311 158 115 59 
304 340 309 150 103 41 
304 341 309 147 100 34 
304 340 310 157 113 51 
305 340 311 158 115 58 
305 341 310 151 108 44 
305 341 311 158 116 58 
304 336 312 160 123 77 
304 337 312 160 121 73 
305 336 313 159 121 75 
305 337 313 157 118 72 
305 336 314 159 118 70 
305 337 314 157 117 67 
304 338 312 160 119 70 
304 339 312 159 117 65 
305 338 313 159 119 72 
305 339 312 160 117 65 
305 339 313 158 118 70 
306 336 314 159 119 69 
306 336 315 154 112 56 
306 337 314 153 112 57 
306 337 315 152 110 53 
307 337 315 151 109 51 
306 339 313 158 116 65 
306 338 314 154 113 60 
306 338 315 153 111 54 
306 339 314 157 115 59 
307 338 315 154 111 53 
307 339 314 157 114 56 
307 339 315 154 112 55 
307 336 316 150 108 51 
307 336 317 149 105 39 
307 337 316 150 107 45 
307 337 317 147 104 34 
306 336 319 126 86 10 
307 336 318 138 97 21 
307 336 319 131 90 13 
307 337 318 137 96 26 
307 337 319 126 87 18 
307 338 316 150 107 44 
307 338 317 146 105 40 
307 339 316 149 108 45 
307 339 317 143 105 51 
307 338 318 134 96 33 
307 338 319 126 90 32 
307 339 318 131 99 57 
307 339 319 126 96 56 
305 340 312 158 114 61 
305 341 312 159 117 61 
306 340 312 159 116 61 
306 340 313 159 115 60 
306 341 312 157 116 64 
306 341 313 158 115 60 
307 340 313 153 112 58 
307 341 313 146 113 72 
307 340 314 154 113 57 
307 340 315 151 111 57 
307 342 313 140 114 86 
307 340 317 128 104 81 
307 340 318 127 102 73 
307 340 319 123 101 77 
307 341 318 116 101 88 
307 341 319 111 101 94 
307 342 318 104 103 107 
307 342 319 100 102 110 
307 343 319 98 104 115 
308 339 316 146 107 49 
308 339 317 142 107 58 
308 340 314 148 112 59 
308 340 315 146 111 67 
308 341 314 131 106 77 
308 341 315 126 107 87 
308 342 315 108 106 109 
308 343 315 102 106 116 
308 340 316 139 107 66 
308 340 317 132 104 72 
308 341 316 123 106 90 
308 341 317 121 105 91 
308 341 318 115 104 97 
308 342 316 106 105 109 
308 342 317 103 103 108 
308 343 316 101 106 117 
308 343 317 100 105 116 
308 342 318 100 103 112 
308 343 318 99 105 116 
307 344 319 104 107 115 
307 345 319 114 114 120 
307 346 319 128 123 125 
307 347 319 130 124 124 
307 348 318 117 112 115 
307 348 319 122 117 120 
307 349 318 115 110 113 
307 349 319 110 106 111 
307 351 317 137 129 127 
307 350 318 118 114 116 
307 350 319 107 104 109 
307 351 318 128 122 125 
307 351 319 113 111 117 
308 344 315 105 111 121 
308 345 315 108 113 123 
308 346 315 114 115 122 
308 344 316 104 109 119 
308 344 317 104 108 118 
308 345 316 109 112 121 
308 345 317 109 111 118 
308 344 318 103 107 116 
308 344 319 104 107 115 
308 345 318 113 113 119 
308 345 319 114 114 120 
308 346 316 114 114 121 
308 346 317 120 118 123 
308 347 316 119 116 118 
308 347 317 119 115 117 
308 346 318 126 123 125 
308 346 319 125 121 124 
308 347 318 127 122 123 
308 348 316 136 127 124 
308 348 317 122 116 116 
308 349 316 142 131 126 
308 349 317 131 123 122 
308 348 318 116 112 113 
308 349 318 115 110 112 
308 350 316 143 131 125 
308 350 317 136 127 126 
308 351 316 144 131 124 
308 351 317 139 130 126 
308 350 318 119 115 117 
302 375 313 47 74 100 
302 375 314 51 77 104 
303 375 315 65 90 119 
302 376 314 65 84 107 
302 377 314 75 88 108 
302 378 315 80 96 115 
303 376 316 69 90 118 
307 352 315 145 132 125 
307 352 316 145 132 124 
307 353 316 140 130 128 
307 352 318 120 117 121 
307 352 319 110 109 115 
307 353 319 109 108 114 
307 354 316 126 120 127 
307 355 316 100 96 117 
307 355 317 100 97 117 
307 354 319 119 120 129 
307 355 319 94 100 118 
307 356 316 89 85 115 
307 356 317 92 90 116 
307 357 316 84 78 115 
307 357 317 86 81 115 
307 356 318 89 91 118 
307 356 319 83 87 115 
307 357 318 85 83 116 
307 357 319 83 84 116 
307 358 317 81 75 113 
307 359 317 92 89 118 
307 358 318 79 74 112 
307 358 319 77 75 112 
307 359 318 92 90 118 
307 359 319 89 88 117 
308 352 317 135 126 124 
308 353 317 129 121 123 
308 352 318 123 118 121 
308 353 318 117 114 119 
308 354 317 118 113 122 
308 355 317 100 98 116 
308 354 318 114 112 123 
308 354 319 117 116 125 
308 355 318 95 96 116 
308 355 319 101 104 119 
308 356 318 88 91 116 
307 360 317 90 91 118 
307 361 317 88 94 119 
307 360 318 88 91 116 
307 360 319 85 90 116 
307 361 318 86 95 118 
307 361 319 83 94 118 
307 362 317 78 88 118 
307 362 318 76 88 118 
307 362 319 75 89 118 
307 363 318 70 86 119 
307 363 319 73 87 121 
306 364 317 62 81 116 
306 365 317 68 92 119 
306 364 318 49 80 113 
306 365 318 58 88 117 
306 365 319 62 89 117 
307 364 318 58 81 116 
307 364 319 58 82 116 
307 365 319 59 86 116 
306 366 317 80 102 124 
306 367 317 85 105 126 
306 366 318 76 101 124 
306 366 319 73 98 123 
306 367 318 85 106 128 
306 367 319 79 103 126 
305 368 316 69 95 122 
305 369 316 66 94 121 
305 370 316 60 88 117 
305 370 317 61 87 115 
305 371 317 62 87 116 
306 368 317 84 105 127 
306 368 318 85 107 128 
306 368 319 81 104 127 
306 369 318 84 107 129 
306 369 319 72 99 123 
306 370 318 73 98 121 
306 370 319 61 91 117 
306 371 319 62 89 114 
305 372 317 72 95 121 
305 372 318 78 99 121 
305 373 318 85 107 129 
305 373 319 86 108 129 
304 374 316 54 85 118 
303 320 320 133 100 58 
303 320 321 128 99 67 
303 321 320 134 99 55 
303 321 321 130 100 67 
302 320 323 98 95 96 
302 321 323 103 96 92 
303 320 322 114 96 82 
303 321 322 122 100 80 
303 322 320 128 90 39 
303 322 321 133 100 62 
303 323 320 122 78 21 
303 323 321 129 94 51 
302 322 323 111 100 91 
303 322 322 129 103 76 
303 323 322 128 102 74 
303 324 320 119 68 8 
303 324 321 124 86 41 
303 325 320 123 70 3 
303 325 321 118 77 28 
303 324 322 129 100 67 
303 324 323 123 103 81 
303 325 322 127 95 59 
303 325 323 125 102 75 
303 326 320 127 75 4 
303 326 321 114 68 21 
303 327 320 131 81 4 
303 327 321 114 63 15 
302 327 323 121 92 57 
303 326 322 121 86 44 
303 326 323 125 97 63 
303 327 322 113 73 31 
303 327 323 121 90 52 
303 328 320 133 83 8 
303 328 321 120 65 8 
303 329 320 135 84 14 
303 329 321 126 71 10 
302 328 323 112 78 47 
302 329 323 107 69 44 
303 328 322 109 61 30 
303 329 322 112 60 23 
303 330 320 134 81 17 
303 330 321 127 74 9 
303 331 321 123 75 12 
302 330 323 103 63 39 
302 331 323 100 65 42 
303 330 322 114 63 18 
303 330 323 105 56 26 
303 331 322 114 67 19 
303 331 323 103 58 26 
302 332 323 102 64 34 
303 332 322 107 64 23 
303 332 323 100 58 25 
303 333 322 108 65 21 
303 333 323 102 62 28 
303 334 323 107 65 24 
303 335 323 111 71 27 
302 332 324 103 73 51 
302 333 324 104 71 46 
302 334 324 110 76 45 
302 335 324 112 77 46 
303 336 323 108 76 37 
303 336 324 109 75 36 
303 337 324 102 72 34 
303 338 324 96 70 44 
303 339 324 97 77 62 
303 340 324 102 87 81 
303 341 324 103 93 90 
303 342 324 103 98 100 
303 343 324 103 102 106 
302 344 325 101 103 112 
302 345 325 102 105 114 
302 346 325 104 107 116 
303 348 325 118 116 120 
303 349 325 118 116 119 
303 350 325 121 117 119 
303 351 325 120 115 118 
304 320 320 134 100 54 
304 321 320 131 92 42 
304 322 320 124 81 26 
304 323 320 120 70 3 
304 324 320 121 66 5 
304 329 320 137 87 15 
304 330 320 135 86 15 
304 330 321 130 81 8 
304 331 320 132 83 12 
304 331 321 125 78 11 
305 331 320 133 85 13 
304 332 321 119 73 13 
304 333 321 118 71 15 
305 332 320 129 82 17 
305 332 321 123 77 5 
305 333 320 129 85 16 
305 333 321 122 77 12 
304 332 322 114 70 16 
304 333 322 113 68 20 
304 334 321 118 72 11 
305 334 320 125 81 16 
305 334 321 121 77 12 
305 335 321 118 76 10 
304 334 322 111 67 19 
304 335 322 111 70 19 
304 335 323 111 69 26 
306 333 320 130 84 21 
306 334 320 127 84 18 
306 335 320 124 82 14 
305 336 321 109 72 15 
305 337 321 106 75 37 
304 336 322 108 74 35 
304 336 323 107 73 33 
304 337 322 105 78 52 
304 337 323 104 77 48 
305 336 322 106 71 30 
305 337 322 103 74 49 
305 338 321 103 79 54 
305 339 321 107 86 69 
304 338 322 104 80 61 
304 338 323 100 74 50 
304 339 323 99 81 71 
305 338 322 106 86 69 
305 339 322 103 85 74 
306 336 320 120 81 11 
306 336 321 116 77 17 
306 337 320 117 81 16 
306 337 321 112 78 23 
306 338 320 117 85 37 
306 338 321 107 78 38 
306 339 320 118 91 59 
306 339 321 107 85 65 
305 340 321 107 92 82 
305 341 321 107 98 95 
304 340 323 101 89 84 
304 341 323 102 93 88 
305 340 322 103 90 82 
305 341 322 103 96 93 
305 342 321 103 99 101 
304 342 323 101 97 97 
304 343 323 102 102 106 
305 342 322 101 100 104 
305 342 323 101 98 100 
305 343 322 98 102 111 
305 343 323 101 103 110 
306 340 320 116 96 76 
306 340 321 113 95 79 
306 341 320 112 99 90 
306 341 321 108 98 94 
307 341 320 108 99 95 
306 342 320 104 100 101 
306 342 321 103 100 105 
306 343 321 102 104 111 
307 342 320 102 101 105 
307 343 320 101 104 113 
306 343 322 99 103 112 
304 340 324 100 85 75 
304 341 324 102 93 90 
304 342 324 103 97 96 
304 343 324 103 103 108 
304 344 323 104 105 113 
304 345 323 109 110 117 
305 344 322 104 106 115 
305 344 323 104 106 113 
305 345 322 109 110 117 
305 345 323 109 110 117 
305 346 322 113 113 119 
305 346 323 115 114 119 
305 347 322 117 115 119 
305 347 323 118 116 120 
306 344 321 103 106 115 
306 345 321 113 114 120 
307 344 320 105 108 116 
307 344 321 107 109 116 
307 345 320 115 115 120 
307 345 321 114 114 120 
306 344 322 101 105 114 
306 345 322 110 112 118 
306 346 321 123 119 122 
306 347 321 127 121 121 
307 346 320 127 122 124 
307 346 321 123 120 123 
307 347 320 128 121 122 
307 347 321 129 122 121 
306 346 322 118 117 121 
306 347 322 123 118 120 
304 344 324 103 106 114 
304 345 324 107 109 117 
304 346 324 117 115 120 
304 347 324 123 119 121 
305 348 322 120 116 119 
305 348 323 120 117 120 
305 349 322 120 117 119 
305 349 323 118 115 119 
305 350 322 118 114 117 
305 350 323 113 110 114 
305 351 322 115 112 116 
305 351 323 114 111 116 
306 348 321 122 117 119 
306 349 321 113 110 114 
307 348 320 123 117 120 
307 348 321 122 116 118 
307 349 320 108 105 109 
307 349 321 114 110 114 
306 348 322 121 116 119 
306 349 322 119 115 118 
306 350 321 114 110 114 
306 351 321 110 108 113 
307 350 320 106 104 110 
307 350 321 109 107 113 
307 351 320 111 110 117 
307 351 321 108 107 111 
306 350 322 120 116 119 
306 351 322 116 112 116 
304 348 324 122 118 122 
304 349 324 116 115 119 
304 350 324 116 113 116 
304 351 324 117 113 117 
305 351 324 115 112 117 
303 360 326 88 96 115 
303 361 326 84 94 115 
303 362 326 80 93 116 
303 363 326 74 91 116 
303 364 326 70 90 117 
303 365 326 67 91 117 
303 366 326 67 92 117 
303 367 326 67 92 118 
302 368 327 66 92 117 
302 369 327 67 93 117 
303 368 326 67 93 118 
303 369 326 68 93 118 
302 370 327 68 93 118 
302 371 326 69 94 119 
302 371 327 69 94 118 
303 370 326 68 93 118 
303 371 326 69 94 119 
301 374 327 72 94 118 
301 375 327 76 96 119 
302 372 326 70 94 119 
302 372 327 70 94 118 
302 373 326 72 94 119 
302 373 327 71 94 118 
303 372 326 71 94 119 
303 373 326 73 95 120 
303 374 325 76 96 120 
303 375 325 80 98 119 
302 374 326 74 95 119 
302 374 327 72 94 118 
302 375 326 76 96 119 
302 375 327 77 97 119 
303 374 326 74 95 119 
303 375 326 78 97 119 
300 372 328 67 92 116 
300 373 328 71 93 117 
300 374 328 73 94 117 
301 376 327 80 98 120 
303 376 325 82 99 119 
303 377 325 81 97 118 
302 376 327 82 99 120 
302 377 327 82 98 119 
303 376 326 82 99 119 
303 377 326 82 98 119 
301 376 328 80 99 120 
305 352 323 111 109 115 
305 353 323 106 104 112 
305 354 323 102 102 114 
306 352 321 106 104 111 
307 352 320 103 103 109 
307 352 321 105 104 109 
307 353 320 102 103 110 
307 353 321 102 102 110 
306 352 322 110 107 114 
306 353 322 99 99 109 
306 353 323 102 102 112 
307 354 320 113 116 125 
307 354 321 105 107 117 
307 355 320 96 102 119 
307 355 321 100 104 119 
306 354 322 100 102 113 
306 354 323 100 102 113 
306 355 322 95 98 115 
306 355 323 96 98 114 
307 354 322 102 105 117 
307 355 322 94 98 115 
304 352 324 112 109 114 
304 352 325 113 110 115 
304 353 324 109 107 113 
304 353 325 110 107 113 
305 352 324 112 109 114 
305 353 324 109 107 114 
