ply
format ascii 1.0
comment Created by CloudCompare v2.10.1 (Zephyrus)
comment Created 1/30/20 5:14 PM
obj_info Generated by CloudCompare!
element vertex 2174
property float x
property float y
property float z
property uchar red
property uchar green
property uchar blue
end_header
175 65 268 120 99 77 
175 65 269 118 98 77 
175 64 270 118 99 79 
175 65 270 116 97 76 
174 66 268 120 98 75 
174 67 268 120 98 75 
174 67 269 120 99 78 
175 66 268 118 97 75 
175 66 269 117 96 75 
175 67 269 119 98 77 
175 66 270 116 96 76 
175 66 271 116 96 74 
175 67 270 120 98 77 
175 67 271 119 97 75 
172 68 264 123 100 76 
172 68 265 123 99 74 
172 69 265 125 100 75 
172 68 266 127 102 76 
172 69 266 128 104 79 
173 68 266 127 103 78 
173 68 267 126 102 78 
173 69 266 127 103 79 
173 69 267 130 105 81 
172 70 265 128 103 78 
172 70 266 129 104 79 
172 70 267 131 105 80 
172 71 267 128 103 78 
173 70 267 132 106 82 
174 68 267 124 100 75 
173 69 268 130 105 81 
172 70 268 132 105 79 
172 71 268 129 103 79 
173 70 268 132 106 81 
173 70 269 132 106 82 
173 71 268 131 105 80 
173 71 269 133 107 82 
173 71 270 134 108 83 
174 68 268 125 102 78 
174 68 269 124 101 79 
174 69 268 128 103 80 
174 69 269 129 105 81 
174 68 270 125 102 79 
174 69 270 128 105 82 
175 68 270 124 101 78 
175 68 271 123 100 78 
175 69 270 127 104 81 
175 69 271 126 103 81 
174 70 269 131 106 82 
174 70 270 131 106 83 
174 70 271 130 107 84 
174 71 270 133 108 83 
174 71 271 133 108 85 
175 70 271 128 105 84 
168 72 259 131 102 75 
168 72 260 135 108 81 
168 72 261 135 109 83 
168 73 261 137 109 83 
168 72 262 132 106 80 
168 73 262 133 106 78 
169 72 262 131 106 80 
169 72 263 129 103 78 
169 73 262 132 105 77 
169 73 263 129 103 76 
168 74 262 136 108 81 
168 74 263 133 106 78 
168 75 262 139 111 83 
168 75 263 134 106 76 
169 74 263 131 104 75 
170 72 263 127 103 78 
168 76 263 137 108 79 
169 73 264 128 101 74 
168 75 264 132 104 74 
169 74 264 127 100 73 
169 74 265 128 101 73 
169 75 264 130 102 74 
169 75 265 132 104 75 
170 72 264 126 102 78 
170 72 265 126 101 77 
170 73 264 126 100 75 
170 73 265 126 100 75 
171 72 265 126 100 76 
170 73 266 128 102 77 
171 72 266 125 100 77 
171 72 267 127 101 78 
171 73 266 128 102 78 
171 73 267 127 102 79 
170 74 264 126 100 72 
170 74 265 128 101 74 
170 75 265 132 104 76 
170 74 266 129 103 77 
170 74 267 130 105 80 
170 75 266 134 106 78 
170 75 267 135 108 81 
171 74 266 127 102 78 
171 74 267 130 105 80 
171 73 268 129 104 81 
170 75 268 134 108 82 
171 74 268 132 107 83 
171 74 269 132 107 83 
171 75 268 133 107 82 
171 75 269 133 108 82 
171 75 270 131 107 83 
171 75 271 128 105 82 
168 76 264 138 109 78 
168 76 265 140 110 80 
168 77 264 144 114 85 
168 77 265 147 116 86 
169 76 265 138 108 79 
168 77 266 149 118 87 
169 76 266 138 109 80 
169 76 267 140 111 82 
169 77 266 144 113 83 
169 77 267 147 117 87 
168 78 265 151 120 90 
168 78 266 153 121 91 
168 78 267 153 122 92 
168 79 267 154 122 93 
170 76 267 139 111 82 
169 77 268 148 119 89 
169 77 269 146 117 89 
168 78 268 152 122 94 
168 78 269 146 118 90 
168 79 268 151 121 92 
168 79 269 144 117 89 
169 78 268 149 120 91 
169 78 269 145 117 89 
168 79 270 136 111 86 
169 78 270 138 112 87 
169 78 271 132 109 86 
169 79 270 134 110 86 
169 79 271 126 104 81 
170 76 268 138 111 83 
170 76 269 137 110 84 
170 77 268 145 115 87 
170 77 269 142 115 87 
171 76 269 134 109 83 
170 76 270 135 109 84 
170 77 270 135 110 85 
170 77 271 132 108 84 
171 76 270 133 108 84 
171 76 271 129 106 83 
171 77 271 130 107 84 
170 78 270 135 111 87 
170 78 271 130 106 84 
172 72 267 126 101 78 
172 72 268 129 104 80 
172 72 269 131 106 82 
172 73 268 130 106 83 
172 73 269 132 107 84 
173 72 269 132 107 83 
172 73 270 133 108 85 
173 72 270 134 109 84 
173 72 271 136 110 86 
173 73 270 133 109 85 
173 73 271 134 109 85 
172 74 269 131 107 84 
172 74 270 131 106 83 
172 74 271 129 105 82 
172 75 270 129 106 82 
172 75 271 128 104 81 
173 74 271 130 106 82 
174 72 271 135 110 86 
175 68 272 120 99 78 
175 69 272 122 101 80 
175 69 273 118 97 77 
174 71 272 130 106 84 
175 70 272 125 103 83 
175 70 273 120 98 77 
175 71 272 128 106 84 
175 71 273 121 98 77 
175 70 274 115 94 72 
175 71 274 114 93 71 
175 71 275 108 87 65 
175 71 276 105 85 63 
171 76 272 125 103 80 
171 77 272 122 101 78 
171 77 273 116 96 75 
170 78 272 124 102 79 
170 79 272 118 97 76 
171 78 272 120 98 76 
171 78 273 114 93 72 
171 79 272 115 94 72 
171 79 273 110 90 69 
173 73 272 130 105 81 
172 74 272 126 102 79 
172 75 272 124 101 78 
172 75 273 120 97 75 
173 74 272 127 102 79 
173 74 273 120 96 74 
173 75 273 115 93 70 
173 75 274 109 88 65 
173 75 275 103 82 61 
174 72 272 131 107 84 
174 72 273 124 101 79 
174 73 272 132 106 83 
174 73 273 123 99 77 
175 72 273 120 98 76 
174 73 274 112 90 69 
174 73 275 107 85 63 
175 72 274 113 91 70 
175 72 275 107 86 64 
175 73 275 106 86 64 
174 74 273 119 96 74 
174 74 274 111 89 66 
174 74 275 105 84 62 
174 75 274 107 86 63 
174 75 275 102 82 59 
174 73 276 103 83 62 
175 72 276 103 84 62 
175 72 277 101 82 62 
175 73 276 102 82 61 
175 73 277 100 81 61 
175 73 278 99 80 62 
174 74 276 101 81 60 
174 74 277 98 79 60 
174 75 276 99 79 58 
174 75 277 96 78 59 
175 74 277 99 80 61 
174 75 278 96 79 61 
174 75 279 96 79 61 
175 74 278 98 80 62 
175 74 279 98 81 63 
175 75 278 97 80 62 
175 75 279 97 80 62 
172 76 272 123 102 79 
172 76 273 115 94 73 
172 77 273 113 93 71 
173 76 273 112 91 69 
172 77 274 106 86 65 
173 76 274 107 87 65 
173 76 275 103 83 62 
173 77 274 104 85 64 
173 77 275 103 84 63 
172 78 273 109 89 68 
172 79 273 109 90 69 
172 78 274 106 87 66 
172 78 275 105 86 66 
172 79 274 108 88 68 
172 79 275 105 86 66 
173 78 275 103 85 64 
173 76 276 99 80 60 
173 76 277 96 78 59 
173 77 276 99 81 61 
173 77 277 95 78 58 
173 77 278 94 77 60 
172 79 276 102 84 65 
173 78 276 100 82 62 
173 78 277 95 77 58 
173 79 276 99 82 63 
173 79 277 95 77 60 
173 78 278 93 77 59 
173 78 279 92 76 59 
173 79 278 92 76 58 
173 79 279 91 75 58 
174 76 277 96 78 60 
174 77 277 95 78 59 
174 76 278 96 79 62 
174 76 279 95 79 62 
174 77 278 95 78 61 
174 77 279 95 79 62 
174 78 279 92 76 59 
175 74 280 99 81 63 
175 75 280 98 80 61 
175 75 281 98 80 60 
173 79 280 89 73 55 
174 76 280 94 78 60 
174 77 280 94 78 60 
174 77 281 93 76 58 
175 76 280 96 79 60 
175 76 281 96 78 59 
175 77 281 93 76 58 
175 76 282 96 77 59 
175 77 282 94 77 58 
175 77 283 96 78 58 
174 78 280 93 76 59 
174 78 281 91 75 57 
174 79 280 89 73 55 
174 79 281 90 73 55 
174 79 282 92 74 54 
175 78 282 93 75 55 
175 78 283 95 77 56 
175 79 282 93 74 53 
175 79 283 96 77 55 
175 77 284 98 80 60 
175 78 284 100 81 62 
175 78 285 103 85 66 
175 79 284 100 81 61 
175 79 285 104 85 66 
175 78 286 102 83 64 
175 78 287 98 79 59 
175 79 286 103 84 65 
175 79 287 98 80 60 
160 80 256 147 112 86 
160 80 257 148 113 85 
160 81 256 144 110 82 
160 81 257 145 111 82 
161 80 257 148 114 86 
160 81 258 146 113 82 
160 81 259 146 113 82 
161 80 258 146 114 82 
161 80 259 146 114 83 
161 81 258 147 114 83 
161 81 259 146 113 82 
160 82 257 143 110 80 
160 82 258 145 112 81 
160 82 259 146 112 81 
160 83 258 144 110 80 
160 83 259 146 111 82 
162 80 259 146 114 84 
161 80 260 143 112 81 
161 81 260 145 111 79 
161 81 261 145 112 80 
160 82 260 146 111 81 
160 83 260 145 111 79 
160 83 261 140 107 76 
161 82 260 145 111 80 
161 82 261 145 112 81 
161 83 260 144 111 80 
161 83 261 142 108 76 
161 82 262 145 111 80 
161 83 262 140 106 74 
161 83 263 139 105 74 
162 80 260 143 111 81 
162 80 261 144 111 80 
162 81 260 142 110 77 
162 81 261 145 112 80 
163 80 261 145 111 80 
162 81 262 147 114 84 
162 81 263 149 114 84 
163 80 262 148 113 83 
163 80 263 149 115 86 
163 81 262 149 114 85 
163 81 263 149 114 85 
162 82 262 147 112 81 
162 82 263 146 111 81 
162 83 263 142 107 76 
160 84 259 143 109 79 
160 84 260 141 108 77 
160 84 261 139 108 76 
160 85 260 139 109 78 
160 85 261 136 107 75 
160 84 262 137 106 74 
160 84 263 134 103 72 
160 85 262 133 104 72 
160 85 263 131 101 69 
161 84 262 137 105 74 
161 84 263 135 103 72 
160 86 262 129 101 67 
160 86 263 127 99 68 
160 87 263 123 96 64 
164 80 263 150 114 87 
164 81 263 149 114 85 
161 83 264 136 103 72 
163 81 264 149 113 85 
162 82 264 144 108 80 
162 83 264 139 103 73 
162 83 265 133 95 65 
163 82 264 145 110 82 
163 82 265 139 103 75 
163 83 265 133 96 66 
163 83 266 126 91 59 
163 83 267 120 90 58 
160 85 264 127 99 66 
161 84 264 133 100 69 
161 84 265 128 94 62 
161 85 264 128 98 66 
161 85 265 123 93 61 
160 86 264 124 96 64 
160 86 265 120 91 57 
160 87 264 118 90 55 
160 87 265 116 87 48 
161 86 265 119 90 56 
161 87 265 116 87 48 
161 86 266 119 89 54 
161 87 266 116 87 48 
162 84 265 129 93 61 
162 85 265 121 90 58 
162 84 266 121 88 56 
162 85 266 120 89 56 
162 85 267 120 91 57 
163 84 267 119 88 55 
163 85 267 119 91 58 
162 86 266 119 90 57 
162 86 267 119 91 56 
162 87 266 118 89 53 
162 87 267 116 88 51 
163 86 267 120 92 59 
163 84 268 118 89 55 
163 85 268 118 91 57 
163 86 268 116 90 56 
163 87 268 114 90 59 
164 80 264 152 116 88 
164 81 264 151 115 87 
164 81 265 150 115 87 
165 80 264 153 118 90 
165 80 265 154 120 91 
165 81 265 152 118 90 
164 81 266 144 110 82 
165 81 266 147 114 85 
165 81 267 141 110 80 
164 82 265 142 107 78 
164 82 266 137 102 73 
164 82 267 132 101 69 
164 83 267 125 94 62 
166 80 265 154 120 91 
166 80 266 153 120 90 
166 80 267 150 119 90 
166 81 267 145 115 85 
167 80 267 152 121 91 
165 81 268 135 105 73 
164 83 268 123 95 63 
165 82 268 130 102 72 
165 83 268 123 97 66 
165 83 269 119 94 63 
166 80 268 144 115 86 
166 81 268 138 109 78 
166 81 269 134 107 78 
167 80 268 147 118 89 
167 80 269 141 113 85 
167 81 269 133 106 78 
167 80 270 133 107 80 
167 81 270 127 104 80 
166 82 269 124 100 73 
166 83 269 115 91 62 
166 83 270 108 86 58 
167 82 270 115 94 70 
167 83 270 103 81 56 
164 84 268 118 91 57 
164 84 269 116 90 57 
164 85 268 116 90 56 
164 85 269 114 89 58 
165 84 269 113 89 58 
165 85 269 110 87 59 
164 86 268 113 88 57 
164 86 269 112 88 58 
164 87 269 107 85 60 
165 86 269 105 84 57 
165 87 269 97 77 55 
166 84 270 106 84 56 
166 85 270 101 80 55 
167 84 270 97 77 52 
167 85 270 93 74 51 
166 86 270 97 78 54 
166 87 270 90 72 51 
167 86 270 90 72 49 
167 87 270 88 71 49 
160 88 264 114 86 46 
160 88 265 115 86 45 
160 89 265 116 87 48 
161 88 265 116 87 45 
160 89 266 117 89 52 
161 88 266 117 87 47 
161 89 266 118 90 55 
160 90 265 117 89 53 
160 90 266 119 92 57 
160 91 266 115 90 59 
161 90 266 119 93 60 
161 90 267 117 92 61 
161 91 266 116 91 60 
161 91 267 109 86 58 
162 88 267 117 90 55 
162 89 267 117 91 59 
162 90 267 112 88 59 
162 91 267 104 82 55 
163 88 268 111 87 58 
163 89 268 107 84 55 
163 90 268 104 82 54 
163 91 268 96 76 51 
160 92 266 106 82 53 
160 92 267 104 82 54 
160 93 266 97 76 49 
160 93 267 97 76 50 
161 92 267 101 80 55 
161 93 267 94 74 50 
160 94 266 95 75 50 
160 94 267 95 76 52 
160 95 266 95 76 53 
160 95 267 96 77 55 
161 94 267 93 74 51 
161 95 267 92 74 52 
162 92 267 95 75 52 
162 93 267 91 73 51 
163 92 267 91 72 50 
163 93 267 90 72 50 
162 94 267 90 72 52 
162 95 267 89 72 53 
163 94 267 87 71 51 
163 95 267 87 70 51 
163 92 268 90 72 50 
163 93 268 87 70 50 
163 94 268 85 69 51 
163 95 268 85 69 51 
164 88 268 100 79 53 
164 88 269 98 78 54 
164 89 268 97 76 51 
164 89 269 94 74 50 
165 88 269 90 72 50 
165 89 269 86 69 48 
164 90 268 94 74 50 
164 90 269 89 71 49 
164 91 268 89 71 48 
164 91 269 88 70 48 
165 90 269 86 69 49 
165 91 269 85 68 49 
166 88 269 84 67 48 
166 89 269 83 67 48 
166 88 270 85 68 48 
166 89 270 84 67 47 
167 88 270 87 69 48 
167 89 270 87 69 47 
167 89 271 91 72 48 
166 90 269 83 67 49 
166 91 269 84 68 49 
166 90 270 85 68 47 
166 91 270 86 69 49 
167 90 270 87 69 47 
167 90 271 92 73 49 
167 91 270 88 70 49 
167 91 271 92 74 51 
164 92 268 86 69 49 
164 93 268 85 69 51 
165 92 268 85 69 51 
165 92 269 84 69 51 
165 93 268 85 69 52 
165 93 269 86 70 52 
164 94 268 85 70 52 
164 95 268 86 70 51 
164 95 269 87 70 51 
165 94 269 87 71 53 
165 95 269 88 71 51 
165 95 270 88 71 50 
166 92 269 86 70 51 
166 93 269 88 72 53 
166 92 270 90 72 52 
166 93 270 91 74 55 
167 92 271 96 77 55 
167 93 271 94 76 55 
166 94 270 89 73 54 
166 95 270 87 71 51 
166 95 271 88 71 52 
167 94 271 89 72 51 
167 95 271 88 71 51 
168 80 269 136 111 84 
168 80 270 128 104 81 
168 81 270 121 100 78 
168 81 271 117 96 75 
169 80 271 119 99 79 
169 81 271 111 91 70 
168 82 270 106 85 61 
168 82 271 106 86 63 
168 83 270 100 80 55 
168 83 271 99 79 56 
169 82 271 105 85 63 
169 83 271 99 79 56 
168 84 270 95 76 53 
168 84 271 93 74 52 
168 85 270 91 73 51 
168 85 271 91 73 51 
169 84 271 98 79 56 
169 85 271 97 78 56 
168 86 271 91 73 51 
168 87 270 91 73 50 
168 87 271 96 78 55 
169 86 271 102 82 60 
169 87 271 105 86 64 
170 85 271 104 85 63 
170 86 271 105 86 64 
168 88 271 98 78 55 
168 89 271 97 77 54 
169 88 271 106 86 64 
167 94 272 89 71 50 
169 82 272 105 85 64 
169 83 272 101 81 58 
170 80 272 113 93 72 
170 80 273 110 90 69 
170 81 272 107 88 66 
170 81 273 108 88 67 
171 80 273 110 90 69 
171 81 273 110 91 71 
171 80 274 110 90 70 
171 81 274 110 91 70 
170 82 272 105 86 64 
170 82 273 109 90 69 
170 83 272 108 88 67 
171 82 273 111 92 72 
171 83 273 113 93 73 
171 82 274 110 91 71 
171 83 274 111 92 72 
169 87 272 112 92 72 
170 84 272 109 90 68 
170 85 272 110 91 69 
170 85 273 115 95 75 
171 84 273 114 95 75 
171 85 273 114 95 74 
171 84 274 111 91 70 
171 85 274 111 91 69 
171 85 275 107 86 62 
170 86 272 112 93 73 
170 86 273 115 96 76 
170 87 272 114 95 75 
170 87 273 115 95 76 
171 86 273 116 96 76 
171 87 273 111 92 72 
171 86 274 109 90 68 
171 86 275 105 84 59 
171 87 274 107 87 65 
171 87 275 104 83 59 
172 80 274 108 89 69 
172 80 275 105 87 66 
172 81 274 108 89 68 
172 81 275 104 85 64 
172 82 274 110 89 66 
172 82 275 105 85 63 
172 83 274 110 90 69 
172 83 275 104 84 62 
172 80 276 98 81 62 
172 80 277 96 79 61 
172 81 276 98 80 61 
172 81 277 93 77 60 
173 80 277 94 78 60 
173 81 277 92 77 60 
173 80 278 89 73 57 
173 80 279 89 73 54 
173 81 278 90 75 59 
173 81 279 89 73 55 
172 82 276 96 79 60 
172 82 277 91 75 58 
172 83 276 97 79 59 
172 83 277 91 76 59 
173 82 277 91 76 60 
173 83 277 90 76 61 
173 82 278 89 75 60 
173 82 279 89 74 57 
173 83 278 89 75 60 
173 83 279 90 75 59 
172 84 275 104 84 61 
172 85 275 105 85 61 
172 86 275 104 83 58 
172 84 276 98 79 57 
172 84 277 93 76 59 
172 85 276 101 81 57 
172 85 277 93 75 56 
173 84 277 92 77 62 
173 85 277 91 76 60 
173 84 278 89 75 60 
173 84 279 85 71 56 
173 85 278 87 74 59 
173 85 279 83 70 56 
172 86 276 105 84 59 
172 86 277 98 80 60 
172 87 276 105 84 61 
172 87 277 97 79 59 
173 86 277 93 77 60 
173 87 277 95 78 59 
173 86 278 85 71 56 
173 86 279 84 71 58 
173 87 278 84 70 54 
173 87 279 82 70 57 
173 80 280 89 72 53 
173 80 281 89 71 52 
173 81 280 88 72 53 
173 81 281 90 72 54 
173 82 280 88 72 54 
173 82 281 90 73 55 
173 83 280 88 72 55 
173 83 281 90 73 55 
173 82 282 94 77 58 
173 83 282 93 76 59 
173 83 283 96 78 60 
174 80 281 90 72 53 
174 81 281 90 73 53 
174 80 282 94 76 56 
174 80 283 98 80 59 
174 81 282 94 76 57 
174 81 283 100 81 62 
174 82 282 96 78 59 
174 82 283 99 81 62 
174 83 283 96 79 60 
174 80 284 100 81 59 
174 80 285 99 79 56 
174 81 284 101 82 61 
174 81 285 98 78 56 
175 80 284 101 81 60 
175 80 285 101 82 60 
174 80 286 96 77 56 
174 80 287 92 75 55 
174 81 286 94 75 53 
174 81 287 90 72 53 
175 80 286 100 80 60 
175 80 287 95 77 58 
174 82 284 99 80 59 
174 82 285 95 76 53 
174 83 284 96 77 57 
174 83 285 93 74 53 
174 82 286 91 73 51 
174 82 287 88 70 52 
174 83 286 89 72 51 
174 83 287 87 70 52 
173 84 280 87 72 56 
173 84 281 91 75 58 
173 85 280 84 70 55 
173 85 281 90 74 58 
173 84 282 94 77 60 
173 84 283 94 77 59 
173 85 282 92 76 59 
173 85 283 91 75 57 
173 86 280 85 71 57 
173 86 281 88 73 58 
173 87 280 84 71 57 
173 87 281 88 73 57 
173 86 282 90 74 58 
173 86 283 89 73 55 
173 87 282 88 73 56 
173 87 283 88 72 54 
173 84 284 92 74 55 
173 84 285 90 72 51 
173 85 284 90 73 54 
173 85 285 89 71 52 
173 86 284 89 72 53 
173 86 285 89 72 54 
173 87 284 88 71 54 
173 87 285 89 73 55 
173 86 286 89 73 55 
173 87 286 90 74 56 
173 87 287 91 74 57 
174 84 284 94 75 55 
174 84 285 90 72 52 
174 85 285 88 71 52 
174 84 286 88 71 52 
174 84 287 87 70 53 
174 85 286 88 71 53 
174 85 287 87 71 54 
174 86 286 89 73 55 
174 86 287 88 72 55 
174 87 287 90 74 57 
168 89 272 105 85 63 
169 88 272 109 90 69 
169 88 273 113 93 73 
169 89 272 109 90 68 
169 89 273 109 90 70 
168 90 272 102 83 60 
168 91 272 100 81 59 
169 90 272 107 88 67 
169 90 273 107 88 68 
169 91 273 103 84 63 
170 88 273 111 92 72 
170 89 273 109 90 69 
170 88 274 108 89 67 
170 89 274 107 88 68 
171 88 274 106 86 65 
171 88 275 107 86 63 
171 89 274 105 86 65 
171 89 275 108 88 65 
170 90 274 107 89 69 
170 91 274 104 86 67 
171 90 274 108 89 69 
171 90 275 109 89 69 
171 91 275 106 88 69 
168 92 272 97 79 57 
168 93 272 95 77 56 
169 92 273 98 80 61 
169 93 272 94 76 56 
169 93 273 93 76 56 
168 94 272 91 73 51 
168 95 272 88 70 49 
169 94 272 90 73 52 
169 94 273 88 71 50 
169 95 272 88 70 49 
169 95 273 86 69 47 
170 92 274 100 82 62 
170 93 274 94 76 56 
171 92 275 101 84 65 
171 93 275 96 79 58 
170 94 274 89 72 50 
170 95 274 86 68 46 
171 94 275 91 73 52 
171 95 275 87 69 45 
171 93 276 101 83 61 
171 94 276 98 78 56 
171 95 276 95 75 51 
172 88 275 109 88 64 
172 89 275 109 89 66 
172 90 275 108 90 70 
172 91 275 107 89 71 
172 88 276 106 85 62 
172 89 276 108 88 65 
172 89 277 103 84 63 
173 88 277 97 79 58 
173 89 277 97 79 59 
173 88 278 84 69 53 
173 88 279 81 69 56 
173 89 278 85 70 53 
173 89 279 81 68 55 
172 90 276 107 88 69 
172 90 277 102 84 64 
172 91 276 105 87 68 
172 91 277 100 83 65 
173 90 277 94 77 59 
173 91 277 94 78 62 
173 90 278 87 72 56 
173 90 279 80 68 55 
173 91 278 85 72 58 
173 91 279 81 68 57 
172 92 276 102 84 65 
172 92 277 99 82 64 
172 93 276 101 83 62 
172 93 277 100 82 62 
173 92 277 94 79 62 
173 93 277 97 80 62 
173 92 278 85 72 59 
173 92 279 80 69 57 
173 93 278 88 74 60 
173 93 279 82 70 59 
172 94 276 100 82 59 
172 94 277 101 82 60 
172 95 276 100 80 56 
172 95 277 99 81 59 
173 94 277 95 78 60 
173 95 277 96 79 60 
173 94 278 89 75 60 
173 94 279 85 72 60 
173 95 278 91 76 59 
173 95 279 87 74 60 
173 88 280 82 69 56 
173 88 281 86 72 56 
173 89 280 81 69 58 
173 89 281 83 70 56 
173 88 282 88 72 55 
173 88 283 87 71 53 
173 89 282 86 71 56 
173 89 283 87 71 54 
173 90 280 80 68 57 
173 90 281 82 70 57 
173 91 280 79 68 57 
173 91 281 82 69 57 
173 90 282 84 70 55 
173 90 283 88 73 56 
173 91 282 84 71 57 
173 91 283 87 72 57 
174 91 282 85 72 58 
174 91 283 88 73 57 
173 88 284 88 71 53 
173 88 285 89 72 55 
173 89 284 88 71 53 
173 89 285 89 73 55 
173 88 286 91 74 56 
173 88 287 91 75 57 
173 89 286 91 74 55 
173 90 284 89 73 55 
173 90 285 90 73 55 
173 90 286 91 74 55 
173 90 287 93 75 55 
173 91 287 94 76 57 
174 88 287 91 74 56 
174 89 287 92 73 53 
174 91 284 89 73 55 
174 91 285 91 74 55 
174 90 286 92 74 55 
174 90 287 93 74 53 
174 91 286 94 76 56 
174 91 287 94 77 58 
173 92 280 80 69 57 
173 92 281 82 70 57 
173 93 280 81 70 58 
173 93 281 83 70 57 
173 93 282 86 71 57 
173 94 280 83 71 59 
173 94 281 85 71 58 
173 95 280 84 71 58 
173 95 281 86 71 56 
173 94 282 87 72 56 
173 94 283 89 72 55 
173 95 282 88 72 55 
173 95 283 90 73 53 
174 92 282 85 71 57 
174 92 283 89 74 58 
174 93 282 86 72 57 
174 93 283 88 73 57 
173 92 285 92 75 54 
173 93 284 91 74 56 
173 93 285 91 73 53 
173 92 286 95 77 57 
173 92 287 96 78 59 
173 93 286 92 73 52 
173 93 287 95 76 56 
173 94 284 91 74 55 
173 94 285 92 74 53 
173 95 284 92 74 54 
173 95 285 95 76 55 
173 94 286 94 74 53 
173 94 287 96 76 52 
173 95 286 96 76 54 
173 95 287 99 77 54 
174 92 284 90 74 56 
174 92 285 92 74 55 
174 93 284 90 74 56 
176 64 270 117 98 80 
176 64 271 115 96 79 
176 65 270 116 96 77 
176 65 271 115 96 77 
176 66 271 116 95 75 
176 64 272 114 96 78 
176 65 272 114 94 74 
177 64 272 114 96 77 
177 64 273 112 93 74 
177 65 273 112 93 74 
177 64 274 112 94 75 
177 64 275 110 92 75 
177 65 274 112 93 75 
177 65 275 110 92 74 
176 66 272 114 94 74 
176 66 273 113 93 74 
176 67 272 116 95 75 
176 67 273 112 92 72 
177 66 273 112 93 74 
176 67 274 110 90 71 
177 66 274 110 92 73 
177 66 275 108 91 73 
177 67 274 109 90 71 
177 67 275 107 89 70 
178 64 275 111 94 77 
178 65 275 110 93 75 
177 66 276 107 89 71 
177 67 276 107 88 70 
178 64 276 111 94 77 
178 64 277 107 90 73 
178 65 276 108 90 73 
178 65 277 105 88 70 
179 64 277 106 89 73 
178 65 278 103 85 68 
179 64 278 104 88 70 
179 64 279 102 85 68 
179 65 278 102 85 67 
179 65 279 102 85 66 
178 66 276 106 89 71 
178 66 277 105 87 69 
178 67 277 105 87 68 
178 66 278 104 86 68 
178 66 279 102 84 65 
178 67 278 105 86 67 
178 67 279 104 85 66 
179 66 279 103 84 66 
176 68 272 117 96 76 
176 68 273 114 93 73 
176 69 273 115 95 75 
176 68 274 110 90 71 
176 68 275 108 89 69 
176 69 274 111 91 71 
176 69 275 109 88 68 
177 68 275 107 88 69 
176 70 274 112 91 71 
176 70 275 109 89 68 
176 71 275 109 88 67 
176 69 276 107 87 67 
177 68 276 106 87 68 
177 68 277 106 86 67 
177 69 276 106 87 66 
177 69 277 106 86 67 
177 69 278 105 86 66 
176 70 276 106 87 66 
176 71 276 105 85 64 
176 71 277 104 84 64 
177 70 276 106 87 67 
177 70 277 106 86 67 
177 71 277 105 85 65 
176 71 278 103 84 63 
177 70 278 105 86 66 
177 70 279 104 85 65 
177 71 278 104 85 65 
177 71 279 103 84 65 
178 68 277 105 86 67 
178 68 278 105 86 67 
178 68 279 104 86 67 
178 69 278 104 85 66 
178 69 279 104 86 66 
179 64 280 103 85 67 
179 64 281 103 85 67 
179 65 280 103 85 66 
179 65 281 103 85 66 
179 65 282 103 85 66 
178 67 280 104 85 66 
179 66 280 103 84 65 
179 66 281 104 86 67 
179 67 280 103 84 65 
179 67 281 104 86 67 
179 66 282 105 86 68 
179 66 283 104 85 68 
179 67 282 105 86 68 
179 67 283 103 85 67 
179 67 284 101 83 65 
177 70 280 102 83 64 
177 71 280 102 84 65 
177 71 281 101 83 64 
177 71 282 100 82 64 
178 68 280 105 86 67 
178 68 281 104 85 67 
178 69 280 104 85 67 
178 69 281 103 85 66 
179 68 281 104 85 67 
178 69 282 101 83 65 
178 69 283 101 83 66 
179 68 282 103 85 67 
179 68 283 102 84 66 
179 69 282 102 83 65 
179 69 283 102 84 66 
178 70 280 102 84 65 
178 70 281 102 83 65 
178 71 281 101 83 64 
178 70 282 100 82 64 
178 70 283 100 82 64 
178 71 282 100 82 64 
178 71 283 100 82 65 
179 68 284 99 81 62 
179 68 285 94 77 58 
179 69 284 99 81 62 
179 69 285 92 74 54 
179 68 286 88 71 53 
179 68 287 86 70 51 
179 69 286 87 69 49 
179 69 287 86 68 48 
178 70 284 98 80 61 
178 70 285 91 73 54 
178 71 284 97 79 60 
178 71 285 91 72 52 
179 70 285 89 71 52 
178 70 286 87 68 47 
178 70 287 86 68 46 
178 71 286 88 69 47 
178 71 287 89 70 49 
179 70 286 86 68 47 
179 70 287 87 69 48 
180 64 281 103 85 67 
180 64 282 103 86 68 
180 64 283 103 85 67 
180 65 282 102 84 66 
180 65 283 103 85 66 
180 66 283 103 85 67 
180 64 284 101 83 66 
180 64 285 98 81 63 
180 65 284 100 82 65 
180 65 285 97 80 62 
181 64 285 96 79 62 
181 65 285 95 79 62 
181 64 286 94 77 62 
181 64 287 91 75 60 
181 65 286 94 77 61 
181 65 287 90 75 59 
180 66 284 101 83 65 
180 66 285 96 79 61 
180 67 284 100 82 64 
180 67 285 96 78 60 
180 66 286 92 76 59 
180 66 287 88 72 55 
180 67 286 91 74 57 
180 67 287 87 71 54 
181 66 287 89 73 57 
180 68 285 95 77 59 
180 68 286 90 73 56 
180 68 287 87 70 53 
176 72 277 101 82 62 
176 72 278 101 82 62 
176 72 279 102 83 63 
176 73 278 99 80 62 
176 73 279 99 81 62 
176 72 280 102 83 63 
176 73 280 100 82 63 
176 73 281 100 82 62 
177 72 280 102 84 65 
177 72 281 102 83 65 
177 73 281 101 82 63 
177 72 282 101 82 64 
177 72 283 100 82 64 
177 73 282 101 83 65 
177 73 283 100 82 64 
176 74 280 100 82 63 
176 74 281 101 81 62 
176 75 281 99 80 60 
176 74 282 100 81 62 
176 75 282 99 80 60 
176 75 283 98 80 61 
177 74 282 100 81 63 
177 74 283 99 81 63 
178 72 282 100 82 64 
178 72 283 100 82 64 
177 72 284 98 80 61 
177 73 284 98 79 60 
177 73 285 95 76 54 
177 73 286 93 74 51 
177 73 287 92 72 49 
176 75 284 98 79 60 
177 74 284 97 78 58 
177 74 285 95 75 54 
177 75 284 97 78 57 
177 75 285 96 77 55 
177 74 286 94 75 53 
177 74 287 93 73 51 
177 75 286 95 76 55 
177 75 287 94 75 53 
178 72 284 97 79 60 
178 72 285 92 73 52 
178 72 286 90 71 48 
178 72 287 91 72 50 
178 73 286 92 73 50 
178 73 287 92 72 49 
176 76 282 97 78 58 
176 76 283 97 79 59 
176 77 283 97 79 60 
176 76 284 97 78 58 
176 76 285 98 79 58 
176 77 284 99 81 61 
176 77 285 100 81 62 
177 76 285 96 77 55 
176 76 286 97 77 56 
176 76 287 96 76 55 
176 77 286 99 79 60 
176 77 287 97 77 57 
177 76 286 96 77 55 
177 76 287 96 76 54 
176 78 285 102 84 65 
176 78 286 101 82 62 
176 78 287 98 78 58 
175 79 288 92 73 52 
175 79 289 89 70 47 
175 79 290 90 72 50 
175 79 291 93 74 52 
171 79 303 128 99 76 
173 75 303 128 97 78 
175 72 303 126 96 77 
175 73 303 128 99 80 
175 75 301 124 94 71 
174 74 303 128 99 79 
174 75 302 127 96 75 
174 75 303 128 97 78 
175 74 302 125 95 74 
175 74 303 128 98 79 
175 75 302 125 95 73 
175 75 303 128 98 77 
175 79 297 113 87 68 
175 78 299 118 89 68 
175 79 298 115 87 69 
175 79 299 118 89 69 
173 76 303 127 97 77 
173 77 303 128 98 78 
173 79 301 127 96 76 
172 78 303 129 100 80 
172 79 302 127 97 77 
172 79 303 128 99 78 
173 78 302 129 99 78 
173 78 303 129 99 79 
173 79 302 128 98 77 
174 77 301 127 96 74 
175 76 301 124 93 70 
175 77 300 121 91 68 
175 77 301 124 94 71 
174 76 302 127 96 74 
174 76 303 127 96 75 
174 77 302 128 97 77 
175 76 302 126 95 73 
174 78 301 127 97 76 
174 79 300 122 92 71 
174 79 301 126 95 74 
175 78 300 121 91 70 
175 78 301 125 95 74 
175 79 300 122 92 71 
174 78 302 129 98 78 
160 64 307 113 92 72 
160 65 306 114 94 74 
160 65 307 114 94 74 
161 64 307 116 95 76 
161 65 307 117 97 78 
160 66 306 116 96 76 
160 66 307 117 97 77 
160 67 306 118 97 77 
160 67 307 118 97 77 
161 66 307 119 98 78 
161 67 307 119 98 77 
162 64 307 117 97 77 
162 65 307 118 98 78 
163 65 307 117 96 75 
162 66 307 119 98 77 
162 67 307 118 97 75 
163 66 307 117 95 73 
163 67 307 116 94 72 
162 64 308 117 96 76 
163 64 308 116 95 74 
163 65 308 117 95 75 
160 68 306 118 97 77 
160 69 306 119 98 78 
161 68 306 118 97 75 
161 68 307 118 97 75 
161 69 306 119 97 76 
161 69 307 119 97 75 
160 70 306 119 97 76 
160 71 306 118 96 75 
161 70 306 119 97 76 
161 70 307 119 97 76 
161 71 306 119 97 75 
162 68 307 118 97 74 
162 69 307 119 97 76 
163 68 307 118 96 74 
163 69 307 120 97 75 
162 70 307 119 97 75 
162 71 306 119 97 74 
162 71 307 119 96 74 
163 70 307 119 96 74 
163 71 307 119 95 72 
164 67 307 115 93 70 
164 64 308 115 93 71 
164 65 308 117 94 72 
165 64 308 117 95 72 
165 65 308 118 96 73 
164 66 308 116 94 71 
164 67 308 116 94 71 
165 66 308 118 95 72 
165 67 308 118 95 71 
166 64 308 119 96 73 
166 65 308 119 97 74 
167 64 308 119 96 73 
167 65 308 119 97 73 
166 66 308 119 96 73 
166 67 308 119 96 71 
167 66 308 119 96 72 
167 67 308 121 97 71 
164 68 307 118 95 72 
164 69 307 119 96 73 
164 70 307 120 96 73 
164 71 307 120 96 73 
165 70 307 122 97 74 
165 71 307 123 98 75 
165 68 308 119 96 72 
165 69 308 120 96 73 
165 70 308 122 97 73 
165 71 308 123 98 75 
166 68 308 121 97 73 
166 69 308 122 98 73 
167 68 308 123 99 74 
167 69 308 124 99 74 
166 70 308 123 98 74 
166 71 308 124 98 74 
167 70 308 124 98 74 
167 71 308 124 98 73 
160 73 305 117 95 75 
160 72 306 118 96 75 
160 73 306 118 96 75 
161 72 306 119 97 75 
161 73 306 120 97 75 
160 74 305 116 95 74 
160 75 305 116 94 73 
160 74 306 117 95 73 
160 75 306 117 95 73 
161 74 306 119 96 74 
161 75 306 119 96 74 
162 72 306 120 97 75 
162 72 307 120 97 75 
162 73 306 120 97 75 
162 73 307 121 97 75 
163 72 307 120 96 73 
163 73 307 121 97 74 
162 74 306 120 97 75 
162 74 307 120 97 74 
162 75 306 120 97 74 
162 75 307 120 97 74 
163 74 307 121 97 73 
163 75 307 120 96 72 
160 76 305 115 94 73 
160 77 305 115 93 72 
160 76 306 118 96 74 
160 77 306 118 95 73 
161 76 306 120 97 75 
161 77 306 120 97 74 
160 78 305 117 95 74 
160 79 305 119 96 75 
160 78 306 120 97 75 
160 79 306 123 99 77 
161 78 306 123 99 77 
161 79 306 126 102 80 
162 76 306 121 97 75 
162 76 307 121 97 74 
162 77 306 122 98 74 
163 76 307 122 97 74 
163 77 307 124 99 75 
162 78 306 125 100 77 
162 79 306 129 104 81 
163 78 306 127 101 77 
163 78 307 126 100 76 
163 79 306 131 104 82 
164 72 307 121 96 72 
164 73 307 121 97 73 
165 72 307 124 98 75 
165 73 307 123 97 74 
164 74 307 122 96 72 
164 75 307 122 97 72 
165 74 307 124 97 73 
165 75 307 125 98 75 
166 72 307 124 97 74 
166 73 307 124 97 73 
167 73 307 126 98 74 
166 74 307 126 98 74 
166 75 307 127 98 75 
167 74 307 127 98 75 
167 75 307 127 97 74 
166 72 308 124 97 74 
167 72 308 125 98 74 
167 73 308 126 99 75 
164 76 307 124 98 74 
164 77 307 126 100 75 
165 76 307 127 99 75 
165 77 307 128 100 76 
164 78 306 129 102 78 
164 78 307 127 100 76 
164 79 306 132 104 81 
165 78 306 131 102 80 
165 79 306 134 105 82 
166 76 307 128 98 75 
166 77 306 130 100 77 
166 77 307 129 99 76 
167 76 306 129 99 76 
167 76 307 129 98 75 
167 77 306 131 100 77 
166 79 305 134 103 81 
167 79 305 133 102 80 
166 78 306 132 102 80 
166 79 306 134 104 82 
167 78 306 132 102 80 
167 79 306 133 103 81 
171 67 307 122 98 73 
168 64 308 118 95 71 
168 65 308 119 96 71 
169 64 308 117 93 68 
169 65 308 119 95 69 
168 66 308 120 96 71 
168 67 308 122 97 71 
169 66 308 121 96 71 
169 67 308 122 97 72 
170 64 308 118 94 69 
170 65 308 119 95 69 
171 64 308 119 95 70 
171 65 308 120 96 70 
170 66 308 121 96 71 
170 67 308 123 98 73 
171 66 308 121 98 73 
171 67 308 122 98 73 
169 70 307 125 98 74 
169 71 307 126 100 76 
170 69 307 123 97 73 
171 68 307 123 98 74 
171 69 307 123 96 73 
170 70 307 124 97 74 
170 71 307 126 98 75 
171 70 307 123 95 72 
171 71 306 124 95 73 
171 71 307 124 96 73 
168 68 308 123 97 73 
168 69 308 124 99 75 
169 68 308 123 97 73 
169 69 308 124 98 74 
168 70 308 124 99 74 
168 71 308 125 99 74 
169 70 308 125 98 74 
169 71 308 125 99 75 
170 68 308 124 98 75 
170 69 308 124 97 73 
173 64 307 120 96 71 
173 65 307 120 95 70 
172 66 307 120 97 71 
172 67 307 121 97 72 
173 66 307 119 94 69 
173 67 307 120 94 69 
174 64 307 120 94 69 
174 65 307 121 95 70 
175 64 306 121 92 68 
175 64 307 121 92 68 
175 65 306 122 93 69 
175 67 305 122 93 69 
174 66 306 121 93 69 
174 66 307 121 94 69 
174 67 306 122 94 70 
175 66 306 122 94 70 
175 67 306 122 93 70 
172 64 308 118 95 70 
172 65 308 119 96 70 
173 64 308 119 95 70 
173 65 308 119 96 70 
172 66 308 121 97 72 
172 68 307 121 96 71 
172 69 307 121 95 72 
173 68 306 121 94 70 
173 68 307 120 95 70 
173 69 306 122 95 71 
173 69 307 121 95 71 
173 71 305 127 97 75 
172 70 306 123 94 71 
172 70 307 122 94 71 
172 71 306 123 95 72 
173 70 306 124 95 72 
173 71 306 125 97 74 
174 69 305 124 96 73 
175 68 305 123 95 72 
175 69 305 124 96 74 
174 68 306 123 95 73 
174 69 306 123 95 72 
175 68 306 123 95 73 
174 70 305 126 95 73 
174 71 305 128 96 76 
175 70 304 125 93 73 
175 70 305 126 95 75 
175 71 304 126 95 75 
168 72 307 127 99 75 
168 73 307 127 99 76 
169 72 307 127 99 76 
169 73 307 127 98 75 
168 74 307 127 98 75 
168 75 306 129 98 75 
168 75 307 128 98 74 
169 74 306 128 97 74 
169 74 307 127 98 74 
169 75 306 130 99 76 
170 72 307 127 98 75 
170 73 306 127 97 75 
170 73 307 127 97 74 
171 72 306 125 96 74 
171 73 306 126 96 74 
171 74 305 126 97 75 
171 75 305 126 96 75 
170 74 306 128 97 75 
170 75 306 129 98 75 
171 74 306 127 96 75 
171 75 306 127 97 75 
168 72 308 126 99 75 
169 77 305 129 98 76 
168 76 306 130 99 77 
168 77 306 131 100 78 
169 76 306 131 100 78 
169 77 306 130 98 77 
168 78 305 130 99 77 
168 79 305 130 98 76 
169 78 305 129 98 76 
169 79 304 128 97 76 
169 79 305 128 98 76 
168 78 306 131 100 78 
170 76 305 129 98 77 
170 77 305 128 98 77 
171 76 305 127 98 76 
171 77 304 128 100 78 
171 77 305 127 99 77 
170 76 306 129 99 77 
170 78 304 127 98 76 
170 78 305 128 98 76 
170 79 304 127 98 75 
171 78 304 129 101 78 
171 79 304 127 100 77 
172 73 305 126 97 75 
173 72 305 127 97 76 
173 73 304 125 93 73 
173 73 305 126 96 75 
172 72 306 126 97 76 
172 73 306 126 96 75 
172 74 305 126 97 76 
172 75 305 126 96 75 
173 74 304 126 94 74 
173 74 305 126 95 75 
173 75 304 127 96 76 
173 75 305 125 95 74 
174 72 304 127 95 76 
174 72 305 128 97 77 
174 73 304 126 94 76 
175 72 304 126 95 75 
175 73 304 126 96 76 
174 74 304 128 96 78 
172 76 304 128 100 78 
172 76 305 127 98 77 
172 77 304 130 102 81 
173 76 304 128 98 78 
173 77 304 129 99 80 
172 78 304 130 103 82 
160 87 303 130 105 82 
163 87 303 135 105 84 
165 85 303 136 105 84 
164 86 303 137 106 85 
164 87 303 136 105 85 
165 86 303 136 105 84 
165 87 303 135 104 83 
166 85 303 135 104 82 
167 84 303 133 103 80 
167 85 303 134 104 81 
166 86 303 135 105 83 
166 87 303 134 104 82 
167 86 303 134 104 81 
167 87 302 131 102 77 
167 87 303 133 104 80 
160 88 303 129 105 82 
160 89 303 128 103 80 
161 88 303 131 105 83 
161 89 303 130 103 80 
160 90 303 127 102 79 
160 91 302 126 102 78 
160 91 303 126 102 79 
161 90 303 128 103 79 
161 91 302 128 103 78 
161 91 303 129 103 79 
162 88 303 132 104 82 
162 89 303 131 104 80 
163 88 303 134 104 82 
163 89 303 132 103 80 
162 90 303 131 103 79 
162 91 302 130 103 79 
163 90 302 131 102 80 
163 90 303 132 103 80 
163 91 302 129 102 78 
160 92 302 125 101 76 
160 93 302 124 100 76 
161 92 302 126 101 76 
161 93 302 126 101 75 
160 94 302 125 101 76 
160 95 302 125 101 76 
161 94 302 126 101 75 
161 95 302 126 101 75 
162 92 302 128 102 76 
162 93 302 127 101 75 
163 92 302 128 101 76 
163 93 302 128 101 75 
162 94 302 126 101 74 
162 95 302 126 101 74 
163 94 302 127 101 74 
163 95 302 126 100 73 
164 88 303 134 103 82 
164 89 302 133 101 81 
164 89 303 133 102 80 
165 88 303 134 103 82 
165 89 302 133 103 81 
165 89 303 133 102 81 
164 90 302 131 100 78 
164 90 303 131 101 79 
164 91 302 129 101 76 
165 90 302 132 102 79 
165 91 302 130 102 77 
166 88 302 132 103 79 
166 88 303 133 103 81 
166 89 302 132 103 79 
167 88 302 130 101 77 
167 89 302 131 101 78 
167 91 301 131 102 80 
166 90 302 132 103 79 
166 91 302 131 103 79 
167 90 302 131 102 79 
167 91 302 132 103 80 
164 92 302 129 101 77 
164 93 302 129 102 77 
165 92 302 130 103 78 
165 93 302 130 103 78 
164 95 301 127 100 74 
165 94 301 129 102 77 
165 95 301 127 100 75 
164 94 302 128 102 76 
164 95 302 127 100 74 
165 94 302 129 103 78 
166 92 301 130 103 79 
166 93 301 128 101 76 
167 92 301 129 101 77 
167 93 301 127 99 74 
166 92 302 130 103 78 
166 94 301 127 100 75 
166 95 300 126 99 74 
166 95 301 127 99 75 
167 94 300 126 99 75 
167 94 301 126 98 74 
167 95 300 126 99 75 
174 80 288 89 71 52 
174 81 288 86 70 52 
174 81 289 85 69 51 
175 80 288 90 72 52 
175 80 289 86 69 49 
175 81 289 85 68 50 
175 80 290 89 71 49 
175 80 291 92 73 51 
175 81 290 88 70 49 
175 81 291 91 73 50 
174 82 288 85 69 52 
174 82 289 84 69 52 
174 83 288 84 69 53 
174 83 289 84 69 52 
174 82 290 86 69 49 
174 83 290 87 70 49 
174 83 291 90 71 49 
175 82 290 87 70 49 
175 82 291 91 72 49 
175 83 291 91 72 49 
175 80 292 97 76 52 
175 81 292 97 76 52 
175 81 293 102 81 55 
175 81 294 106 83 58 
175 81 295 110 86 61 
175 82 292 96 76 51 
175 82 293 102 80 54 
175 83 292 96 76 51 
175 83 293 102 80 54 
175 82 294 106 83 58 
175 82 295 110 87 62 
175 83 294 106 83 57 
175 83 295 110 87 62 
174 84 288 85 70 54 
174 84 289 85 69 52 
174 85 288 86 71 55 
174 85 289 86 71 54 
174 84 290 88 70 50 
174 84 291 92 73 51 
174 85 290 90 72 52 
174 85 291 94 75 53 
174 86 288 87 72 55 
174 86 289 88 72 54 
174 87 288 89 73 57 
174 87 289 90 73 54 
174 86 290 91 74 53 
174 86 291 95 76 54 
174 87 290 93 74 52 
174 87 291 96 76 53 
173 87 295 110 85 60 
174 84 292 97 77 53 
174 85 292 98 77 54 
174 85 293 102 81 56 
175 84 292 97 77 53 
175 84 293 102 81 55 
174 84 294 108 86 60 
174 84 295 111 88 63 
174 85 294 106 84 59 
174 85 295 110 88 63 
175 84 294 106 84 59 
174 86 292 98 78 54 
174 86 293 102 81 56 
174 87 292 99 79 55 
174 87 293 103 81 55 
174 86 294 107 85 58 
174 86 295 110 86 60 
174 87 294 108 84 58 
174 87 295 109 85 59 
169 81 303 128 100 76 
168 83 303 131 102 78 
169 82 303 129 101 78 
169 83 303 129 101 77 
170 80 303 127 99 77 
170 81 303 127 99 76 
171 80 303 127 99 76 
171 81 302 126 98 75 
171 81 303 127 99 76 
171 83 301 124 96 71 
170 82 302 126 98 75 
170 82 303 127 98 76 
170 83 302 126 97 74 
170 83 303 127 99 76 
171 82 302 125 97 73 
171 83 302 125 97 73 
171 87 299 122 93 71 
168 84 303 131 103 78 
168 85 302 129 100 76 
168 85 303 131 103 79 
169 84 302 127 98 75 
169 84 303 129 100 76 
169 85 302 128 98 75 
169 86 301 128 97 74 
169 87 301 129 97 75 
168 86 302 130 100 77 
168 86 303 131 102 78 
168 87 302 130 100 77 
169 86 302 128 97 75 
169 87 302 128 97 75 
170 85 301 127 98 74 
171 84 301 125 96 72 
171 85 300 124 95 71 
171 85 301 125 97 73 
170 84 302 127 97 74 
170 85 302 128 98 75 
170 86 301 127 97 74 
170 87 300 127 96 73 
170 87 301 127 97 73 
171 86 300 123 94 71 
171 87 300 124 94 70 
173 82 299 121 91 71 
173 83 298 116 90 68 
173 83 299 119 90 70 
175 80 296 114 89 66 
175 80 297 114 88 69 
175 81 296 113 88 65 
175 81 297 114 88 67 
174 80 299 119 88 68 
174 81 298 115 88 67 
174 81 299 119 89 70 
175 80 298 115 87 68 
175 80 299 117 87 67 
175 81 298 114 88 67 
174 82 297 113 88 66 
174 83 296 113 89 66 
174 83 297 114 90 68 
175 82 296 113 89 64 
175 82 297 113 88 66 
175 83 296 113 89 64 
174 82 298 115 88 67 
174 82 299 119 90 70 
174 83 298 116 90 68 
172 81 301 126 96 76 
173 80 301 126 95 75 
173 81 300 123 91 72 
173 81 301 126 94 75 
172 80 302 127 97 77 
172 80 303 127 98 76 
172 81 302 126 98 75 
173 80 302 127 97 77 
172 82 301 125 95 73 
172 83 300 123 92 70 
172 83 301 124 95 72 
173 82 300 123 92 72 
173 82 301 125 94 73 
173 83 300 122 91 70 
172 82 302 125 97 74 
174 80 300 122 91 71 
174 80 301 124 92 72 
174 81 300 122 91 72 
173 84 297 115 91 70 
173 85 297 114 90 67 
172 84 299 120 92 70 
172 85 299 120 92 70 
173 84 298 116 91 69 
173 84 299 119 91 70 
173 85 298 117 91 69 
173 85 299 119 91 70 
173 86 296 112 88 64 
173 86 297 115 90 68 
173 87 296 111 86 61 
173 87 297 115 89 66 
172 86 298 118 91 69 
172 86 299 121 93 71 
172 87 298 119 92 70 
172 87 299 121 93 71 
173 86 298 117 92 70 
174 84 296 113 90 67 
174 84 297 115 91 70 
174 85 296 113 90 66 
174 85 297 114 90 68 
174 86 296 112 88 63 
172 84 300 122 93 70 
172 84 301 124 95 71 
172 85 300 122 93 71 
171 94 295 118 90 68 
171 95 294 116 88 65 
171 95 295 118 89 67 
173 89 291 100 79 55 
173 90 289 95 76 55 
173 91 288 93 74 54 
173 91 289 94 75 53 
173 90 290 97 78 55 
173 90 291 100 80 56 
173 91 290 98 78 56 
173 91 291 100 80 56 
174 88 288 91 74 56 
174 88 289 92 75 55 
174 89 288 92 73 52 
174 89 289 93 74 52 
174 88 290 96 77 55 
174 88 291 98 78 54 
174 89 290 97 77 54 
174 89 291 99 79 55 
174 90 288 93 74 52 
174 90 289 93 75 54 
174 91 288 93 74 53 
173 88 293 107 83 57 
173 89 292 102 80 54 
173 89 293 105 82 55 
173 88 294 109 85 60 
173 88 295 112 86 62 
173 89 294 110 84 59 
173 89 295 112 86 62 
173 90 292 102 80 55 
173 90 293 106 82 57 
173 91 292 102 81 56 
173 91 293 107 82 59 
172 90 295 114 88 64 
172 91 294 112 85 63 
172 91 295 115 88 65 
173 90 294 111 84 60 
173 90 295 113 86 63 
173 91 294 111 84 61 
174 88 292 100 79 53 
174 88 293 104 82 55 
174 89 292 101 80 54 
173 92 288 93 75 53 
173 92 289 96 76 53 
173 93 288 96 77 54 
173 93 289 97 77 53 
173 92 290 99 79 55 
173 92 291 101 80 56 
173 93 290 100 79 54 
173 93 291 102 80 55 
172 95 289 101 79 53 
173 94 288 97 77 53 
173 94 289 99 78 54 
173 95 288 99 78 53 
173 95 289 99 78 53 
172 94 291 104 80 54 
172 95 290 103 80 54 
172 95 291 105 82 56 
173 94 290 102 80 55 
173 94 291 102 80 54 
173 95 290 102 80 54 
172 92 293 109 83 61 
172 93 292 108 83 59 
172 93 293 110 84 62 
173 92 292 103 81 56 
173 92 293 107 82 59 
173 93 292 105 81 56 
172 92 294 112 85 63 
172 92 295 115 88 64 
172 93 294 114 87 64 
172 93 295 116 88 65 
172 94 292 107 83 57 
172 94 293 112 86 63 
172 95 292 109 85 60 
172 95 293 113 87 64 
172 94 294 115 88 65 
172 94 295 117 89 66 
172 95 294 116 89 66 
170 89 299 125 95 74 
171 88 298 121 92 71 
171 88 299 123 93 72 
171 89 298 120 91 69 
171 89 299 123 93 72 
171 90 297 119 90 68 
171 91 296 118 90 69 
171 91 297 120 92 70 
170 90 299 126 96 75 
170 91 298 124 95 73 
170 91 299 126 97 76 
171 90 298 122 92 70 
171 90 299 124 93 72 
171 91 298 123 94 72 
168 88 301 131 99 78 
168 89 301 131 99 79 
169 88 301 130 98 76 
169 89 300 130 99 77 
169 89 301 131 99 79 
168 88 302 131 100 78 
168 89 302 130 100 78 
168 90 301 131 100 80 
168 91 300 132 101 81 
168 91 301 131 101 80 
169 90 300 131 101 80 
169 91 300 130 100 80 
170 88 300 128 98 76 
170 88 301 128 97 74 
170 89 300 128 98 77 
171 88 300 124 94 72 
170 90 300 128 97 77 
169 92 299 126 99 77 
169 93 299 124 97 74 
168 94 299 124 97 73 
168 95 299 124 97 74 
169 94 298 122 95 72 
169 94 299 124 96 73 
169 95 298 122 94 72 
169 95 299 124 97 74 
170 93 297 121 93 71 
171 92 296 118 90 68 
171 92 297 120 92 71 
171 93 296 118 90 68 
171 93 297 119 91 69 
170 92 298 122 95 72 
170 92 299 125 97 74 
170 93 298 122 94 71 
170 94 297 120 92 70 
170 95 296 119 90 70 
170 95 297 120 92 70 
171 94 296 119 91 70 
171 95 296 119 90 70 
170 94 298 121 93 71 
168 92 300 128 100 77 
168 92 301 129 101 77 
168 93 300 126 99 75 
169 92 300 129 101 79 
168 94 300 126 98 74 
168 95 300 126 99 75 
172 88 297 117 90 67 
172 89 296 117 89 65 
172 89 297 117 90 66 
173 88 296 114 88 64 
173 88 297 115 89 65 
173 89 296 114 87 63 
172 88 298 119 91 70 
172 90 296 117 89 66 
172 90 297 118 90 66 
172 91 296 118 90 67 
172 92 296 117 89 66 
172 93 296 117 89 66 
160 80 305 122 98 77 
160 81 305 125 101 80 
161 81 305 130 104 83 
160 80 306 125 100 79 
161 80 306 129 103 82 
161 81 306 131 105 83 
160 82 305 127 102 81 
160 83 304 126 101 79 
160 83 305 128 104 82 
161 82 305 131 105 83 
161 83 305 132 106 85 
162 81 305 132 105 83 
163 81 305 133 105 82 
162 80 306 131 105 83 
162 81 306 132 105 83 
163 80 306 132 105 82 
163 81 306 132 105 82 
162 82 305 132 105 83 
162 83 305 135 107 85 
163 82 305 133 105 83 
163 83 305 136 108 86 
160 84 304 129 104 82 
160 85 304 131 106 84 
161 84 304 134 108 87 
161 84 305 133 107 86 
161 85 304 135 108 87 
160 86 304 132 107 86 
160 87 304 131 106 84 
161 86 304 135 109 87 
161 87 304 133 107 85 
162 84 304 137 108 87 
162 84 305 136 108 87 
162 85 304 137 108 87 
163 84 304 138 109 88 
163 84 305 137 108 87 
163 85 304 138 108 88 
162 86 304 136 107 86 
162 87 304 134 106 84 
163 86 304 137 107 86 
163 87 304 135 106 84 
164 81 305 134 105 82 
165 80 305 134 105 82 
165 81 305 135 106 82 
164 80 306 133 105 81 
164 81 306 132 104 81 
165 80 306 134 105 82 
164 82 305 135 107 84 
164 83 304 138 108 86 
164 83 305 137 107 86 
165 82 305 135 106 83 
165 83 304 136 105 83 
165 83 305 136 106 83 
166 80 305 134 103 81 
166 81 305 134 104 82 
167 80 305 132 101 79 
167 81 304 133 101 80 
167 81 305 133 101 80 
166 82 304 135 103 81 
166 82 305 135 104 82 
166 83 304 134 103 81 
167 82 304 133 101 80 
167 83 304 132 100 78 
164 84 304 139 108 87 
164 85 304 139 108 87 
165 84 304 136 105 84 
165 85 304 137 105 84 
164 86 304 138 107 87 
166 84 304 134 103 81 
166 85 304 135 103 82 
167 84 304 132 102 78 
168 80 304 128 98 74 
168 80 305 129 98 76 
168 81 304 130 100 77 
169 80 304 128 99 75 
169 81 304 128 100 76 
168 82 304 130 101 77 
168 83 304 131 101 78 
170 80 304 127 99 76 
179 69 288 88 70 51 
178 71 288 91 73 52 
179 70 288 90 72 52 
179 70 289 93 75 55 
179 71 288 92 73 52 
179 71 289 95 76 54 
179 70 290 98 78 57 
179 71 290 99 79 56 
179 71 291 103 83 59 
179 71 292 109 87 63 
179 71 293 113 90 66 
179 71 294 113 89 65 
179 71 295 112 88 63 
181 64 288 90 73 56 
181 64 289 91 74 55 
181 65 288 89 73 56 
181 65 289 89 73 55 
181 64 290 94 76 57 
181 64 291 96 78 58 
181 65 290 93 76 56 
181 65 291 96 77 57 
180 67 288 86 70 53 
180 67 289 90 73 55 
181 66 288 87 71 54 
181 66 289 88 72 55 
181 67 288 87 71 54 
181 67 289 89 73 56 
180 67 290 91 74 55 
181 66 290 91 75 55 
181 66 291 95 77 56 
181 67 290 91 74 56 
181 67 291 96 78 58 
182 64 289 91 75 57 
182 64 290 95 78 59 
182 64 291 96 77 57 
181 64 293 101 80 56 
181 65 292 98 78 55 
181 65 293 102 81 57 
181 64 294 103 82 58 
181 64 295 105 83 60 
181 65 294 105 83 61 
181 65 295 106 83 60 
181 66 292 100 80 58 
181 66 293 104 83 61 
181 67 292 104 83 62 
181 67 293 109 87 64 
181 66 294 107 85 63 
181 66 295 107 84 61 
181 67 294 109 86 63 
181 67 295 108 84 62 
182 64 292 97 78 55 
182 64 293 100 79 55 
182 64 294 102 80 57 
182 64 295 105 82 58 
180 68 288 87 71 52 
180 68 289 91 73 55 
180 69 288 89 72 53 
180 69 289 92 75 56 
180 68 290 94 77 57 
180 68 291 99 80 60 
180 69 290 97 79 59 
180 69 291 102 83 62 
180 70 289 94 76 56 
180 70 290 99 80 59 
180 70 291 103 83 61 
180 71 291 104 83 60 
180 68 292 107 86 63 
180 68 293 111 88 64 
180 69 292 108 87 64 
180 69 293 111 88 64 
181 68 292 106 85 63 
181 68 293 111 88 65 
180 68 294 111 87 62 
180 68 295 109 85 62 
180 69 294 111 88 63 
180 69 295 109 86 62 
180 70 292 108 86 63 
180 70 293 111 88 63 
180 71 292 109 87 63 
180 71 293 112 89 64 
180 70 294 111 87 62 
180 70 295 110 86 62 
180 71 294 111 88 63 
180 71 295 110 86 62 
177 67 303 122 92 73 
178 65 303 120 92 71 
179 64 302 115 91 69 
179 64 303 119 91 70 
179 65 302 116 91 69 
179 65 303 119 92 71 
178 67 301 115 86 67 
179 66 301 114 90 67 
179 67 300 110 84 63 
179 67 301 113 88 67 
178 66 303 120 92 72 
178 67 302 117 89 70 
178 67 303 121 91 73 
179 66 302 117 91 70 
179 67 302 116 88 68 
179 69 297 109 84 63 
179 68 299 109 82 62 
179 69 298 108 82 62 
179 69 299 109 83 61 
178 71 297 111 85 64 
179 70 296 109 85 63 
179 70 297 109 85 63 
179 71 296 111 86 63 
179 71 297 110 85 63 
178 70 299 110 84 61 
178 71 298 110 84 61 
178 71 299 110 85 62 
179 70 298 109 84 62 
179 70 299 108 82 60 
179 71 298 109 84 62 
177 68 303 121 91 73 
177 69 302 119 87 70 
177 69 303 121 90 72 
177 70 301 118 88 69 
177 71 300 115 87 66 
177 71 301 117 89 69 
176 70 303 123 93 74 
176 71 303 123 93 74 
177 70 302 119 88 70 
177 70 303 122 91 73 
177 71 302 120 90 71 
178 68 301 115 86 68 
178 69 300 113 86 66 
178 69 301 117 86 69 
179 68 300 111 86 66 
178 68 302 117 87 70 
178 69 302 118 87 70 
178 70 300 112 85 64 
178 70 301 116 87 67 
178 71 300 113 87 64 
181 64 296 106 83 59 
181 64 297 104 81 56 
181 65 296 106 83 60 
181 65 297 106 82 58 
180 65 299 106 81 57 
181 64 298 104 79 55 
181 64 299 105 81 56 
181 65 298 105 80 55 
181 65 299 105 80 56 
180 67 296 107 83 61 
180 67 297 108 83 62 
181 66 296 107 83 60 
181 66 297 107 83 60 
181 67 296 107 83 61 
180 66 298 107 81 58 
180 66 299 107 81 57 
180 67 298 108 82 60 
180 67 299 108 81 59 
181 66 298 106 81 57 
182 64 296 106 83 59 
180 64 300 108 85 61 
180 64 301 111 88 65 
180 65 300 109 85 62 
180 65 301 112 88 66 
181 64 300 107 83 59 
181 64 301 109 86 63 
181 65 300 107 83 59 
180 64 302 114 89 67 
180 65 302 113 89 66 
180 66 300 109 84 61 
180 66 301 112 88 66 
180 67 300 109 84 61 
180 68 296 107 83 62 
180 68 297 108 83 63 
180 69 296 108 84 61 
180 69 297 109 83 63 
180 68 298 108 82 62 
180 68 299 108 82 61 
180 70 296 109 84 61 
177 74 288 93 73 50 
177 74 289 95 75 51 
177 75 288 93 73 50 
177 75 289 94 74 50 
177 75 290 97 77 53 
177 75 291 100 80 58 
178 72 288 93 74 52 
178 72 289 95 76 52 
178 73 288 93 74 51 
178 73 289 96 76 52 
179 72 288 94 75 53 
179 72 289 96 76 53 
178 72 290 98 77 53 
178 73 290 98 78 53 
178 73 291 103 81 56 
179 72 290 99 79 55 
179 72 291 104 83 58 
179 73 291 103 81 56 
178 74 288 94 74 51 
178 74 289 96 76 52 
178 74 290 98 78 54 
178 74 291 103 81 57 
178 75 290 99 79 56 
178 75 291 102 81 58 
177 75 292 104 83 59 
177 75 295 112 87 64 
179 72 292 109 86 62 
179 72 293 113 89 65 
179 73 292 107 84 59 
179 73 293 110 86 61 
178 73 295 113 87 63 
179 72 294 113 89 65 
179 72 295 113 89 65 
