ply
format ascii 1.0
comment Created by CloudCompare v2.10.1 (Zephyrus)
comment Created 1/31/20 10:55 AM
obj_info Generated by CloudCompare!
element vertex 1957
property float x
property float y
property float z
property uchar red
property uchar green
property uchar blue
end_header
329 292 326 106 119 135 
329 293 326 109 125 144 
329 293 327 114 129 148 
329 294 324 136 139 146 
329 294 325 120 131 145 
329 295 324 167 154 143 
329 295 325 149 143 140 
329 294 326 123 135 151 
329 294 327 125 137 153 
329 295 326 142 142 146 
329 295 327 144 145 151 
330 292 325 100 113 128 
330 292 326 109 121 137 
330 292 327 102 118 137 
330 293 327 111 127 146 
330 288 328 145 148 157 
330 288 329 125 136 151 
330 289 328 127 132 143 
330 289 329 114 127 142 
330 288 330 111 128 149 
330 288 331 116 132 153 
330 289 330 112 128 148 
330 289 331 117 133 155 
330 290 328 107 120 135 
330 290 329 114 127 144 
330 291 328 102 118 137 
330 291 329 127 140 158 
330 290 330 122 137 157 
330 290 331 123 140 160 
330 291 330 133 146 163 
330 291 331 124 139 159 
329 288 334 126 146 168 
329 288 335 109 134 159 
329 289 334 115 137 161 
329 289 335 87 119 147 
329 290 334 120 137 158 
329 290 335 118 137 159 
329 291 334 134 144 158 
329 291 335 148 153 164 
330 288 332 126 139 158 
330 288 333 137 151 171 
330 289 332 131 144 161 
330 289 333 135 149 168 
330 288 334 137 153 173 
330 289 334 132 149 169 
330 290 332 128 144 163 
330 290 333 129 144 163 
330 291 332 119 136 157 
330 291 333 119 135 154 
329 294 328 126 135 148 
329 294 329 147 147 153 
329 295 328 144 143 147 
329 295 329 162 154 151 
329 294 331 176 163 156 
329 295 330 175 160 149 
329 295 331 178 160 145 
330 292 328 110 125 143 
330 292 329 139 150 166 
330 293 328 125 137 154 
330 293 329 146 153 165 
330 292 330 139 150 167 
330 292 331 125 139 156 
330 293 330 154 159 170 
330 293 331 147 151 162 
330 294 328 128 138 151 
330 294 329 142 147 157 
330 294 330 166 160 161 
330 294 331 172 163 160 
329 292 333 131 134 141 
329 293 333 144 143 147 
329 292 334 155 151 153 
329 292 335 171 162 159 
329 293 334 177 162 151 
329 293 335 185 165 148 
329 294 332 176 163 155 
329 294 333 173 160 151 
329 295 332 181 161 145 
329 295 333 182 161 142 
329 294 334 175 154 135 
329 294 335 186 162 139 
329 295 334 170 146 123 
329 295 335 177 152 127 
330 292 332 110 125 143 
330 292 333 113 124 139 
330 293 332 141 144 153 
330 293 333 126 130 139 
330 294 332 170 161 158 
328 296 320 136 59 64 
328 296 321 145 92 80 
328 297 320 139 43 74 
328 297 321 136 52 67 
328 296 322 168 137 114 
328 297 322 145 88 76 
328 297 323 151 106 79 
329 296 323 183 160 134 
329 297 323 166 133 103 
328 298 320 141 47 76 
328 298 321 141 40 75 
328 299 320 137 27 65 
328 299 321 137 27 62 
328 298 322 134 29 58 
328 298 323 129 35 42 
328 299 322 136 16 64 
328 299 323 134 15 65 
329 298 323 128 46 42 
329 299 323 134 12 66 
329 296 324 187 164 139 
329 296 325 179 160 141 
329 297 324 169 139 108 
329 297 325 182 158 131 
329 296 326 169 155 145 
329 296 327 162 151 143 
329 297 326 187 165 144 
329 297 327 180 160 141 
329 298 324 128 55 45 
329 298 325 147 110 82 
329 299 324 133 18 64 
329 299 325 132 55 54 
329 298 326 179 156 130 
329 298 327 186 164 141 
329 299 326 154 121 91 
329 299 327 179 158 132 
328 300 320 138 26 65 
328 300 321 136 19 59 
328 301 320 138 28 64 
328 301 321 138 24 66 
328 300 322 135 18 60 
328 301 322 138 25 65 
329 300 323 135 8 61 
329 301 322 140 33 67 
329 301 323 138 28 63 
329 300 324 136 7 63 
329 300 325 138 28 66 
329 301 324 135 15 56 
329 301 325 138 17 63 
329 300 326 140 66 66 
329 300 327 151 112 88 
329 301 326 141 32 73 
329 301 327 141 47 71 
329 296 328 167 153 144 
329 296 329 178 160 147 
329 297 328 174 153 133 
329 297 329 176 154 132 
329 296 330 181 161 144 
329 296 331 177 155 134 
329 297 330 185 162 142 
329 297 331 183 160 139 
329 298 328 183 161 139 
329 298 329 174 151 128 
329 299 328 187 166 142 
329 299 329 187 165 141 
329 298 330 171 146 122 
329 298 331 181 157 133 
329 299 330 171 145 117 
329 299 331 167 140 110 
329 296 332 166 142 118 
329 296 333 179 155 131 
329 297 332 168 143 120 
329 297 333 168 142 115 
329 296 334 184 158 132 
329 296 335 183 157 131 
329 297 334 186 158 131 
329 297 335 187 161 135 
329 298 332 185 161 138 
329 298 333 182 156 131 
329 299 332 185 158 132 
329 299 333 188 162 136 
329 298 334 185 159 131 
329 298 335 187 160 134 
329 299 334 188 161 135 
329 299 335 186 160 135 
329 300 328 174 151 125 
329 300 329 188 166 141 
329 301 328 145 79 75 
329 301 329 157 116 91 
329 300 330 185 161 134 
329 300 331 175 149 119 
329 301 330 176 152 122 
329 301 331 183 158 130 
329 300 332 182 156 128 
329 300 333 188 161 134 
329 301 332 190 164 137 
329 301 333 191 165 138 
329 300 334 188 162 135 
329 300 335 187 162 138 
329 301 334 189 162 135 
329 301 335 187 162 137 
320 288 340 151 156 167 
320 289 340 154 158 167 
321 288 340 151 153 163 
321 289 340 158 160 167 
320 290 340 150 154 164 
320 290 341 147 151 161 
320 291 341 138 145 157 
321 290 340 152 155 165 
321 290 341 145 150 161 
321 291 341 136 144 157 
322 288 340 144 146 154 
322 289 340 153 155 163 
323 288 340 149 150 158 
323 289 340 153 154 163 
322 290 340 147 152 163 
322 291 340 136 146 160 
322 291 341 133 144 160 
323 290 340 145 150 161 
323 291 340 132 143 160 
320 292 341 128 139 154 
320 293 341 129 139 154 
321 292 341 124 137 154 
321 293 341 123 136 154 
320 294 341 129 139 154 
321 294 341 124 138 155 
321 295 341 134 145 160 
320 295 342 130 140 156 
321 295 342 132 143 159 
322 292 341 128 142 161 
322 293 341 125 140 159 
323 292 340 125 141 159 
323 292 341 128 143 161 
323 293 340 120 137 156 
323 293 341 122 138 157 
322 294 341 125 139 157 
322 295 341 127 139 156 
323 294 341 119 135 155 
323 295 341 111 129 149 
324 288 339 158 159 168 
324 289 339 153 155 164 
325 288 339 148 154 166 
325 289 339 127 138 154 
325 290 339 123 136 153 
325 291 339 127 141 159 
327 288 337 116 136 157 
327 289 337 109 126 145 
326 288 338 129 142 160 
326 289 338 123 138 156 
326 289 339 123 139 159 
327 288 338 124 139 159 
327 289 338 123 137 154 
327 290 337 114 131 150 
327 291 337 123 138 157 
326 290 338 112 130 150 
326 290 339 121 137 157 
326 291 338 126 141 160 
326 291 339 130 144 162 
327 290 338 104 123 143 
327 291 338 123 138 157 
324 288 340 155 156 165 
324 289 340 147 151 161 
324 290 340 135 142 155 
324 291 340 129 141 157 
325 290 340 124 136 152 
325 291 340 126 140 157 
325 292 339 126 139 157 
325 293 339 119 132 149 
326 292 338 127 142 160 
326 292 339 131 144 162 
326 293 338 98 113 130 
326 293 339 109 123 141 
327 292 338 117 132 151 
327 293 338 101 110 122 
326 294 338 135 131 131 
326 294 339 112 119 130 
326 295 338 170 155 143 
326 295 339 147 142 143 
327 294 338 157 142 132 
327 295 338 182 156 129 
324 292 340 122 138 156 
324 293 340 112 129 149 
325 292 340 120 136 155 
325 293 340 115 129 147 
324 294 340 112 129 149 
324 294 341 108 127 149 
324 295 340 104 122 143 
324 295 341 104 124 147 
325 294 340 108 122 139 
325 295 340 123 130 141 
320 296 342 131 142 159 
320 297 342 119 135 155 
321 296 342 132 144 160 
321 297 342 120 135 153 
320 298 342 99 122 145 
320 299 342 92 120 146 
321 298 342 112 126 144 
321 299 342 120 132 148 
322 296 341 120 134 151 
322 297 341 115 126 140 
323 296 341 107 123 141 
323 297 341 122 128 139 
322 296 342 125 138 155 
322 297 342 116 128 144 
323 298 341 148 142 142 
323 299 341 165 153 144 
322 298 342 124 129 139 
322 299 342 148 145 147 
321 300 342 123 135 150 
321 301 342 123 136 153 
323 300 341 174 156 142 
323 301 341 171 155 143 
322 300 342 156 151 151 
322 301 342 142 145 153 
323 300 342 168 154 145 
323 301 342 164 153 147 
327 296 337 184 155 125 
327 297 337 184 158 131 
326 296 338 178 155 134 
326 296 339 171 155 144 
326 297 338 174 148 122 
326 297 339 173 150 127 
327 297 338 181 155 128 
327 298 337 183 159 135 
327 299 337 181 157 136 
326 298 338 177 152 127 
326 298 339 172 145 118 
326 299 338 184 159 137 
326 299 339 177 151 125 
327 298 338 182 158 134 
327 299 338 183 159 139 
324 296 340 121 130 145 
324 296 341 114 126 142 
324 297 340 155 147 145 
324 297 341 136 135 139 
325 296 340 148 145 148 
325 297 340 169 154 143 
324 298 340 168 149 131 
324 298 341 164 149 138 
324 299 340 169 145 122 
324 299 341 173 152 134 
325 298 340 171 147 124 
325 299 340 166 139 111 
327 300 337 183 160 139 
327 301 337 186 163 140 
326 300 338 183 160 139 
326 300 339 181 157 133 
326 301 338 184 160 138 
326 301 339 178 153 128 
327 300 338 183 160 140 
327 301 338 187 163 140 
324 300 340 169 144 120 
324 300 341 175 152 131 
324 301 341 174 151 130 
325 300 340 169 143 117 
325 301 340 176 150 123 
328 288 336 101 126 152 
328 288 337 105 129 153 
328 289 336 75 109 137 
328 289 337 88 114 138 
329 289 336 79 111 139 
328 290 336 118 135 156 
328 290 337 116 133 153 
328 291 336 129 140 155 
328 291 337 120 134 152 
329 290 336 123 140 161 
329 291 336 140 147 160 
328 292 336 147 145 149 
328 292 337 125 132 145 
328 293 336 173 156 142 
328 293 337 142 133 128 
329 292 336 163 156 156 
329 293 336 178 161 147 
328 294 336 188 163 139 
328 294 337 178 155 133 
328 295 336 185 159 133 
328 295 337 183 156 128 
329 294 336 188 164 142 
329 295 336 185 159 134 
328 296 336 183 157 130 
328 296 337 184 156 128 
328 297 336 184 159 134 
328 297 337 184 158 134 
329 296 336 182 156 130 
328 298 336 183 158 133 
328 298 337 182 157 133 
328 299 336 183 158 133 
328 299 337 180 155 131 
328 300 336 184 159 135 
328 300 337 183 159 136 
328 301 336 187 162 138 
328 301 337 186 162 138 
319 241 331 75 98 117 
319 242 331 75 87 102 
319 243 331 76 72 80 
319 244 331 78 61 64 
319 244 332 85 60 64 
319 245 332 93 55 57 
319 246 332 108 78 77 
319 247 332 124 107 107 
319 248 332 128 119 120 
319 248 333 130 125 127 
319 249 333 134 131 133 
319 250 333 138 137 140 
319 251 333 134 134 138 
319 252 333 129 129 134 
319 252 334 136 135 140 
319 253 334 142 142 147 
319 254 334 149 148 154 
319 255 334 149 148 153 
325 244 309 82 125 160 
325 245 309 85 129 165 
325 244 310 82 124 159 
325 245 310 82 125 160 
324 247 310 87 129 165 
325 246 310 85 127 161 
325 247 310 86 126 161 
325 247 311 88 125 157 
326 244 310 92 133 166 
326 245 310 85 127 162 
326 245 311 92 132 165 
327 244 311 93 133 167 
327 245 311 95 135 169 
326 246 310 79 119 154 
326 246 311 83 120 153 
326 247 311 82 118 150 
327 244 312 93 134 168 
327 245 312 94 134 168 
326 247 312 86 117 149 
327 246 312 89 127 160 
327 246 313 95 131 163 
327 247 312 86 121 153 
327 247 313 87 122 153 
323 252 311 72 117 154 
323 253 311 83 122 156 
323 254 311 95 124 152 
323 255 311 95 107 126 
324 248 310 86 131 166 
324 249 310 86 132 169 
324 249 311 90 134 169 
325 248 310 83 124 159 
325 248 311 92 130 163 
325 249 311 87 130 164 
324 250 310 88 134 170 
324 250 311 88 133 169 
324 251 311 90 133 168 
325 250 311 87 131 168 
324 252 311 80 124 160 
324 253 311 81 123 158 
323 255 312 95 120 144 
325 249 312 79 123 158 
325 250 312 85 130 166 
325 251 312 87 132 169 
325 251 313 88 132 169 
326 248 312 89 125 156 
326 248 313 70 112 148 
326 249 312 75 120 156 
326 249 313 74 119 154 
327 248 313 72 110 144 
327 249 313 78 119 154 
327 248 314 70 106 141 
327 249 314 79 118 152 
326 250 313 81 126 162 
326 251 313 84 129 165 
326 250 314 84 127 162 
326 251 314 84 128 163 
327 250 314 86 127 161 
327 251 314 85 128 162 
327 251 315 85 127 162 
324 252 312 81 128 164 
324 253 312 81 124 160 
325 252 312 83 129 167 
325 252 313 87 131 167 
325 253 313 85 128 163 
324 254 312 89 129 162 
324 254 313 89 130 163 
324 255 312 92 127 157 
324 255 313 91 130 163 
325 254 313 86 128 162 
325 255 313 88 129 162 
325 254 314 86 125 158 
325 255 314 85 127 162 
326 252 313 86 130 166 
326 252 314 83 126 161 
326 253 314 84 125 159 
326 253 315 76 118 152 
327 252 315 79 120 157 
327 253 315 77 117 153 
326 254 314 89 124 156 
326 254 315 89 125 157 
326 255 314 90 129 162 
326 255 315 97 132 163 
327 254 315 90 127 159 
327 255 315 108 139 168 
327 254 316 97 132 164 
327 255 316 91 129 161 
328 243 313 87 124 155 
329 243 314 91 127 157 
330 243 317 79 116 148 
330 243 318 73 108 140 
328 244 312 84 126 160 
328 244 313 80 120 154 
328 245 312 96 135 168 
328 245 313 90 130 163 
329 244 313 84 122 154 
328 245 314 88 128 161 
329 244 314 80 118 151 
329 245 314 80 121 155 
329 245 315 79 121 155 
328 246 313 92 130 162 
328 247 313 93 129 160 
328 246 314 90 130 162 
328 247 314 86 124 156 
328 247 315 89 127 159 
329 246 314 86 127 161 
329 246 315 84 127 160 
329 247 314 85 126 159 
329 247 315 88 126 158 
330 244 317 80 119 151 
330 245 317 86 123 154 
330 244 318 79 119 151 
330 245 318 81 119 150 
330 246 317 86 121 150 
330 247 317 88 118 145 
330 246 318 81 114 144 
330 247 318 84 111 140 
328 248 314 72 107 142 
328 248 315 80 119 153 
328 249 315 75 116 151 
329 248 315 82 122 154 
329 249 315 75 116 150 
328 250 315 85 126 159 
328 251 315 83 126 161 
329 248 316 82 119 151 
329 249 316 74 114 148 
328 251 316 85 127 161 
329 250 316 84 124 156 
329 250 317 91 129 161 
329 251 316 89 129 162 
329 251 317 91 130 163 
330 248 317 73 99 130 
330 249 317 73 108 140 
330 248 318 82 110 138 
330 249 318 77 112 142 
330 250 317 87 126 157 
330 251 317 90 130 163 
330 250 318 79 119 150 
330 250 319 76 114 147 
330 251 318 86 126 158 
330 251 319 82 122 154 
328 252 316 86 128 162 
328 253 316 89 127 161 
329 252 316 92 132 165 
329 252 317 91 130 163 
329 253 317 87 126 158 
329 253 318 82 120 154 
328 254 316 94 131 162 
328 254 317 80 119 152 
328 255 316 88 128 161 
328 255 317 81 123 157 
329 254 317 82 120 153 
329 255 317 81 121 153 
329 254 318 79 117 149 
329 255 318 91 126 156 
329 255 319 93 127 157 
330 252 318 85 125 157 
330 252 319 83 123 155 
330 253 318 78 116 150 
330 253 319 80 119 152 
330 254 318 76 110 145 
330 254 319 81 117 150 
330 255 319 91 126 156 
320 238 331 72 106 134 
320 239 331 69 102 129 
321 238 331 76 112 142 
321 239 331 72 107 137 
320 239 332 71 105 132 
321 238 332 76 114 144 
321 239 332 75 112 142 
322 238 332 77 114 144 
322 239 332 78 115 146 
323 238 332 77 113 143 
323 239 332 79 114 144 
324 239 331 78 112 140 
325 239 331 76 108 137 
326 239 330 73 103 133 
326 239 331 72 102 132 
324 239 332 77 112 141 
320 240 331 80 109 133 
320 241 331 81 104 125 
320 240 332 80 112 138 
320 241 332 83 111 134 
321 240 332 80 115 144 
321 241 332 83 117 145 
320 242 332 85 104 124 
320 243 332 82 88 101 
321 242 332 85 115 140 
321 243 332 87 106 126 
322 240 332 78 116 146 
322 241 332 83 119 150 
323 240 332 79 115 146 
323 241 332 80 118 149 
322 242 332 83 118 147 
322 243 332 85 114 139 
323 242 332 84 120 150 
323 243 332 85 117 144 
320 244 332 84 67 73 
320 245 332 93 48 51 
320 245 333 96 39 44 
321 244 332 84 77 88 
321 244 333 87 76 88 
321 245 333 96 50 58 
320 246 332 104 62 60 
320 246 333 107 65 64 
320 247 333 120 100 100 
321 246 333 100 45 49 
321 247 333 107 71 72 
322 244 332 82 101 120 
322 244 333 85 93 110 
322 245 333 90 67 78 
323 244 332 86 115 139 
323 244 333 85 104 124 
323 245 333 89 83 94 
322 246 333 96 49 57 
322 247 333 98 49 56 
323 246 333 93 65 72 
323 247 333 97 53 60 
325 240 331 75 113 143 
325 241 331 82 120 151 
326 240 331 81 113 141 
326 241 331 85 121 151 
327 240 330 81 112 142 
327 241 330 83 120 151 
327 241 331 84 120 150 
326 242 331 82 120 151 
326 243 331 78 113 143 
327 242 330 86 123 154 
327 242 331 84 122 153 
327 243 330 86 122 152 
327 243 331 78 114 145 
324 240 332 75 113 144 
324 241 332 76 115 147 
325 240 332 74 113 145 
325 241 332 79 118 149 
324 242 332 81 119 150 
324 243 332 81 117 145 
325 242 332 81 118 150 
325 243 332 79 115 145 
326 244 331 76 107 135 
326 245 331 82 108 133 
327 244 330 83 117 146 
327 244 331 78 111 139 
327 245 331 78 109 136 
327 246 331 76 108 134 
327 247 331 81 109 133 
324 244 332 83 112 136 
324 244 333 85 104 122 
324 245 332 87 105 124 
324 245 333 87 96 111 
325 244 332 77 109 137 
325 245 332 83 107 128 
324 246 333 87 78 89 
324 247 333 92 66 74 
325 246 332 85 99 114 
325 246 333 86 89 102 
325 247 332 84 88 101 
325 247 333 89 77 88 
326 244 332 75 107 135 
326 245 332 81 107 131 
326 246 332 80 104 125 
326 247 332 80 93 110 
327 247 332 85 105 124 
320 248 333 127 116 118 
320 249 333 132 127 131 
321 248 333 115 97 100 
321 249 333 129 124 127 
321 249 334 130 125 129 
320 250 333 143 141 145 
320 251 333 147 145 149 
321 250 333 147 145 149 
320 251 334 150 148 153 
321 250 334 151 148 152 
321 251 334 158 156 159 
322 248 333 104 72 79 
323 248 333 99 57 63 
322 248 334 116 96 102 
322 249 334 123 111 116 
323 248 334 103 69 75 
323 249 334 113 92 96 
322 250 334 148 144 146 
322 251 334 161 158 161 
323 250 334 140 131 133 
323 251 334 157 153 155 
320 252 334 149 147 152 
320 253 334 154 152 157 
321 252 334 160 157 161 
321 253 334 160 158 162 
320 254 334 156 155 160 
320 255 334 153 152 157 
320 255 335 151 150 155 
321 254 334 159 157 162 
321 254 335 161 158 163 
321 255 335 154 152 157 
322 252 334 159 157 161 
322 253 334 159 157 161 
322 253 335 157 155 159 
323 252 334 151 151 155 
323 253 334 148 147 152 
323 253 335 153 152 156 
322 254 335 159 157 162 
322 255 335 157 155 159 
323 254 334 150 149 153 
323 254 335 158 156 160 
323 255 335 159 156 160 
327 248 331 88 110 130 
327 249 331 83 91 109 
327 250 331 86 79 93 
327 251 331 92 68 82 
324 248 333 97 52 59 
324 249 333 100 52 57 
325 248 333 91 59 67 
325 249 333 101 48 55 
324 248 334 102 61 67 
324 249 334 106 73 77 
324 250 333 116 80 80 
325 250 333 108 62 62 
325 251 333 127 107 107 
324 250 334 132 113 114 
324 251 334 150 143 144 
325 250 334 125 99 97 
325 251 334 143 134 133 
326 248 332 89 81 96 
326 249 332 97 59 71 
327 248 332 90 101 117 
327 249 332 87 78 92 
326 250 332 94 48 59 
326 250 333 99 43 52 
326 251 332 98 60 69 
326 251 333 103 68 71 
327 250 332 88 62 75 
327 251 332 95 59 71 
325 252 333 149 145 148 
325 253 333 144 146 153 
324 252 334 140 141 147 
324 253 334 132 136 143 
325 252 334 149 147 151 
325 253 334 133 137 145 
324 254 334 140 142 149 
324 254 335 152 151 156 
324 255 334 153 152 158 
324 255 335 159 157 160 
325 254 334 133 137 145 
325 255 334 150 150 157 
326 252 333 135 127 128 
326 253 333 155 155 159 
327 252 332 104 80 81 
327 253 332 134 123 121 
326 254 333 146 147 153 
326 255 333 153 153 158 
327 254 332 155 150 151 
327 254 333 160 158 161 
327 255 332 162 160 164 
327 255 333 159 158 163 
326 255 334 152 152 158 
331 242 321 76 114 146 
331 243 321 79 116 147 
331 242 322 81 120 151 
331 242 323 79 120 152 
331 243 322 80 120 151 
331 243 323 81 121 153 
330 241 325 78 107 136 
331 241 325 77 105 135 
330 241 326 82 111 138 
330 241 327 87 118 146 
330 242 325 80 113 141 
331 242 324 83 119 151 
331 242 325 83 118 147 
331 243 324 82 122 153 
331 243 325 83 122 152 
330 242 326 74 108 138 
330 242 327 80 112 142 
330 243 326 82 118 148 
330 243 327 80 116 146 
331 243 326 84 121 151 
331 244 321 80 118 149 
331 245 321 80 120 152 
331 244 322 84 121 151 
331 244 323 84 121 151 
331 245 322 82 119 150 
331 245 323 86 120 149 
331 246 321 80 121 153 
331 247 321 79 119 152 
331 246 322 79 117 150 
331 246 323 77 111 143 
331 247 322 78 118 150 
331 247 323 73 108 141 
331 244 324 82 120 151 
331 244 325 81 119 150 
331 245 324 85 119 147 
331 245 325 79 114 144 
330 244 326 79 118 149 
330 244 327 78 117 148 
330 245 326 73 111 143 
330 245 327 78 116 148 
331 244 326 78 117 149 
331 245 326 74 109 141 
331 246 324 83 114 143 
331 246 325 86 114 142 
331 247 324 73 102 135 
331 247 325 75 104 135 
330 246 326 82 115 144 
330 246 327 82 117 147 
330 247 327 90 121 148 
331 246 326 84 114 143 
331 247 326 90 118 145 
328 240 329 79 116 147 
328 241 329 83 120 150 
329 240 328 78 114 144 
329 240 329 77 116 147 
329 241 328 84 117 146 
329 241 329 81 118 148 
328 240 330 81 117 147 
328 242 329 85 122 153 
328 243 329 87 123 153 
329 242 328 84 118 148 
329 242 329 84 120 150 
329 243 328 81 119 150 
329 243 329 84 121 152 
328 243 330 88 124 154 
330 243 328 82 118 149 
328 244 329 85 120 150 
329 244 328 81 120 152 
329 244 329 84 122 152 
329 245 328 81 120 152 
329 245 329 81 119 150 
328 244 330 81 114 142 
328 245 330 77 111 141 
329 246 329 79 117 149 
329 247 329 82 118 149 
328 246 330 75 112 143 
328 247 330 81 119 151 
328 247 331 81 116 145 
329 247 330 81 120 151 
330 244 328 80 119 150 
330 245 328 80 119 150 
330 246 328 81 118 148 
330 247 328 84 118 147 
331 248 321 78 117 148 
331 249 321 79 118 150 
331 248 322 81 120 152 
331 248 323 79 116 148 
331 249 322 85 122 153 
331 249 323 84 123 154 
331 250 321 80 119 151 
331 251 321 82 121 153 
331 250 322 83 122 154 
331 250 323 85 123 154 
331 251 322 81 121 153 
331 251 323 83 122 152 
331 248 324 77 112 144 
331 248 325 75 111 142 
331 249 324 83 122 153 
331 249 325 83 122 152 
330 248 327 91 120 147 
330 249 327 78 116 148 
331 248 326 82 115 143 
331 248 327 84 116 145 
331 249 326 79 116 148 
331 249 327 77 115 146 
331 250 324 82 119 151 
331 250 325 79 116 148 
331 251 324 80 117 147 
331 251 325 70 106 139 
330 250 327 80 120 152 
330 251 327 81 121 153 
331 250 326 80 118 150 
331 250 327 79 119 151 
331 251 326 73 112 145 
331 251 327 81 120 152 
330 252 320 83 124 158 
330 253 320 83 124 157 
331 252 321 83 122 154 
331 253 321 81 122 155 
331 252 322 81 120 152 
331 252 323 79 116 147 
331 253 322 81 119 151 
331 253 323 75 110 143 
330 254 320 79 120 154 
330 254 321 79 121 154 
330 255 320 84 122 154 
330 255 321 80 121 154 
331 254 321 80 121 154 
331 255 321 81 122 154 
331 254 322 81 120 152 
331 254 323 78 116 148 
331 255 322 81 122 154 
331 255 323 84 122 153 
331 252 324 84 117 145 
331 252 325 73 104 134 
331 253 324 77 108 138 
331 253 325 87 115 140 
331 252 326 70 105 134 
331 252 327 81 115 142 
331 253 326 93 116 138 
331 253 327 87 106 126 
331 254 324 78 112 141 
331 254 325 81 111 135 
331 255 324 87 120 147 
331 255 325 88 110 131 
331 254 326 93 110 128 
331 254 327 96 98 112 
331 255 326 91 88 102 
331 255 327 97 71 82 
329 248 329 84 122 153 
329 249 329 82 123 154 
328 248 330 89 122 150 
328 248 331 87 116 141 
328 249 330 88 118 143 
328 249 331 87 111 131 
329 248 330 85 122 152 
329 249 330 87 122 151 
329 250 329 82 122 152 
328 250 330 89 111 133 
328 250 331 89 97 115 
328 251 330 84 90 106 
328 251 331 87 80 96 
329 250 330 87 118 143 
329 251 330 82 104 127 
330 248 328 83 118 147 
330 248 329 83 119 150 
330 249 328 81 121 152 
330 249 329 82 123 155 
330 250 328 82 123 155 
330 250 329 83 123 153 
330 251 328 85 123 153 
330 251 329 87 120 148 
328 252 330 83 65 78 
328 252 331 94 52 64 
328 253 331 103 45 48 
329 252 330 89 80 93 
329 252 331 94 46 58 
329 253 330 103 49 56 
329 253 331 106 35 45 
328 254 331 119 87 82 
329 254 330 111 40 48 
329 254 331 109 47 51 
329 255 330 104 62 68 
329 255 331 115 88 91 
330 252 328 89 116 139 
330 252 329 92 108 128 
330 253 328 90 97 111 
330 253 329 97 88 101 
331 253 328 86 101 118 
330 253 330 96 60 69 
330 254 328 90 73 83 
330 254 329 97 57 68 
330 255 328 103 58 67 
330 255 329 104 50 56 
331 254 328 92 86 97 
331 255 328 101 62 74 
330 254 330 106 35 43 
330 255 330 106 48 55 
328 253 332 106 67 67 
328 254 332 135 120 118 
328 255 332 151 144 144 
319 256 334 145 144 148 
319 257 334 146 145 150 
319 257 335 149 148 153 
319 258 335 150 149 154 
319 259 335 144 143 149 
319 260 335 147 147 153 
319 261 335 152 152 158 
318 262 335 146 147 153 
318 263 335 146 147 154 
319 262 335 153 152 158 
319 263 335 152 152 159 
318 264 335 147 147 153 
319 262 336 152 152 157 
319 263 336 151 152 158 
318 265 336 146 146 153 
319 264 336 152 153 159 
319 265 336 154 154 160 
318 266 336 142 143 150 
318 267 336 139 141 148 
319 266 336 149 150 156 
319 267 336 148 149 155 
318 268 336 144 146 154 
318 269 336 144 147 155 
318 269 337 144 148 158 
319 268 336 149 150 158 
319 268 337 154 155 162 
319 269 337 148 151 159 
318 270 336 137 142 153 
318 270 337 134 140 152 
318 271 337 122 132 146 
319 270 337 138 144 156 
319 271 337 127 137 153 
318 272 337 110 125 142 
319 272 337 113 128 146 
322 256 311 98 51 59 
322 257 311 109 72 73 
323 256 311 97 73 82 
323 257 311 99 59 63 
323 258 311 119 105 104 
323 259 311 147 145 149 
323 256 312 90 88 101 
323 257 312 90 58 69 
323 258 312 102 83 86 
323 258 313 104 83 96 
323 259 312 146 145 150 
323 259 313 137 127 134 
323 260 312 148 150 157 
323 260 313 149 144 151 
323 261 312 132 135 143 
323 261 313 137 138 146 
323 262 312 147 148 155 
323 262 313 142 144 151 
323 263 312 159 158 164 
323 263 313 155 155 161 
324 256 312 92 110 132 
324 256 313 90 122 149 
324 257 313 87 101 124 
325 256 313 86 128 161 
325 256 314 85 130 165 
325 257 314 93 130 162 
324 258 313 94 85 104 
324 259 313 108 92 102 
324 259 314 90 70 85 
325 258 314 91 108 127 
325 258 315 81 113 138 
325 259 314 90 79 95 
325 259 315 89 92 110 
326 256 315 88 130 166 
326 257 315 88 132 168 
326 258 315 86 125 155 
326 259 315 93 108 132 
327 256 316 82 124 159 
327 257 316 84 127 162 
327 257 317 83 125 160 
326 258 316 86 127 159 
326 259 316 95 116 143 
327 258 316 86 127 160 
327 258 317 84 125 158 
327 259 316 92 122 151 
327 259 317 89 121 150 
324 260 313 135 126 131 
324 261 313 135 130 134 
324 260 314 115 97 103 
324 261 314 136 121 122 
325 260 314 103 77 87 
325 260 315 97 76 90 
325 261 314 118 94 101 
325 261 315 115 87 95 
324 262 313 143 141 145 
324 263 313 157 156 161 
324 262 314 146 135 134 
324 263 314 155 151 153 
325 262 315 137 117 115 
325 263 315 145 136 135 
325 262 316 124 100 102 
325 263 316 140 127 126 
326 260 316 99 96 114 
326 261 316 112 88 99 
326 261 317 94 82 95 
327 260 317 93 109 131 
327 261 317 88 88 108 
326 262 316 118 93 98 
326 262 317 113 86 92 
326 263 316 125 108 109 
326 263 317 121 93 97 
327 262 317 103 78 89 
327 263 317 117 89 92 
327 262 318 100 82 95 
327 263 318 112 88 92 
323 264 312 159 157 161 
323 264 313 161 160 164 
323 265 312 158 157 162 
323 265 313 157 156 161 
323 266 312 158 157 162 
323 266 313 152 152 159 
323 267 312 155 155 162 
323 267 313 151 152 160 
323 268 312 150 152 160 
323 268 313 147 150 158 
323 269 312 146 149 157 
323 269 313 142 145 154 
323 270 312 144 147 155 
323 270 313 145 147 156 
323 271 312 143 146 154 
323 271 313 144 146 154 
324 264 313 159 158 163 
324 265 313 154 155 161 
324 264 314 154 152 156 
324 265 314 151 151 158 
325 264 315 149 147 150 
325 265 315 147 147 153 
324 266 313 148 150 157 
324 267 313 147 148 156 
324 266 314 144 147 156 
324 267 314 142 145 154 
324 267 315 139 142 151 
325 266 315 143 146 155 
325 267 315 139 142 152 
325 264 316 145 142 145 
325 265 316 153 153 159 
325 266 316 149 152 160 
325 267 316 145 147 156 
326 264 316 137 129 132 
326 264 317 129 115 118 
326 265 316 147 146 151 
326 265 317 135 131 134 
327 264 317 120 102 103 
327 265 317 124 117 119 
327 264 318 118 96 95 
327 265 318 120 107 108 
326 266 316 156 157 163 
326 266 317 153 152 156 
326 267 316 152 153 161 
326 267 317 154 154 159 
327 266 317 141 140 143 
327 267 317 160 158 162 
327 266 318 134 127 129 
327 267 318 158 155 158 
324 268 313 145 148 156 
324 269 313 141 144 153 
324 268 314 145 147 156 
324 268 315 147 149 157 
324 269 314 143 146 154 
324 269 315 150 151 159 
325 268 315 148 150 158 
325 269 315 154 155 162 
324 270 313 143 145 154 
324 271 313 148 149 157 
324 270 314 146 148 156 
324 270 315 148 150 158 
324 271 314 152 153 160 
324 271 315 154 155 162 
325 270 315 152 153 160 
325 268 316 147 148 156 
325 269 316 156 156 162 
325 270 316 157 156 163 
325 271 316 158 158 164 
326 268 316 144 147 156 
326 268 317 148 149 156 
326 269 316 145 147 156 
326 269 317 155 155 162 
326 269 318 162 161 167 
327 268 318 163 162 168 
327 269 318 158 158 164 
327 269 319 161 161 167 
326 270 317 160 160 166 
326 271 317 159 159 166 
326 270 318 162 161 167 
326 271 318 161 160 167 
327 270 318 164 163 167 
327 270 319 164 163 168 
327 271 318 160 160 165 
327 271 319 160 159 164 
328 256 317 84 127 161 
328 257 317 84 127 162 
328 257 318 82 124 157 
329 256 318 83 125 158 
329 256 319 86 124 156 
329 257 318 83 125 157 
329 257 319 80 121 155 
328 258 317 81 123 157 
328 259 317 85 116 144 
328 258 318 83 122 154 
328 259 318 80 114 143 
329 258 318 83 124 158 
329 258 319 81 121 153 
329 259 318 78 112 141 
329 259 319 79 116 147 
330 256 319 87 125 157 
330 257 319 77 120 154 
328 260 318 92 111 133 
328 261 318 94 104 122 
328 261 319 99 106 123 
329 260 319 90 113 135 
329 261 319 96 106 122 
328 262 318 102 99 114 
328 262 319 99 99 115 
328 263 318 106 90 97 
328 263 319 104 86 96 
329 262 319 101 101 117 
329 263 319 107 88 98 
328 264 318 115 95 92 
328 264 319 107 82 79 
328 265 318 120 102 101 
328 265 319 122 98 100 
329 264 319 109 81 80 
329 265 319 108 74 76 
328 266 319 126 108 111 
328 267 319 149 141 143 
329 266 319 122 97 104 
329 267 319 133 119 122 
328 268 319 166 163 167 
328 269 319 160 161 168 
328 270 319 156 156 163 
328 271 319 159 160 166 
323 272 312 144 146 154 
323 272 313 145 146 153 
323 273 312 145 146 154 
323 273 313 148 149 155 
323 274 313 149 149 155 
323 275 313 148 149 156 
324 272 313 148 149 156 
324 273 313 149 149 156 
324 272 314 153 153 160 
324 272 315 158 158 165 
324 273 314 151 152 158 
324 273 315 154 155 162 
324 274 313 149 149 155 
324 275 313 150 150 157 
324 274 314 151 152 158 
324 274 315 153 153 161 
324 275 314 152 153 160 
324 275 315 154 155 162 
325 275 315 154 155 161 
325 272 316 160 160 167 
325 272 317 159 160 166 
325 273 316 158 158 165 
325 273 317 159 159 165 
325 274 316 154 154 162 
325 274 317 153 154 161 
325 275 316 152 153 160 
325 275 317 147 149 156 
326 272 317 157 157 164 
326 273 317 157 157 164 
326 272 318 155 155 160 
326 273 318 155 154 159 
326 273 319 146 145 150 
327 272 319 149 150 157 
327 273 319 143 142 148 
326 274 317 152 153 160 
326 275 317 143 146 154 
326 274 318 151 152 159 
326 274 319 152 153 160 
326 275 318 142 146 155 
326 275 319 143 146 156 
327 274 319 148 149 156 
327 275 319 150 152 160 
326 276 317 141 143 151 
326 276 318 138 142 151 
326 276 319 134 140 150 
327 276 319 139 143 153 
320 256 334 148 147 152 
320 256 335 147 146 151 
320 257 335 152 151 155 
321 256 335 145 144 149 
321 257 335 147 146 151 
320 258 335 160 158 163 
320 259 335 158 156 162 
321 258 335 161 158 162 
321 259 335 164 162 165 
322 256 335 147 145 149 
322 257 335 148 146 151 
323 256 335 153 150 154 
323 257 335 151 149 153 
322 258 335 159 157 161 
322 259 335 162 160 164 
323 258 335 160 158 162 
323 259 335 155 154 160 
320 260 335 157 156 162 
320 261 335 157 156 162 
321 260 335 162 160 165 
322 260 335 160 158 163 
323 260 335 146 147 154 
324 256 334 158 156 159 
324 256 335 160 156 160 
324 257 335 158 155 158 
325 256 334 158 156 161 
325 257 334 160 157 161 
324 258 335 160 159 163 
324 259 335 152 153 159 
325 258 334 159 157 161 
325 258 335 162 160 164 
325 259 334 159 157 162 
325 259 335 159 158 164 
326 256 333 157 155 160 
327 256 333 160 159 164 
327 257 333 144 146 153 
326 256 334 158 156 162 
326 257 334 147 147 152 
327 258 333 123 128 138 
327 259 333 129 133 141 
326 258 334 144 144 150 
326 259 334 151 150 155 
324 260 335 138 141 149 
324 261 335 132 136 145 
325 260 335 151 152 160 
325 261 335 139 142 151 
324 262 335 140 142 149 
325 262 335 144 146 153 
325 263 335 154 153 160 
327 260 333 150 149 155 
327 261 333 161 159 163 
326 260 334 158 155 160 
326 261 334 158 156 161 
327 260 334 155 153 157 
327 261 334 162 160 164 
327 262 333 161 158 162 
326 262 334 156 155 160 
326 262 335 154 153 159 
326 263 334 161 158 163 
326 263 335 160 158 163 
327 262 334 160 158 163 
327 263 334 160 158 162 
325 264 335 157 156 161 
325 265 335 153 152 158 
325 266 335 151 151 158 
326 264 334 164 161 164 
326 264 335 157 155 160 
326 265 335 143 144 152 
327 264 334 160 159 164 
327 265 334 143 147 157 
326 266 335 135 139 148 
326 267 335 144 145 153 
327 266 334 127 134 145 
327 267 334 131 136 146 
327 267 335 136 139 148 
326 268 335 157 156 162 
326 269 335 159 157 161 
327 268 334 152 151 157 
327 268 335 154 153 159 
327 269 334 158 156 161 
327 269 335 159 157 161 
326 270 335 158 156 160 
327 270 335 159 157 160 
327 271 335 160 158 161 
330 256 320 85 124 157 
330 256 321 83 124 157 
330 257 320 80 124 158 
330 257 321 85 128 162 
330 256 322 85 127 160 
330 257 322 88 128 160 
331 256 322 85 126 158 
331 256 323 88 125 154 
331 257 322 89 125 155 
331 257 323 92 121 146 
330 258 320 81 123 157 
330 258 321 86 128 162 
330 259 320 81 121 152 
330 259 321 87 125 155 
330 258 322 88 123 152 
330 258 323 92 112 134 
330 259 322 89 115 137 
330 259 323 81 91 105 
331 258 323 93 112 133 
331 256 324 89 118 143 
331 256 325 90 103 121 
331 257 324 91 102 119 
331 257 325 87 70 82 
331 256 326 96 76 90 
331 256 327 102 40 59 
331 257 326 103 50 64 
331 257 327 108 31 49 
331 258 324 86 82 95 
331 258 325 95 56 66 
331 259 324 92 72 79 
331 259 325 106 70 74 
331 258 326 104 51 56 
331 258 327 109 54 54 
331 259 326 115 88 85 
331 259 327 125 105 99 
329 260 320 82 112 137 
329 261 320 93 103 118 
329 262 320 102 96 108 
329 263 320 101 77 86 
330 260 320 84 114 139 
330 260 321 87 114 138 
330 261 320 90 100 113 
330 261 321 89 102 118 
330 260 322 87 98 113 
330 260 323 77 64 73 
330 261 322 86 70 83 
330 261 323 94 45 60 
330 262 320 92 90 100 
330 262 321 87 73 82 
330 263 320 93 76 86 
330 263 321 91 57 69 
330 262 322 89 53 69 
330 262 323 101 45 62 
330 263 322 92 48 64 
330 263 323 102 58 72 
330 260 324 86 63 64 
330 261 324 104 55 56 
331 260 324 100 66 65 
331 260 325 117 93 91 
331 261 324 109 74 71 
331 261 325 132 122 119 
331 260 326 138 128 129 
331 260 327 159 156 157 
331 261 326 161 159 163 
331 261 327 158 159 166 
330 262 324 111 79 78 
330 262 325 148 143 144 
330 263 324 118 103 104 
330 263 325 158 156 159 
331 262 325 162 159 162 
331 263 325 169 167 172 
331 262 326 165 165 170 
331 262 327 144 147 156 
331 263 326 165 164 170 
331 263 327 147 149 157 
329 256 331 130 126 129 
329 257 331 140 140 144 
329 258 331 157 157 162 
329 259 331 160 159 164 
330 256 328 105 46 57 
330 256 329 110 61 71 
330 257 328 108 56 61 
330 257 329 113 78 82 
331 256 328 104 39 56 
331 257 328 108 42 55 
330 256 330 110 83 88 
330 257 330 128 117 120 
330 258 328 125 94 92 
330 258 329 139 126 124 
330 259 328 154 145 142 
330 259 329 166 162 162 
331 258 328 116 69 71 
331 259 328 139 127 121 
330 258 330 152 149 151 
330 259 330 163 161 165 
328 256 332 160 157 161 
328 257 332 158 158 164 
329 256 332 151 149 153 
329 257 332 154 154 159 
328 258 332 151 152 160 
328 258 333 129 134 144 
328 259 332 136 138 146 
328 259 333 131 134 142 
329 258 332 158 158 164 
329 259 332 146 147 155 
329 260 331 161 159 163 
329 261 331 164 161 165 
330 260 328 154 153 158 
330 260 329 155 154 159 
330 261 328 128 133 142 
330 261 329 133 137 146 
331 260 328 156 155 159 
331 261 328 136 141 150 
330 260 330 160 159 164 
330 260 331 163 161 165 
330 261 330 156 155 161 
330 261 331 164 162 166 
330 262 328 129 135 146 
330 262 329 137 141 151 
330 263 329 155 155 162 
331 262 328 132 137 148 
331 263 328 155 156 163 
331 263 329 154 154 161 
330 262 330 157 157 164 
330 262 331 160 160 166 
330 263 330 158 158 165 
330 263 331 136 139 148 
328 260 332 150 149 154 
328 260 333 154 152 158 
328 261 333 159 156 161 
329 260 332 152 150 156 
329 261 332 160 157 160 
328 262 333 155 153 157 
328 263 333 154 152 156 
329 262 332 145 145 150 
329 263 332 130 132 140 
329 264 320 103 64 69 
329 265 320 108 70 79 
329 266 320 119 94 103 
329 266 321 116 89 102 
329 267 320 140 129 132 
329 267 321 136 127 130 
330 264 321 98 55 68 
330 265 321 98 62 75 
330 264 322 98 64 74 
330 264 323 98 75 82 
330 265 322 104 84 91 
330 265 323 120 115 119 
330 266 321 115 95 105 
330 267 321 145 139 142 
330 266 322 125 119 124 
330 266 323 138 137 142 
330 267 322 152 150 153 
330 267 323 156 155 160 
330 264 324 130 126 130 
330 264 325 161 161 166 
330 265 324 139 139 145 
330 265 325 161 161 167 
330 264 326 164 164 171 
330 265 326 159 159 165 
331 264 326 163 163 169 
331 264 327 161 160 166 
331 265 326 154 155 161 
331 265 327 153 153 160 
330 266 324 151 152 159 
330 266 325 158 159 167 
330 267 324 159 160 167 
330 267 325 153 154 162 
330 266 326 143 144 150 
330 266 327 143 144 150 
330 267 326 139 140 147 
330 267 327 148 149 156 
331 266 327 148 149 156 
328 269 320 164 164 171 
329 268 320 164 160 164 
329 268 321 163 160 163 
329 269 320 163 163 170 
329 269 321 157 159 168 
329 269 322 154 156 163 
328 270 320 147 149 157 
328 271 320 147 149 158 
329 270 320 153 154 163 
329 270 321 144 148 158 
329 271 321 139 143 153 
329 270 322 149 152 162 
329 271 322 156 158 165 
330 268 322 161 159 163 
330 268 323 163 161 166 
330 269 322 154 154 162 
330 269 323 163 161 166 
330 270 322 158 159 167 
330 270 323 164 164 170 
330 271 322 161 162 168 
330 271 323 164 164 170 
330 268 324 161 161 168 
330 268 325 151 152 160 
330 269 324 162 161 166 
330 269 325 155 156 163 
330 268 326 149 150 158 
330 268 327 159 159 167 
330 269 326 161 161 168 
330 269 327 163 163 169 
330 270 324 163 162 169 
330 270 325 155 157 165 
330 271 324 154 154 161 
330 271 325 148 149 157 
330 270 326 162 162 169 
330 270 327 161 160 167 
330 271 326 163 162 168 
330 271 327 164 164 170 
330 264 329 159 156 160 
330 265 329 160 157 160 
331 264 328 163 162 167 
331 264 329 164 161 166 
331 265 328 159 159 165 
331 265 329 163 160 164 
330 264 330 147 147 152 
330 264 331 131 133 141 
330 265 330 149 148 152 
330 265 331 148 147 153 
330 266 328 158 158 165 
330 266 329 163 161 167 
330 267 328 159 160 167 
330 267 329 160 161 168 
331 266 328 158 158 164 
331 266 329 163 162 167 
330 266 330 162 159 163 
330 266 331 160 157 162 
330 267 330 159 158 164 
330 267 331 160 158 164 
328 264 333 157 155 159 
328 265 333 156 157 165 
329 264 332 135 136 143 
329 264 333 146 145 152 
329 265 332 150 150 156 
329 265 333 156 155 161 
328 266 333 153 154 160 
328 267 333 152 152 158 
329 266 332 158 157 163 
329 266 333 157 157 163 
329 267 332 159 158 163 
329 267 333 157 155 161 
328 266 334 143 146 154 
328 267 334 142 144 151 
330 268 328 162 162 170 
330 268 329 153 155 164 
330 269 328 156 157 164 
330 269 329 144 146 154 
330 268 330 149 150 158 
330 268 331 156 156 162 
330 269 330 141 144 152 
330 269 331 157 157 163 
330 270 328 153 154 162 
330 270 329 145 147 155 
330 271 328 160 160 167 
330 271 329 155 156 163 
331 271 329 160 160 168 
330 270 330 152 153 160 
330 270 331 162 161 168 
330 271 330 162 162 169 
330 271 331 159 160 168 
328 268 333 159 157 162 
329 268 332 159 158 163 
329 268 333 159 157 162 
329 269 332 161 160 166 
329 269 333 160 158 162 
328 268 334 156 155 160 
328 269 334 160 157 161 
329 270 332 160 160 165 
329 270 333 155 154 159 
329 271 333 147 148 155 
328 270 334 158 156 159 
328 271 334 156 154 158 
329 270 334 155 153 158 
329 271 334 155 153 158 
330 268 332 159 158 164 
330 269 332 161 160 166 
330 270 332 159 159 165 
330 271 332 149 151 160 
320 260 336 160 159 165 
320 261 336 157 156 162 
321 260 336 160 159 164 
321 261 336 158 158 164 
320 262 336 151 152 158 
320 263 336 146 148 155 
321 262 336 152 154 161 
321 263 336 141 145 155 
322 260 336 158 156 162 
322 261 336 158 156 162 
323 260 336 149 149 155 
323 261 336 151 151 157 
322 262 336 160 159 165 
322 263 336 152 154 162 
323 262 336 159 158 163 
323 263 336 161 160 165 
324 261 336 141 142 150 
324 262 336 151 151 157 
324 263 336 159 157 162 
325 263 336 156 155 160 
320 264 336 146 148 156 
320 265 336 156 156 163 
321 264 336 146 149 158 
321 265 336 159 159 165 
320 266 336 158 158 163 
320 266 337 162 160 165 
320 267 336 157 156 162 
320 267 337 161 160 165 
321 266 337 162 160 166 
321 267 337 163 161 166 
322 264 336 152 154 164 
322 265 336 161 161 168 
322 265 337 162 162 169 
323 264 336 159 159 166 
323 265 336 164 164 169 
323 265 337 164 163 170 
322 266 337 160 160 167 
322 267 337 155 155 162 
323 266 337 160 160 166 
323 267 337 147 149 156 
320 268 337 162 160 166 
320 269 337 154 155 162 
321 268 337 166 164 168 
321 269 337 163 161 166 
320 270 337 144 148 158 
320 271 337 135 143 157 
321 270 337 153 153 160 
321 271 337 147 151 160 
321 271 338 149 152 161 
322 268 337 157 157 163 
322 269 337 163 161 167 
323 268 337 141 143 151 
323 269 337 154 154 161 
322 270 337 158 156 162 
323 270 337 160 160 166 
323 271 337 156 156 163 
322 271 338 154 154 161 
324 264 336 163 161 165 
324 265 336 165 163 168 
325 264 336 159 157 162 
325 265 336 160 158 162 
324 266 336 163 162 167 
324 266 337 160 159 165 
324 267 336 155 156 162 
324 267 337 149 150 157 
325 266 336 159 157 163 
325 267 336 160 159 165 
326 267 336 157 156 162 
324 268 336 141 143 151 
324 268 337 130 134 143 
324 269 337 137 140 148 
325 268 336 151 151 158 
325 269 336 142 143 151 
325 269 337 134 138 147 
324 270 337 154 154 161 
324 271 337 159 159 166 
325 270 336 150 151 158 
325 270 337 149 151 158 
325 271 336 157 156 163 
325 271 337 159 159 166 
326 268 336 158 157 162 
326 269 336 154 153 159 
326 270 336 153 152 158 
326 271 336 159 157 162 
327 273 320 138 140 147 
327 274 320 143 144 151 
327 275 320 151 152 159 
327 276 320 148 150 158 
327 272 335 154 153 159 
327 273 335 141 143 151 
327 274 335 141 143 150 
327 275 335 149 150 159 
327 276 335 151 153 162 
328 272 320 150 152 160 
328 272 321 158 158 165 
328 273 320 144 145 152 
328 273 321 146 146 151 
329 272 321 152 154 162 
329 273 321 155 154 158 
329 272 322 160 160 167 
329 273 322 155 155 160 
329 273 323 149 150 157 
328 274 320 143 144 150 
328 274 321 145 144 149 
328 275 320 149 150 157 
328 275 321 153 152 158 
329 274 322 153 151 156 
329 274 323 147 149 156 
329 275 322 157 156 162 
329 275 323 156 156 163 
330 272 323 152 153 161 
330 273 323 141 144 152 
330 274 323 145 148 156 
330 275 323 157 159 166 
330 272 324 132 134 142 
330 272 325 141 142 149 
330 273 324 137 140 149 
330 273 325 147 149 156 
330 272 326 161 160 166 
330 272 327 167 166 171 
330 273 326 161 162 169 
330 273 327 159 159 167 
331 272 327 166 165 171 
331 273 327 163 163 169 
330 274 324 150 152 160 
330 274 325 159 160 168 
330 275 324 160 161 168 
330 275 325 162 163 170 
330 274 326 155 157 166 
330 274 327 152 153 161 
330 275 326 147 151 161 
330 275 327 138 142 151 
328 276 320 155 155 162 
328 276 321 158 158 164 
329 276 322 160 161 169 
329 276 323 159 160 168 
329 277 322 156 157 165 
329 277 323 154 156 164 
330 276 323 160 161 169 
330 276 324 164 165 172 
330 276 325 165 166 174 
330 277 324 158 159 167 
330 277 325 163 164 172 
330 276 326 148 152 161 
330 276 327 141 145 155 
330 277 326 155 158 166 
330 277 327 155 158 166 
331 272 328 165 164 171 
331 272 329 164 164 171 
331 273 328 164 163 169 
331 273 329 166 165 172 
330 272 330 163 164 172 
330 272 331 151 153 162 
330 273 330 162 163 171 
330 273 331 153 155 164 
331 273 330 164 164 171 
330 274 328 154 154 160 
330 274 329 162 161 167 
330 275 328 147 149 156 
330 275 329 158 158 165 
331 274 328 155 156 162 
331 274 329 165 164 171 
330 274 330 163 162 169 
330 274 331 163 163 170 
330 275 330 163 163 170 
330 275 331 165 164 170 
331 274 330 164 164 170 
329 272 333 143 146 154 
329 273 333 158 159 168 
328 272 334 161 158 163 
328 272 335 160 158 163 
328 273 334 155 155 162 
328 273 335 148 149 157 
329 272 334 157 157 162 
329 273 334 159 160 167 
329 274 333 162 163 171 
329 275 333 158 159 167 
328 274 334 138 141 151 
328 274 335 136 140 148 
328 275 335 135 139 149 
329 274 334 153 155 163 
329 275 334 142 146 156 
330 272 332 135 140 150 
330 273 332 148 150 160 
330 273 333 151 153 163 
330 274 332 162 163 170 
330 274 333 162 163 170 
330 275 332 167 166 172 
330 275 333 163 162 169 
330 276 328 153 155 164 
330 276 329 159 161 169 
330 277 328 157 160 170 
330 277 329 149 153 164 
330 276 330 156 158 166 
330 276 331 158 158 165 
330 277 330 133 139 150 
330 277 331 147 149 158 
329 276 333 159 159 167 
328 276 335 147 150 160 
329 276 334 148 151 159 
330 276 332 165 165 171 
330 276 333 165 164 170 
330 277 332 162 162 169 
330 277 333 165 165 171 
320 272 337 123 135 153 
320 272 338 131 141 157 
320 273 338 108 126 147 
321 272 338 142 148 161 
321 273 338 118 133 152 
323 272 337 156 158 166 
322 272 338 151 155 164 
322 273 338 131 141 157 
323 272 338 156 158 167 
323 273 338 143 149 162 
323 274 338 117 132 151 
324 272 337 158 159 167 
324 273 337 151 155 164 
325 272 336 159 158 165 
325 272 337 159 159 166 
325 273 337 157 158 165 
324 273 338 138 145 157 
324 274 337 121 131 146 
325 274 337 140 144 154 
325 275 337 97 114 133 
324 274 338 117 130 147 
326 272 336 155 155 161 
326 273 336 150 150 156 
327 273 336 140 141 149 
326 274 336 151 151 157 
326 275 336 145 148 157 
326 275 337 121 130 143 
327 274 336 144 144 151 
327 275 336 150 152 159 
327 276 336 135 140 150 
318 301 343 107 130 155 
319 300 343 100 127 154 
319 301 343 107 130 155 
320 300 343 98 125 152 
320 301 343 106 131 156 
321 300 343 109 130 153 
321 301 343 112 133 156 
314 185 281 130 28 59 
314 185 282 130 32 60 
314 185 283 133 43 65 
314 186 281 132 39 58 
314 186 282 130 35 59 
314 186 283 130 33 58 
314 187 282 141 65 69 
314 187 283 137 55 64 
314 185 284 138 56 73 
315 185 284 139 57 73 
315 185 285 137 54 70 
315 185 286 135 50 68 
314 186 284 131 36 59 
315 186 284 131 37 57 
315 186 285 132 36 58 
315 187 284 134 42 58 
315 187 285 133 37 56 
315 186 286 132 34 59 
315 186 287 132 40 61 
315 187 286 134 37 61 
315 187 287 135 43 64 
314 188 282 142 70 63 
314 188 283 135 56 54 
314 189 282 137 61 45 
314 189 283 137 59 46 
315 190 281 146 73 64 
315 191 281 140 56 49 
314 190 282 150 84 72 
314 190 283 147 80 68 
314 191 282 139 58 51 
314 191 283 136 55 47 
314 188 284 134 48 51 
314 189 284 138 59 51 
315 188 284 133 43 51 
315 188 285 134 41 53 
315 189 284 141 66 60 
315 189 285 142 67 63 
315 188 286 134 40 54 
315 188 287 133 40 56 
315 189 286 146 73 69 
315 189 287 147 77 76 
314 190 284 145 78 65 
314 191 284 136 60 48 
315 190 284 145 77 63 
315 190 285 149 84 72 
315 191 284 135 55 45 
315 191 285 135 57 47 
315 190 286 148 82 71 
315 190 287 150 88 77 
315 191 286 134 55 48 
315 191 287 136 60 52 
316 185 287 134 48 67 
316 186 287 131 40 60 
316 187 287 135 46 66 
315 188 288 131 37 55 
315 189 288 142 68 72 
315 190 288 150 87 82 
315 191 288 136 64 54 
316 185 288 131 41 65 
317 185 289 128 34 65 
317 185 290 124 28 61 
316 186 288 129 37 62 
316 187 288 135 48 71 
316 187 289 133 47 70 
317 186 289 130 44 68 
317 186 290 128 43 67 
317 186 291 129 50 70 
317 187 290 129 43 66 
317 187 291 127 38 63 
318 185 290 122 26 59 
318 185 291 121 28 58 
318 186 291 126 43 65 
318 185 292 122 30 59 
319 185 293 124 37 66 
319 185 294 127 46 72 
318 186 292 128 43 66 
318 186 293 128 43 68 
318 187 292 127 35 62 
318 187 293 127 34 65 
319 186 293 127 44 66 
319 187 293 128 38 64 
319 186 294 129 47 67 
319 187 294 130 41 63 
316 188 288 132 36 62 
316 188 289 129 30 60 
316 189 288 136 50 65 
316 189 289 133 39 62 
316 188 290 127 21 56 
316 189 290 129 24 55 
317 188 290 127 24 58 
317 188 291 127 27 58 
317 189 290 128 20 55 
317 189 291 128 22 58 
316 190 288 143 73 75 
316 190 289 136 55 64 
316 191 288 133 60 52 
316 191 289 134 59 57 
316 190 290 131 34 57 
316 191 290 134 54 59 
317 190 291 131 34 60 
317 191 291 136 60 63 
317 188 292 128 33 62 
317 189 292 130 35 61 
317 190 292 131 41 61 
317 191 292 142 75 70 
318 188 292 128 39 66 
318 188 293 129 41 69 
318 189 292 130 38 61 
318 189 293 131 44 66 
319 188 293 133 47 69 
319 189 293 134 51 69 
319 188 294 135 48 66 
319 189 294 136 53 66 
318 190 292 131 42 61 
318 190 293 133 47 64 
318 191 292 141 71 70 
318 191 293 141 70 72 
319 190 293 135 49 66 
319 191 293 141 70 71 
319 190 294 138 54 69 
319 191 294 137 58 65 
