ply
format ascii 1.0
comment Created by CloudCompare v2.10.1 (Zephyrus)
comment Created 1/31/20 6:08 PM
obj_info Generated by CloudCompare!
element vertex 1369
property float x
property float y
property float z
property uchar red
property uchar green
property uchar blue
end_header
241 827 232 236 170 137 
242 827 232 236 170 137 
243 827 232 238 173 139 
241 828 232 237 171 138 
241 829 232 239 173 139 
241 830 233 240 176 141 
241 831 234 242 177 141 
241 831 235 243 178 142 
242 828 232 238 172 140 
242 829 232 240 175 142 
242 829 233 241 176 142 
243 828 232 239 174 141 
243 829 232 240 175 142 
243 829 233 241 176 142 
242 830 233 241 177 142 
243 830 233 241 177 142 
242 831 234 244 180 145 
242 831 235 245 182 147 
243 830 234 241 178 143 
243 831 234 245 182 147 
243 831 235 247 185 151 
244 827 232 240 177 144 
245 827 232 241 179 146 
246 827 232 241 178 145 
247 827 232 242 179 145 
244 828 232 240 177 145 
244 829 232 241 176 144 
244 829 233 242 177 143 
245 828 232 241 179 145 
245 829 233 243 180 147 
244 830 233 242 177 143 
245 830 233 244 182 149 
244 830 234 244 180 146 
244 831 234 247 184 149 
245 830 234 246 184 151 
245 831 234 245 184 150 
245 831 235 244 182 146 
246 828 232 242 179 145 
246 828 233 243 180 147 
246 829 233 244 181 149 
247 828 233 244 182 149 
247 829 233 245 183 152 
246 830 233 244 182 149 
247 830 233 242 180 148 
246 830 234 240 179 145 
246 831 234 238 177 143 
246 831 235 232 171 136 
247 830 234 239 178 145 
247 831 234 233 171 137 
247 831 235 228 167 133 
248 827 232 242 181 146 
248 827 233 244 182 148 
249 827 233 244 182 148 
250 827 233 245 182 150 
251 827 233 246 182 148 
250 827 234 247 184 152 
251 827 234 246 182 149 
248 828 233 245 185 152 
248 829 233 245 184 152 
249 828 233 246 186 151 
248 829 234 244 183 150 
249 828 234 247 185 152 
249 829 234 241 180 146 
248 830 234 237 176 143 
248 831 234 234 173 139 
248 831 235 228 168 133 
249 830 234 235 174 140 
249 830 235 235 173 140 
249 831 235 226 164 129 
250 828 234 247 185 152 
250 829 234 241 180 146 
251 828 234 246 184 150 
251 829 234 242 182 147 
251 829 235 236 175 140 
250 830 235 230 169 134 
250 831 235 225 163 128 
251 830 235 229 168 131 
251 831 235 224 163 128 
249 831 236 224 163 129 
250 831 236 224 162 129 
251 831 236 224 163 129 
251 831 237 226 165 130 
252 827 234 249 184 152 
253 827 234 245 182 151 
254 827 234 246 185 153 
255 827 234 247 186 154 
252 828 234 245 182 148 
252 829 234 240 179 144 
252 829 235 236 175 140 
253 828 234 244 182 149 
253 829 235 231 169 134 
252 830 235 229 169 133 
253 830 235 225 163 128 
254 828 234 237 176 143 
254 829 235 228 165 131 
255 828 234 237 175 142 
255 829 235 226 163 127 
254 830 235 226 163 128 
252 830 236 224 163 128 
252 831 236 225 164 129 
252 831 237 228 166 131 
253 830 236 225 164 128 
253 831 236 226 165 130 
253 831 237 228 167 132 
252 831 238 228 168 132 
253 831 238 232 170 134 
253 831 239 232 171 135 
254 830 236 226 164 128 
254 830 237 227 167 132 
254 831 237 228 168 132 
255 830 236 227 164 129 
255 830 237 228 168 133 
255 831 237 229 168 133 
254 831 238 232 171 134 
254 831 239 232 172 135 
255 831 238 231 170 134 
255 831 239 233 173 136 
255 831 240 236 175 140 
241 832 235 245 182 146 
242 832 235 245 182 146 
243 832 235 241 181 146 
241 832 236 245 183 146 
241 833 237 245 182 145 
241 834 238 238 177 142 
241 835 238 236 177 143 
241 835 239 228 171 135 
242 832 236 245 182 144 
242 833 237 239 178 141 
243 832 236 244 183 146 
243 833 237 238 177 140 
242 834 238 230 171 134 
242 835 239 230 170 134 
243 834 238 228 168 131 
243 834 239 232 171 133 
243 835 239 228 169 133 
244 832 235 244 183 147 
245 832 235 242 180 144 
246 832 235 230 168 132 
247 832 235 226 164 129 
244 832 236 241 179 143 
244 833 237 236 175 138 
245 832 236 236 174 139 
245 833 236 231 169 134 
245 833 237 231 169 132 
244 834 238 229 169 132 
244 834 239 234 172 134 
244 835 239 235 172 135 
245 834 238 229 168 131 
245 834 239 235 172 135 
246 832 236 226 164 130 
246 833 236 227 166 130 
246 833 237 228 165 129 
247 832 236 223 163 128 
247 833 236 224 163 128 
247 833 237 231 167 131 
246 833 238 225 165 128 
247 833 238 228 167 130 
246 834 238 228 167 130 
246 834 239 232 170 133 
247 834 238 226 166 129 
247 834 239 230 168 131 
248 832 236 224 164 130 
248 833 237 228 166 131 
249 832 236 225 165 132 
249 832 237 228 167 131 
249 833 237 226 165 129 
248 833 238 226 166 130 
248 833 239 227 166 131 
249 833 238 227 166 130 
249 833 239 228 167 132 
248 834 239 228 167 131 
249 834 239 229 168 132 
250 832 236 227 165 132 
250 832 237 227 166 131 
251 832 237 227 166 130 
250 832 238 228 166 130 
250 833 238 228 167 130 
250 833 239 230 169 133 
251 832 238 229 168 132 
251 832 239 232 170 133 
251 833 239 231 170 134 
252 832 238 229 169 132 
252 832 239 232 171 134 
253 832 239 232 172 136 
254 832 239 234 173 137 
242 835 240 227 169 132 
243 835 240 234 172 133 
243 835 241 230 171 132 
241 836 240 227 170 132 
241 836 241 230 171 134 
241 837 241 230 171 135 
241 837 242 231 170 135 
241 838 242 231 170 135 
241 838 243 231 170 134 
242 836 240 228 170 132 
242 836 241 230 171 133 
242 837 241 231 172 135 
243 836 240 229 170 132 
243 836 241 230 172 134 
242 837 242 232 171 135 
242 837 243 233 172 136 
243 836 242 233 172 136 
243 837 242 233 172 136 
243 837 243 234 173 137 
242 838 243 233 172 135 
241 838 244 233 172 136 
241 839 244 232 170 134 
241 839 245 233 172 136 
241 839 246 233 174 137 
241 839 247 233 175 139 
243 837 244 235 174 137 
242 838 244 234 173 136 
242 838 245 234 174 138 
242 839 245 234 174 138 
243 838 244 235 174 138 
243 838 245 235 174 139 
242 839 246 234 174 137 
242 839 247 235 177 139 
243 838 246 235 176 140 
243 838 247 237 178 141 
243 839 247 236 178 141 
244 835 240 235 172 135 
244 835 241 233 172 134 
245 835 240 235 173 135 
245 835 241 235 173 135 
245 835 242 237 175 135 
246 834 240 232 171 135 
246 835 240 234 173 136 
246 835 241 235 173 136 
247 834 240 232 171 134 
247 835 240 232 172 136 
247 835 241 234 173 135 
246 835 242 234 173 136 
247 835 242 235 174 138 
247 835 243 237 174 138 
244 836 241 232 172 133 
244 836 242 234 173 137 
244 836 243 235 172 137 
244 837 243 235 173 136 
245 836 242 238 175 137 
245 836 243 236 173 136 
246 836 242 237 175 137 
246 836 243 237 173 137 
247 836 243 236 173 137 
244 837 244 236 175 138 
244 837 245 237 176 140 
245 836 244 234 172 133 
245 837 244 236 175 137 
245 837 245 237 176 140 
245 837 246 236 175 139 
245 837 247 238 177 141 
244 838 245 236 175 140 
244 838 246 236 176 141 
244 838 247 237 177 142 
245 838 246 236 176 140 
245 838 247 238 178 143 
246 836 244 237 174 137 
246 836 245 240 178 142 
246 837 244 238 177 140 
246 837 245 239 177 141 
247 836 244 238 175 139 
247 836 245 240 178 142 
246 837 246 238 177 140 
246 837 247 238 176 140 
247 836 246 240 178 142 
247 836 247 240 177 142 
242 839 248 236 178 140 
242 839 249 236 177 139 
243 838 248 237 179 141 
243 839 248 237 179 141 
243 839 249 237 178 140 
242 839 250 235 177 140 
242 839 251 234 176 140 
243 839 250 236 178 141 
243 839 251 235 177 141 
242 839 252 231 174 139 
242 839 253 230 173 139 
243 838 252 231 175 141 
243 838 253 230 175 142 
243 839 252 232 175 139 
243 839 253 230 174 141 
242 839 254 227 170 137 
242 839 255 221 165 131 
243 838 254 225 170 138 
243 838 255 221 165 133 
243 839 254 227 171 138 
243 839 255 223 167 134 
247 835 255 220 164 134 
245 837 248 238 177 141 
245 837 249 237 176 141 
245 837 250 235 175 140 
245 837 251 232 173 138 
244 838 248 237 177 140 
244 838 249 237 178 140 
245 838 248 237 177 140 
245 838 249 238 177 140 
244 838 250 237 177 140 
244 838 251 234 176 140 
245 838 250 235 176 140 
245 838 251 233 174 138 
246 837 248 238 176 141 
246 837 249 236 175 140 
247 836 248 238 176 141 
247 836 249 235 173 139 
246 836 251 233 174 141 
246 837 250 235 174 140 
246 837 251 233 173 140 
247 836 250 234 173 140 
247 836 251 233 173 141 
245 837 252 230 172 138 
245 837 253 227 171 139 
244 837 255 219 165 132 
245 837 254 224 169 137 
245 837 255 219 165 132 
244 838 252 231 175 140 
244 838 253 229 173 141 
245 838 252 230 173 139 
245 838 253 228 172 139 
244 838 254 224 169 137 
244 838 255 221 166 134 
246 836 252 232 172 139 
246 837 252 231 172 139 
246 837 253 229 171 140 
247 836 252 231 172 139 
247 836 253 227 170 138 
246 836 254 225 169 138 
246 836 255 221 165 134 
246 837 254 225 169 138 
246 837 255 223 167 136 
247 836 254 224 167 136 
247 836 255 220 164 133 
241 840 246 232 174 137 
241 840 247 233 175 139 
241 840 248 234 176 138 
241 840 249 233 175 138 
241 840 250 233 175 138 
241 840 251 232 175 138 
242 840 248 235 176 139 
242 840 249 235 176 139 
242 840 250 235 177 140 
242 840 251 235 176 140 
241 840 252 230 171 136 
241 840 253 229 171 137 
241 840 254 227 170 136 
241 840 255 224 169 135 
242 840 252 231 172 137 
242 840 253 231 173 139 
248 834 240 233 172 136 
248 834 241 235 175 138 
248 835 241 234 173 136 
249 834 240 233 172 137 
249 834 241 236 176 140 
248 835 242 236 175 139 
248 835 243 237 175 139 
249 834 242 237 176 141 
249 835 242 237 176 140 
249 835 243 238 176 140 
250 833 240 233 172 138 
250 833 241 235 173 137 
251 833 240 235 173 138 
251 833 241 236 173 137 
251 833 242 238 176 141 
250 834 240 234 172 138 
250 834 241 236 174 139 
250 834 242 238 177 142 
250 834 243 241 179 144 
251 834 242 238 177 142 
251 834 243 242 180 146 
248 835 244 239 176 139 
249 835 244 239 176 139 
249 835 245 240 177 140 
249 835 246 239 175 139 
249 835 247 241 177 141 
250 834 244 242 180 143 
250 834 245 242 180 143 
250 835 244 241 178 141 
250 835 245 242 178 142 
251 834 244 242 180 144 
251 834 245 243 180 144 
250 835 246 240 176 140 
250 835 247 240 176 140 
251 834 246 242 180 144 
251 834 247 242 180 143 
251 835 246 241 178 141 
251 835 247 241 179 142 
248 836 244 239 177 140 
248 836 245 240 177 140 
248 836 246 241 177 142 
248 836 247 240 178 142 
249 836 246 240 176 140 
249 836 247 241 178 142 
252 832 240 234 172 137 
252 833 240 235 173 138 
252 833 241 237 175 138 
253 832 240 234 173 137 
253 832 241 237 175 138 
253 833 241 238 175 139 
252 833 242 238 175 141 
252 833 243 241 178 144 
253 833 242 240 176 141 
253 833 243 241 177 143 
254 832 240 235 174 138 
254 832 241 238 176 139 
255 832 240 236 174 140 
255 832 241 239 176 140 
254 832 242 240 177 142 
254 832 243 240 177 143 
254 833 243 241 177 144 
255 832 242 241 178 142 
255 832 243 242 178 144 
252 833 244 243 180 145 
253 833 244 243 180 145 
253 833 245 243 180 144 
253 833 246 243 179 143 
253 833 247 242 178 141 
252 834 244 242 181 144 
252 834 245 243 180 144 
252 834 246 242 179 143 
252 834 247 242 179 142 
253 834 246 242 179 143 
253 834 247 243 179 142 
254 833 244 242 179 144 
254 833 245 243 179 144 
255 832 244 242 179 145 
255 832 245 242 178 142 
255 833 244 243 179 145 
255 833 245 242 179 143 
254 833 246 242 178 142 
254 833 247 242 178 142 
255 832 246 244 179 143 
255 833 246 243 179 143 
255 833 247 243 179 143 
249 835 248 242 180 146 
249 835 249 238 177 143 
248 835 251 233 173 140 
249 835 250 233 173 140 
249 835 251 232 172 139 
250 835 248 241 179 144 
250 835 249 237 176 142 
251 834 248 240 179 143 
251 834 249 236 175 140 
251 835 248 241 180 144 
251 835 249 237 176 141 
250 835 250 234 174 140 
250 835 251 235 175 141 
251 834 250 237 177 142 
251 834 251 237 178 143 
251 835 250 236 176 141 
251 835 251 238 178 142 
248 835 252 233 174 141 
248 835 253 229 171 140 
249 835 252 234 175 141 
249 835 253 230 173 140 
248 835 254 225 168 137 
248 835 255 221 165 134 
249 834 255 221 164 134 
249 835 254 226 169 138 
249 835 255 223 166 136 
251 833 255 226 169 139 
250 834 252 234 176 143 
250 834 253 231 174 143 
250 835 252 235 176 142 
250 835 253 231 174 142 
251 834 252 235 177 144 
251 834 253 231 174 144 
250 834 254 228 171 140 
250 834 255 224 168 138 
251 834 254 229 171 142 
251 834 255 226 169 139 
248 836 248 239 178 142 
248 836 249 235 174 140 
249 836 248 242 180 145 
249 836 249 238 177 143 
248 836 250 235 174 141 
248 836 251 234 173 140 
249 836 250 235 175 142 
248 836 252 232 173 140 
248 836 253 229 171 140 
253 833 250 235 176 140 
253 833 251 233 174 139 
252 834 248 241 179 143 
252 834 249 237 176 141 
253 834 248 241 179 143 
253 834 249 238 177 141 
252 834 250 236 176 140 
252 834 251 235 176 141 
253 834 250 236 176 140 
253 834 251 234 175 140 
254 833 248 240 178 141 
254 833 249 238 177 140 
255 833 248 240 177 140 
255 833 249 238 176 140 
254 833 250 238 176 141 
254 833 251 236 176 139 
255 832 251 236 176 140 
255 833 250 238 176 141 
255 833 251 236 176 140 
252 833 252 235 176 146 
252 833 253 233 174 145 
253 833 252 231 173 141 
253 833 253 232 173 143 
252 833 254 230 171 142 
252 833 255 228 171 141 
253 833 254 230 171 142 
253 833 255 228 171 141 
252 834 252 236 177 144 
252 834 253 233 174 145 
254 833 252 234 176 141 
254 833 253 233 176 144 
255 832 252 235 177 143 
255 832 253 234 175 143 
255 833 252 235 177 141 
254 832 254 230 171 140 
254 832 255 229 171 140 
254 833 254 231 172 142 
255 832 254 232 173 142 
255 832 255 229 170 139 
241 827 270 176 125 96 
241 827 271 173 121 92 
242 827 270 179 127 97 
242 827 271 177 125 96 
243 827 270 180 128 96 
241 829 269 180 130 96 
241 828 270 177 127 96 
241 829 270 179 130 98 
241 830 269 179 130 97 
241 831 268 177 125 95 
241 831 269 178 127 96 
242 829 269 183 132 100 
243 829 269 181 130 98 
242 828 270 181 130 99 
242 829 270 183 133 102 
243 828 270 181 130 99 
242 830 269 181 130 99 
242 831 268 180 126 97 
242 831 269 180 129 99 
243 830 268 181 128 100 
243 830 269 180 128 98 
243 831 268 180 125 97 
244 827 270 182 130 99 
245 827 270 182 130 99 
247 827 269 183 130 100 
246 827 270 183 129 98 
247 827 270 185 131 101 
244 831 267 185 128 97 
245 831 267 187 134 102 
247 831 265 194 137 110 
246 831 266 190 138 108 
246 831 267 188 137 105 
247 830 267 185 132 99 
247 831 266 189 134 104 
247 831 267 186 134 101 
244 829 269 180 128 97 
245 828 269 181 129 99 
245 829 269 180 128 98 
244 828 270 182 131 100 
245 828 270 181 130 99 
244 830 268 181 129 101 
244 830 269 181 129 100 
244 831 268 180 125 98 
245 830 268 182 127 97 
245 830 269 182 129 100 
245 831 268 183 128 98 
246 828 269 182 129 98 
246 829 268 182 128 97 
246 829 269 182 129 99 
247 828 269 182 129 99 
247 829 268 183 130 98 
246 828 270 181 128 96 
246 830 268 184 131 99 
247 830 268 186 135 102 
249 831 263 199 140 115 
251 831 261 206 151 120 
250 831 262 201 144 116 
250 831 263 199 141 114 
251 830 263 199 142 113 
251 831 262 203 147 117 
251 831 263 199 142 113 
255 827 263 203 146 115 
253 831 259 213 154 126 
254 831 257 219 160 130 
255 831 256 225 165 136 
255 831 257 222 163 134 
254 831 258 217 157 129 
254 831 259 214 154 125 
255 830 258 217 159 129 
255 830 259 214 155 125 
255 831 258 219 160 131 
255 831 259 216 157 127 
252 829 263 202 145 116 
253 829 262 203 147 119 
253 829 263 203 147 118 
252 831 260 209 152 125 
252 831 261 206 151 121 
253 830 261 207 151 124 
253 831 260 210 153 126 
253 831 261 208 152 126 
252 830 262 204 147 118 
252 830 263 201 144 115 
252 831 262 204 148 118 
253 830 262 205 149 121 
254 829 261 206 149 121 
255 828 261 207 149 120 
255 829 260 213 154 125 
255 829 261 209 152 123 
254 828 262 204 148 119 
254 828 263 202 147 116 
254 829 262 204 148 120 
254 829 263 203 148 118 
255 828 262 204 147 117 
255 828 263 202 146 115 
254 830 260 211 154 125 
254 830 261 208 151 124 
254 831 260 211 153 124 
255 830 260 213 155 125 
251 827 267 193 138 109 
248 827 269 184 130 100 
249 827 269 186 131 101 
248 827 270 186 131 101 
250 827 268 191 135 106 
250 827 269 189 134 104 
251 827 268 192 136 107 
248 829 267 186 132 102 
249 829 266 190 133 106 
249 829 267 188 132 103 
248 831 264 196 138 112 
248 831 265 193 135 108 
249 830 265 192 135 106 
249 831 264 197 139 113 
249 831 265 194 137 109 
248 830 266 188 132 102 
248 830 267 186 131 100 
248 831 266 190 133 105 
249 830 266 189 132 103 
250 829 265 194 136 109 
251 828 265 197 140 112 
251 829 265 197 138 111 
250 828 267 192 137 109 
250 829 266 194 136 109 
250 829 267 192 136 109 
251 828 266 196 138 111 
251 828 267 194 138 110 
251 829 266 195 137 110 
250 830 264 197 138 111 
250 830 265 194 135 109 
250 831 264 197 138 112 
251 830 264 198 139 112 
251 830 265 196 136 110 
248 828 268 184 131 101 
248 828 269 185 131 102 
248 829 268 185 131 101 
249 828 268 189 136 108 
249 828 269 187 133 104 
249 829 268 188 134 105 
250 828 268 192 137 109 
253 827 265 199 143 112 
252 827 266 196 140 111 
252 827 267 195 138 110 
253 827 266 197 141 110 
253 827 267 196 139 110 
254 827 264 199 142 111 
254 827 265 198 141 110 
255 827 264 201 144 113 
255 827 265 200 143 112 
252 827 268 194 138 110 
252 828 265 198 142 112 
252 829 264 200 143 114 
252 829 265 198 142 112 
253 828 264 199 144 114 
253 828 265 198 143 112 
253 829 264 201 145 116 
252 828 266 196 140 112 
254 828 264 199 143 112 
241 839 256 218 166 133 
241 839 257 215 162 132 
241 839 258 212 159 129 
241 839 259 209 156 128 
243 837 258 209 156 127 
243 837 259 207 153 124 
242 838 256 215 161 128 
242 838 257 212 158 127 
242 839 256 216 162 130 
242 839 257 214 160 130 
243 838 256 216 162 130 
243 838 257 213 159 129 
242 838 258 210 155 126 
242 838 259 206 151 123 
242 839 258 211 157 128 
242 839 259 209 155 127 
243 838 258 210 157 127 
243 838 259 206 151 122 
241 839 260 205 152 123 
241 839 261 203 151 123 
241 838 263 196 144 117 
241 839 262 200 148 121 
241 839 263 196 144 117 
243 837 260 204 149 120 
243 837 261 201 146 118 
243 837 262 198 142 115 
243 837 263 195 140 113 
242 838 260 204 150 122 
242 838 261 201 147 119 
242 839 260 205 152 124 
242 839 261 201 149 121 
243 838 260 204 148 121 
243 838 261 201 146 119 
242 838 262 197 144 117 
242 838 263 196 143 116 
242 839 262 199 147 120 
243 838 262 198 143 116 
247 835 256 216 161 131 
247 835 257 213 157 127 
246 835 259 207 150 121 
247 834 259 208 150 121 
247 835 258 211 154 124 
247 835 259 209 151 122 
245 835 262 199 142 113 
245 835 263 197 139 112 
247 833 262 200 143 115 
247 833 263 201 144 115 
246 834 261 202 146 117 
246 835 260 204 147 119 
246 835 261 202 146 117 
247 834 260 205 147 119 
247 834 261 202 145 117 
247 835 260 206 148 119 
246 834 262 202 146 117 
246 834 263 200 144 116 
246 835 262 201 144 115 
247 834 262 200 144 116 
247 834 263 201 145 115 
244 837 256 215 160 129 
244 837 257 213 158 127 
245 836 256 214 159 126 
245 836 257 213 157 126 
245 837 256 215 160 128 
245 837 257 212 157 125 
244 837 258 210 156 126 
244 837 259 207 154 124 
245 836 258 210 155 124 
245 836 259 206 151 121 
245 837 258 210 155 124 
244 838 256 218 163 131 
246 836 256 217 162 130 
246 836 257 213 158 126 
247 836 256 216 162 131 
247 836 257 214 158 128 
246 836 258 211 155 124 
246 836 259 207 151 121 
244 836 261 201 146 117 
244 837 260 204 150 120 
244 837 261 201 146 118 
245 836 260 204 149 119 
245 836 261 201 146 116 
244 836 262 199 143 115 
244 836 263 196 140 114 
244 837 262 198 142 114 
244 837 263 196 140 113 
245 836 262 199 143 114 
245 836 263 197 140 113 
246 836 260 204 148 118 
241 833 267 174 118 90 
241 834 266 179 126 96 
241 834 267 174 120 90 
241 835 266 182 131 102 
242 832 267 178 123 93 
242 833 267 180 126 96 
243 832 267 182 127 99 
243 833 266 188 135 105 
243 833 267 188 135 106 
242 835 265 187 135 108 
243 835 265 188 135 108 
242 834 266 184 132 101 
242 835 266 186 134 105 
243 834 266 188 135 106 
241 832 268 175 122 94 
241 833 268 173 118 91 
242 832 268 179 124 96 
241 836 265 188 137 109 
241 837 264 190 138 112 
241 837 265 188 137 109 
241 836 266 185 135 106 
241 838 264 193 141 114 
242 836 264 190 137 112 
242 836 265 188 137 110 
242 837 264 191 139 113 
242 837 265 190 138 112 
243 836 264 192 138 113 
243 836 265 189 137 111 
243 837 264 193 138 113 
242 838 264 193 141 115 
245 833 265 191 137 106 
244 832 267 188 133 102 
244 833 266 190 136 106 
245 832 266 187 134 103 
245 832 267 189 136 105 
245 833 266 189 135 104 
244 834 265 190 136 107 
244 835 264 193 138 113 
244 835 265 191 137 111 
245 834 264 193 136 111 
245 834 265 192 137 109 
245 835 264 194 137 112 
244 834 266 190 137 108 
246 832 265 193 138 110 
246 833 264 196 139 112 
246 833 265 193 138 109 
247 832 264 196 139 112 
247 832 265 194 138 111 
247 833 264 197 141 113 
246 832 266 190 137 107 
247 832 266 192 138 109 
246 834 264 195 138 112 
244 836 264 195 140 115 
241 840 256 220 167 134 
241 840 257 216 164 132 
241 840 258 213 161 130 
249 833 259 212 152 124 
248 834 257 214 157 129 
248 835 256 217 161 132 
248 835 257 214 158 129 
249 834 256 217 160 131 
249 834 257 216 159 130 
249 835 256 219 162 133 
248 834 258 214 156 128 
248 834 259 211 153 125 
248 835 258 213 155 127 
249 834 258 215 156 128 
249 834 259 212 154 125 
251 833 256 224 167 137 
251 833 257 218 161 131 
250 833 258 215 157 129 
250 833 259 212 155 126 
251 833 258 215 157 128 
251 833 259 212 155 127 
250 834 256 221 164 134 
250 834 257 217 159 130 
251 834 256 224 167 137 
250 834 258 216 158 129 
248 833 260 207 148 121 
248 833 261 204 145 118 
249 832 261 204 147 119 
249 833 260 208 150 121 
249 833 261 205 147 120 
248 832 263 201 143 115 
248 833 262 202 144 117 
248 833 263 200 143 114 
249 832 262 203 146 118 
249 832 263 200 141 116 
248 834 260 207 149 121 
250 832 260 209 152 124 
250 832 261 207 150 121 
250 833 260 210 152 123 
251 832 260 209 153 125 
251 832 261 207 151 122 
250 832 262 203 146 118 
251 832 262 206 149 121 
252 832 257 219 160 132 
252 833 256 224 166 137 
252 833 257 220 161 133 
253 832 256 224 166 136 
253 832 257 220 160 132 
253 833 256 225 169 137 
252 832 258 215 157 130 
252 832 259 212 155 128 
252 833 258 216 157 129 
253 832 258 217 158 130 
253 832 259 214 155 128 
254 832 256 226 169 138 
254 832 257 221 162 132 
255 832 256 227 168 138 
254 832 258 217 157 129 
252 832 260 209 153 125 
248 832 264 197 139 113 
249 832 264 199 141 116 
256 827 234 245 183 152 
257 827 234 238 176 146 
258 827 234 235 172 141 
259 827 234 231 169 137 
259 827 235 227 164 130 
256 828 234 230 167 133 
256 828 235 227 163 128 
256 829 235 226 162 127 
257 828 234 233 168 137 
257 828 235 226 162 127 
257 829 235 226 162 127 
258 828 234 227 163 131 
258 828 235 226 163 128 
258 829 235 226 163 128 
259 828 235 227 165 129 
256 829 236 227 164 129 
257 829 236 227 163 129 
256 830 236 226 164 129 
256 830 237 228 167 132 
257 830 236 227 164 129 
257 830 237 228 166 131 
256 830 238 230 169 134 
256 831 238 232 171 134 
256 831 239 234 172 136 
257 830 238 231 169 133 
257 830 239 233 172 136 
257 831 239 234 173 138 
258 829 236 227 165 129 
258 829 237 228 166 131 
259 828 236 229 166 130 
259 829 236 228 166 130 
259 829 237 229 167 132 
258 829 238 229 167 131 
259 829 238 231 168 132 
259 829 239 233 170 134 
258 830 237 228 166 131 
258 830 238 231 168 132 
258 830 239 234 171 135 
259 830 238 231 169 132 
259 830 239 234 171 135 
260 827 234 229 166 133 
260 827 235 227 165 130 
261 827 235 229 167 132 
261 827 236 230 168 133 
262 827 236 230 169 134 
262 827 237 232 169 135 
263 827 236 231 170 135 
263 827 237 233 170 136 
263 827 238 233 171 136 
260 828 235 229 166 130 
260 828 236 229 167 131 
260 828 237 230 167 132 
260 829 237 230 168 132 
261 828 236 230 167 132 
261 828 237 231 168 133 
260 829 238 232 170 133 
260 829 239 235 171 136 
261 828 238 233 171 135 
261 829 238 233 171 135 
261 829 239 236 173 137 
262 828 237 232 169 134 
262 828 238 234 171 136 
262 828 239 235 173 137 
262 829 239 237 173 138 
263 828 238 234 172 136 
263 828 239 236 173 137 
264 827 237 233 171 136 
264 827 238 234 172 136 
264 827 239 235 174 137 
265 827 238 235 174 137 
265 827 239 237 176 139 
266 827 239 237 177 140 
267 827 239 238 180 142 
264 828 239 236 174 138 
265 828 239 238 177 140 
256 831 240 237 175 141 
256 831 241 240 177 141 
257 831 240 238 175 142 
257 831 241 240 177 141 
256 831 242 241 179 142 
257 831 242 242 179 142 
257 831 243 242 179 144 
258 830 240 237 175 141 
258 831 240 237 176 142 
258 831 241 240 177 141 
259 830 240 237 174 140 
259 830 241 239 177 143 
259 831 241 240 178 142 
258 831 242 242 179 143 
258 831 243 242 180 144 
259 830 242 241 180 144 
259 831 242 242 181 144 
259 831 243 243 181 145 
257 831 244 241 177 142 
258 831 244 242 178 143 
258 831 245 243 180 143 
259 831 244 243 179 144 
259 831 245 244 181 143 
258 831 246 244 181 142 
258 831 247 244 181 142 
259 831 246 244 181 141 
259 831 247 244 180 141 
260 829 240 237 173 139 
261 829 240 237 173 139 
261 829 241 239 174 142 
261 829 242 240 176 142 
260 830 240 237 174 141 
260 830 241 239 176 143 
261 830 241 239 175 143 
260 830 242 241 179 143 
260 830 243 242 181 144 
260 831 243 243 181 145 
261 830 242 240 178 141 
261 830 243 241 179 142 
262 829 240 237 173 138 
262 829 241 238 174 141 
263 828 240 237 174 139 
263 829 240 237 174 139 
263 829 241 238 174 140 
262 829 242 240 177 142 
262 829 243 240 178 140 
263 829 242 240 177 141 
263 829 243 241 178 140 
262 830 243 241 178 140 
260 830 244 242 180 143 
260 830 245 242 178 140 
260 831 244 243 179 143 
260 831 245 243 179 141 
261 830 244 243 179 143 
261 830 245 243 178 140 
260 831 246 244 180 141 
260 831 247 244 180 141 
261 830 246 243 179 139 
261 830 247 244 179 139 
261 831 247 244 180 140 
263 829 244 244 180 142 
263 829 245 246 182 144 
263 829 246 246 182 143 
262 830 244 243 179 142 
262 830 245 245 180 142 
263 830 244 244 180 143 
263 830 245 246 181 144 
262 830 246 245 180 140 
262 830 247 243 178 139 
263 830 246 246 181 142 
263 830 247 244 181 141 
259 831 248 243 181 143 
259 831 249 242 181 144 
258 831 251 237 179 144 
259 831 250 241 181 145 
259 831 251 239 179 145 
257 831 253 235 176 144 
256 831 254 231 173 142 
256 831 255 229 170 140 
257 831 254 232 172 141 
257 831 255 229 170 139 
258 831 252 237 178 144 
258 831 253 235 177 145 
259 830 253 233 174 143 
259 831 252 235 177 144 
259 831 253 234 175 143 
258 830 255 227 168 136 
258 831 254 232 173 141 
258 831 255 228 169 137 
259 830 254 231 172 141 
259 830 255 230 170 139 
259 831 254 232 172 141 
260 831 248 242 179 140 
260 831 249 242 181 143 
261 830 248 242 179 141 
261 830 249 241 179 142 
261 831 248 243 179 140 
260 830 251 237 178 143 
260 831 250 240 180 143 
260 831 251 238 179 143 
261 830 250 239 179 142 
261 830 251 237 178 142 
263 829 249 241 181 143 
263 829 250 239 179 141 
263 829 251 236 177 142 
262 830 248 242 179 141 
262 830 249 240 179 142 
263 830 248 243 181 142 
263 830 249 241 180 142 
262 830 250 238 178 141 
262 830 251 237 178 142 
263 830 250 238 178 141 
263 830 251 237 178 142 
260 830 252 237 177 143 
260 830 253 234 175 143 
260 831 252 235 176 143 
261 830 252 234 175 141 
261 830 253 233 174 142 
260 830 254 231 173 141 
260 830 255 230 171 140 
261 830 254 232 173 141 
261 830 255 230 172 140 
263 829 252 235 177 144 
263 829 253 233 175 142 
262 829 254 231 173 140 
262 829 255 230 173 140 
263 829 254 232 175 141 
263 829 255 230 173 140 
262 830 252 234 176 141 
262 830 253 232 174 141 
263 830 252 235 177 143 
262 830 254 231 173 140 
265 827 240 239 178 143 
266 827 240 240 180 144 
266 827 241 242 181 148 
267 827 240 240 181 145 
267 827 241 242 181 147 
267 827 242 243 182 148 
267 827 243 244 183 147 
264 828 240 238 176 141 
264 828 241 239 176 142 
264 829 241 238 174 141 
265 828 240 239 178 143 
265 828 241 240 178 145 
264 828 242 241 178 143 
264 829 242 240 178 142 
264 829 243 243 180 142 
265 828 242 241 179 145 
265 828 243 242 181 142 
265 829 243 243 180 142 
266 828 241 241 180 147 
266 828 242 242 181 147 
266 828 243 243 181 143 
267 828 242 244 182 148 
267 828 243 244 184 146 
264 829 244 245 181 143 
264 829 245 246 182 144 
265 829 244 244 181 142 
265 829 245 247 183 145 
264 829 246 247 183 144 
264 829 247 245 182 142 
265 829 246 248 185 147 
265 829 247 246 184 144 
266 828 244 244 180 143 
266 828 245 247 184 145 
266 829 245 247 183 145 
267 828 244 246 184 147 
267 828 245 248 186 149 
266 829 246 248 186 148 
266 829 247 247 186 146 
267 828 246 248 187 149 
267 828 247 247 187 148 
267 829 247 245 184 145 
268 827 241 241 181 146 
268 827 242 243 182 147 
268 827 243 246 185 148 
269 827 242 243 182 147 
269 827 243 246 186 149 
270 827 243 247 187 151 
268 827 244 248 187 151 
269 827 244 248 187 151 
269 827 245 248 188 151 
269 827 246 247 187 149 
270 827 244 247 187 151 
270 827 245 246 186 150 
271 827 244 247 187 151 
271 827 245 245 185 148 
270 827 246 247 187 149 
270 827 247 246 186 147 
271 827 246 246 187 149 
271 827 247 246 186 147 
268 828 244 247 187 150 
268 828 245 248 187 151 
268 828 246 247 187 149 
268 828 247 247 187 148 
269 828 246 247 187 148 
269 828 247 246 186 147 
270 828 247 246 186 148 
267 827 254 230 175 144 
267 827 255 228 173 143 
264 829 248 244 182 143 
264 829 249 242 182 144 
265 829 248 243 182 144 
265 829 249 242 183 146 
264 829 250 239 179 142 
264 829 251 237 178 143 
265 829 250 240 181 145 
265 829 251 238 179 145 
266 829 248 244 183 144 
266 829 249 243 184 147 
267 828 248 244 184 146 
267 828 249 243 185 148 
267 829 248 244 184 145 
267 829 249 243 184 147 
266 828 251 238 181 147 
266 829 250 241 183 147 
266 829 251 238 181 147 
267 828 250 241 184 148 
267 828 251 239 182 147 
264 829 252 235 178 145 
264 829 253 233 178 144 
265 828 253 232 177 144 
265 829 252 235 178 145 
265 829 253 233 178 144 
264 828 255 229 173 141 
264 829 254 231 176 142 
264 829 255 230 174 141 
265 828 254 231 176 142 
265 828 255 229 174 141 
265 829 254 231 177 143 
266 828 252 236 180 146 
266 828 253 233 178 145 
266 829 252 235 179 146 
267 828 252 235 179 145 
267 828 253 233 178 145 
266 828 254 231 176 143 
266 828 255 228 174 141 
267 828 254 231 176 144 
267 828 255 229 174 142 
270 827 248 247 187 149 
271 827 248 246 187 149 
271 827 249 244 185 147 
270 827 251 238 181 146 
271 827 250 241 184 147 
271 827 251 240 182 147 
268 827 253 233 177 145 
269 827 252 235 179 146 
269 827 253 233 177 145 
268 827 254 231 176 145 
268 827 255 229 174 143 
269 827 254 232 176 144 
269 827 255 230 175 144 
270 827 252 236 181 147 
270 827 253 235 179 148 
271 827 252 238 182 149 
271 827 253 236 181 149 
270 827 254 233 177 145 
270 827 255 231 176 145 
271 827 254 235 179 148 
268 828 248 245 186 148 
268 828 249 244 186 149 
269 828 248 246 186 148 
269 828 249 243 185 148 
268 828 250 242 185 148 
268 828 251 239 182 147 
269 828 250 241 184 147 
269 828 251 239 183 148 
270 828 248 246 186 148 
270 828 249 244 185 148 
270 828 250 241 183 146 
270 828 251 239 183 147 
268 828 252 235 178 145 
268 828 253 233 177 145 
269 828 252 236 180 145 
272 827 246 245 186 148 
272 827 247 245 186 147 
273 827 247 245 186 147 
272 827 248 247 187 150 
272 827 249 245 187 150 
273 827 248 247 187 150 
273 827 249 247 188 152 
272 827 250 244 186 150 
272 827 251 242 184 149 
273 827 250 245 188 152 
273 827 251 242 186 150 
274 827 249 247 189 152 
274 827 250 245 188 152 
274 827 251 243 186 150 
272 827 252 239 184 150 
272 827 253 238 184 150 
273 827 252 239 184 149 
256 832 241 241 178 141 
256 832 242 242 179 144 
256 832 243 242 178 144 
257 832 243 242 177 144 
256 832 244 241 177 143 
256 832 245 242 178 141 
257 832 244 241 177 143 
257 832 245 242 178 142 
256 832 246 243 179 142 
256 832 247 243 179 142 
257 832 246 244 180 142 
257 832 247 244 180 143 
258 832 246 244 180 143 
258 832 247 244 181 143 
256 832 248 241 178 140 
256 832 249 240 178 142 
256 833 249 239 177 141 
257 832 248 243 179 142 
257 832 249 241 179 143 
256 832 250 238 177 142 
256 832 251 236 176 140 
256 833 250 236 176 140 
257 832 250 240 178 143 
257 832 251 237 177 142 
258 832 248 243 181 144 
258 832 249 242 181 145 
258 832 250 240 180 144 
258 832 251 238 178 143 
256 832 252 236 176 142 
256 832 253 233 175 144 
257 832 252 235 176 142 
257 832 253 233 175 143 
256 832 254 232 174 143 
258 832 252 235 177 143 
257 827 261 209 151 122 
256 827 262 206 148 119 
256 827 263 204 147 117 
257 827 262 209 151 122 
257 827 263 206 148 120 
258 827 261 210 153 123 
259 827 260 213 156 124 
259 827 261 212 155 124 
258 827 262 209 151 123 
259 827 262 212 154 125 
256 829 259 215 157 126 
257 829 258 218 160 131 
257 829 259 217 160 129 
256 830 257 221 162 133 
256 831 256 224 165 135 
256 831 257 222 163 134 
257 830 256 223 164 134 
257 830 257 222 162 134 
257 831 256 226 167 136 
256 830 258 219 161 131 
256 830 259 215 156 126 
257 830 258 219 161 131 
259 829 257 223 165 134 
258 829 258 220 161 131 
258 829 259 217 160 130 
259 828 259 218 160 129 
259 829 258 221 163 132 
259 829 259 219 161 131 
258 830 256 225 166 135 
258 830 257 223 163 133 
258 831 256 227 168 137 
259 830 256 227 168 137 
259 830 257 223 165 134 
258 830 258 220 161 132 
256 828 260 211 153 123 
256 828 261 208 151 121 
256 829 260 212 154 124 
257 828 260 212 154 124 
257 828 261 209 151 121 
257 829 260 215 158 127 
256 828 262 206 148 118 
258 828 260 213 158 126 
258 828 261 210 152 122 
259 828 260 215 158 127 
262 827 259 219 160 132 
263 827 259 219 160 132 
260 827 260 214 156 126 
260 827 261 212 154 125 
261 827 260 215 156 127 
261 827 261 214 156 127 
262 827 260 216 156 128 
263 827 260 216 157 128 
260 829 256 226 167 137 
260 829 257 224 166 136 
261 829 256 227 170 139 
261 829 257 224 166 135 
260 828 259 219 160 130 
260 829 258 221 162 132 
261 828 258 220 161 131 
261 828 259 219 161 131 
261 829 258 222 163 133 
260 830 256 227 169 138 
261 830 256 229 171 140 
262 828 257 224 165 135 
262 829 256 227 170 139 
262 829 257 225 166 136 
263 828 256 225 167 136 
263 828 257 223 164 134 
263 829 256 227 169 137 
262 828 258 222 163 134 
262 828 259 220 162 133 
263 828 258 221 162 133 
260 828 260 215 157 126 
261 828 260 217 159 129 
256 827 264 203 146 116 
265 827 257 222 165 133 
264 827 258 220 162 132 
264 827 259 218 160 130 
265 827 258 220 163 131 
265 827 259 218 161 130 
266 827 256 226 170 139 
266 827 257 223 167 135 
267 827 256 226 169 141 
267 827 257 223 166 137 
266 827 258 220 164 131 
264 827 260 216 158 128 
264 828 256 227 170 138 
264 828 257 223 165 134 
265 828 256 226 170 138 
265 828 257 223 166 135 
264 828 258 221 162 132 
266 828 256 227 172 139 
268 827 256 226 170 141 
269 827 256 227 171 141 
