ply
format ascii 1.0
comment Created by CloudCompare v2.10.1 (Zephyrus)
comment Created 1/30/20 5:16 PM
obj_info Generated by CloudCompare!
element vertex 2064
property float x
property float y
property float z
property uchar red
property uchar green
property uchar blue
end_header
34 647 201 120 121 124 
35 646 200 120 121 124 
35 646 201 123 124 128 
35 647 200 122 123 126 
34 646 202 114 115 118 
34 646 203 105 107 111 
34 647 202 116 116 119 
35 646 202 113 114 118 
35 646 203 105 107 111 
33 645 206 102 104 108 
33 645 207 99 101 105 
32 647 204 101 103 107 
32 647 205 103 105 110 
33 646 204 106 108 113 
33 646 205 108 110 114 
33 647 204 107 110 115 
33 647 205 104 105 108 
32 646 207 93 97 103 
32 647 206 102 103 106 
32 647 207 100 102 108 
33 646 206 104 105 109 
33 646 207 97 100 105 
33 647 206 103 104 107 
34 645 204 112 114 118 
34 645 205 112 112 115 
35 644 205 112 112 114 
35 645 204 112 113 116 
35 645 205 113 113 115 
34 644 207 100 102 106 
34 645 206 107 108 111 
34 645 207 99 101 105 
35 644 206 109 110 114 
35 644 207 103 106 110 
35 645 206 109 110 112 
34 646 204 108 110 114 
34 646 205 112 113 117 
38 643 203 115 117 121 
39 643 202 114 118 123 
39 643 203 115 117 122 
37 643 205 110 112 116 
36 643 207 96 99 104 
37 643 206 109 111 116 
37 643 207 106 108 113 
38 643 204 116 117 121 
38 643 205 117 118 121 
39 643 204 117 118 122 
39 643 205 115 116 120 
38 642 207 107 109 113 
38 643 206 112 114 118 
38 643 207 107 109 113 
39 642 206 112 114 118 
39 642 207 106 108 112 
39 643 206 111 112 117 
36 645 201 125 126 130 
37 645 200 127 128 131 
37 645 201 127 127 131 
36 645 202 118 120 124 
36 645 203 115 116 120 
37 644 202 126 127 131 
37 644 203 121 122 127 
37 645 202 124 126 130 
37 645 203 124 124 129 
36 646 200 122 123 127 
36 646 201 122 122 126 
37 646 200 122 122 125 
38 644 201 125 126 131 
38 645 200 125 125 128 
38 645 201 131 132 136 
39 644 200 122 123 126 
39 644 201 121 122 127 
38 644 202 121 123 128 
38 644 203 119 122 127 
39 644 202 119 122 128 
36 644 204 117 117 121 
36 644 205 114 114 116 
36 645 204 115 116 119 
37 644 204 117 118 121 
37 644 205 113 114 117 
36 644 206 108 109 113 
36 644 207 101 104 108 
37 644 206 108 110 114 
38 644 204 115 116 120 
33 649 195 74 75 79 
32 651 193 87 102 122 
33 651 192 87 102 124 
33 651 193 90 106 125 
32 650 194 82 95 109 
32 650 195 75 81 89 
32 651 194 85 100 115 
32 651 195 79 85 93 
33 650 194 84 97 109 
33 650 195 71 72 76 
33 651 194 85 99 113 
34 649 194 84 95 107 
34 649 195 71 73 76 
35 649 194 86 100 115 
35 649 195 71 76 83 
34 650 193 92 107 126 
34 651 192 90 106 128 
34 651 193 96 114 137 
35 650 192 93 106 126 
35 650 193 94 109 129 
35 651 192 93 106 129 
34 650 194 87 99 113 
35 650 194 91 106 121 
32 649 197 71 61 51 
33 649 196 66 57 53 
33 649 197 73 65 56 
32 649 198 89 84 81 
32 649 199 110 109 111 
33 648 198 108 106 106 
33 648 199 112 112 115 
33 649 198 96 92 91 
33 649 199 108 107 109 
32 650 196 65 59 56 
32 650 197 66 50 39 
33 650 196 64 61 61 
32 650 198 75 65 56 
34 648 197 88 86 86 
34 649 196 66 65 65 
34 649 197 83 78 74 
35 648 196 75 73 73 
35 648 197 98 95 95 
35 649 196 64 60 59 
34 648 198 111 109 110 
34 648 199 109 108 111 
35 648 198 111 109 110 
32 652 192 87 100 120 
32 652 193 89 103 123 
33 652 192 84 100 120 
36 649 193 88 106 124 
37 648 193 77 90 103 
37 649 192 91 108 128 
37 649 193 87 103 120 
36 648 195 69 66 66 
36 649 194 80 93 106 
36 649 195 68 75 84 
37 648 194 71 78 87 
37 648 195 64 64 66 
37 649 194 76 86 97 
36 650 192 91 106 128 
36 650 193 91 109 129 
37 650 192 92 107 130 
38 648 192 82 98 116 
38 648 193 79 91 105 
38 649 192 88 103 123 
39 648 192 85 98 115 
39 648 193 79 92 108 
39 649 192 84 100 119 
38 648 194 70 77 85 
36 648 196 84 81 81 
36 648 197 99 96 95 
32 648 200 116 117 120 
32 648 201 118 119 124 
32 649 200 119 119 122 
32 649 201 119 121 125 
33 648 200 117 117 120 
33 648 201 118 119 122 
32 648 202 114 116 120 
32 648 203 99 102 106 
32 648 204 96 99 103 
32 648 205 97 99 102 
43 643 195 110 112 116 
41 643 197 110 111 114 
41 643 198 113 116 120 
41 643 199 121 122 126 
43 641 199 122 123 127 
42 643 196 119 120 123 
42 643 197 114 115 119 
43 642 197 118 119 122 
43 643 196 120 120 124 
43 643 197 116 117 122 
42 642 198 119 120 124 
42 642 199 122 123 126 
42 643 198 119 121 125 
42 643 199 118 118 122 
43 642 198 121 122 126 
43 642 199 122 122 126 
40 645 195 95 93 93 
41 644 195 107 104 104 
41 645 194 69 63 63 
41 645 195 96 94 94 
40 647 192 76 89 102 
40 647 193 70 75 82 
41 646 193 63 62 65 
41 647 192 78 92 108 
41 647 193 66 76 85 
40 646 194 67 64 65 
40 646 195 84 80 79 
40 647 194 70 66 68 
41 646 194 61 55 53 
42 645 193 74 69 68 
43 645 192 82 87 96 
43 645 193 76 75 79 
42 644 195 103 102 104 
42 645 194 72 67 65 
42 645 195 86 82 81 
43 644 194 76 75 76 
43 644 195 98 99 101 
43 645 194 73 66 61 
42 646 192 77 87 98 
42 646 193 70 66 70 
42 647 192 79 93 110 
43 646 192 83 98 113 
40 644 197 123 122 124 
40 645 196 111 110 112 
40 645 197 116 116 119 
41 644 196 118 117 119 
41 644 197 116 116 118 
41 645 196 108 106 107 
40 644 198 115 116 120 
40 644 199 117 118 122 
40 645 198 112 113 116 
41 644 198 116 118 122 
41 644 199 112 113 117 
42 644 196 118 119 121 
45 641 195 112 113 117 
45 643 192 70 73 80 
45 643 193 76 75 78 
44 642 195 116 117 121 
44 643 194 99 100 103 
44 643 195 110 111 115 
45 642 194 107 109 113 
45 642 195 113 114 118 
45 643 194 98 100 103 
47 641 192 91 91 93 
47 641 193 101 102 105 
46 640 195 114 115 118 
46 641 194 102 103 108 
46 641 195 108 110 114 
47 640 194 101 103 107 
47 640 195 113 114 118 
47 641 194 98 100 104 
46 642 192 68 71 75 
46 642 193 98 99 102 
46 643 192 71 71 72 
46 643 193 78 78 79 
47 642 192 72 71 72 
47 642 193 94 94 98 
46 642 194 106 107 112 
44 641 197 118 119 124 
45 640 197 113 114 119 
45 641 196 118 119 123 
45 641 197 117 118 122 
44 640 199 118 120 124 
44 641 198 117 118 123 
44 641 199 120 121 125 
45 640 198 113 115 120 
45 640 199 119 120 125 
45 641 198 113 115 119 
44 642 196 119 120 124 
44 642 197 118 120 124 
44 643 196 119 120 125 
44 642 198 119 121 125 
46 640 196 117 118 121 
46 640 197 112 114 118 
46 641 196 117 118 122 
47 640 196 116 116 120 
46 640 198 110 112 117 
44 644 193 71 68 67 
44 645 192 81 89 99 
44 645 193 75 74 76 
45 644 192 73 72 75 
45 644 193 69 65 64 
45 645 192 75 80 86 
44 644 194 78 79 82 
44 646 192 81 97 112 
40 643 200 123 124 128 
40 643 201 121 123 128 
41 642 200 123 124 128 
41 642 201 117 120 125 
41 643 200 123 124 129 
41 643 201 120 122 127 
40 642 203 117 119 123 
40 643 202 113 116 121 
40 643 203 113 115 120 
41 642 202 115 118 123 
41 642 203 118 120 124 
41 643 202 116 120 126 
42 641 201 117 119 123 
43 641 200 123 124 128 
43 641 201 118 120 125 
42 641 202 116 119 124 
42 641 203 117 118 123 
43 640 203 117 118 122 
43 641 202 117 119 124 
43 641 203 116 117 122 
42 642 200 124 124 128 
42 642 201 119 121 125 
43 642 200 125 125 129 
42 642 202 119 121 127 
41 641 204 114 116 120 
41 641 205 115 117 121 
40 641 207 103 106 110 
41 641 206 104 106 111 
41 641 207 106 107 111 
40 642 204 118 120 124 
40 642 205 113 114 118 
40 643 204 117 119 123 
41 642 204 118 119 123 
41 642 205 108 110 115 
40 642 206 107 110 115 
40 642 207 110 112 117 
41 642 206 105 108 113 
42 641 204 115 116 121 
42 641 205 113 114 118 
43 640 204 121 123 128 
43 640 205 113 115 119 
43 641 204 116 118 122 
43 641 205 111 113 117 
42 641 206 110 111 115 
42 641 207 109 111 115 
43 640 206 110 112 117 
43 640 207 110 112 117 
40 644 200 124 126 130 
40 644 201 119 120 125 
44 640 200 120 121 126 
44 640 201 115 117 123 
44 641 200 122 123 127 
44 641 201 116 119 124 
45 640 200 118 120 125 
45 640 201 110 114 120 
44 640 202 114 116 122 
44 640 203 115 117 122 
45 640 202 113 116 122 
45 640 203 114 116 121 
44 640 204 114 116 121 
44 640 205 112 114 119 
44 640 206 111 113 117 
44 640 207 109 111 115 
40 648 192 84 98 116 
41 648 192 84 101 120 
35 643 211 92 94 98 
35 643 212 94 97 100 
35 643 213 98 99 102 
35 643 214 102 104 107 
35 643 215 106 110 117 
33 645 208 96 98 102 
33 645 209 100 102 105 
33 645 210 108 109 113 
33 645 211 114 115 119 
32 646 208 93 98 104 
32 646 209 104 107 113 
32 647 208 104 107 112 
32 647 209 123 125 131 
33 646 208 95 99 103 
33 646 209 100 103 107 
32 646 210 135 134 139 
32 646 211 151 150 154 
32 647 210 148 147 153 
32 647 211 161 159 165 
33 646 210 116 117 120 
34 644 208 99 101 104 
34 644 209 100 101 104 
34 645 208 97 100 104 
34 645 209 99 101 104 
35 644 208 100 102 106 
35 644 209 98 100 104 
34 644 210 98 99 102 
34 644 211 95 98 102 
34 645 210 99 100 103 
35 644 210 96 98 102 
35 644 211 92 95 99 
33 645 212 115 117 123 
33 645 213 128 130 138 
33 645 214 138 141 149 
33 645 215 153 155 162 
32 646 212 157 156 161 
32 646 213 162 162 170 
32 647 212 163 162 168 
32 647 213 160 160 167 
33 646 212 140 140 146 
33 646 213 143 145 153 
32 646 214 159 160 168 
32 646 215 152 153 162 
32 647 214 154 155 162 
32 647 215 125 128 136 
33 646 214 149 151 159 
33 646 215 154 155 164 
34 644 212 97 101 108 
34 644 213 110 113 118 
35 644 212 93 96 101 
35 644 213 100 102 105 
34 644 214 130 130 136 
34 644 215 147 147 153 
35 644 214 111 112 115 
35 644 215 127 129 135 
36 643 208 102 105 110 
36 643 209 101 103 107 
37 643 208 104 105 109 
37 643 209 111 113 117 
36 643 210 101 103 106 
36 643 211 97 98 100 
37 642 210 104 105 108 
37 642 211 99 101 105 
37 643 210 106 107 110 
39 641 210 105 106 109 
39 641 211 106 107 110 
38 642 208 112 114 119 
38 642 209 110 112 117 
38 643 208 115 117 121 
39 642 208 108 110 114 
39 642 209 106 107 111 
38 642 210 109 111 115 
38 642 211 103 105 108 
39 642 210 111 112 116 
39 642 211 113 113 116 
37 641 215 94 97 101 
36 642 213 96 98 102 
36 643 212 96 97 101 
36 643 213 96 98 101 
37 642 212 94 96 100 
37 642 213 97 98 101 
36 642 214 91 94 98 
36 642 215 90 95 101 
36 643 214 94 97 102 
36 643 215 94 98 105 
37 642 214 95 96 99 
37 642 215 94 96 101 
38 641 212 107 108 111 
38 641 213 103 104 106 
39 641 212 107 109 112 
39 641 213 105 106 110 
38 641 214 101 102 105 
38 641 215 94 96 100 
39 640 214 99 101 106 
39 640 215 94 98 104 
39 641 214 101 104 109 
39 641 215 93 96 101 
38 642 212 97 98 101 
38 642 213 100 101 103 
36 644 208 102 104 109 
35 643 216 105 112 122 
35 643 217 107 117 130 
35 643 218 97 113 131 
35 643 219 101 119 139 
35 642 221 86 112 138 
35 643 220 97 119 142 
35 643 221 92 116 143 
35 642 222 75 107 139 
35 642 223 62 95 136 
35 643 222 74 101 131 
35 643 223 61 83 115 
33 645 216 156 158 168 
33 645 217 153 156 166 
33 645 218 146 150 161 
33 645 219 110 118 131 
32 646 216 135 138 148 
32 646 217 117 122 133 
32 647 216 104 109 118 
32 647 217 86 93 102 
33 646 216 147 151 160 
33 646 217 138 142 153 
32 646 218 95 102 113 
32 647 218 85 91 99 
32 647 219 108 110 116 
33 646 218 122 127 137 
33 646 219 85 94 106 
34 644 216 146 149 158 
34 644 217 149 154 164 
35 644 216 128 133 143 
35 644 217 128 134 146 
34 644 218 137 145 158 
34 644 219 114 128 144 
34 645 218 150 154 165 
34 645 219 123 132 146 
33 645 220 78 93 109 
32 647 220 138 139 146 
32 647 221 153 154 162 
33 646 220 91 99 110 
33 646 221 122 126 134 
33 647 221 152 154 161 
32 647 222 121 124 134 
32 647 223 45 51 70 
33 646 222 145 147 155 
33 646 223 125 133 146 
33 647 222 154 156 164 
33 647 223 92 98 112 
34 644 220 95 113 133 
34 644 221 74 97 120 
34 645 220 77 94 112 
34 645 221 65 83 99 
34 644 222 52 80 104 
34 644 223 66 86 104 
34 645 222 86 99 112 
34 645 223 110 120 133 
35 644 223 48 74 97 
34 646 223 128 135 146 
37 641 216 88 93 98 
37 641 217 87 92 98 
36 641 219 84 97 109 
37 640 219 73 84 95 
37 641 218 84 91 98 
37 641 219 82 91 100 
36 642 216 89 94 102 
36 642 217 91 99 108 
37 642 216 90 93 98 
36 642 218 93 102 112 
36 642 219 92 107 122 
36 643 218 89 103 118 
38 640 217 82 87 93 
38 641 216 86 90 95 
38 641 217 81 87 93 
39 640 216 88 94 101 
39 640 217 83 90 97 
38 640 218 80 86 93 
38 640 219 75 84 92 
38 641 218 81 86 92 
39 640 218 79 87 96 
39 640 219 74 84 95 
36 641 220 72 93 110 
36 641 221 82 105 127 
37 640 220 70 81 92 
37 640 221 69 82 95 
37 641 220 69 84 98 
37 641 221 69 85 102 
36 641 222 80 110 136 
36 641 223 77 113 145 
37 640 222 66 84 102 
37 640 223 65 86 107 
37 641 222 73 98 122 
37 641 223 70 103 130 
36 642 220 83 105 126 
36 642 221 83 110 134 
36 642 222 80 114 143 
36 642 223 71 104 142 
38 640 220 70 81 92 
38 640 221 69 81 93 
39 640 220 72 82 93 
38 640 222 70 82 94 
38 640 223 71 83 98 
32 648 219 150 151 158 
32 648 220 149 150 158 
32 648 221 122 126 135 
32 648 222 84 89 101 
32 648 223 29 35 56 
40 641 208 107 109 113 
40 641 209 108 109 113 
41 641 208 111 113 117 
41 641 209 112 115 120 
40 641 210 107 108 112 
40 641 211 106 107 111 
41 640 210 105 107 112 
41 640 211 104 107 112 
41 641 210 107 109 114 
41 641 211 105 107 111 
40 642 208 107 108 112 
40 642 209 106 108 111 
42 640 208 108 111 115 
42 640 209 105 108 113 
42 641 208 110 112 117 
43 640 208 110 112 117 
43 640 209 111 113 118 
42 640 210 101 104 109 
42 640 211 100 101 104 
43 640 210 104 106 110 
43 640 211 103 105 108 
40 640 212 100 102 107 
40 640 213 101 104 109 
40 641 212 101 103 107 
40 641 213 100 102 106 
41 640 212 101 103 106 
41 640 213 103 104 107 
40 640 214 101 106 112 
40 640 215 97 102 108 
41 640 214 102 105 111 
41 640 215 96 102 109 
42 640 212 105 106 110 
42 640 213 108 109 112 
43 640 212 109 111 115 
42 640 214 101 103 107 
44 640 208 109 110 114 
44 640 209 107 108 112 
44 640 210 112 114 120 
40 640 216 89 95 103 
40 640 217 83 90 99 
41 640 216 88 97 107 
40 640 218 78 88 99 
48 640 193 103 104 106 
48 641 192 89 88 89 
48 641 193 104 104 107 
49 640 192 98 95 95 
49 640 193 105 105 107 
48 640 194 100 102 106 
48 640 195 113 114 118 
50 640 192 99 94 92 
35 643 224 44 73 102 
35 643 225 49 78 104 
35 643 226 80 100 122 
33 646 224 78 87 112 
33 647 224 31 37 65 
33 647 225 33 45 69 
33 647 226 76 91 111 
33 647 227 124 137 154 
34 645 224 107 121 138 
34 645 225 88 107 128 
35 644 224 80 100 117 
35 644 225 90 110 130 
35 645 225 94 113 134 
34 645 226 63 79 108 
35 644 226 101 120 140 
35 644 227 85 105 126 
35 645 226 82 98 122 
35 645 227 48 59 89 
34 646 224 82 94 117 
34 646 225 58 71 98 
34 646 226 39 49 83 
34 646 227 58 69 93 
34 647 226 47 58 82 
34 647 227 109 121 139 
35 646 227 58 65 88 
35 645 228 83 90 112 
34 647 228 124 141 161 
34 647 229 100 125 155 
35 646 228 113 124 141 
35 646 229 125 139 158 
35 647 228 114 132 154 
35 647 229 95 120 151 
35 647 230 80 104 143 
35 647 231 54 85 128 
36 641 224 83 118 151 
37 640 224 79 102 126 
37 640 225 92 117 142 
37 641 224 83 114 144 
37 641 225 97 121 152 
37 641 226 90 115 148 
36 642 224 77 107 145 
36 642 225 66 97 135 
36 643 224 59 86 120 
36 643 225 35 69 104 
37 642 225 75 104 140 
36 642 226 52 80 117 
36 643 226 62 87 112 
36 643 227 106 121 137 
37 642 226 56 83 121 
37 642 227 52 84 117 
37 643 227 96 113 132 
38 640 224 74 92 110 
38 640 225 86 110 133 
38 640 226 91 118 145 
38 640 227 91 122 152 
38 641 226 86 116 147 
38 641 227 68 99 135 
39 640 226 87 112 135 
39 640 227 96 126 154 
36 643 228 102 114 131 
37 642 228 79 102 125 
37 643 228 88 106 127 
37 643 229 45 66 105 
38 641 228 50 86 122 
38 641 229 43 82 114 
39 640 228 79 113 146 
39 640 229 58 93 133 
39 641 228 50 83 120 
39 641 229 43 79 116 
39 640 230 34 79 127 
39 641 230 64 92 126 
39 641 231 76 99 129 
38 642 228 65 94 122 
38 642 229 71 96 122 
38 643 229 60 83 114 
38 643 230 44 64 109 
38 643 231 53 80 124 
39 642 230 70 92 122 
39 642 231 59 84 118 
39 643 230 47 65 109 
39 643 231 67 92 126 
36 644 227 88 105 125 
36 644 228 46 58 91 
36 644 229 50 68 100 
36 645 228 56 65 94 
36 645 229 104 120 140 
37 644 229 46 64 103 
36 645 230 117 135 158 
37 644 230 59 81 121 
37 645 230 100 122 150 
37 645 231 104 127 155 
36 646 229 128 142 162 
36 646 230 112 131 157 
36 646 231 96 117 148 
36 647 230 92 114 147 
36 647 231 58 87 124 
37 646 231 92 114 145 
37 647 231 65 92 128 
38 644 230 53 75 120 
38 644 231 81 106 140 
38 645 231 98 120 149 
39 644 231 103 124 150 
39 643 232 110 129 152 
36 647 232 59 88 117 
36 647 233 81 102 123 
37 646 232 63 89 120 
37 646 233 66 91 112 
37 647 232 56 86 115 
37 647 233 67 93 114 
37 647 234 88 107 127 
37 647 235 102 120 140 
38 645 232 68 93 126 
38 645 233 59 85 115 
39 644 232 96 116 145 
39 644 233 65 86 123 
39 645 232 80 102 135 
39 645 233 52 76 115 
39 644 234 46 69 109 
39 645 234 44 74 108 
39 645 235 49 81 107 
38 646 232 73 96 127 
38 646 233 62 90 115 
38 646 234 61 89 113 
38 646 235 71 96 118 
38 647 234 76 97 117 
38 647 235 91 111 131 
39 646 235 59 90 114 
37 647 236 103 124 146 
39 645 236 69 94 117 
39 645 237 80 103 125 
38 646 236 92 112 133 
38 647 236 102 121 143 
38 647 237 103 123 144 
39 646 236 86 108 129 
39 646 237 109 125 145 
39 647 237 112 128 147 
38 647 238 117 133 153 
39 646 238 115 133 152 
39 646 239 109 129 151 
39 647 238 109 127 147 
39 647 239 125 140 158 
32 648 224 36 57 83 
32 648 225 52 81 108 
32 649 224 56 85 109 
32 649 225 62 97 128 
33 648 225 53 79 105 
32 648 226 70 97 127 
32 649 226 72 104 137 
32 649 227 113 135 160 
33 648 226 86 107 132 
33 648 227 121 137 158 
33 649 227 111 131 157 
32 650 225 62 100 137 
32 650 226 73 106 144 
32 650 227 111 132 160 
32 651 227 97 119 149 
33 648 228 107 128 152 
33 649 228 97 120 147 
33 649 229 81 106 138 
32 650 228 98 122 148 
32 651 228 89 112 136 
32 651 229 90 110 131 
33 650 228 93 118 144 
33 650 229 78 106 132 
33 651 229 83 108 131 
33 650 230 79 105 129 
33 651 230 96 117 139 
33 651 231 118 135 155 
34 648 228 119 138 160 
34 648 229 81 109 142 
34 649 229 76 104 136 
34 648 230 69 96 134 
34 649 230 66 96 127 
34 649 231 72 96 123 
35 648 230 62 90 132 
35 648 231 58 87 122 
35 649 231 74 97 122 
34 650 230 81 105 128 
34 650 231 95 114 134 
34 651 231 108 126 146 
32 652 228 89 110 130 
32 652 229 114 127 143 
32 653 229 140 150 165 
32 652 230 132 143 160 
32 653 230 139 149 165 
32 653 231 127 143 164 
33 652 230 129 143 162 
33 652 231 132 149 171 
33 653 231 119 140 165 
32 654 230 135 147 163 
32 654 231 139 153 171 
32 655 230 141 152 169 
32 655 231 128 145 165 
33 654 231 138 155 176 
36 648 231 56 88 118 
35 648 232 69 95 119 
35 649 232 85 106 128 
35 649 233 103 120 139 
35 649 234 116 130 149 
34 650 232 90 112 135 
34 651 232 111 129 152 
34 651 233 110 131 155 
35 650 232 91 112 135 
35 650 233 109 127 149 
35 651 233 120 138 160 
34 651 234 117 135 161 
35 650 234 122 138 157 
35 650 235 120 136 156 
35 651 234 121 139 161 
35 651 235 116 134 158 
35 651 236 103 123 155 
33 652 232 109 134 161 
33 653 232 113 138 166 
33 653 233 98 127 159 
32 655 232 125 144 167 
33 654 232 124 146 171 
33 654 233 86 119 155 
33 655 232 118 139 166 
33 655 233 93 123 157 
33 654 234 91 120 155 
33 655 234 100 126 158 
33 655 235 110 133 160 
34 652 232 101 126 153 
34 652 233 102 126 155 
34 653 233 101 126 159 
34 652 234 116 133 162 
34 652 235 101 120 153 
34 653 234 106 125 158 
34 653 235 99 116 151 
35 652 235 106 124 155 
35 653 235 102 118 153 
34 654 234 100 124 157 
34 654 235 108 125 155 
34 655 234 116 137 165 
34 655 235 109 128 155 
35 652 236 96 117 154 
35 652 237 89 113 150 
35 653 236 98 116 152 
35 653 237 90 114 149 
35 653 238 95 120 149 
34 654 236 104 119 150 
34 655 236 101 116 146 
34 655 237 94 115 144 
35 654 236 100 116 149 
35 654 237 90 114 145 
35 655 237 93 115 146 
35 654 238 108 129 152 
35 655 238 104 125 150 
35 655 239 91 117 146 
36 648 232 72 97 120 
36 648 233 95 113 132 
36 649 233 108 123 140 
36 648 234 107 123 142 
36 648 235 110 127 147 
36 649 234 115 129 147 
36 649 235 111 129 150 
37 648 235 107 125 146 
36 650 235 115 133 154 
36 651 235 117 136 158 
36 649 236 109 128 151 
37 648 236 101 123 147 
37 648 237 115 135 157 
37 649 236 105 126 149 
37 649 237 111 132 157 
37 649 238 111 134 160 
36 650 236 113 132 156 
36 650 237 104 127 155 
36 651 236 105 126 155 
36 651 237 91 117 151 
37 650 237 106 129 156 
36 651 238 92 121 152 
37 650 238 95 122 153 
37 650 239 92 122 152 
37 651 238 91 120 151 
37 651 239 111 133 158 
38 648 237 110 130 152 
38 648 238 131 146 167 
38 648 239 124 141 163 
38 649 238 116 138 162 
38 649 239 98 127 156 
39 648 239 120 138 158 
38 650 239 90 121 151 
36 652 237 90 116 151 
36 652 238 110 132 159 
36 652 239 109 130 153 
36 653 238 105 127 152 
36 653 239 125 139 158 
37 652 239 113 132 154 
36 654 238 114 132 154 
36 654 239 130 143 160 
36 655 239 97 121 146 
40 640 229 57 94 139 
40 640 230 44 86 135 
40 640 231 64 96 141 
40 641 231 73 97 133 
40 642 231 54 81 118 
40 641 232 68 87 130 
41 640 232 76 98 141 
41 640 233 70 91 137 
41 641 232 65 87 131 
41 641 233 64 86 131 
41 641 234 71 92 137 
40 642 232 74 98 129 
40 642 233 92 115 142 
40 643 232 107 126 148 
40 643 233 89 112 139 
41 642 233 83 106 139 
41 643 233 87 111 140 
40 643 234 51 74 115 
41 642 234 75 96 136 
41 642 235 53 74 125 
41 643 234 62 87 125 
41 643 235 37 58 105 
42 640 233 80 104 146 
42 640 234 74 96 138 
42 640 235 71 95 137 
42 641 234 70 92 137 
42 641 235 60 82 131 
43 640 235 65 91 135 
43 641 235 57 79 129 
42 642 235 42 64 119 
41 643 236 49 77 103 
41 643 237 74 95 115 
41 643 238 78 100 119 
41 643 239 78 101 122 
43 640 236 56 77 126 
43 641 236 35 50 109 
43 641 237 27 46 95 
43 641 238 49 74 100 
43 641 239 69 89 108 
42 642 236 27 51 98 
42 642 237 39 70 99 
42 643 236 32 62 98 
42 643 237 65 90 110 
43 642 237 36 67 96 
42 642 238 68 91 112 
42 643 238 76 98 119 
42 643 239 78 103 125 
43 642 238 57 80 103 
43 642 239 74 96 116 
40 644 233 65 84 121 
40 644 234 41 64 106 
40 644 235 41 70 102 
40 645 235 53 82 107 
40 644 236 63 89 111 
40 644 237 72 97 119 
40 645 236 65 91 114 
40 645 237 80 104 126 
41 644 236 63 89 112 
41 644 237 76 98 118 
40 644 238 74 98 119 
40 645 238 96 116 137 
40 645 239 114 130 149 
41 644 238 80 101 121 
41 644 239 90 111 131 
41 645 239 119 134 152 
40 646 238 116 133 154 
40 646 239 112 130 151 
40 647 239 125 140 158 
44 640 236 66 87 131 
44 640 237 48 63 114 
44 640 238 37 52 101 
44 640 239 54 79 104 
44 641 238 39 61 94 
44 641 239 61 86 106 
45 640 239 46 69 103 
39 647 240 122 139 158 
37 651 240 119 135 154 
38 649 240 87 120 151 
39 648 240 104 128 153 
39 648 241 86 119 149 
39 649 240 84 118 149 
39 649 241 84 118 148 
39 649 242 93 121 147 
38 650 240 98 125 152 
38 650 241 112 132 154 
38 651 240 118 136 156 
38 651 241 112 129 149 
39 650 241 105 128 153 
38 651 242 114 130 148 
38 651 243 109 126 146 
39 650 242 103 125 148 
39 650 243 100 122 144 
39 651 242 105 124 144 
39 651 243 110 128 148 
39 651 244 55 94 128 
36 653 240 133 145 162 
37 652 240 119 133 153 
37 652 241 120 135 155 
37 653 240 129 142 159 
37 653 241 110 128 149 
37 653 242 68 97 131 
36 654 240 107 126 147 
36 654 241 66 98 131 
36 655 240 70 101 136 
36 655 241 60 95 132 
37 654 241 70 101 133 
37 654 242 46 85 128 
37 654 243 73 102 139 
37 655 242 80 109 143 
37 655 243 113 136 161 
38 652 241 118 134 153 
38 652 242 108 125 147 
38 652 243 62 96 131 
38 653 242 66 95 129 
38 653 243 45 84 129 
39 652 243 40 85 124 
38 654 243 91 117 148 
38 653 244 77 109 146 
39 652 244 32 82 130 
39 652 245 55 96 139 
39 653 244 66 102 141 
39 653 245 101 127 157 
39 653 246 116 138 162 
38 654 244 119 140 163 
38 654 245 120 142 165 
38 655 244 112 135 158 
38 655 245 101 127 153 
39 654 245 115 139 163 
38 655 246 108 133 162 
39 654 246 111 135 159 
39 654 247 115 137 159 
39 655 246 99 127 159 
39 655 247 99 126 159 
39 655 248 51 89 143 
42 643 240 79 105 129 
42 643 241 100 120 141 
43 642 240 81 104 126 
43 642 241 75 104 129 
43 643 240 72 103 128 
43 643 241 77 107 133 
42 643 242 117 133 153 
43 642 242 76 105 130 
43 643 242 101 122 144 
43 643 243 110 128 148 
43 643 244 103 122 143 
41 644 240 113 128 147 
41 644 241 123 136 154 
41 645 240 115 131 151 
41 645 241 111 129 150 
41 645 242 126 141 159 
40 646 240 117 134 154 
40 646 241 133 146 164 
40 647 240 130 144 163 
40 647 241 113 133 156 
41 646 241 128 142 161 
40 647 242 91 120 147 
40 647 243 70 108 140 
41 646 242 127 142 162 
41 646 243 104 126 149 
41 647 242 99 123 147 
41 647 243 73 109 141 
42 644 240 113 128 147 
42 644 241 121 134 151 
42 644 242 114 128 146 
42 644 243 115 129 145 
42 645 242 115 130 147 
42 645 243 128 139 156 
43 644 243 111 127 147 
42 646 243 95 119 144 
41 647 244 79 113 142 
42 645 244 116 132 151 
43 644 244 123 137 155 
43 644 245 125 139 157 
43 645 244 110 129 150 
43 645 245 94 119 145 
43 645 246 87 114 142 
42 646 244 78 111 140 
42 646 245 71 107 139 
42 647 244 71 108 141 
42 647 245 89 118 145 
43 646 245 79 111 141 
42 647 246 104 124 146 
43 646 246 80 109 138 
43 646 247 86 112 138 
43 647 246 96 119 142 
43 647 247 102 121 140 
44 640 240 65 90 113 
44 641 240 76 99 119 
44 641 241 87 108 128 
45 640 240 67 89 112 
45 640 241 79 99 119 
44 641 242 86 109 130 
44 641 243 75 102 126 
45 640 242 88 108 128 
45 640 243 87 109 130 
45 641 242 92 111 131 
45 641 243 77 103 126 
44 642 241 82 107 130 
44 642 242 78 105 129 
44 642 243 84 108 130 
44 643 243 105 123 143 
46 640 243 89 110 129 
45 641 244 76 102 125 
44 642 244 109 126 146 
44 643 244 110 126 146 
44 643 245 122 135 153 
45 642 244 103 122 142 
45 642 245 116 133 153 
45 643 245 107 126 148 
45 642 246 102 123 146 
45 643 246 117 134 154 
45 643 247 124 139 158 
46 640 244 77 103 126 
46 640 245 74 103 128 
46 641 244 75 101 124 
46 641 245 103 121 142 
47 640 245 72 103 129 
46 641 246 120 135 154 
47 640 246 81 110 136 
47 640 247 100 123 146 
47 641 246 115 132 152 
47 641 247 120 136 157 
46 642 246 110 129 150 
46 642 247 100 121 144 
46 643 247 117 135 155 
47 642 247 95 119 142 
44 644 244 128 141 158 
44 644 245 129 141 158 
44 644 246 112 128 149 
44 645 246 87 113 139 
44 645 247 80 108 135 
45 644 246 120 134 152 
45 644 247 100 120 142 
45 645 247 84 110 135 
44 646 247 83 111 137 
43 647 248 110 125 142 
47 641 248 102 124 148 
46 642 248 120 136 155 
46 643 248 113 129 149 
47 642 248 98 118 141 
47 642 249 99 117 139 
47 643 248 110 127 147 
47 643 249 97 115 137 
47 643 250 86 106 126 
44 645 248 78 107 133 
45 644 248 89 112 135 
45 645 248 80 106 131 
45 645 249 76 102 126 
44 646 248 95 116 139 
44 647 248 102 119 139 
44 647 249 108 124 142 
45 646 248 92 114 136 
45 646 249 86 108 130 
45 647 249 85 107 128 
44 647 250 110 127 146 
45 646 250 77 103 125 
45 646 251 87 108 131 
45 647 250 93 115 136 
45 647 251 90 111 138 
46 644 248 87 110 133 
46 644 249 79 102 125 
46 645 249 70 97 122 
46 644 250 66 91 115 
46 645 250 63 90 115 
46 645 251 70 95 117 
47 644 250 70 93 116 
47 644 251 69 92 114 
47 645 251 71 94 116 
46 646 250 70 97 121 
46 646 251 84 105 127 
45 647 252 90 109 141 
47 644 252 76 98 119 
47 645 252 87 109 130 
46 646 252 95 114 136 
46 647 252 91 109 141 
46 647 253 86 106 144 
47 646 252 101 120 142 
47 646 253 94 117 149 
47 647 253 84 107 145 
47 647 254 90 114 149 
40 648 241 82 116 147 
40 648 242 72 110 143 
40 648 243 85 115 144 
40 649 242 90 118 145 
40 649 243 100 122 144 
41 648 243 88 118 146 
40 650 243 104 123 144 
40 649 244 99 119 141 
41 648 244 104 126 150 
41 648 245 99 121 143 
41 649 244 90 114 137 
41 649 245 112 129 147 
41 649 246 124 136 152 
40 650 244 120 134 151 
40 650 245 114 130 147 
40 651 244 94 117 140 
40 651 245 56 93 131 
41 650 245 122 136 153 
40 651 246 43 85 131 
41 650 246 96 118 141 
41 650 247 70 103 133 
41 651 246 39 82 133 
41 651 247 50 90 140 
42 648 245 104 125 148 
42 648 246 103 121 141 
42 648 247 123 135 150 
42 649 246 126 137 152 
42 649 247 116 131 148 
43 648 247 120 133 148 
42 650 247 62 98 132 
40 652 245 39 86 136 
40 652 246 61 98 145 
40 652 247 89 120 156 
40 653 246 111 135 161 
40 653 247 120 142 164 
41 652 247 64 101 149 
40 654 247 120 140 162 
41 651 248 68 106 150 
42 649 248 76 108 138 
43 648 248 125 140 157 
43 648 249 101 124 147 
43 649 248 82 112 140 
43 649 249 64 99 138 
43 649 250 76 103 144 
42 650 248 64 99 141 
42 650 249 72 105 148 
42 651 248 68 104 147 
42 651 249 73 110 149 
43 650 249 72 104 145 
42 651 250 85 118 152 
43 650 250 75 105 146 
43 650 251 78 107 147 
43 651 250 79 112 149 
43 651 251 89 116 152 
43 651 252 95 118 153 
40 653 248 110 136 161 
41 652 248 100 130 162 
41 652 249 106 133 160 
41 653 248 109 137 162 
41 653 249 117 139 164 
41 653 250 110 130 158 
40 654 248 115 137 162 
40 655 248 62 96 146 
40 655 249 48 88 144 
41 654 248 124 145 169 
41 654 249 85 115 152 
41 655 249 43 82 140 
41 654 250 55 86 139 
41 655 250 82 111 154 
41 655 251 93 120 159 
42 652 249 102 130 158 
42 652 250 106 132 158 
42 652 251 112 135 161 
42 653 250 111 130 158 
42 653 251 84 108 145 
43 652 251 102 127 156 
42 654 251 60 84 139 
42 655 251 94 120 158 
43 652 252 95 120 151 
43 653 252 91 110 148 
43 653 253 101 118 153 
42 654 252 80 100 147 
42 655 252 94 116 156 
43 654 252 92 109 151 
43 654 253 101 115 153 
43 655 252 93 111 153 
43 655 253 101 113 151 
44 648 249 108 127 148 
44 648 250 87 112 140 
44 648 251 83 107 142 
44 649 250 76 103 142 
44 649 251 86 107 146 
45 648 251 87 109 142 
44 650 251 84 107 148 
44 649 252 91 110 148 
45 648 252 90 109 145 
45 649 252 93 113 148 
45 649 253 99 118 150 
44 650 252 93 111 149 
44 651 252 97 117 152 
44 651 253 103 122 154 
45 650 252 96 114 149 
45 650 253 104 122 153 
45 651 253 111 127 158 
45 651 254 104 125 156 
46 648 252 88 109 145 
46 648 253 98 118 150 
46 649 253 102 123 152 
47 648 253 100 120 150 
46 649 254 109 131 157 
47 648 254 115 134 158 
47 648 255 140 154 172 
47 649 254 113 134 158 
47 649 255 114 135 158 
46 650 254 97 122 149 
46 651 254 97 121 156 
46 651 255 97 121 158 
47 650 255 112 134 159 
47 651 255 95 120 158 
44 652 253 101 123 153 
44 653 253 106 123 155 
44 652 254 108 128 158 
44 653 254 104 122 155 
45 652 254 96 119 155 
45 653 254 89 113 152 
44 654 253 105 121 155 
44 654 254 112 126 158 
44 655 254 114 126 156 
45 654 254 112 128 159 
45 654 255 107 127 158 
45 655 254 117 132 160 
45 655 255 110 130 157 
46 652 255 56 87 147 
46 653 255 80 107 151 
47 652 255 51 84 147 
47 653 255 79 105 152 
46 654 255 109 131 158 
46 655 255 105 130 158 
47 655 255 112 139 167 
32 656 231 143 156 175 
32 657 231 140 154 172 
32 656 232 130 148 171 
32 656 233 99 128 159 
32 657 232 119 140 163 
32 657 233 99 128 159 
33 656 233 79 116 150 
32 657 234 92 120 153 
33 656 234 94 124 154 
33 656 235 109 130 157 
33 657 234 98 124 155 
33 657 235 108 128 155 
32 658 232 106 129 155 
32 658 233 103 128 156 
32 659 233 88 114 151 
32 658 234 92 119 152 
32 658 235 93 115 149 
32 659 234 88 115 150 
32 659 235 92 117 149 
33 658 235 93 114 147 
33 659 235 85 109 143 
34 656 235 100 120 149 
33 657 236 96 114 145 
33 658 236 93 112 144 
33 658 237 91 112 143 
33 659 236 90 111 144 
33 659 237 92 111 145 
33 659 238 96 116 149 
34 656 236 98 116 146 
34 656 237 92 112 143 
34 657 236 95 113 143 
34 657 237 90 111 143 
34 656 238 88 113 144 
34 657 238 84 109 143 
34 657 239 76 107 141 
35 656 238 83 111 143 
35 656 239 70 103 140 
35 657 239 77 110 142 
34 658 237 88 111 143 
34 658 238 88 112 145 
34 658 239 90 119 148 
34 659 238 92 114 147 
34 659 239 107 130 157 
35 658 239 95 125 152 
32 660 234 88 116 150 
32 660 235 97 121 152 
32 661 234 112 132 157 
32 661 235 99 122 150 
32 662 235 102 124 149 
32 663 235 115 132 155 
32 660 236 100 121 151 
32 661 236 109 128 155 
32 661 237 104 124 152 
33 660 236 90 112 144 
33 660 237 99 118 149 
33 661 237 100 121 150 
33 660 238 98 119 152 
33 661 238 92 114 152 
33 661 239 66 97 145 
32 662 236 111 130 155 
32 662 237 102 123 153 
32 663 236 118 133 159 
32 663 237 109 127 157 
32 662 238 98 117 154 
32 663 238 101 119 157 
33 662 238 93 115 155 
33 662 239 87 113 155 
33 663 238 96 116 156 
33 663 239 108 130 165 
34 660 239 83 110 149 
34 661 239 56 88 143 
32 664 236 112 127 157 
32 664 237 109 123 157 
32 665 236 109 124 157 
32 665 237 109 123 157 
32 664 238 99 115 158 
32 664 239 87 112 158 
32 665 238 95 114 157 
32 665 239 74 105 154 
33 664 239 85 113 159 
33 665 239 56 97 152 
32 666 237 115 128 158 
32 667 237 115 128 159 
32 666 238 98 117 158 
32 666 239 74 106 156 
32 667 238 94 114 158 
32 667 239 66 102 157 
33 666 239 63 103 155 
33 667 239 74 109 162 
32 668 238 86 108 157 
32 668 239 62 101 160 
32 669 238 94 119 164 
32 669 239 70 110 163 
32 670 238 89 119 164 
32 670 239 89 122 169 
32 671 239 97 125 171 
35 656 240 77 108 143 
35 657 240 96 124 152 
35 657 241 110 135 161 
34 659 240 96 122 156 
35 658 240 112 137 162 
35 658 241 118 142 168 
35 659 240 113 136 164 
35 659 241 78 110 156 
35 659 242 52 92 153 
33 663 240 112 139 170 
34 660 240 58 91 145 
34 660 241 65 97 152 
34 661 240 77 102 153 
34 661 241 94 119 160 
35 660 241 61 95 152 
35 661 241 106 130 165 
35 660 242 83 113 161 
35 660 243 109 136 172 
35 661 242 115 141 171 
34 662 240 112 134 167 
34 662 241 121 143 172 
34 663 240 110 137 169 
34 663 241 88 122 159 
34 663 242 79 118 157 
35 662 242 108 135 165 
35 662 243 96 128 159 
35 663 242 86 121 157 
35 663 243 91 126 160 
36 656 240 70 101 140 
36 656 241 86 116 148 
36 657 241 107 133 160 
36 656 242 108 134 160 
36 657 242 116 142 168 
36 657 243 101 130 163 
37 656 242 113 136 161 
37 656 243 112 137 164 
37 657 243 87 119 160 
36 658 242 98 127 162 
36 658 243 55 91 151 
36 659 242 52 92 149 
36 659 243 63 102 156 
37 658 243 31 79 148 
37 656 244 99 128 161 
37 657 244 44 89 149 
37 657 245 40 85 150 
36 659 244 104 135 167 
37 658 244 55 93 153 
37 658 245 79 115 157 
37 659 244 90 123 162 
37 659 245 114 141 168 
37 659 246 114 140 166 
38 656 244 106 133 160 
38 656 245 78 111 155 
38 657 245 51 92 152 
38 656 246 54 92 149 
38 656 247 51 89 150 
38 657 246 62 101 153 
38 657 247 86 119 157 
39 656 247 47 84 148 
39 657 247 78 110 153 
38 658 246 105 135 166 
38 658 247 120 146 173 
38 659 246 109 137 164 
38 659 247 100 132 162 
36 660 243 109 137 170 
36 661 243 105 134 164 
36 662 243 107 136 166 
36 663 243 101 132 163 
36 660 244 115 142 169 
36 661 244 106 135 164 
36 661 245 106 135 166 
37 660 244 121 147 173 
37 660 245 115 141 168 
37 661 245 105 135 166 
37 660 246 111 139 167 
37 661 246 91 128 162 
37 661 247 94 130 164 
36 662 244 104 134 165 
36 662 245 91 127 161 
36 663 244 90 126 160 
36 663 245 86 124 159 
37 662 245 93 128 162 
36 663 246 87 125 160 
37 662 246 83 125 161 
37 662 247 69 117 159 
37 663 246 83 124 161 
37 663 247 81 123 164 
38 660 246 117 143 169 
38 660 247 107 137 166 
38 661 247 94 128 163 
38 662 247 59 109 155 
39 656 248 63 99 152 
39 657 248 117 141 169 
38 659 248 97 131 162 
39 658 248 105 135 163 
39 658 249 85 123 157 
39 659 248 99 134 165 
39 659 249 92 129 163 
37 663 248 71 115 162 
38 660 248 101 135 167 
38 661 248 80 118 161 
39 660 248 84 126 163 
39 660 249 68 114 159 
39 661 249 53 99 157 
39 660 250 60 105 160 
39 661 250 40 91 156 
38 662 248 44 96 153 
38 662 249 50 98 156 
38 663 248 62 108 158 
38 663 249 58 104 157 
39 662 249 48 95 155 
39 663 249 57 102 157 
39 662 250 54 97 157 
39 663 250 62 104 159 
33 664 240 64 105 154 
33 665 240 44 95 152 
33 666 240 48 98 154 
33 666 241 54 99 157 
33 667 240 65 106 161 
33 667 241 55 98 159 
34 664 240 54 102 152 
34 664 241 63 108 155 
34 665 241 51 100 154 
34 664 242 74 114 158 
34 665 242 61 104 158 
35 664 242 70 113 156 
35 664 243 75 116 159 
35 665 243 61 105 158 
34 666 241 53 98 156 
34 667 241 52 95 158 
34 666 242 54 96 157 
34 666 243 49 95 155 
34 667 242 57 99 159 
34 667 243 59 101 158 
35 666 243 54 99 155 
35 667 243 58 101 157 
35 664 244 63 107 155 
35 665 244 64 106 158 
35 666 244 62 103 158 
35 666 245 70 106 160 
35 667 244 61 103 157 
35 667 245 69 109 157 
32 669 240 70 104 163 
33 668 240 67 100 163 
33 668 241 62 101 162 
33 669 240 68 101 163 
33 669 241 74 107 163 
33 669 242 72 108 161 
32 670 240 79 111 165 
32 671 240 71 106 161 
33 670 240 78 108 164 
33 670 241 72 106 161 
33 671 241 64 101 158 
33 670 242 63 102 156 
33 670 243 55 96 152 
33 671 242 51 94 153 
33 671 243 51 97 154 
34 668 242 69 107 161 
34 668 243 65 106 159 
34 669 242 71 108 159 
34 669 243 68 106 157 
34 670 243 54 98 153 
34 671 243 55 103 155 
34 668 244 66 106 157 
34 669 244 61 103 155 
35 668 244 66 106 156 
35 668 245 67 110 157 
35 669 244 62 104 155 
35 669 245 54 104 152 
35 668 246 73 116 159 
35 669 246 66 113 157 
34 670 244 51 102 153 
34 670 245 70 118 160 
34 671 244 71 118 159 
34 671 245 85 127 165 
35 670 245 64 113 157 
35 671 245 93 133 170 
35 670 246 86 129 169 
35 671 246 96 136 174 
36 664 244 74 112 157 
36 664 245 82 118 160 
36 665 244 71 109 159 
36 665 245 73 111 160 
36 664 246 90 126 164 
36 665 246 75 115 161 
37 664 246 89 127 164 
37 664 247 79 121 162 
37 665 247 73 116 160 
36 666 245 70 107 161 
36 667 245 74 112 160 
36 666 246 72 113 160 
36 666 247 72 115 160 
36 667 246 74 116 159 
36 667 247 76 118 160 
37 666 247 72 114 160 
36 668 246 75 118 160 
36 668 247 80 124 164 
36 669 247 92 133 173 
36 670 247 105 144 182 
36 671 246 120 154 188 
36 671 247 130 162 195 
37 671 247 118 147 183 
37 664 248 68 111 159 
37 665 248 63 108 158 
37 666 248 59 107 158 
37 667 248 65 114 162 
37 667 249 69 120 169 
38 664 248 64 108 157 
38 664 249 52 101 156 
38 665 248 59 104 156 
38 665 249 54 100 158 
39 664 250 52 100 158 
39 665 250 47 96 164 
38 666 249 47 101 162 
38 667 249 61 116 171 
38 666 250 44 97 166 
39 666 250 47 102 172 
39 667 250 77 124 180 
36 668 248 77 122 164 
37 668 248 84 129 173 
37 668 249 84 131 175 
37 669 248 114 150 190 
36 670 248 120 156 193 
37 670 248 123 155 192 
37 671 248 108 138 177 
38 668 249 105 144 186 
38 669 249 116 148 189 
39 668 249 100 136 182 
39 669 249 92 120 174 
39 668 250 98 135 182 
38 670 248 79 105 160 
38 670 249 96 126 174 
38 671 248 63 82 142 
39 670 249 74 91 159 
39 671 248 86 94 158 
40 656 248 56 92 151 
40 656 249 97 125 160 
40 657 249 119 144 171 
40 656 250 122 145 170 
40 657 250 107 136 166 
41 656 250 119 143 169 
41 656 251 103 130 163 
41 657 250 90 122 157 
41 657 251 53 95 146 
40 658 249 75 118 155 
40 659 249 90 128 163 
40 658 250 76 117 156 
40 659 250 63 112 156 
40 659 251 38 95 150 
41 658 251 57 102 151 
41 659 251 50 99 151 
42 656 251 105 131 163 
41 659 252 49 99 154 
42 656 252 86 108 152 
42 657 252 67 97 148 
43 656 252 91 109 152 
43 656 253 104 114 152 
43 657 253 100 114 153 
42 658 252 67 102 152 
42 659 252 66 105 156 
42 659 253 77 110 160 
43 658 253 90 110 154 
43 659 253 88 112 160 
40 660 250 50 101 157 
40 660 251 52 99 159 
40 661 250 38 91 157 
40 661 251 49 96 158 
41 660 251 56 102 160 
41 661 251 60 102 160 
40 662 251 62 102 159 
40 663 251 69 106 161 
41 662 251 72 109 163 
41 660 252 66 108 162 
41 661 252 71 110 163 
41 662 252 79 114 167 
41 663 252 71 109 169 
42 660 252 71 110 163 
42 660 253 79 113 164 
42 661 253 92 123 170 
43 660 253 89 119 167 
43 661 253 104 130 174 
42 662 253 97 125 175 
42 663 252 82 114 175 
42 663 253 93 118 178 
43 662 253 109 130 177 
43 663 252 102 116 177 
43 663 253 113 127 180 
44 656 254 115 124 154 
44 657 254 112 121 156 
45 656 254 114 127 155 
45 656 255 109 127 157 
45 657 254 113 122 158 
45 657 255 115 126 163 
44 659 253 97 112 161 
44 658 254 104 113 158 
44 659 254 102 113 164 
45 658 254 113 121 164 
45 658 255 116 125 166 
45 659 254 115 121 169 
46 656 255 103 128 160 
46 657 255 121 138 170 
47 656 255 108 138 169 
47 657 255 126 148 177 
46 658 255 123 135 172 
46 659 255 122 129 170 
47 658 255 122 138 170 
47 659 255 117 123 157 
44 660 254 101 119 169 
44 661 254 108 126 172 
45 660 254 118 124 172 
45 661 254 103 110 160 
44 662 253 110 129 174 
44 663 253 128 143 183 
45 663 253 100 120 163 
44 662 254 107 124 170 
45 662 254 78 89 146 
46 660 254 114 114 159 
46 661 254 82 77 136 
47 660 254 81 76 119 
47 661 254 61 41 95 
46 663 253 72 84 137 
47 662 253 59 32 78 
47 663 253 57 55 109 
46 662 254 54 45 115 
47 662 254 57 33 89 
44 671 247 88 97 135 
45 671 247 106 115 148 
46 671 247 138 151 176 
47 671 247 155 169 193 
40 664 251 60 103 167 
40 665 251 53 101 172 
41 664 251 65 107 172 
41 665 251 70 109 175 
40 666 250 55 109 176 
40 666 251 55 106 175 
40 667 250 85 128 182 
41 666 251 66 105 172 
41 667 250 84 118 177 
42 665 251 80 105 168 
43 665 251 84 102 161 
42 666 251 82 103 166 
42 667 250 73 97 162 
43 666 251 87 102 157 
43 667 250 73 91 149 
41 664 252 73 111 175 
41 665 252 80 114 178 
42 664 252 79 108 175 
42 665 252 79 106 172 
43 664 252 90 104 166 
43 665 252 82 98 157 
40 669 249 105 123 178 
41 668 249 100 129 175 
41 669 249 115 137 181 
40 668 250 113 140 184 
41 668 250 114 140 184 
40 670 249 97 110 176 
40 671 248 101 114 179 
40 671 249 98 109 178 
41 670 249 112 130 178 
41 671 248 98 118 174 
41 671 249 99 117 175 
42 668 249 85 113 165 
42 669 249 103 126 170 
43 668 249 66 89 143 
43 669 249 78 100 146 
42 668 250 75 104 162 
43 668 250 67 91 149 
42 670 248 102 121 163 
42 670 249 113 131 172 
42 671 248 104 122 166 
43 670 248 74 94 137 
43 670 249 80 99 142 
43 671 248 79 96 138 
44 666 250 71 76 137 
44 666 251 75 81 140 
44 667 250 68 76 135 
45 666 250 104 106 158 
45 666 251 106 110 164 
45 667 250 117 121 168 
46 666 251 134 147 189 
46 667 250 127 138 184 
46 667 251 135 146 189 
47 666 251 131 148 191 
47 667 250 118 131 185 
47 667 251 127 141 190 
44 664 252 117 125 169 
44 664 253 134 145 183 
44 665 252 92 98 152 
45 664 252 139 155 188 
45 664 253 138 157 189 
45 665 252 124 136 178 
46 664 252 126 148 186 
46 664 253 109 134 173 
46 665 252 130 149 190 
47 664 253 95 119 160 
47 665 252 118 143 183 
46 666 252 133 150 192 
47 666 252 127 147 190 
44 668 249 63 77 132 
44 669 249 79 93 136 
45 668 249 96 104 157 
45 669 249 103 117 161 
45 668 250 120 126 174 
44 670 248 86 98 134 
44 671 248 87 97 134 
45 670 248 117 130 164 
45 671 248 111 122 155 
46 668 249 117 127 180 
46 669 249 101 119 176 
47 669 249 95 118 181 
46 668 250 121 133 184 
47 668 250 108 123 184 
47 669 250 98 119 184 
46 670 248 114 135 175 
46 670 249 107 129 176 
46 671 248 127 145 175 
47 670 249 112 135 186 
47 671 248 144 162 193 
48 640 247 87 116 142 
48 640 248 104 126 151 
48 641 248 105 126 150 
48 641 249 100 120 144 
49 640 248 99 123 149 
49 640 249 105 126 151 
49 641 249 105 124 148 
49 640 250 108 126 149 
49 641 250 102 120 143 
49 641 251 100 115 134 
48 642 249 93 113 136 
48 642 250 96 114 134 
48 642 251 93 110 128 
48 643 250 91 108 128 
48 643 251 78 98 119 
49 642 250 97 113 135 
49 642 251 96 111 129 
50 640 250 110 127 150 
50 640 251 110 125 147 
50 641 251 102 118 137 
51 640 251 111 127 149 
48 643 252 68 93 115 
49 642 252 83 101 119 
49 643 252 68 93 116 
49 643 253 69 97 121 
49 643 254 77 105 130 
50 641 252 99 115 134 
51 640 252 96 116 139 
51 641 252 92 112 134 
51 641 253 81 104 125 
50 642 252 90 107 126 
50 642 253 81 101 121 
50 643 253 81 104 125 
51 642 253 80 102 123 
50 642 254 92 110 130 
50 643 254 87 111 133 
50 643 255 83 109 135 
51 642 254 92 110 128 
51 642 255 101 118 136 
51 643 255 88 112 135 
48 644 251 68 91 114 
48 644 252 77 101 122 
48 644 253 84 108 130 
48 645 252 92 114 135 
48 645 253 100 123 145 
49 644 253 78 105 129 
48 645 254 104 127 153 
49 644 254 96 119 142 
49 644 255 106 128 152 
49 645 254 106 128 152 
49 645 255 102 126 155 
48 646 253 95 121 150 
48 646 254 77 106 149 
48 646 255 65 98 148 
48 647 254 81 109 148 
48 647 255 104 129 157 
49 646 255 76 106 151 
49 647 255 69 106 148 
50 644 255 95 120 146 
50 645 255 109 132 158 
52 640 252 86 111 137 
52 640 253 90 112 133 
52 641 253 89 110 132 
53 640 253 95 114 134 
52 641 254 90 109 129 
52 641 255 91 108 127 
53 640 254 102 116 133 
53 640 255 99 112 127 
53 641 255 92 108 125 
52 642 255 103 118 135 
54 640 254 102 117 134 
54 640 255 101 114 129 
55 640 255 99 113 130 
48 648 255 141 155 173 
48 649 255 117 138 160 
48 657 255 127 145 173 
48 658 255 125 135 162 
48 659 255 90 87 118 
49 658 255 102 95 119 
49 659 254 84 46 57 
49 659 255 77 51 77 
51 657 255 96 55 81 
50 658 255 88 49 71 
50 659 254 103 65 62 
50 659 255 98 54 63 
51 658 255 109 64 71 
51 659 254 118 80 71 
48 661 253 79 48 48 
49 660 253 98 64 60 
49 661 253 94 62 55 
48 660 254 65 39 63 
48 661 254 66 38 57 
49 660 254 90 53 56 
48 662 253 73 42 52 
48 663 253 60 42 75 
49 662 253 89 56 49 
49 663 253 79 47 58 
48 662 254 66 35 55 
50 660 253 112 78 70 
50 661 253 114 80 68 
51 660 253 125 89 79 
51 661 253 128 91 77 
50 660 254 102 69 59 
50 662 253 111 77 61 
50 663 252 96 57 53 
50 663 253 103 67 56 
51 662 252 125 87 71 
51 662 253 124 88 72 
51 663 252 113 72 63 
52 657 255 121 80 80 
53 657 255 142 104 87 
52 659 253 140 99 81 
53 659 253 142 101 82 
52 658 254 136 97 82 
52 658 255 127 87 77 
52 659 254 135 96 80 
53 658 254 147 106 86 
53 658 255 146 107 87 
53 659 254 147 105 84 
54 657 255 150 108 89 
55 657 255 154 110 90 
54 658 255 153 110 88 
54 659 254 153 108 88 
55 658 255 156 110 91 
55 659 254 156 109 90 
52 660 253 136 95 79 
52 661 253 135 94 76 
53 660 253 144 100 81 
53 661 253 141 98 77 
52 662 252 131 92 73 
52 662 253 133 94 75 
52 663 252 123 80 69 
53 662 252 137 95 74 
53 662 253 140 98 77 
53 663 252 132 89 73 
54 660 253 150 103 84 
54 661 253 146 100 80 
55 660 253 153 105 87 
55 661 253 150 103 85 
55 660 254 155 107 88 
54 662 252 141 97 79 
54 662 253 143 98 79 
54 663 252 138 95 76 
55 662 253 146 99 82 
55 663 252 142 96 80 
48 667 251 127 138 191 
49 667 251 125 133 190 
48 664 252 95 112 144 
48 664 253 86 100 137 
48 665 252 120 142 175 
49 664 252 79 77 106 
49 664 253 74 61 89 
49 665 252 104 119 148 
48 666 252 128 147 189 
48 667 252 129 141 192 
49 666 252 121 139 177 
49 667 252 124 137 188 
50 664 252 79 52 65 
50 665 252 90 91 117 
51 664 252 91 54 55 
51 665 252 74 60 80 
50 666 252 119 137 166 
50 667 252 124 141 186 
51 666 252 94 109 138 
51 667 252 115 136 179 
48 669 249 105 127 188 
48 668 250 117 129 188 
48 668 251 122 130 189 
48 669 250 126 140 196 
49 668 251 125 133 190 
49 669 250 135 147 197 
49 669 251 125 135 189 
48 670 249 105 130 185 
48 671 248 117 140 179 
48 671 249 108 134 180 
49 670 249 115 134 187 
49 671 248 128 146 189 
49 671 249 123 142 188 
49 670 250 125 140 192 
50 668 251 123 132 188 
50 669 250 127 138 190 
50 669 251 125 135 188 
51 668 251 122 133 187 
51 669 251 127 137 190 
50 671 249 134 147 194 
51 671 249 114 127 188 
50 670 250 141 152 198 
51 670 250 145 156 202 
51 671 250 136 147 198 
51 668 252 119 134 187 
52 664 252 105 60 57 
52 665 252 82 48 61 
53 664 252 122 78 68 
53 665 252 98 56 57 
52 666 252 73 75 109 
52 667 252 97 119 164 
53 666 252 74 52 84 
53 667 252 79 91 138 
54 664 252 131 90 73 
54 665 252 113 73 59 
55 664 252 136 92 75 
55 665 252 123 82 62 
54 666 252 86 54 66 
54 667 252 74 75 111 
55 666 252 100 66 60 
55 667 252 79 67 88 
52 668 251 121 133 187 
52 669 251 125 132 189 
53 668 251 105 127 179 
53 669 251 118 129 185 
52 671 249 114 125 188 
53 671 249 130 142 192 
52 670 250 125 133 191 
52 670 251 127 134 191 
52 671 250 119 129 189 
53 670 250 118 122 186 
53 670 251 121 126 186 
53 671 250 124 132 189 
54 668 251 100 123 173 
54 669 251 110 125 181 
55 668 251 87 106 146 
55 669 251 102 120 171 
54 671 249 130 141 189 
54 670 250 117 126 183 
54 670 251 118 126 185 
54 671 250 125 133 187 
55 670 250 116 127 180 
55 670 251 112 124 178 
55 671 250 128 138 184 
52 668 252 115 131 184 
53 668 252 101 122 174 
54 668 252 84 108 153 
55 668 252 76 92 130 
56 657 255 155 110 90 
56 658 255 157 111 91 
56 659 254 158 110 90 
56 659 255 158 111 89 
57 658 255 158 111 89 
57 659 255 159 111 90 
58 658 255 158 110 87 
58 659 255 159 109 89 
59 659 255 158 109 88 
56 661 253 154 106 88 
57 661 253 154 106 88 
56 660 254 156 108 90 
57 660 254 157 108 90 
57 660 255 159 109 90 
57 661 254 155 105 87 
56 662 253 150 103 85 
56 663 252 143 97 81 
56 663 253 145 99 81 
57 662 253 152 106 86 
57 663 252 146 100 81 
57 663 253 149 103 85 
