ply
format ascii 1.0
comment Created by CloudCompare v2.10.1 (Zephyrus)
comment Created 1/31/20 5:52 PM
obj_info Generated by CloudCompare!
element vertex 1985
property float x
property float y
property float z
property uchar red
property uchar green
property uchar blue
end_header
232 390 200 97 122 163 
232 390 201 91 119 161 
232 391 200 112 132 171 
232 391 201 115 135 173 
233 390 201 101 127 164 
233 391 201 129 145 171 
233 391 202 145 159 180 
234 388 201 80 114 149 
234 389 201 85 119 155 
234 388 202 80 115 154 
234 389 202 96 124 162 
235 388 202 80 114 154 
235 389 202 94 120 161 
234 390 201 105 130 161 
234 390 202 123 142 171 
234 391 202 138 153 175 
235 390 202 108 131 163 
235 391 202 129 146 168 
236 384 202 105 122 144 
236 385 202 93 116 143 
237 384 202 103 120 140 
237 385 202 118 133 152 
236 386 202 101 125 153 
236 387 202 95 123 157 
237 386 202 116 132 153 
237 387 202 92 119 148 
237 387 203 77 110 141 
238 384 203 130 139 153 
238 385 202 131 142 159 
238 385 203 125 136 152 
239 384 203 141 147 158 
239 385 203 103 121 141 
238 386 203 94 116 141 
238 387 203 58 100 136 
239 386 203 74 104 132 
239 387 203 56 96 133 
236 388 202 79 113 157 
236 389 202 70 108 158 
237 388 202 67 104 142 
237 388 203 62 103 141 
237 389 203 75 111 152 
236 390 202 86 118 158 
236 390 203 90 122 163 
236 391 202 107 133 167 
236 391 203 110 136 171 
237 390 203 89 122 159 
237 391 203 98 129 169 
238 388 203 57 102 145 
238 389 203 70 111 150 
239 388 203 69 105 141 
239 389 203 76 112 144 
238 390 203 76 117 155 
238 391 203 71 114 153 
239 390 203 78 115 148 
239 391 203 70 112 149 
239 392 203 67 111 151 
240 384 203 132 141 155 
240 385 203 100 119 140 
240 386 203 72 102 132 
240 387 203 59 97 134 
240 384 204 137 146 159 
241 384 204 113 128 147 
241 385 204 97 118 140 
241 386 204 77 105 134 
241 387 204 61 97 131 
242 384 204 89 113 137 
242 385 204 91 114 139 
243 384 204 86 111 137 
243 384 205 81 106 132 
243 385 204 94 116 141 
243 385 205 90 112 137 
242 386 204 72 103 133 
242 387 204 58 97 132 
243 386 205 72 102 131 
243 387 205 62 100 133 
240 388 203 74 108 142 
240 389 203 86 118 148 
240 390 203 84 119 151 
240 391 203 77 118 154 
241 388 204 80 112 142 
241 389 204 90 122 151 
240 390 204 88 123 155 
240 391 204 78 117 153 
241 390 204 83 119 152 
241 391 204 68 113 150 
242 388 204 73 109 142 
242 389 204 82 118 150 
243 388 204 69 106 139 
243 388 205 71 109 142 
243 389 205 74 115 149 
242 390 204 77 117 151 
242 391 204 72 114 150 
242 391 205 66 111 148 
243 390 205 69 115 151 
243 391 205 60 108 147 
244 384 205 89 110 134 
244 385 205 90 113 137 
245 384 206 99 118 141 
245 385 206 94 116 141 
244 386 205 66 99 128 
244 387 205 61 100 131 
245 386 206 67 102 132 
245 387 206 63 102 134 
246 384 206 102 121 143 
246 385 206 93 118 143 
247 384 207 106 125 147 
247 385 206 87 115 142 
247 385 207 98 122 147 
246 386 206 70 105 134 
246 387 206 67 104 135 
247 386 206 81 111 139 
247 386 207 80 111 140 
247 387 206 78 110 140 
247 387 207 76 109 140 
244 388 205 72 110 142 
244 389 205 82 118 149 
245 388 206 76 112 144 
245 389 206 83 118 149 
244 390 205 80 117 149 
244 391 205 63 108 143 
244 391 206 72 112 146 
245 390 206 85 120 151 
245 391 206 81 118 149 
246 388 206 75 111 142 
246 389 206 82 117 147 
246 389 207 74 111 143 
247 388 207 63 102 136 
247 389 207 54 97 133 
246 390 206 87 121 151 
246 390 207 73 110 143 
246 391 206 78 115 148 
246 391 207 71 109 144 
247 390 207 47 92 132 
247 391 207 49 91 133 
240 392 203 70 115 154 
241 392 204 64 109 148 
242 392 205 60 107 147 
243 392 205 59 108 148 
243 392 206 58 106 144 
244 392 206 66 110 146 
245 392 206 75 115 149 
246 392 206 69 109 145 
246 392 207 63 102 142 
247 392 207 45 86 130 
248 384 207 95 118 142 
248 385 207 82 111 139 
248 386 207 60 97 131 
248 387 207 45 90 128 
248 388 207 46 94 133 
248 389 207 40 93 135 
248 390 207 45 94 136 
248 391 207 44 92 133 
248 392 207 38 84 128 
249 384 208 99 119 142 
249 385 208 90 115 140 
249 386 208 65 98 129 
249 387 208 40 87 122 
250 384 208 99 119 142 
250 384 209 98 118 141 
250 385 208 95 117 141 
250 385 209 91 115 140 
251 384 209 97 118 143 
251 385 209 90 115 141 
250 386 208 79 107 135 
250 386 209 84 111 138 
250 387 208 60 97 128 
250 387 209 73 105 134 
251 386 209 81 110 138 
251 387 209 69 102 133 
248 389 208 61 106 144 
249 388 208 67 106 138 
249 389 208 84 119 149 
248 390 208 72 111 145 
248 391 208 73 110 143 
249 390 208 93 125 153 
249 391 208 97 127 154 
250 388 208 72 108 138 
250 388 209 63 101 132 
250 389 208 89 120 147 
251 388 209 67 104 134 
251 389 209 87 117 145 
250 390 208 99 127 153 
250 390 209 97 124 149 
250 391 208 107 132 156 
250 391 209 103 128 152 
251 390 209 96 123 149 
251 391 209 95 122 148 
252 384 209 95 117 143 
252 385 209 86 112 140 
252 384 210 94 116 142 
252 385 210 91 116 143 
253 384 210 92 113 138 
253 384 211 91 113 137 
253 385 210 91 115 141 
253 385 211 88 112 139 
252 386 209 78 107 137 
252 387 209 62 98 130 
252 386 210 79 107 137 
252 387 210 64 100 132 
253 386 210 80 108 138 
253 386 211 77 105 135 
253 387 210 65 99 131 
254 384 211 88 110 134 
254 385 211 86 111 137 
255 385 211 84 109 135 
254 386 211 78 106 135 
254 387 211 67 100 130 
255 386 211 80 107 135 
255 387 211 73 103 132 
255 384 212 86 108 132 
255 385 212 85 110 135 
255 386 212 80 107 135 
255 387 212 72 103 131 
252 388 209 67 103 133 
252 389 209 92 121 147 
252 388 210 68 103 133 
252 389 210 88 118 144 
253 388 210 60 98 129 
253 389 210 74 108 137 
252 390 209 101 126 151 
252 391 209 102 128 152 
252 390 210 95 122 148 
252 391 210 99 124 149 
253 390 210 83 115 143 
253 391 210 87 118 146 
254 388 211 61 98 128 
254 389 210 81 113 142 
254 389 211 79 110 138 
255 388 211 61 98 127 
255 389 211 76 108 136 
254 390 210 86 117 146 
254 390 211 79 113 143 
254 391 210 83 115 144 
254 391 211 82 115 144 
255 390 211 85 117 144 
255 391 211 83 117 146 
255 388 212 60 97 126 
248 392 208 48 94 133 
249 392 208 77 114 146 
250 392 208 96 124 152 
250 392 209 94 122 149 
251 392 209 85 116 145 
252 392 209 91 119 147 
252 392 210 90 119 148 
253 392 210 85 116 145 
253 393 210 76 109 140 
254 392 210 81 114 143 
254 392 211 80 113 142 
254 393 211 77 110 141 
255 392 211 80 115 144 
255 393 211 81 113 143 
256 351 223 84 99 115 
256 351 224 92 104 119 
256 351 225 94 105 118 
256 355 219 87 106 125 
256 353 221 87 103 120 
256 352 222 89 104 120 
256 352 223 79 99 118 
256 353 222 81 102 122 
256 353 223 77 100 122 
256 354 220 90 105 122 
256 354 221 85 104 124 
256 355 220 86 105 125 
256 355 221 81 105 127 
256 354 222 81 103 125 
256 354 223 80 102 123 
256 355 222 84 105 126 
256 355 223 86 104 123 
256 356 219 88 106 124 
256 357 218 98 111 126 
256 357 219 91 107 125 
256 359 217 96 112 129 
256 358 218 100 112 127 
256 358 219 100 114 131 
256 359 218 100 114 131 
256 359 219 105 118 134 
256 356 220 82 104 125 
256 356 221 83 104 126 
256 357 220 86 105 125 
256 357 221 90 108 127 
256 356 222 87 106 126 
256 356 223 92 108 126 
256 357 222 92 109 127 
257 356 223 94 110 128 
257 357 222 96 111 128 
257 357 223 97 111 129 
256 358 220 98 113 131 
256 358 221 95 111 129 
256 359 220 105 117 133 
257 358 221 102 116 133 
257 359 220 105 117 132 
257 359 221 107 119 135 
257 358 222 102 115 132 
257 358 223 98 113 129 
257 359 222 106 118 133 
257 359 223 101 114 131 
256 365 215 119 127 138 
256 366 215 122 129 139 
256 367 215 132 135 142 
256 360 217 97 113 132 
256 361 217 105 119 136 
256 360 218 103 117 134 
256 360 219 106 119 134 
256 361 218 108 121 138 
256 361 219 109 121 137 
257 360 219 105 117 133 
257 361 219 110 121 137 
256 362 216 113 125 140 
256 362 217 114 125 140 
256 363 216 114 124 139 
256 363 217 116 125 139 
257 363 217 110 120 134 
256 362 218 111 123 138 
256 363 218 113 124 138 
257 362 218 109 121 137 
257 362 219 107 119 135 
257 363 218 105 116 132 
257 363 219 99 113 129 
257 360 220 108 118 133 
257 360 221 107 119 134 
257 361 220 110 120 134 
257 361 221 106 117 133 
257 360 222 107 118 134 
257 360 223 100 114 130 
257 361 222 104 116 132 
257 361 223 101 114 129 
257 362 220 105 117 132 
257 362 221 99 112 128 
257 363 220 100 112 129 
257 363 221 98 111 127 
257 362 222 98 111 128 
258 360 223 96 110 127 
258 361 223 97 111 127 
258 363 221 99 111 127 
258 362 222 97 110 126 
258 362 223 97 110 127 
258 363 222 95 108 124 
258 363 223 92 106 122 
256 364 216 113 123 136 
256 364 217 110 120 134 
256 365 216 116 124 136 
256 365 217 113 122 135 
257 364 217 106 117 130 
257 365 217 110 119 132 
257 364 218 104 115 130 
257 364 219 101 114 130 
257 365 218 109 119 132 
257 365 219 108 119 133 
256 366 216 127 132 142 
256 367 216 129 132 140 
257 366 217 127 132 143 
257 367 216 131 134 142 
257 367 217 132 135 144 
257 366 218 119 125 135 
257 366 219 115 122 133 
257 367 218 128 131 139 
258 366 219 115 122 134 
258 367 218 125 128 135 
258 367 219 122 126 134 
257 364 220 100 112 129 
257 365 220 106 117 133 
258 364 220 99 111 126 
258 364 221 99 110 126 
258 365 220 109 119 134 
258 365 221 102 113 128 
258 364 222 99 111 126 
258 364 223 96 107 123 
258 365 222 100 111 125 
258 365 223 98 108 122 
259 365 223 95 106 120 
258 366 220 114 122 135 
258 366 221 112 121 134 
258 367 220 124 129 138 
258 367 221 120 126 136 
258 366 222 110 117 129 
258 366 223 104 112 125 
258 367 222 118 123 133 
259 366 223 105 113 125 
259 367 222 124 128 138 
259 367 223 118 123 134 
256 368 215 137 138 144 
256 369 215 137 136 141 
256 370 214 135 136 141 
256 370 215 130 130 135 
256 371 214 127 129 135 
256 371 215 125 127 133 
256 372 214 125 127 133 
256 372 215 128 129 135 
256 373 214 127 129 136 
256 373 215 133 133 139 
257 372 215 131 132 138 
257 373 215 137 137 142 
256 374 214 134 136 143 
256 375 214 135 138 146 
257 374 215 142 140 144 
257 375 215 144 142 145 
256 368 216 126 128 136 
257 368 216 122 125 134 
257 368 217 119 123 132 
257 369 216 122 125 132 
257 369 217 119 123 132 
257 370 216 122 124 130 
257 370 217 116 120 129 
257 371 216 128 129 135 
257 371 217 123 126 134 
258 369 217 122 126 136 
258 368 218 124 127 134 
258 368 219 132 133 140 
258 369 218 129 132 140 
258 369 219 139 140 146 
258 370 217 118 122 131 
258 371 217 115 120 128 
258 370 218 126 130 138 
258 370 219 137 138 144 
258 371 218 124 128 136 
258 371 219 133 134 141 
258 368 220 139 140 147 
258 368 221 139 141 148 
258 369 220 142 142 148 
259 368 221 144 144 149 
259 369 220 143 143 147 
259 369 221 145 143 147 
259 368 222 138 139 147 
259 368 223 126 130 139 
259 369 222 142 141 146 
259 369 223 135 137 144 
258 370 220 139 139 145 
259 370 220 141 140 145 
259 370 221 141 140 144 
259 371 220 138 138 142 
259 371 221 141 140 145 
259 370 222 142 141 146 
259 370 223 140 140 146 
259 371 222 143 142 146 
259 371 223 143 142 147 
257 372 216 132 133 139 
257 372 217 133 134 141 
257 373 216 140 139 144 
257 374 216 145 142 145 
257 375 216 146 143 145 
258 372 217 127 130 138 
258 373 217 144 143 147 
258 372 218 128 131 139 
258 372 219 130 132 140 
258 373 218 139 140 146 
259 372 219 130 133 140 
259 373 218 136 137 144 
259 373 219 125 129 138 
258 374 217 149 146 148 
258 375 216 149 145 147 
258 375 217 150 147 150 
259 375 217 150 147 150 
258 374 218 148 146 150 
259 374 218 141 141 147 
259 374 219 122 126 135 
259 375 218 146 145 150 
259 375 219 125 130 139 
259 372 220 137 137 142 
259 372 221 140 139 144 
259 373 220 127 131 139 
259 373 221 135 137 143 
259 372 222 142 141 145 
259 374 220 113 121 132 
259 375 220 100 111 124 
260 371 223 143 143 147 
260 375 219 101 112 126 
260 373 221 133 137 145 
260 372 222 143 143 148 
260 372 223 146 147 152 
260 373 222 137 141 150 
260 373 223 141 144 153 
260 374 220 113 121 133 
260 374 221 118 126 138 
260 375 220 95 108 124 
260 375 221 91 107 124 
260 374 222 120 130 144 
260 374 223 124 132 145 
260 375 222 91 108 126 
260 375 223 110 121 136 
261 375 222 96 111 129 
261 375 223 109 121 136 
256 376 213 97 107 119 
256 377 213 91 102 116 
256 376 214 125 130 139 
256 377 214 101 111 124 
257 376 215 144 143 147 
257 377 215 135 138 146 
256 378 213 118 126 141 
256 379 213 94 111 132 
256 378 214 102 113 129 
256 379 214 94 109 130 
257 378 214 90 105 123 
257 378 215 108 119 133 
257 379 214 84 103 124 
257 379 215 83 102 123 
258 379 215 82 102 123 
256 380 213 77 99 122 
256 381 213 74 97 121 
257 380 214 76 99 122 
257 380 215 79 99 122 
257 381 214 76 98 122 
257 381 215 81 102 125 
256 382 212 78 100 124 
256 382 213 74 97 121 
256 383 212 90 109 132 
256 383 213 90 109 131 
257 383 213 90 109 131 
257 382 214 72 96 120 
257 383 214 85 105 127 
258 380 215 82 101 122 
258 381 215 83 102 124 
258 382 214 73 95 119 
258 382 215 76 98 121 
258 383 214 85 104 126 
258 383 215 84 104 126 
259 382 215 78 100 123 
259 383 215 84 104 126 
257 376 216 147 144 146 
258 376 216 149 146 147 
258 376 217 150 147 149 
258 377 216 148 146 150 
259 376 217 150 147 150 
259 377 217 150 147 150 
259 376 218 144 144 150 
259 376 219 138 141 149 
259 377 218 144 144 149 
258 378 216 137 141 151 
258 379 216 103 118 135 
259 378 216 144 147 155 
259 378 217 146 146 152 
259 379 216 111 125 143 
259 379 217 119 130 145 
259 380 216 85 103 124 
259 380 217 84 104 126 
259 381 216 87 105 126 
259 381 217 87 105 125 
259 382 216 80 100 123 
259 383 216 78 99 122 
260 376 219 117 125 137 
260 377 218 140 141 148 
260 377 219 117 126 138 
260 378 218 132 135 142 
260 378 219 115 123 135 
260 379 218 107 119 134 
260 379 219 116 126 140 
261 379 219 128 137 150 
260 376 220 94 108 126 
260 376 221 85 102 122 
260 377 220 87 104 122 
260 377 221 71 92 116 
261 376 221 71 93 115 
261 377 220 60 81 104 
261 377 221 46 75 103 
261 376 222 87 106 127 
261 376 223 119 129 144 
261 377 222 64 91 117 
261 377 223 121 131 146 
261 378 220 108 120 135 
261 378 221 70 92 114 
261 379 220 137 144 156 
261 379 221 128 136 150 
261 378 222 59 85 109 
261 378 223 117 127 142 
261 379 222 100 115 131 
261 379 223 97 113 131 
262 379 223 116 127 141 
260 380 217 81 101 123 
260 381 217 84 102 123 
260 380 218 76 99 122 
260 380 219 81 103 125 
260 381 218 78 98 120 
260 381 219 72 95 116 
261 380 219 98 115 135 
261 381 219 78 99 121 
260 382 217 79 99 122 
260 383 216 79 100 122 
260 383 217 72 95 119 
260 382 218 73 96 120 
260 383 218 65 91 117 
261 382 219 78 100 123 
261 383 218 63 91 117 
261 383 219 68 95 121 
261 380 220 117 130 147 
261 380 221 133 142 157 
261 381 220 89 109 129 
261 381 221 87 109 130 
261 380 222 131 141 156 
261 382 220 90 108 130 
261 383 220 81 103 128 
262 381 221 88 110 132 
262 380 222 123 135 152 
262 380 223 106 121 138 
262 381 222 95 115 138 
262 381 223 95 115 138 
262 382 220 90 109 132 
262 382 221 89 107 129 
262 383 220 79 102 127 
262 383 221 83 105 129 
262 382 222 88 107 128 
262 382 223 86 107 128 
262 383 222 89 108 131 
262 383 223 96 112 132 
263 383 223 98 115 136 
256 352 224 83 100 118 
256 352 225 88 103 120 
256 353 224 79 99 119 
256 353 225 84 101 119 
256 352 226 83 98 114 
256 353 226 84 100 117 
256 354 224 81 101 121 
256 354 225 82 100 119 
256 355 224 85 103 122 
256 355 225 84 101 120 
257 355 225 84 100 118 
256 354 226 82 99 117 
256 354 227 75 92 108 
256 355 226 82 98 116 
256 355 227 76 93 110 
257 355 226 81 98 115 
257 356 224 90 106 125 
257 356 225 84 102 121 
257 357 224 94 109 127 
257 357 225 88 104 122 
257 356 226 81 98 115 
257 357 226 81 98 116 
257 357 227 74 91 109 
257 358 224 93 109 126 
257 358 225 89 106 123 
257 359 224 91 108 126 
257 359 225 90 106 124 
257 358 226 81 99 117 
257 358 227 76 93 111 
257 359 226 82 100 119 
257 359 227 76 95 113 
257 359 228 70 89 107 
257 360 224 91 107 126 
257 360 225 87 104 123 
257 360 226 84 101 119 
257 360 227 80 96 114 
257 361 227 85 99 114 
257 362 227 95 105 118 
258 360 224 91 107 125 
258 360 225 88 105 123 
258 361 224 92 107 125 
258 361 225 94 107 123 
258 360 226 89 104 121 
258 361 226 96 107 122 
258 361 227 92 104 118 
258 362 224 95 107 123 
258 362 225 98 109 123 
258 363 224 93 105 121 
258 363 225 96 106 120 
258 362 226 101 111 123 
258 362 227 99 108 121 
258 363 226 101 110 122 
258 363 227 105 113 124 
257 360 228 76 92 110 
257 361 228 84 97 112 
257 362 228 91 101 114 
257 362 229 84 95 107 
257 363 228 97 105 116 
257 363 229 90 98 109 
258 364 224 89 102 117 
258 364 225 91 102 117 
259 364 224 90 102 117 
259 364 225 89 100 115 
259 365 224 95 106 120 
259 365 225 91 102 117 
258 364 226 93 103 117 
258 364 227 96 105 117 
258 365 226 87 98 112 
258 365 227 88 99 113 
259 365 226 89 100 114 
259 366 224 97 107 121 
259 366 225 95 106 120 
259 367 224 111 118 131 
259 367 225 98 109 123 
258 366 227 85 97 112 
258 367 227 80 93 108 
259 366 226 89 101 115 
259 367 226 91 103 118 
259 367 227 85 98 113 
256 364 229 88 96 107 
256 365 229 80 91 104 
257 364 228 95 103 115 
257 364 229 89 97 109 
257 365 228 86 96 109 
257 365 229 83 93 107 
256 364 230 83 92 104 
256 365 230 80 91 104 
257 364 230 83 92 104 
257 365 230 80 91 104 
256 366 229 77 89 104 
256 367 229 79 91 106 
257 366 228 86 97 111 
257 366 229 80 92 106 
257 367 228 82 94 108 
257 367 229 80 91 106 
256 366 230 76 88 103 
256 367 230 78 90 104 
256 367 231 74 88 103 
257 366 230 75 87 102 
257 366 231 75 88 102 
257 367 231 74 88 103 
258 365 228 89 99 113 
258 366 228 84 96 110 
258 367 228 80 93 108 
259 368 224 118 124 135 
259 368 225 107 116 129 
259 369 224 129 132 141 
259 369 225 119 125 135 
258 368 227 84 96 110 
259 368 226 97 108 122 
259 368 227 91 102 116 
259 369 226 108 116 127 
259 369 227 97 106 118 
259 370 224 134 135 142 
259 370 225 132 134 142 
259 371 224 136 136 142 
259 370 226 118 124 135 
259 370 227 106 114 127 
259 371 227 114 121 134 
257 368 229 79 91 104 
257 369 229 79 91 104 
256 368 230 80 90 103 
256 368 231 75 87 101 
256 369 230 83 93 106 
256 369 231 80 91 105 
257 368 230 84 94 106 
257 368 231 73 87 101 
257 369 230 81 92 105 
257 370 229 79 91 106 
257 371 229 83 92 105 
256 370 230 82 92 105 
256 370 231 81 93 108 
256 371 230 78 89 102 
256 371 231 80 92 107 
257 370 230 79 91 104 
257 371 230 79 89 101 
258 368 228 82 94 108 
258 369 228 84 96 110 
258 369 229 82 94 108 
258 370 228 88 100 115 
258 370 229 82 94 109 
258 371 229 82 94 108 
259 370 228 95 106 120 
259 371 228 97 107 121 
257 372 229 75 86 99 
257 373 229 72 84 98 
256 372 230 69 83 98 
256 372 231 76 90 105 
256 373 230 67 83 99 
256 373 231 72 87 104 
257 372 230 73 85 98 
257 373 230 69 83 98 
256 374 230 64 81 99 
256 374 231 70 86 102 
256 375 230 71 85 101 
256 375 231 71 85 101 
257 374 230 69 84 99 
257 375 230 78 89 103 
258 372 229 81 92 105 
258 373 229 73 85 99 
259 372 228 93 104 118 
259 372 229 85 96 110 
259 373 228 85 98 114 
259 373 229 80 92 107 
258 374 229 80 90 103 
258 375 229 91 98 108 
259 374 229 87 97 109 
259 375 229 98 104 113 
258 374 230 82 91 104 
258 375 230 83 92 105 
260 370 225 132 134 142 
260 371 224 136 137 143 
260 371 225 134 136 143 
260 370 226 128 132 140 
260 371 226 129 133 142 
260 371 227 114 122 133 
260 372 224 136 139 146 
260 372 225 129 132 141 
260 373 224 131 137 148 
260 373 225 119 127 139 
260 372 226 124 129 139 
260 372 227 110 118 130 
260 373 226 112 121 135 
260 373 227 104 114 128 
260 374 224 121 130 143 
261 374 224 110 121 136 
261 374 225 96 110 127 
261 375 224 116 126 139 
261 375 225 113 122 136 
260 374 227 101 112 128 
261 374 226 99 112 128 
261 374 227 105 116 130 
261 375 226 103 114 128 
261 375 227 111 120 133 
260 372 228 94 106 120 
260 373 228 92 105 120 
260 374 228 96 107 121 
260 375 228 104 113 124 
260 375 229 99 105 115 
257 368 232 75 89 103 
257 369 232 76 90 105 
256 370 232 79 93 108 
256 371 232 83 95 110 
257 370 232 79 92 107 
257 371 232 86 97 112 
257 371 233 85 97 111 
256 372 232 83 95 110 
256 372 233 82 95 109 
256 373 232 81 94 109 
256 373 233 83 96 111 
257 372 233 77 91 106 
257 373 233 78 92 107 
256 374 232 79 92 108 
256 374 233 80 93 109 
256 375 232 76 89 106 
256 375 233 81 92 108 
257 374 233 81 94 109 
257 375 233 81 91 107 
258 373 233 72 87 103 
258 374 233 80 92 108 
256 376 231 77 88 103 
256 377 231 82 92 106 
257 376 230 90 97 108 
257 376 231 88 96 108 
257 377 230 84 94 106 
257 377 231 80 91 105 
256 378 231 89 98 111 
257 378 230 91 99 110 
257 378 231 93 101 112 
257 379 231 103 109 118 
259 376 229 100 105 114 
259 377 229 98 104 113 
258 376 230 95 101 110 
258 377 230 90 97 108 
259 377 230 93 100 110 
259 378 229 96 103 113 
258 378 230 89 96 107 
258 379 230 94 99 108 
258 379 231 98 104 113 
259 378 230 88 96 107 
259 379 230 89 96 106 
257 380 231 111 113 121 
257 381 231 102 108 118 
257 382 231 95 105 118 
257 383 231 85 96 111 
258 380 230 99 103 110 
258 380 231 104 108 116 
258 381 230 97 103 113 
258 381 231 97 103 113 
259 380 230 92 98 108 
259 381 230 89 96 107 
258 382 231 88 97 110 
258 383 231 75 89 105 
259 382 230 82 91 103 
259 383 230 70 83 96 
259 383 231 74 86 101 
261 376 224 137 142 152 
261 376 225 143 146 155 
261 377 224 145 147 156 
261 377 225 151 151 157 
261 376 226 125 130 141 
261 376 227 115 122 134 
261 377 226 140 142 150 
261 377 227 119 126 137 
261 378 224 140 144 153 
261 378 225 151 150 155 
261 378 226 145 146 152 
261 378 227 123 128 139 
261 379 227 130 133 142 
262 378 224 145 145 152 
262 378 225 152 150 155 
262 379 224 138 141 149 
262 379 225 151 150 154 
262 378 226 153 152 157 
262 379 226 154 152 156 
262 379 227 130 133 142 
260 376 228 104 111 122 
260 376 229 101 108 118 
260 377 228 108 115 128 
260 377 229 102 108 119 
261 376 228 114 121 133 
261 377 228 114 122 134 
260 378 228 104 112 124 
260 378 229 98 106 117 
260 379 229 93 101 112 
261 378 228 108 117 130 
261 379 228 103 112 125 
261 379 229 97 106 119 
262 380 224 127 135 148 
262 380 225 149 150 158 
262 381 224 108 123 141 
262 381 225 136 143 156 
262 380 226 153 152 157 
262 380 227 142 143 150 
262 381 226 150 153 161 
262 381 227 145 146 153 
262 382 224 86 108 130 
262 382 225 102 119 139 
262 383 224 95 112 133 
263 383 224 95 114 137 
263 383 225 90 111 135 
262 382 226 128 138 152 
262 382 227 137 142 153 
262 383 227 120 130 144 
263 383 226 99 116 136 
263 383 227 106 120 138 
260 380 229 90 99 110 
260 381 229 82 92 104 
261 380 228 102 112 125 
261 380 229 96 105 118 
261 381 228 100 110 124 
261 381 229 92 102 114 
260 380 230 86 94 105 
260 381 230 84 93 104 
260 382 229 83 93 106 
261 382 228 106 116 129 
261 382 229 92 103 117 
261 383 229 80 95 111 
260 382 230 78 89 101 
260 383 230 69 83 97 
262 380 228 114 121 132 
262 381 228 116 123 134 
262 382 228 121 129 141 
262 383 228 107 119 135 
262 383 229 83 99 116 
256 376 232 75 86 102 
256 376 233 78 88 105 
256 377 232 80 90 105 
256 377 233 81 92 107 
257 376 233 81 91 107 
257 377 233 76 89 105 
257 376 234 79 90 106 
256 378 232 87 96 108 
257 378 232 95 103 114 
257 378 233 82 95 110 
257 379 232 108 112 122 
257 379 233 91 100 113 
257 379 234 76 90 105 
258 377 233 78 90 106 
258 376 234 79 90 106 
258 377 234 79 91 106 
258 378 233 75 89 105 
258 378 234 74 88 104 
258 379 234 73 88 104 
259 379 234 70 85 101 
256 380 232 110 114 123 
256 380 233 110 115 125 
256 381 232 103 110 121 
256 381 233 105 112 124 
257 380 232 114 117 124 
257 380 233 107 112 121 
257 381 232 99 107 119 
257 381 233 106 113 125 
257 380 234 90 100 113 
257 381 234 102 110 122 
256 382 232 101 110 122 
256 382 233 101 110 122 
256 383 233 100 108 120 
257 382 232 96 105 118 
257 383 232 93 101 114 
256 382 234 99 108 121 
256 383 234 102 110 122 
257 382 234 100 109 121 
257 382 235 99 107 118 
257 383 234 103 111 121 
257 383 235 100 108 118 
258 380 234 80 91 106 
258 380 235 76 89 104 
258 381 234 92 100 113 
258 381 235 89 100 113 
259 380 234 74 88 104 
259 381 235 73 88 103 
258 382 235 98 106 117 
258 383 235 101 108 117 
259 382 235 92 102 114 
259 383 235 96 103 113 
256 384 212 88 109 133 
256 384 213 92 112 134 
256 385 212 86 110 134 
257 384 213 93 112 133 
257 385 213 88 110 133 
257 384 214 94 113 133 
257 385 214 92 112 133 
256 386 212 83 108 134 
256 387 212 74 103 131 
257 386 213 85 109 133 
257 387 213 79 106 132 
257 386 214 88 110 134 
258 384 214 94 112 132 
258 385 214 92 111 133 
259 384 215 95 112 132 
259 385 215 94 111 133 
258 386 214 87 109 133 
258 387 214 80 106 132 
259 386 215 89 110 133 
259 387 215 79 105 132 
256 388 212 60 97 126 
256 389 212 73 106 135 
257 388 212 55 94 125 
257 388 213 62 97 127 
257 389 212 67 102 133 
257 389 213 60 99 130 
256 390 212 86 116 143 
256 391 212 88 118 146 
257 390 212 79 111 140 
257 390 213 73 108 136 
257 391 212 87 117 143 
257 391 213 81 112 139 
258 388 214 65 98 127 
258 389 214 64 100 130 
259 388 214 62 97 127 
259 388 215 67 99 128 
259 389 214 62 98 129 
259 389 215 60 97 127 
258 390 213 73 108 138 
258 391 213 74 108 137 
258 390 214 73 108 137 
258 391 214 77 111 140 
259 390 214 75 108 136 
259 390 215 71 105 134 
259 391 214 81 114 142 
259 391 215 81 114 142 
260 388 215 64 98 127 
260 389 215 61 98 127 
260 390 215 72 105 134 
260 391 215 79 112 140 
259 384 216 93 110 130 
260 384 216 92 109 129 
260 384 217 87 105 127 
260 385 216 93 110 131 
260 385 217 92 109 129 
261 385 217 89 107 127 
261 384 218 83 103 126 
261 384 219 81 103 128 
261 385 218 89 107 127 
261 385 219 91 109 129 
260 386 216 90 111 133 
260 386 217 91 109 130 
260 387 216 79 105 131 
261 386 217 90 109 130 
261 387 217 83 107 131 
261 386 218 90 108 129 
261 387 218 87 109 132 
262 384 219 83 106 131 
262 385 219 93 111 132 
262 386 219 93 110 130 
262 387 218 89 109 132 
262 387 219 92 111 132 
263 387 219 92 111 133 
262 384 220 77 102 128 
262 384 221 74 100 126 
262 385 220 91 110 132 
262 385 221 90 110 132 
263 385 221 88 109 132 
262 384 222 83 105 130 
262 384 223 92 112 135 
263 384 222 84 106 131 
263 384 223 92 112 135 
263 385 222 87 109 133 
263 385 223 91 112 134 
262 386 220 93 110 130 
263 386 220 93 110 129 
263 386 221 94 112 132 
263 387 220 92 111 132 
263 387 221 89 108 130 
263 386 222 92 111 133 
263 386 223 95 114 135 
263 387 222 93 112 134 
263 387 223 95 114 136 
260 388 216 63 96 125 
260 389 216 57 94 124 
261 388 217 70 100 128 
261 389 216 55 93 123 
261 389 217 55 92 121 
260 390 216 72 104 132 
260 391 216 82 113 140 
261 390 216 73 104 132 
261 390 217 60 96 125 
261 391 216 81 111 138 
261 391 217 78 108 135 
262 388 218 76 103 130 
262 388 219 78 104 130 
262 389 218 62 95 124 
263 388 219 79 104 130 
263 389 219 66 97 126 
262 391 217 68 101 129 
262 390 218 54 92 122 
262 391 218 59 95 125 
263 390 218 59 94 123 
263 390 219 62 96 124 
263 391 218 64 98 126 
263 391 219 71 102 129 
263 388 220 77 102 128 
263 388 221 74 101 128 
263 389 220 60 94 123 
263 389 221 60 94 124 
263 388 222 86 108 132 
263 390 220 48 88 118 
263 391 220 60 95 124 
256 392 212 87 118 145 
256 393 212 83 114 142 
257 392 212 90 118 144 
257 392 213 87 116 142 
257 393 212 82 112 139 
257 393 213 83 113 140 
258 392 213 77 110 138 
258 393 213 79 112 140 
258 392 214 76 111 139 
258 393 214 83 116 144 
259 392 214 75 110 139 
259 392 215 78 111 140 
259 393 214 87 118 147 
259 393 215 84 116 144 
260 392 215 79 111 139 
260 393 215 78 110 139 
261 392 216 85 115 142 
261 392 217 85 114 141 
261 393 216 76 109 138 
262 392 217 74 106 135 
262 393 217 78 110 139 
262 392 218 63 98 127 
263 392 218 65 100 128 
263 392 219 75 105 132 
263 393 218 68 101 130 
264 387 223 98 118 139 
264 389 221 59 95 125 
264 388 222 79 106 131 
264 388 223 92 115 140 
264 389 222 64 98 129 
264 389 223 73 106 136 
264 390 220 37 83 115 
264 390 221 48 90 121 
264 391 220 52 91 121 
264 391 221 50 90 121 
264 390 222 51 93 125 
264 390 223 64 102 135 
264 391 222 52 93 124 
264 391 223 51 95 129 
265 391 223 54 98 131 
264 393 219 80 108 134 
264 392 220 69 102 129 
264 392 221 63 99 128 
264 392 222 74 106 134 
265 392 222 80 110 138 
265 392 223 74 109 138 
258 384 231 73 84 101 
259 384 230 63 78 94 
259 384 231 63 76 95 
259 385 231 70 80 97 
259 386 231 75 85 99 
259 387 231 83 94 107 
263 384 224 95 114 136 
263 384 225 94 115 137 
263 385 224 93 115 138 
263 385 225 92 113 138 
262 384 227 99 115 136 
263 384 226 94 114 137 
263 384 227 90 109 133 
263 385 226 88 109 137 
263 385 227 88 108 137 
263 386 224 100 119 141 
263 386 225 97 117 140 
263 386 226 92 112 139 
263 386 227 87 107 136 
263 387 227 89 110 135 
261 384 229 61 83 104 
260 384 230 62 78 94 
260 385 230 70 83 99 
260 385 231 69 81 99 
261 384 230 66 83 102 
261 385 230 67 81 100 
260 386 231 75 86 102 
260 387 231 82 93 107 
261 386 230 70 84 101 
261 387 230 66 83 101 
261 387 231 76 89 105 
262 384 228 86 105 127 
262 384 229 68 90 113 
262 385 229 65 87 112 
263 384 228 81 102 128 
263 385 228 83 104 130 
263 385 229 78 98 124 
262 385 230 58 80 105 
262 386 229 65 86 110 
263 386 228 85 104 131 
263 386 229 76 96 121 
263 387 228 86 106 132 
263 387 229 76 96 120 
262 386 230 61 80 101 
262 387 230 65 85 105 
260 388 231 88 99 113 
261 388 231 80 94 109 
261 389 231 80 95 111 
261 390 231 78 93 109 
263 388 228 89 109 133 
263 388 229 82 102 127 
263 389 229 84 104 130 
262 388 230 66 87 107 
262 388 231 67 85 103 
262 389 231 65 86 105 
263 388 230 69 92 115 
263 389 230 71 94 117 
262 390 231 65 85 105 
263 390 230 74 97 121 
257 384 232 91 99 111 
257 384 233 109 114 123 
257 385 232 96 103 114 
257 385 233 110 114 123 
257 384 234 111 116 125 
257 384 235 111 116 124 
257 385 234 117 119 126 
257 385 235 116 118 125 
257 386 233 102 107 117 
257 387 233 89 98 110 
257 386 234 110 114 122 
257 386 235 115 118 125 
257 387 234 95 103 114 
257 387 235 100 107 118 
258 384 232 79 88 102 
258 385 232 82 90 103 
258 384 235 108 112 120 
258 385 235 112 114 121 
259 384 235 102 107 115 
259 385 235 108 111 117 
258 386 232 85 94 105 
258 387 232 84 94 105 
258 387 233 83 93 105 
259 386 232 74 85 100 
259 387 232 86 96 109 
258 386 235 112 114 120 
258 387 235 108 112 121 
259 385 236 104 108 116 
259 386 236 107 110 116 
259 387 236 106 108 115 
257 388 234 80 93 107 
258 388 233 80 92 105 
258 389 233 86 98 113 
259 388 232 96 105 116 
259 389 232 103 110 121 
259 389 233 101 110 122 
258 388 234 64 82 99 
258 388 235 75 90 106 
259 388 236 92 99 109 
260 384 235 91 100 110 
260 386 236 99 104 112 
260 387 236 95 100 107 
260 388 232 95 105 118 
260 389 232 99 108 120 
261 389 232 88 100 114 
260 388 236 87 94 104 
260 388 237 86 94 104 
264 386 225 101 120 142 
264 387 224 101 121 143 
264 387 225 103 122 144 
264 386 226 99 118 141 
264 387 226 102 121 144 
264 387 227 98 117 142 
264 388 224 98 122 147 
264 388 225 102 124 147 
264 389 224 78 112 142 
264 389 225 82 114 144 
264 388 226 104 124 146 
264 388 227 101 121 144 
264 389 226 95 120 146 
264 389 227 102 124 148 
264 390 224 66 107 141 
264 390 225 70 108 141 
265 390 225 64 106 141 
265 391 224 56 103 139 
265 391 225 59 104 140 
264 390 226 78 111 142 
264 390 227 97 121 148 
265 390 226 69 106 138 
265 390 227 84 113 143 
265 391 226 64 104 138 
265 391 227 68 104 138 
264 388 228 95 115 139 
264 389 228 97 118 142 
264 389 229 91 111 137 
264 390 228 95 118 145 
264 390 229 90 111 139 
265 391 228 79 107 140 
265 391 229 77 104 137 
264 390 230 81 104 130 
265 392 224 51 102 137 
265 392 225 38 97 135 
266 399 221 84 115 142 
263 403 217 63 100 133 
262 405 216 70 99 130 
263 404 217 52 90 126 
263 405 217 55 92 127 
263 404 218 50 91 128 
263 405 218 56 95 131 
262 406 217 81 109 138 
262 407 217 92 118 146 
263 406 217 75 106 137 
263 406 218 82 111 140 
263 407 218 104 125 150 
259 414 218 144 152 203 
259 415 218 151 160 200 
259 415 219 156 159 202 
261 408 216 124 144 166 
261 408 217 116 137 161 
261 409 217 119 137 158 
260 411 217 125 147 177 
261 410 217 128 143 164 
261 411 217 137 151 172 
261 411 218 149 163 183 
262 408 217 95 121 149 
262 409 217 108 128 152 
262 408 218 98 121 150 
262 409 218 106 126 154 
263 408 218 109 129 153 
263 408 219 121 137 158 
263 409 218 110 129 154 
263 409 219 117 135 156 
262 410 218 116 132 158 
262 411 218 114 134 163 
263 410 218 106 127 158 
263 410 219 116 134 157 
263 411 218 107 128 157 
263 411 219 113 133 158 
260 412 218 135 158 191 
260 413 218 142 160 202 
261 412 218 168 180 202 
261 413 218 149 166 201 
260 414 218 152 166 206 
260 415 218 160 167 206 
260 415 219 160 166 204 
261 414 218 144 160 201 
261 415 219 136 148 196 
262 412 218 113 137 167 
262 413 218 108 133 174 
263 412 218 108 131 162 
263 412 219 115 137 164 
263 413 218 109 136 179 
263 413 219 119 142 173 
262 414 218 107 132 182 
262 415 219 110 129 182 
263 414 219 104 132 176 
263 415 219 99 125 169 
265 400 219 85 111 136 
265 401 219 89 114 138 
264 402 218 84 114 142 
264 402 219 86 114 140 
264 403 218 74 108 138 
264 403 219 78 108 138 
265 402 219 85 112 138 
265 403 219 82 111 138 
265 401 220 112 133 155 
265 402 220 104 127 151 
265 403 220 89 116 143 
266 400 221 98 122 146 
266 401 221 103 125 148 
266 400 222 94 119 144 
266 400 223 93 120 146 
266 401 222 96 120 143 
266 401 223 100 124 148 
267 400 223 79 110 138 
267 401 223 89 118 143 
266 402 221 99 123 148 
266 403 220 92 118 144 
266 403 221 90 117 144 
266 402 222 96 120 144 
266 403 222 83 112 139 
267 402 223 100 125 150 
267 403 222 89 115 142 
267 403 223 89 118 146 
264 404 218 57 96 130 
264 404 219 61 97 130 
264 405 219 62 97 132 
265 404 219 59 95 127 
265 405 219 55 93 126 
264 406 219 72 104 136 
264 407 219 97 120 145 
265 406 219 60 96 128 
265 404 220 62 97 128 
265 405 220 41 85 119 
265 406 220 67 99 128 
265 407 220 95 116 140 
266 404 220 65 100 130 
266 404 221 64 100 132 
266 405 220 39 85 119 
266 405 221 38 87 122 
266 404 222 76 107 136 
267 404 222 62 97 129 
267 404 223 71 105 136 
267 405 222 29 79 116 
267 405 223 45 86 120 
266 406 220 68 99 127 
266 406 221 62 98 130 
266 407 220 94 115 138 
266 407 221 94 117 142 
267 406 222 62 98 130 
267 406 223 68 100 130 
267 407 222 75 107 137 
267 407 223 86 113 141 
268 405 223 58 92 126 
268 406 223 68 97 129 
268 407 223 83 110 138 
264 408 219 113 130 151 
264 409 219 115 132 153 
264 410 219 115 132 154 
264 411 219 119 135 156 
265 408 220 118 132 151 
265 409 220 117 130 148 
265 410 220 115 128 146 
265 411 220 116 128 146 
266 408 221 122 136 154 
266 409 221 140 148 162 
267 409 221 113 126 143 
267 408 222 102 124 147 
267 408 223 119 137 158 
267 409 222 110 125 142 
267 409 223 140 151 168 
266 410 221 134 142 156 
266 411 221 133 142 157 
267 410 222 106 121 139 
267 410 223 139 150 166 
267 411 222 102 121 142 
264 412 219 126 143 166 
264 413 219 123 141 164 
264 414 219 117 140 169 
264 415 219 97 126 164 
265 412 220 116 129 147 
265 413 220 116 132 151 
264 415 220 106 132 166 
265 414 220 115 133 156 
265 415 220 106 129 159 
266 412 221 136 145 159 
266 413 221 138 149 164 
267 412 222 98 120 144 
267 413 222 103 124 149 
266 414 221 133 148 169 
266 415 221 114 137 167 
267 414 222 107 129 154 
267 415 222 97 125 156 
267 415 223 97 122 149 
268 408 223 89 115 141 
268 409 223 110 129 150 
268 410 223 120 135 154 
268 411 222 124 140 160 
268 411 223 117 133 153 
268 412 222 118 135 157 
268 412 223 119 136 157 
268 413 222 111 131 155 
268 413 223 121 136 157 
268 414 222 114 132 155 
268 414 223 125 138 156 
268 415 223 123 138 159 
267 399 224 63 100 129 
267 399 225 55 94 127 
267 400 224 79 110 137 
267 400 225 91 119 144 
267 401 224 84 113 139 
267 401 225 107 130 154 
267 400 226 84 116 144 
267 401 226 100 128 155 
267 401 227 65 106 140 
267 402 224 81 112 139 
267 402 225 99 125 149 
267 403 224 76 110 138 
267 403 225 94 121 147 
267 402 226 98 126 152 
267 402 227 72 110 142 
267 402 229 84 118 149 
267 404 224 67 104 136 
268 403 225 91 119 145 
268 402 227 61 104 137 
268 403 226 86 117 145 
268 403 227 60 102 136 
268 402 228 69 107 141 
268 402 229 86 118 150 
268 403 228 71 107 140 
268 403 229 91 122 151 
268 402 230 82 119 149 
268 403 230 88 121 150 
268 403 231 75 113 143 
268 404 224 73 105 135 
268 404 225 81 112 140 
268 405 224 63 93 125 
268 405 225 47 84 117 
268 404 226 79 113 143 
268 404 227 55 96 133 
268 405 226 53 92 127 
268 405 227 51 91 133 
269 405 227 47 84 134 
268 406 224 71 96 127 
268 406 225 64 93 122 
268 407 224 77 103 129 
269 406 225 79 106 132 
269 407 225 83 108 133 
269 406 226 62 99 131 
269 406 227 57 95 136 
269 407 226 79 110 137 
269 407 227 61 100 138 
268 404 228 65 99 136 
268 404 229 86 118 149 
268 405 228 52 87 133 
269 405 228 47 82 132 
269 405 229 60 97 135 
268 404 230 82 116 146 
268 404 231 72 108 140 
268 405 230 66 99 134 
268 405 231 59 96 132 
269 405 230 49 91 129 
269 405 231 45 85 126 
269 406 228 48 84 133 
269 406 229 57 98 137 
269 407 228 44 85 135 
269 407 229 64 101 141 
269 406 230 52 95 132 
269 406 231 39 84 124 
269 407 230 71 106 141 
269 407 231 57 98 135 
267 404 232 70 109 142 
267 405 233 52 92 126 
267 406 233 43 83 121 
267 406 234 32 75 113 
267 407 234 29 71 111 
267 407 235 31 67 105 
268 404 232 71 109 142 
268 405 232 59 100 135 
268 406 232 45 87 128 
268 406 233 49 88 128 
268 407 232 37 79 124 
268 407 233 43 82 127 
269 407 232 44 87 127 
268 408 224 75 105 132 
268 409 224 87 112 135 
269 408 224 96 117 140 
269 408 225 90 115 139 
269 409 224 115 131 151 
269 409 225 109 128 150 
269 408 226 79 108 142 
269 408 227 58 97 140 
269 409 226 83 114 144 
269 409 227 59 97 138 
269 410 224 101 121 142 
269 410 225 112 132 154 
269 411 224 98 120 142 
269 411 225 110 131 153 
269 410 226 90 119 147 
269 410 227 61 100 139 
269 411 226 100 125 152 
270 410 227 48 91 135 
270 411 226 91 120 148 
270 411 227 54 95 137 
269 408 228 39 83 130 
269 408 229 67 100 140 
269 409 228 34 81 128 
269 408 230 72 104 137 
269 408 231 73 105 138 
269 409 231 102 123 148 
270 409 228 49 89 132 
270 409 229 93 116 148 
270 409 230 109 128 150 
270 409 231 116 132 153 
270 410 228 41 83 127 
270 410 229 93 114 145 
270 411 228 36 77 123 
270 411 229 90 110 141 
270 410 230 114 130 149 
270 410 231 109 126 145 
270 411 230 110 128 148 
270 411 231 114 129 146 
269 412 224 102 124 147 
269 412 225 109 131 154 
269 413 224 104 126 149 
269 413 225 110 132 156 
269 412 226 105 129 154 
269 414 224 111 129 150 
269 414 225 108 130 152 
269 415 224 116 134 155 
269 415 225 102 125 147 
270 412 226 87 118 145 
270 412 227 52 94 135 
270 413 226 90 119 146 
270 413 227 53 93 134 
270 414 225 123 140 161 
270 415 225 128 144 165 
270 414 226 96 122 146 
270 414 227 55 94 135 
270 415 226 104 127 150 
270 415 227 68 103 140 
271 415 227 55 93 140 
270 412 228 25 73 124 
270 412 229 78 99 136 
270 413 228 34 77 129 
270 413 229 63 91 135 
271 413 229 52 82 133 
270 412 230 111 129 151 
270 412 231 113 129 147 
271 413 230 101 123 150 
271 413 231 110 128 148 
270 414 228 41 80 133 
271 414 228 33 75 131 
271 414 229 52 83 133 
271 415 228 42 82 134 
271 415 229 44 81 131 
271 414 230 97 121 149 
271 414 231 107 125 147 
271 415 230 94 120 147 
271 415 231 107 126 146 
267 408 235 28 69 106 
267 409 235 36 75 111 
267 409 236 38 75 110 
266 410 237 55 85 112 
266 411 237 59 85 110 
267 410 236 36 76 113 
267 411 236 30 76 115 
267 411 237 42 79 112 
266 411 238 56 84 107 
267 412 237 46 81 112 
267 413 237 45 80 113 
266 412 238 60 86 110 
266 412 239 76 96 115 
266 413 238 71 93 115 
266 413 239 83 101 120 
267 413 238 62 89 115 
267 414 238 66 91 117 
267 415 239 72 94 116 
268 408 233 44 85 129 
269 408 232 66 101 135 
269 409 232 93 120 146 
269 409 233 74 107 140 
268 408 234 33 76 117 
268 409 234 37 81 120 
269 410 232 103 125 148 
269 410 233 93 119 146 
269 411 233 93 119 144 
268 410 235 38 81 117 
268 411 235 33 79 117 
269 411 234 75 107 137 
270 410 232 111 130 152 
270 411 232 112 130 152 
269 413 235 63 97 128 
270 412 232 108 128 151 
270 412 233 105 126 148 
270 413 232 109 130 154 
270 413 233 101 124 149 
271 413 232 107 127 149 
271 414 232 105 124 147 
271 415 232 98 120 145 
271 415 233 97 125 154 
270 414 234 100 123 148 
268 412 236 35 79 120 
268 413 236 42 81 121 
268 414 237 44 80 118 
269 415 236 56 92 127 
266 414 240 77 95 112 
259 416 219 156 165 204 
259 416 220 131 147 200 
259 417 220 115 143 199 
258 418 221 136 164 211 
259 418 220 88 132 194 
259 418 221 132 165 217 
258 419 222 139 171 213 
259 418 222 151 181 223 
259 419 222 171 194 230 
259 419 223 172 193 225 
260 416 219 160 170 205 
260 417 219 165 176 213 
261 416 219 131 145 193 
261 417 219 135 147 197 
262 416 219 114 130 184 
262 417 219 119 135 188 
263 416 219 105 125 178 
263 417 219 109 127 184 
260 417 220 141 159 205 
261 417 220 142 153 206 
260 418 220 107 136 193 
260 418 221 122 150 202 
260 419 221 138 163 209 
261 418 220 109 129 198 
261 419 221 137 156 211 
260 419 222 159 179 217 
262 417 220 138 151 200 
263 416 220 101 123 182 
263 417 220 118 139 191 
262 418 220 133 151 202 
262 419 221 131 154 204 
263 418 220 127 151 199 
263 419 221 117 141 195 
264 416 220 98 124 175 
264 417 220 118 141 185 
265 416 220 94 119 162 
265 416 221 89 114 162 
265 417 221 108 130 173 
264 418 220 127 151 195 
264 418 221 149 170 211 
264 419 221 130 152 201 
265 418 221 121 146 185 
265 419 221 128 151 199 
266 416 221 83 113 159 
266 417 221 91 114 162 
267 416 222 71 108 149 
267 416 223 75 108 143 
267 417 222 71 103 151 
267 417 223 63 96 141 
266 418 221 115 135 175 
266 418 222 109 131 171 
266 419 222 138 157 196 
267 418 222 91 117 159 
267 418 223 76 106 147 
267 419 222 105 129 169 
267 419 223 87 116 157 
268 416 223 105 126 153 
268 417 223 68 99 138 
268 418 223 68 97 141 
268 419 223 74 106 146 
269 416 224 102 126 153 
269 416 225 96 121 145 
269 417 224 66 102 142 
269 418 224 63 96 144 
269 419 224 67 100 143 
270 416 225 109 132 155 
270 417 225 83 116 146 
270 416 226 99 125 152 
270 416 227 73 107 144 
270 417 226 92 122 151 
270 417 227 70 108 144 
271 416 227 64 98 145 
271 417 227 58 97 144 
270 418 225 84 116 150 
270 419 225 88 115 149 
270 418 226 95 124 154 
270 418 227 83 117 151 
270 419 226 103 127 157 
271 418 227 79 111 153 
271 419 227 89 119 156 
271 416 228 56 90 139 
271 416 229 35 79 128 
271 417 228 46 84 136 
271 417 229 25 78 126 
271 416 230 93 119 147 
271 416 231 108 126 147 
271 417 230 80 112 141 
271 417 231 118 135 155 
271 418 228 42 83 136 
271 418 229 19 76 129 
271 419 228 50 87 140 
271 419 229 40 83 135 
271 416 232 90 116 144 
271 416 233 96 126 155 
271 417 233 89 123 155 
270 416 235 77 111 142 
271 417 234 87 120 149 
268 416 238 54 84 118 
272 417 230 98 124 148 
272 417 231 110 130 151 
272 419 229 33 78 132 
272 418 230 58 97 135 
272 418 231 104 127 153 
272 419 230 41 85 134 
272 419 231 66 101 140 
272 416 232 85 114 142 
272 417 232 82 115 146 
272 418 232 66 107 142 
272 418 233 73 114 150 
272 419 232 35 85 128 
272 419 233 57 101 142 
165 379 203 103 111 122 
166 379 203 107 115 125 
164 379 204 114 118 126 
164 379 205 122 125 131 
165 379 204 106 112 122 
165 380 203 111 115 124 
165 381 203 123 124 129 
165 382 203 128 128 132 
165 383 203 125 126 131 
167 380 201 114 120 129 
167 381 201 122 125 131 
166 380 202 112 117 125 
166 380 203 114 118 125 
166 381 202 121 123 127 
166 381 203 124 124 128 
167 380 202 107 115 126 
167 381 202 123 124 129 
167 382 201 126 128 133 
167 383 201 121 124 132 
166 382 202 125 125 129 
166 383 202 123 124 129 
167 382 202 126 127 131 
167 383 202 126 127 132 
164 380 204 109 115 123 
164 380 205 117 120 128 
164 381 204 109 115 124 
164 381 205 105 112 122 
165 380 204 109 114 123 
165 381 204 116 121 128 
164 382 204 111 118 129 
164 383 204 117 123 132 
165 382 204 118 122 131 
169 381 199 74 92 110 
169 382 199 76 93 110 
169 383 199 91 103 117 
170 381 199 75 90 107 
171 381 198 100 108 121 
171 383 197 108 117 129 
170 382 198 102 110 122 
170 382 199 88 99 114 
170 383 198 105 114 127 
171 382 198 112 119 130 
171 383 198 111 119 131 
174 383 195 75 96 117 
175 383 195 76 97 117 
172 382 197 108 117 129 
172 383 197 100 112 126 
173 382 196 83 100 117 
173 382 197 94 107 122 
173 383 196 85 103 120 
173 383 197 94 108 123 
172 382 198 108 117 129 
174 382 196 83 100 117 
174 382 197 89 104 118 
174 383 196 78 98 117 
168 380 201 111 119 130 
168 381 200 114 119 128 
168 381 201 119 123 131 
169 381 200 96 108 121 
168 382 200 104 110 119 
168 382 201 120 123 130 
168 383 200 101 108 119 
169 382 200 87 98 112 
169 383 200 85 98 111 
176 383 194 69 94 116 
176 383 195 73 96 117 
177 383 194 68 96 119 
178 383 194 66 95 120 
171 399 191 64 92 120 
174 395 191 70 101 127 
175 394 191 76 106 133 
175 395 191 75 104 131 
173 397 191 74 102 128 
172 398 191 68 99 125 
172 399 191 59 92 120 
173 398 191 69 99 126 
173 399 191 66 97 124 
174 396 191 73 102 128 
174 397 191 67 97 123 
175 396 191 77 106 131 
175 397 191 65 94 120 
174 398 191 63 93 119 
174 399 190 66 96 122 
174 399 191 68 97 123 
175 398 190 60 89 115 
175 398 191 59 90 116 
175 399 190 67 95 121 
165 411 191 46 73 109 
166 409 191 74 96 119 
167 408 191 80 102 124 
167 409 191 72 95 119 
166 410 191 54 81 109 
166 411 191 55 79 108 
167 410 191 52 81 109 
167 411 190 63 89 115 
167 411 191 53 82 109 
165 412 191 55 83 110 
167 413 189 111 120 135 
166 412 190 66 87 108 
166 412 191 60 82 109 
166 413 190 76 94 114 
166 413 191 77 99 122 
167 412 190 83 102 123 
167 413 190 95 108 124 
167 414 189 107 116 130 
167 415 189 103 114 128 
166 414 190 96 112 129 
166 415 190 101 115 131 
167 414 190 94 104 117 
167 415 190 96 107 121 
170 401 191 62 96 123 
171 400 191 65 94 121 
171 401 191 70 99 124 
170 402 191 71 102 128 
170 403 191 67 99 126 
171 402 191 87 110 132 
171 403 190 88 111 133 
171 403 191 88 111 133 
169 404 191 70 101 128 
169 405 191 78 106 130 
168 406 191 70 100 125 
168 407 191 72 100 124 
169 406 191 81 107 130 
169 407 191 77 102 125 
170 404 191 69 100 126 
170 405 190 70 98 125 
170 405 191 72 100 125 
171 404 190 87 110 133 
171 404 191 86 110 133 
171 405 190 84 108 131 
171 407 189 53 84 116 
170 406 190 71 99 124 
170 406 191 82 106 128 
170 407 190 68 97 122 
171 406 190 71 99 124 
171 407 190 56 89 118 
172 400 191 60 93 122 
172 401 190 64 95 123 
172 401 191 63 95 123 
173 400 190 79 107 131 
173 400 191 64 95 122 
173 401 190 82 108 132 
173 403 189 82 105 126 
172 402 190 62 94 123 
172 403 190 69 99 126 
173 402 190 80 105 128 
173 403 190 70 98 123 
175 401 189 74 102 126 
174 400 190 72 101 126 
174 401 190 79 105 129 
175 400 190 71 99 125 
175 401 190 72 100 125 
174 402 189 77 103 128 
174 403 189 78 105 129 
175 402 189 73 100 125 
175 403 189 70 101 126 
174 402 190 84 109 132 
173 404 189 76 102 124 
173 405 189 65 95 121 
172 404 190 75 102 125 
172 405 190 79 103 126 
173 404 190 65 95 121 
173 405 190 69 98 123 
172 406 189 66 94 120 
172 407 189 62 89 119 
173 406 189 50 86 116 
173 407 189 57 88 118 
172 406 190 76 101 125 
174 404 189 72 101 126 
174 405 189 60 93 122 
175 404 189 62 96 124 
175 405 189 51 89 120 
174 406 188 61 96 128 
174 406 189 54 90 122 
174 407 188 62 95 126 
174 407 189 56 91 124 
175 406 188 62 95 125 
175 406 189 55 91 122 
175 407 188 65 98 127 
169 409 189 53 85 114 
168 408 191 80 104 126 
168 409 190 53 88 115 
168 409 191 68 95 119 
169 408 190 57 88 115 
169 408 191 63 91 117 
169 409 190 42 78 109 
169 410 189 54 83 113 
169 411 189 52 83 112 
168 410 190 53 85 114 
168 411 190 61 90 117 
169 410 190 46 79 111 
169 411 190 46 80 110 
170 409 189 57 87 115 
171 408 189 54 86 116 
171 409 189 71 97 121 
170 408 190 55 87 116 
170 409 190 48 81 112 
171 408 190 51 84 115 
170 410 189 69 94 119 
170 411 189 74 98 121 
171 410 189 98 115 133 
171 411 188 119 129 143 
171 411 189 107 121 138 
168 412 189 59 91 119 
168 413 189 83 104 126 
169 412 189 58 90 118 
169 413 188 66 96 125 
169 413 189 61 93 121 
168 412 190 71 96 120 
168 414 189 89 108 129 
168 415 188 82 103 127 
168 415 189 99 115 135 
169 414 188 69 97 125 
169 415 188 66 95 125 
170 412 188 88 108 128 
170 412 189 67 94 119 
170 413 188 76 100 125 
170 413 189 69 96 123 
171 412 188 124 132 145 
171 413 188 123 132 146 
