ply
format ascii 1.0
comment Created by CloudCompare v2.10.1 (Zephyrus)
comment Created 2/3/20 11:47 AM
obj_info Generated by CloudCompare!
element vertex 2048
property float x
property float y
property float z
property uchar red
property uchar green
property uchar blue
end_header
142 764 304 165 130 119 
142 764 305 183 151 137 
142 765 304 170 135 123 
143 764 304 156 132 128 
143 764 305 174 151 147 
143 765 304 167 146 144 
144 765 303 118 113 129 
144 767 301 119 116 122 
145 767 301 96 95 103 
144 766 302 141 136 146 
144 766 303 133 128 141 
144 767 302 133 130 137 
145 766 302 125 123 137 
145 766 303 106 104 121 
145 767 302 113 109 121 
146 766 303 77 75 97 
146 767 302 109 103 110 
147 766 303 59 61 76 
147 767 302 99 98 105 
147 767 303 65 71 82 
148 766 303 54 59 75 
148 767 302 90 97 106 
148 767 303 60 72 85 
149 766 303 46 44 63 
149 767 303 58 61 75 
150 767 303 65 51 54 
151 767 303 133 114 101 
144 758 311 168 155 151 
144 759 310 165 134 115 
145 758 311 179 156 144 
145 759 310 180 144 120 
146 758 311 169 143 125 
146 759 310 180 143 118 
147 758 311 178 152 140 
147 759 310 182 148 128 
148 759 310 178 149 135 
148 759 311 177 155 148 
144 757 312 162 159 169 
144 757 313 145 136 147 
145 757 312 134 121 127 
144 758 312 176 165 167 
146 758 312 147 129 123 
144 761 307 152 121 128 
145 761 307 150 111 120 
144 763 305 119 96 96 
145 763 305 91 60 64 
144 762 307 152 124 129 
144 763 306 134 107 108 
145 762 307 148 118 119 
145 763 306 130 100 100 
146 762 307 171 151 152 
146 763 306 140 122 126 
147 762 307 161 142 152 
147 763 306 140 130 142 
144 760 308 148 103 112 
144 760 309 146 98 93 
144 761 308 156 123 133 
145 760 309 158 111 100 
145 761 308 156 120 129 
146 760 309 152 109 98 
146 761 308 143 101 109 
147 760 309 171 132 109 
147 761 308 158 119 113 
147 761 309 162 122 105 
147 760 310 176 138 112 
144 764 304 137 123 124 
144 764 305 132 116 116 
144 765 304 123 112 122 
145 764 304 105 98 109 
145 764 305 83 60 71 
145 765 304 116 113 127 
146 764 305 94 80 97 
146 765 304 130 131 147 
147 764 305 135 132 151 
147 765 304 102 105 125 
147 764 306 129 126 141 
147 766 304 75 78 94 
148 762 307 147 134 144 
148 763 306 121 122 138 
148 763 307 139 136 150 
149 762 307 159 145 154 
149 763 307 149 142 152 
150 763 307 138 130 136 
151 763 307 113 105 114 
148 760 309 171 137 116 
148 761 308 150 119 111 
148 761 309 168 135 117 
149 760 309 174 148 134 
149 761 309 171 145 136 
148 760 310 164 128 106 
149 760 310 151 128 118 
148 762 308 151 131 138 
149 762 308 132 110 112 
150 761 309 143 124 118 
151 761 309 134 123 124 
150 761 310 122 106 104 
150 762 308 129 114 122 
150 762 309 136 120 120 
151 762 308 155 147 157 
151 762 309 151 142 146 
151 763 308 122 113 128 
148 764 305 110 112 126 
148 765 304 54 49 66 
148 765 305 85 82 100 
149 765 305 76 58 65 
148 764 306 120 122 137 
149 764 306 93 80 89 
148 766 304 47 43 63 
149 766 304 59 41 52 
150 765 305 155 135 122 
151 765 305 194 172 153 
150 764 306 139 124 119 
150 764 307 143 134 134 
150 765 306 171 152 138 
151 764 306 171 159 152 
151 764 307 139 130 129 
151 765 306 192 173 158 
150 766 304 132 110 99 
150 766 305 158 136 121 
150 767 304 111 91 78 
151 766 304 203 182 168 
151 766 305 201 178 159 
151 767 304 195 175 160 
152 762 309 118 106 113 
152 763 308 58 48 71 
152 763 309 87 73 95 
153 763 308 38 28 47 
152 764 307 114 109 113 
152 765 306 197 181 170 
152 765 307 181 171 165 
153 764 307 90 90 98 
153 765 306 195 183 177 
153 765 307 155 149 149 
152 766 305 189 163 143 
152 767 304 211 189 174 
152 767 305 199 177 162 
153 767 305 192 171 157 
152 766 306 197 174 156 
153 766 306 185 168 156 
154 765 307 109 101 106 
155 765 307 61 44 51 
154 767 305 189 169 155 
154 766 306 173 159 152 
154 766 307 159 149 145 
154 767 306 190 174 165 
155 766 307 106 91 86 
155 767 306 185 169 160 
155 767 307 134 119 107 
153 764 308 57 53 68 
154 764 308 51 34 38 
154 765 308 57 41 50 
155 765 308 110 84 73 
156 766 307 125 104 90 
156 767 307 143 124 111 
157 767 307 174 155 145 
91 768 223 167 177 188 
92 768 223 152 165 177 
92 769 223 166 172 185 
93 768 223 132 150 168 
93 769 223 148 164 178 
93 770 223 165 170 179 
94 768 223 106 118 143 
94 769 223 121 145 162 
95 768 222 84 79 125 
95 769 222 85 98 132 
95 769 223 103 124 147 
94 770 223 162 172 182 
94 771 223 178 165 173 
95 770 223 144 164 178 
95 771 223 171 174 184 
95 772 223 170 148 156 
83 768 230 158 85 97 
83 768 231 155 52 51 
84 768 227 234 65 102 
85 768 226 206 19 92 
85 768 227 228 59 93 
86 768 225 188 49 109 
87 768 225 183 117 136 
87 769 225 196 25 74 
86 768 226 209 9 85 
86 768 227 230 47 92 
86 769 227 231 22 60 
87 768 226 209 8 73 
87 769 226 218 3 51 
87 769 227 229 21 60 
87 770 227 223 19 67 
84 768 228 219 49 60 
84 768 229 210 126 139 
85 768 228 216 64 66 
85 768 229 194 104 116 
85 769 228 213 64 76 
85 769 229 199 131 150 
84 768 230 159 85 98 
84 768 231 155 54 58 
84 769 231 165 60 63 
85 769 230 165 61 95 
85 769 231 169 46 57 
86 769 228 214 62 79 
86 769 229 183 124 140 
86 769 230 170 82 115 
86 770 229 175 131 141 
87 770 228 197 65 79 
87 770 229 165 136 142 
87 771 228 159 109 109 
87 771 229 155 138 150 
86 770 230 163 60 93 
86 770 231 170 37 55 
87 770 230 160 71 97 
87 770 231 170 39 54 
87 771 230 153 83 102 
87 771 231 168 37 64 
83 768 232 168 82 81 
83 768 233 140 83 95 
83 768 234 121 118 148 
83 768 235 114 113 151 
82 768 237 154 168 190 
83 768 236 158 168 189 
83 768 237 154 169 191 
83 769 237 157 171 193 
82 768 238 155 169 189 
82 768 239 162 174 191 
83 768 238 156 170 190 
83 768 239 165 176 192 
83 769 238 156 170 190 
83 769 239 165 175 191 
84 768 232 173 81 76 
84 768 233 157 78 98 
84 769 232 177 63 60 
84 769 233 162 52 82 
85 769 232 185 55 60 
85 769 233 176 56 84 
84 768 234 130 100 122 
84 769 234 128 106 127 
84 769 235 112 106 142 
85 769 234 136 93 107 
85 769 235 135 128 147 
85 770 233 184 54 78 
85 770 234 137 78 91 
85 770 235 115 119 141 
86 770 232 186 50 63 
86 770 233 187 54 80 
87 771 232 181 48 69 
87 771 233 188 56 73 
86 770 234 144 58 71 
86 770 235 118 116 139 
86 771 234 135 57 92 
86 771 235 117 107 132 
87 771 234 162 63 85 
87 771 235 115 94 119 
84 769 236 132 141 170 
84 769 237 160 172 192 
84 769 239 159 171 189 
84 770 236 143 151 171 
84 770 237 167 178 197 
85 770 236 116 117 153 
85 770 237 169 178 196 
84 770 238 161 172 192 
84 770 239 163 173 190 
85 770 238 166 177 197 
85 770 239 164 175 193 
85 771 239 166 173 189 
86 770 236 107 101 142 
86 771 236 113 109 147 
86 771 237 152 159 180 
87 771 236 107 104 142 
87 771 237 119 123 156 
86 771 238 175 179 195 
86 771 239 167 175 194 
87 772 236 100 101 144 
87 772 237 135 131 163 
86 772 239 171 178 198 
87 772 238 171 174 190 
87 772 239 172 176 194 
87 773 239 173 176 193 
88 768 224 182 182 180 
88 768 225 179 152 149 
88 769 225 187 57 85 
89 768 224 180 185 184 
89 769 224 185 136 142 
89 769 225 191 45 83 
89 770 225 193 19 60 
88 770 226 206 31 73 
88 770 227 217 24 72 
88 771 227 208 27 49 
89 770 226 186 28 64 
89 771 226 183 27 69 
89 771 227 204 38 60 
90 768 224 171 180 190 
90 769 224 183 141 153 
91 768 224 169 179 190 
91 769 224 179 164 176 
90 770 224 186 53 92 
90 770 225 192 8 66 
90 771 225 185 18 47 
91 770 224 183 94 115 
91 771 224 189 16 64 
91 771 225 194 7 51 
90 771 226 192 46 80 
88 770 228 229 35 67 
88 771 228 188 63 90 
88 771 229 149 139 150 
89 771 228 220 27 68 
88 771 230 151 99 114 
88 771 231 166 36 65 
89 772 227 215 29 57 
91 772 225 199 35 56 
90 772 226 201 32 69 
90 772 227 214 33 68 
91 772 226 208 14 64 
91 772 227 220 44 78 
91 773 226 216 40 67 
91 773 227 216 30 65 
88 772 229 156 149 161 
89 772 228 176 71 94 
89 772 229 145 145 154 
88 772 230 151 121 130 
88 772 231 166 36 60 
89 772 230 147 128 138 
89 772 231 164 41 73 
90 772 228 177 61 87 
90 772 229 143 149 157 
90 773 229 138 147 155 
91 773 228 161 59 89 
91 773 229 134 145 158 
90 772 230 146 152 163 
90 773 230 148 127 144 
90 773 231 163 40 76 
91 773 230 145 147 163 
91 773 231 162 54 87 
91 774 230 147 153 168 
91 774 231 160 67 97 
92 769 224 176 170 180 
92 770 224 179 144 154 
92 771 224 185 47 87 
93 770 224 178 158 165 
93 771 224 181 102 124 
94 771 224 179 138 149 
92 772 224 191 14 58 
92 772 225 198 28 57 
93 772 224 189 16 68 
93 772 225 193 22 52 
93 773 225 186 15 44 
92 773 226 209 16 54 
92 773 227 216 23 61 
93 773 226 201 6 35 
93 774 226 207 16 33 
93 774 227 213 15 54 
94 772 224 181 72 101 
94 773 224 187 0 58 
94 773 225 176 16 27 
95 772 224 175 108 125 
95 773 224 183 19 60 
94 774 225 179 17 41 
95 774 225 176 22 31 
94 774 226 205 35 42 
94 774 227 213 26 48 
94 775 227 193 30 63 
95 774 226 204 45 50 
95 775 226 213 37 55 
95 775 227 200 34 57 
92 773 228 174 27 75 
92 774 228 135 40 90 
92 774 229 128 135 155 
93 774 228 139 29 83 
93 774 229 121 123 147 
93 775 229 100 94 129 
92 774 230 144 151 163 
92 774 231 152 77 101 
93 774 230 142 146 160 
93 774 231 149 91 110 
93 775 231 149 97 118 
94 774 228 181 27 69 
94 775 228 115 29 87 
94 775 229 107 102 134 
95 775 228 123 34 85 
95 775 229 94 68 115 
94 775 230 145 148 163 
94 775 231 151 102 122 
95 775 230 140 132 151 
95 775 231 149 127 139 
88 771 233 185 58 66 
88 771 234 171 66 87 
88 772 232 170 51 74 
88 772 233 184 61 86 
89 772 232 173 70 91 
89 772 233 185 75 102 
89 773 232 200 117 142 
89 773 233 184 71 99 
88 772 234 179 65 87 
88 772 235 115 74 98 
89 772 234 185 58 78 
89 772 235 139 55 68 
89 773 234 184 56 74 
89 773 235 118 60 83 
90 773 232 177 59 98 
90 773 233 180 56 85 
91 773 232 172 38 72 
91 773 233 177 43 76 
90 773 234 184 53 68 
90 773 235 140 55 74 
91 773 234 181 40 62 
91 773 235 148 58 79 
91 774 232 171 31 63 
91 774 233 178 38 70 
91 774 234 182 44 67 
91 774 235 156 55 80 
88 772 236 109 115 152 
88 772 237 109 93 149 
88 773 237 101 80 148 
89 773 236 112 114 146 
89 773 237 98 75 143 
88 773 238 145 150 177 
88 773 239 177 178 194 
89 773 238 124 123 166 
89 773 239 188 187 199 
89 774 238 165 163 185 
89 774 239 186 184 197 
90 773 236 102 94 126 
90 773 237 98 78 139 
90 774 237 102 84 147 
91 774 236 104 69 92 
91 774 237 112 94 131 
91 775 237 118 91 139 
90 774 238 122 103 156 
90 774 239 185 180 192 
90 775 239 181 176 192 
91 775 238 118 79 140 
91 775 239 141 135 166 
92 774 232 170 30 51 
92 774 233 177 30 60 
93 774 232 169 28 56 
93 774 233 173 26 55 
93 775 232 168 29 60 
93 775 233 176 30 61 
92 774 234 185 42 73 
92 774 235 170 50 78 
92 775 235 155 49 71 
93 775 234 183 41 76 
93 775 235 172 47 71 
94 775 232 168 25 61 
94 775 233 172 21 52 
94 775 234 179 42 77 
94 775 235 176 52 71 
92 774 236 117 45 63 
92 775 236 109 50 75 
92 775 237 113 66 113 
93 775 236 124 35 68 
93 775 237 115 49 98 
92 775 238 119 78 131 
92 775 239 94 77 140 
95 776 229 106 80 124 
95 776 230 135 129 151 
95 776 231 154 111 128 
91 776 239 174 171 188 
95 776 232 164 33 64 
95 776 233 169 15 51 
94 776 234 164 31 66 
94 776 235 172 58 71 
95 776 234 161 34 62 
95 776 235 178 69 85 
95 777 235 176 49 64 
93 776 236 130 27 73 
93 776 237 122 51 87 
92 776 238 102 65 123 
92 776 239 137 125 164 
93 776 238 123 86 118 
93 776 239 124 98 151 
93 777 239 120 88 146 
94 776 236 147 37 68 
94 776 237 123 45 75 
94 777 237 120 47 69 
95 776 236 167 48 75 
95 777 236 163 38 64 
95 777 237 124 32 54 
94 777 238 134 77 110 
94 777 239 121 66 134 
95 777 238 137 53 98 
94 778 239 106 75 144 
95 778 238 147 49 104 
95 778 239 125 59 125 
81 768 242 197 91 101 
81 768 243 190 58 95 
82 768 240 183 160 172 
82 768 241 208 110 119 
83 768 240 174 179 191 
83 769 240 187 156 166 
83 769 241 218 108 108 
82 768 242 208 97 103 
82 768 243 203 54 93 
82 769 242 219 99 99 
82 769 243 206 63 86 
83 769 242 220 103 98 
83 769 243 204 70 84 
83 770 241 218 104 98 
83 770 242 219 104 102 
83 770 243 212 88 99 
81 768 245 148 103 111 
81 768 246 154 144 147 
81 768 247 135 143 160 
82 768 244 177 24 72 
82 768 245 143 49 72 
82 769 244 186 31 70 
82 769 245 154 40 69 
82 768 246 157 128 134 
82 768 247 131 132 151 
82 769 246 151 110 118 
82 769 247 133 127 148 
83 770 244 196 56 82 
83 770 245 159 36 67 
83 771 245 175 54 84 
83 770 246 137 84 101 
83 770 247 143 124 142 
83 771 246 131 60 90 
83 771 247 136 111 135 
84 770 240 187 148 158 
84 770 241 213 104 98 
85 770 240 179 161 174 
85 771 240 187 137 150 
85 771 241 210 95 83 
84 770 242 222 108 104 
84 770 243 217 101 108 
84 771 242 216 102 102 
84 771 243 206 92 102 
85 771 242 211 97 96 
85 771 243 195 91 93 
86 771 240 183 143 158 
86 771 241 199 82 78 
84 771 244 193 71 91 
84 771 245 174 52 73 
84 771 246 125 38 75 
84 771 247 129 102 121 
85 772 243 183 96 98 
86 772 240 184 147 162 
86 772 241 203 89 78 
87 772 240 185 158 172 
87 773 240 189 132 149 
87 773 241 200 85 80 
86 772 242 202 93 92 
86 772 243 188 93 94 
86 773 242 205 91 91 
86 773 243 203 87 94 
87 773 242 213 87 86 
87 773 243 213 88 94 
87 774 243 210 79 87 
85 772 244 178 64 78 
85 772 245 176 53 70 
85 773 245 186 54 75 
84 772 246 138 48 76 
84 772 247 123 96 113 
85 772 246 150 48 75 
85 772 247 118 84 97 
85 773 246 159 51 70 
85 773 247 114 68 78 
86 773 244 195 66 78 
86 773 245 186 46 66 
86 773 246 176 46 66 
86 774 244 197 59 75 
86 774 245 191 46 68 
87 774 244 204 56 75 
87 774 245 199 46 73 
87 775 245 198 44 70 
86 774 246 180 52 71 
86 774 247 118 61 74 
86 775 247 122 68 83 
87 775 246 185 50 66 
87 775 247 149 74 87 
81 768 248 177 188 205 
82 768 248 171 181 199 
82 768 249 181 196 217 
82 769 248 151 156 182 
82 769 249 186 199 217 
82 768 250 176 191 213 
82 768 251 166 183 207 
82 769 250 182 196 217 
82 769 251 170 188 211 
83 769 251 172 190 213 
83 770 248 122 116 159 
83 770 249 175 186 207 
83 771 248 107 93 146 
83 771 249 152 160 186 
83 770 250 183 198 218 
83 770 251 174 191 213 
83 771 250 179 193 211 
83 771 251 177 192 212 
82 768 252 164 181 202 
82 768 253 170 185 204 
83 768 253 165 182 203 
83 769 252 158 178 202 
83 769 253 159 177 199 
83 768 254 166 181 200 
83 768 255 171 172 186 
83 769 254 163 178 195 
83 769 255 173 165 178 
83 770 252 163 182 206 
83 770 253 156 175 196 
84 771 248 98 83 145 
84 771 249 118 113 158 
84 771 250 165 178 196 
84 771 251 174 189 209 
84 769 255 173 159 171 
84 770 252 158 179 202 
84 770 253 156 175 196 
84 771 252 167 185 207 
84 771 253 157 176 198 
85 771 253 159 177 199 
84 770 254 161 173 189 
84 770 255 170 145 158 
84 771 254 158 169 186 
84 771 255 166 148 161 
85 771 254 156 162 180 
85 771 255 164 122 140 
84 772 248 110 101 143 
84 772 249 97 75 139 
85 772 248 128 120 148 
85 772 249 100 76 139 
85 773 248 133 122 137 
85 773 249 100 85 136 
84 772 250 147 155 180 
84 772 251 171 186 205 
85 772 250 132 132 167 
85 772 251 166 182 202 
85 773 250 109 98 153 
85 773 251 152 168 192 
86 774 248 122 100 117 
86 774 249 126 120 143 
86 775 248 108 75 100 
86 775 249 135 118 141 
87 775 248 99 63 86 
87 775 249 128 103 124 
86 774 250 95 78 142 
86 774 251 120 128 168 
86 775 250 101 87 144 
86 775 251 122 123 168 
87 775 250 107 91 138 
87 775 251 102 90 150 
85 772 252 171 188 209 
85 772 253 161 179 202 
85 773 252 173 190 210 
85 773 253 163 180 202 
85 772 254 156 161 182 
85 772 255 161 120 141 
86 773 252 168 187 210 
86 773 253 164 182 205 
86 772 255 163 83 113 
86 773 254 162 162 183 
86 773 255 167 102 130 
86 774 252 173 189 209 
86 774 253 172 188 210 
86 775 252 174 190 210 
86 775 253 180 194 213 
87 775 252 157 168 192 
87 775 253 183 195 214 
86 774 254 171 169 188 
86 774 255 174 109 137 
87 774 255 173 69 105 
87 775 254 181 179 197 
87 775 255 177 105 134 
87 776 248 90 50 79 
87 776 249 122 88 108 
87 776 250 107 86 129 
87 776 251 88 63 140 
87 776 252 142 143 175 
87 776 253 180 195 213 
87 776 254 184 183 198 
88 773 240 188 145 160 
88 773 241 188 84 90 
88 774 240 187 146 160 
88 774 241 200 82 85 
89 774 240 188 154 164 
89 774 241 195 76 82 
89 775 241 194 68 84 
88 774 242 215 79 82 
88 774 243 214 74 84 
88 775 243 211 70 82 
89 775 242 216 58 74 
89 775 243 210 66 83 
90 775 240 191 169 175 
90 775 241 193 74 97 
90 775 242 213 68 82 
88 775 244 203 54 73 
88 775 245 197 42 70 
89 775 244 200 50 75 
88 775 246 196 43 72 
89 776 243 192 56 69 
90 776 241 193 83 108 
91 776 240 196 185 190 
91 776 241 198 113 132 
90 776 242 212 56 71 
90 776 243 197 59 74 
90 777 243 190 61 77 
91 776 242 211 52 68 
91 777 242 211 55 67 
91 777 243 205 57 69 
88 776 245 201 50 77 
89 776 244 196 53 78 
89 776 245 198 50 73 
88 776 246 190 41 65 
88 776 247 165 73 88 
89 776 246 193 51 68 
89 777 246 202 66 70 
89 777 247 174 79 90 
90 776 244 196 66 88 
90 777 244 202 73 87 
90 777 245 205 66 78 
91 777 244 204 61 73 
90 777 246 200 58 68 
90 777 247 186 55 79 
90 778 245 201 46 65 
91 778 244 205 49 69 
91 778 245 199 52 69 
90 778 246 198 48 67 
90 778 247 176 54 71 
91 778 246 197 41 61 
91 778 247 192 39 61 
91 779 246 196 40 58 
91 779 247 188 44 65 
92 776 240 192 185 194 
92 777 240 193 192 199 
92 777 241 206 133 147 
93 777 240 167 167 186 
93 777 241 208 154 165 
92 777 242 211 54 76 
92 777 243 212 53 68 
93 778 241 212 156 169 
92 778 243 213 41 66 
93 778 242 205 57 92 
93 778 243 213 43 66 
93 779 243 212 45 64 
94 778 240 139 133 171 
94 778 241 204 168 183 
94 779 241 203 166 173 
95 778 240 121 93 151 
95 779 240 121 93 149 
95 779 241 174 149 167 
94 778 242 198 95 117 
94 779 242 198 98 119 
94 779 243 206 41 72 
95 779 242 197 133 146 
92 778 244 206 42 72 
92 778 245 197 50 64 
92 779 244 196 47 66 
92 779 245 188 49 66 
93 779 244 184 36 51 
93 779 245 183 56 69 
92 779 246 195 49 61 
92 779 247 194 42 66 
94 779 244 191 34 49 
94 780 243 204 25 68 
95 780 242 203 120 138 
95 780 243 203 42 84 
93 780 245 185 63 76 
92 780 247 191 47 70 
93 780 246 202 49 65 
93 780 247 199 52 69 
93 781 247 195 38 66 
94 780 244 189 33 54 
94 780 245 194 52 68 
94 781 245 204 44 66 
95 780 244 206 38 72 
95 781 244 206 26 65 
95 781 245 206 35 60 
94 780 246 205 54 71 
94 781 246 207 48 66 
94 781 247 199 43 61 
95 781 246 209 41 61 
94 782 247 193 26 57 
95 782 246 206 41 58 
95 782 247 196 43 57 
88 776 248 105 70 82 
88 776 249 114 77 98 
88 777 249 101 54 80 
89 777 248 112 66 79 
89 777 249 95 40 72 
88 776 250 101 76 123 
88 776 251 84 53 137 
88 777 250 100 68 116 
88 777 251 76 45 134 
89 777 250 111 75 119 
89 777 251 89 65 132 
89 778 249 95 45 76 
89 778 250 112 78 114 
89 778 251 100 71 125 
90 778 248 124 56 78 
90 778 249 96 51 69 
90 779 248 136 49 73 
90 779 249 98 44 62 
91 779 248 157 47 74 
91 779 249 98 42 54 
90 778 250 103 59 91 
90 779 250 108 52 80 
90 779 251 109 66 113 
91 779 250 123 48 78 
91 779 251 118 57 107 
88 776 252 134 129 167 
88 776 253 178 193 210 
88 777 252 122 108 158 
88 777 253 179 191 206 
89 777 252 92 63 142 
88 776 254 188 189 202 
88 776 255 185 122 144 
88 777 254 190 194 205 
88 777 255 191 135 153 
89 777 254 191 193 203 
89 777 255 196 145 160 
89 778 252 101 79 144 
89 778 253 165 176 192 
89 778 254 193 197 208 
89 778 255 198 145 161 
90 779 252 87 54 133 
90 779 253 148 149 176 
91 779 252 87 44 130 
91 779 253 122 104 156 
90 778 254 190 195 205 
90 778 255 194 156 169 
90 779 254 187 195 206 
90 779 255 198 178 187 
91 779 254 177 187 201 
91 779 255 194 184 193 
91 780 248 134 39 65 
91 780 249 100 43 55 
91 780 250 128 46 77 
91 780 251 131 61 100 
91 780 252 93 39 126 
91 780 253 102 67 144 
91 780 254 145 154 178 
91 780 255 182 185 193 
92 780 248 161 54 76 
92 780 249 106 45 49 
92 781 249 118 31 63 
93 780 248 179 52 81 
93 781 248 166 51 64 
93 781 249 127 38 57 
92 780 250 130 35 71 
92 781 250 131 33 71 
92 781 251 136 61 84 
93 781 250 133 22 66 
93 781 251 144 54 79 
93 782 250 136 16 60 
93 782 251 149 53 85 
94 781 248 178 45 66 
94 782 248 176 40 57 
94 782 249 153 34 63 
95 782 248 181 35 53 
95 782 249 171 50 70 
95 783 248 176 42 59 
95 783 249 165 49 70 
94 782 250 140 16 58 
94 782 251 156 36 79 
94 783 250 140 10 47 
94 783 251 168 36 80 
95 783 250 141 19 43 
95 783 251 174 26 74 
92 781 252 112 49 117 
92 781 253 91 46 135 
92 781 254 121 109 155 
92 781 255 169 173 186 
93 782 252 133 51 109 
93 782 253 98 45 126 
93 782 254 123 77 145 
93 782 255 154 156 173 
94 782 252 154 54 108 
94 783 252 167 39 101 
94 783 253 132 66 110 
95 783 252 178 24 96 
94 783 254 150 108 125 
94 783 255 154 142 145 
95 784 251 188 22 73 
95 784 252 184 26 93 
95 784 253 168 92 100 
95 784 254 203 151 122 
95 784 255 214 173 145 
96 768 222 85 64 121 
96 769 222 57 69 131 
97 768 222 95 83 116 
97 769 222 73 56 111 
96 770 222 92 114 143 
96 770 223 127 147 165 
96 771 223 163 178 190 
97 770 222 70 81 123 
97 771 222 93 119 143 
97 771 223 141 161 177 
98 768 221 91 46 56 
99 768 221 102 35 48 
99 769 221 83 45 61 
98 768 222 92 73 90 
98 769 222 82 68 104 
99 769 222 88 73 88 
98 770 222 73 57 109 
98 771 222 65 80 125 
98 771 223 122 142 163 
99 770 222 97 85 107 
99 771 222 74 63 110 
96 772 223 167 161 169 
97 772 223 163 174 185 
97 773 223 163 146 152 
98 772 223 141 160 176 
98 773 223 158 163 170 
99 772 222 93 96 140 
99 773 223 143 159 175 
98 774 223 161 136 140 
99 774 223 161 163 169 
99 775 223 163 136 138 
100 768 221 137 38 48 
100 769 221 96 41 56 
101 768 221 163 45 50 
101 769 221 113 29 41 
100 770 221 81 39 69 
101 770 221 98 31 61 
101 771 221 106 35 74 
100 770 222 85 58 84 
100 771 222 85 61 94 
101 771 222 101 54 86 
102 768 220 187 19 42 
102 768 221 178 29 41 
102 769 221 154 33 38 
103 768 220 191 17 36 
103 768 221 185 18 34 
103 769 221 176 37 37 
102 770 221 117 21 45 
102 771 221 107 24 51 
103 770 221 148 41 55 
103 771 221 103 22 31 
102 771 222 113 49 76 
100 772 222 75 55 116 
100 773 222 99 101 143 
100 773 223 135 148 168 
101 772 222 94 55 103 
101 773 222 80 57 121 
100 774 223 150 160 175 
100 775 223 162 140 143 
101 774 222 118 120 155 
101 774 223 145 154 173 
101 775 223 163 158 165 
103 772 221 115 38 43 
102 772 222 121 65 86 
102 773 222 112 55 106 
103 772 222 123 47 56 
103 773 222 133 61 91 
102 774 222 93 59 128 
102 775 222 131 116 156 
102 775 223 162 152 166 
103 774 222 113 56 113 
103 775 222 106 74 125 
101 776 223 166 102 99 
102 776 223 172 148 143 
102 777 223 171 105 97 
103 776 222 154 127 138 
103 776 223 169 148 145 
103 777 223 182 149 130 
102 778 223 172 67 82 
103 778 223 174 99 94 
106 768 219 188 43 45 
107 768 219 189 36 52 
107 769 219 197 65 72 
104 768 220 193 17 25 
104 769 220 184 18 28 
104 769 221 178 31 28 
105 768 220 193 33 31 
105 769 220 188 10 29 
104 770 221 168 38 40 
104 771 221 120 22 40 
105 770 220 183 10 18 
105 770 221 174 25 28 
105 771 221 142 31 49 
106 768 220 199 63 67 
106 769 220 192 45 51 
107 769 220 197 50 58 
106 770 220 186 23 34 
106 771 220 174 22 29 
106 771 221 158 24 40 
107 770 220 189 22 32 
107 771 220 177 23 32 
107 771 221 163 16 28 
104 772 221 107 23 43 
104 773 221 119 29 49 
105 772 221 108 14 34 
105 773 221 119 25 55 
104 773 222 127 44 65 
105 774 221 131 32 66 
104 774 222 137 59 97 
104 775 222 129 70 116 
105 774 222 142 54 90 
105 775 222 138 55 96 
106 772 221 130 25 38 
106 773 221 119 11 34 
107 772 221 155 26 34 
107 773 221 138 19 34 
106 774 221 137 28 60 
106 775 221 151 38 75 
107 774 221 137 17 46 
107 775 221 156 37 65 
106 774 222 146 58 82 
106 775 222 149 52 84 
108 768 218 173 93 95 
108 768 219 183 26 48 
108 769 219 194 27 55 
109 768 218 177 78 84 
109 768 219 187 42 58 
109 769 219 194 17 62 
109 770 219 196 12 54 
111 768 217 179 142 130 
110 768 218 177 116 114 
110 769 218 184 68 87 
110 769 219 192 31 67 
111 768 218 181 136 123 
111 769 218 184 101 100 
110 770 219 196 15 59 
110 771 219 194 14 50 
111 770 218 186 57 76 
111 770 219 193 37 67 
111 771 219 193 18 52 
108 769 220 198 27 37 
108 770 220 194 16 40 
108 771 220 179 22 38 
109 770 220 197 15 40 
109 771 220 182 23 39 
110 771 220 185 21 39 
111 772 219 185 22 44 
108 772 220 166 32 38 
108 772 221 160 36 38 
108 773 221 153 32 43 
109 772 220 171 32 34 
109 773 220 168 31 41 
109 773 221 160 34 43 
108 774 221 141 15 35 
108 775 221 159 33 51 
109 774 221 151 18 38 
109 775 221 152 19 38 
110 772 220 178 29 33 
110 773 220 174 26 37 
111 772 220 182 25 41 
111 773 220 179 27 32 
110 774 220 168 22 43 
110 774 221 158 15 43 
110 775 221 146 7 35 
111 774 220 169 23 36 
111 774 221 161 21 43 
111 775 221 152 15 39 
104 776 222 162 135 133 
104 777 222 181 157 136 
104 777 223 186 157 137 
105 776 222 166 133 119 
105 777 222 195 171 138 
104 778 223 182 134 117 
104 779 223 171 82 79 
105 778 222 197 171 137 
105 778 223 191 157 127 
105 779 223 179 116 98 
107 776 221 164 41 46 
106 776 222 165 117 93 
106 777 222 207 176 128 
107 776 222 172 95 68 
107 777 222 194 155 107 
106 778 222 207 175 127 
106 778 223 194 159 120 
106 779 222 205 169 124 
106 779 223 191 146 113 
107 778 222 215 177 116 
107 779 222 213 175 123 
107 779 223 202 164 117 
105 780 223 174 73 67 
106 780 223 179 102 85 
106 781 223 178 69 63 
107 780 223 190 134 100 
107 781 223 181 86 69 
108 776 221 178 63 51 
108 777 221 187 105 50 
109 776 221 178 61 51 
109 777 221 190 85 43 
108 776 222 185 93 64 
108 777 222 191 139 85 
109 778 221 196 113 34 
108 778 222 211 170 107 
108 779 222 223 184 121 
109 778 222 203 152 80 
109 779 222 227 183 113 
110 776 221 165 38 41 
110 777 221 193 83 42 
111 776 221 155 20 33 
111 777 221 186 81 36 
110 778 221 199 122 36 
111 778 221 197 110 33 
111 779 221 201 130 39 
110 778 222 205 145 59 
110 779 222 217 173 103 
111 779 222 208 154 72 
108 780 222 214 176 125 
108 780 223 204 161 114 
108 781 223 186 110 81 
109 780 222 220 181 124 
109 780 223 208 169 118 
109 781 223 196 146 102 
108 782 223 196 96 71 
109 782 223 201 119 90 
110 780 222 227 187 125 
110 781 222 212 174 119 
110 781 223 204 160 109 
111 780 222 221 180 119 
111 781 222 220 185 131 
110 782 223 207 149 108 
110 783 223 204 96 83 
111 782 222 212 177 123 
111 782 223 214 171 127 
111 783 223 213 139 116 
111 784 223 207 114 111 
115 768 215 186 65 73 
116 768 215 189 57 64 
117 768 215 186 46 56 
117 769 215 200 81 59 
118 768 214 160 25 39 
118 768 215 173 36 43 
118 769 215 196 56 45 
119 768 214 151 20 42 
119 768 215 156 21 45 
119 769 215 185 50 40 
112 768 217 186 156 132 
112 769 217 198 159 123 
113 768 216 178 146 121 
113 768 217 203 173 136 
113 769 217 213 176 130 
112 769 218 189 130 107 
113 769 218 200 157 115 
112 770 218 187 80 80 
112 771 218 190 56 69 
112 771 219 191 31 54 
113 770 218 193 121 90 
113 771 218 186 71 66 
113 771 219 185 47 51 
114 768 216 185 125 99 
114 769 216 210 170 111 
114 769 217 221 184 129 
115 768 216 187 98 78 
115 769 216 200 146 87 
115 769 217 215 177 112 
114 770 217 219 178 122 
115 770 217 227 186 117 
115 771 217 223 185 124 
114 770 218 202 145 95 
114 771 218 189 110 77 
114 771 219 176 63 52 
115 771 218 206 155 105 
112 772 219 185 32 42 
113 772 219 179 48 43 
113 773 219 183 55 56 
114 772 219 172 53 47 
114 773 219 184 71 66 
115 772 218 184 103 71 
115 772 219 173 72 44 
115 773 219 184 70 56 
115 774 219 187 52 50 
112 772 220 184 24 43 
112 773 220 181 30 38 
113 773 220 181 40 46 
112 774 220 171 21 30 
112 775 220 160 15 36 
112 775 221 148 11 36 
113 774 220 177 18 36 
113 775 220 164 16 38 
113 775 221 152 19 41 
114 774 220 183 40 50 
114 775 220 171 15 36 
115 774 220 184 42 45 
115 775 220 178 22 36 
116 768 216 192 79 71 
116 769 216 200 124 73 
117 769 216 201 104 61 
116 770 216 211 165 90 
116 770 217 227 185 113 
116 771 217 225 189 127 
117 770 216 206 139 64 
117 770 217 222 175 92 
117 771 217 227 190 124 
116 771 218 217 177 121 
117 771 218 233 194 127 
118 769 216 202 86 44 
118 770 216 209 125 55 
118 770 217 216 159 79 
118 771 217 223 178 106 
119 770 216 207 119 47 
119 771 216 213 151 70 
119 771 217 214 163 86 
116 772 218 196 132 86 
116 773 218 198 122 82 
116 773 219 190 91 67 
117 772 218 215 172 113 
117 773 218 205 142 92 
117 773 219 200 102 76 
116 774 219 193 74 64 
116 775 219 191 50 50 
117 774 219 200 92 70 
117 775 219 196 62 57 
118 772 217 226 191 133 
119 772 217 224 188 124 
118 772 218 225 188 127 
118 773 218 214 168 113 
119 772 218 233 200 136 
119 773 218 221 184 127 
118 774 218 213 157 102 
118 774 219 207 111 71 
118 775 219 199 75 59 
119 774 218 211 160 112 
119 774 219 216 146 99 
119 775 219 203 104 77 
116 775 220 186 47 47 
117 775 220 186 54 46 
112 776 221 143 12 34 
112 777 221 168 60 38 
113 776 220 149 24 41 
113 776 221 137 14 38 
113 777 221 140 32 42 
112 778 221 194 113 39 
112 779 221 201 132 41 
113 778 221 179 103 42 
113 779 221 202 138 51 
114 776 220 150 19 37 
114 777 220 135 23 44 
114 777 221 131 25 48 
115 776 220 161 26 45 
115 777 220 134 31 54 
114 778 221 146 63 52 
114 779 221 186 131 61 
115 778 221 126 46 75 
115 779 221 157 104 82 
112 780 221 205 144 64 
113 780 221 209 153 71 
113 781 221 218 169 101 
112 780 222 212 164 97 
112 781 222 222 185 131 
113 781 222 214 172 114 
112 782 222 211 177 127 
112 783 223 212 166 133 
113 782 222 208 172 121 
113 783 222 198 159 121 
113 783 223 209 166 135 
114 780 221 203 151 72 
114 781 221 207 158 88 
115 780 221 182 135 70 
115 781 221 183 136 66 
114 782 221 197 157 102 
115 782 221 180 139 83 
114 782 222 198 160 110 
114 783 222 185 148 114 
115 782 222 185 151 113 
115 783 222 183 149 117 
118 776 219 193 51 53 
119 776 219 195 51 57 
116 776 220 170 27 32 
116 777 220 147 28 56 
117 776 220 178 36 40 
117 777 220 158 12 45 
116 778 220 125 39 78 
116 779 220 127 65 94 
116 779 221 144 94 91 
117 778 220 133 38 67 
117 779 220 126 56 81 
117 779 221 141 92 91 
118 776 220 183 52 50 
118 777 220 165 29 48 
119 776 220 186 60 63 
119 777 220 170 40 51 
118 778 220 139 32 63 
118 779 220 121 38 71 
118 779 221 133 70 78 
119 778 220 144 50 63 
119 779 220 118 34 63 
116 780 221 165 126 80 
116 781 221 165 125 65 
117 780 221 168 129 98 
117 781 221 156 118 69 
116 782 221 173 141 102 
117 782 221 172 142 109 
117 783 221 171 147 123 
116 782 222 182 153 123 
116 783 222 185 155 125 
117 783 222 177 151 124 
118 780 221 154 96 82 
118 781 221 155 105 61 
119 780 220 129 45 65 
119 780 221 146 75 75 
119 781 221 146 85 65 
118 782 221 157 135 113 
118 783 221 153 139 128 
119 782 221 142 123 108 
119 783 221 116 120 129 
118 783 222 147 134 124 
120 768 214 154 18 47 
120 769 215 169 40 39 
121 768 214 162 29 44 
121 769 214 151 15 52 
121 769 215 147 18 48 
121 770 215 174 64 42 
122 768 214 167 19 36 
122 769 214 155 16 56 
122 769 215 144 18 56 
123 768 214 172 12 34 
123 769 214 158 21 43 
122 770 215 155 57 65 
123 770 214 140 29 67 
123 770 215 136 35 80 
123 771 215 160 92 86 
125 768 213 181 14 46 
124 768 214 177 2 38 
124 769 214 165 17 31 
125 768 214 180 9 42 
125 769 214 172 18 33 
124 770 214 144 24 59 
124 770 215 130 33 80 
124 771 215 147 82 95 
125 770 214 147 20 52 
125 770 215 128 31 85 
125 771 215 139 63 94 
126 768 213 179 29 43 
127 768 213 178 78 65 
126 768 214 183 13 48 
126 769 214 175 21 40 
127 768 214 181 55 62 
127 769 214 175 31 57 
126 770 214 151 28 49 
126 770 215 126 19 70 
126 771 215 124 30 77 
127 770 214 142 39 59 
127 771 215 120 40 84 
125 772 215 174 122 109 
126 772 215 151 75 81 
127 772 215 136 43 74 
127 773 215 138 57 69 
120 770 216 201 112 43 
120 771 216 212 147 64 
120 771 217 212 159 78 
121 770 216 195 116 55 
121 771 216 209 148 62 
122 771 216 200 138 62 
123 771 216 187 134 82 
120 772 217 214 170 102 
120 773 217 227 190 129 
121 772 216 209 157 71 
121 772 217 209 162 84 
121 773 217 212 170 108 
120 773 218 218 183 128 
121 773 218 211 172 118 
120 774 218 204 160 110 
120 775 218 206 156 116 
120 775 219 204 131 103 
121 774 218 196 152 104 
121 775 218 194 148 112 
121 775 219 202 141 121 
122 772 216 205 153 67 
122 772 217 203 151 64 
122 773 217 201 154 90 
123 772 216 190 142 72 
123 773 216 177 132 59 
123 773 217 183 140 77 
122 774 217 192 153 107 
123 774 217 185 150 112 
122 774 218 188 146 100 
122 775 218 181 143 112 
122 775 219 191 142 121 
123 774 218 182 147 111 
123 775 218 180 145 114 
124 772 216 175 129 88 
124 773 216 168 126 68 
124 773 217 175 136 79 
125 772 216 182 138 106 
125 773 216 165 125 75 
124 774 217 182 150 115 
124 775 217 177 147 115 
125 774 217 174 146 116 
125 775 217 159 138 120 
124 775 218 171 140 110 
126 772 216 168 105 89 
126 773 216 159 111 66 
127 773 216 148 89 69 
126 774 216 158 130 101 
126 774 217 158 141 128 
126 775 217 124 121 125 
127 774 216 139 126 123 
127 774 217 143 137 136 
127 775 217 81 101 128 
126 775 218 113 109 117 
120 776 219 194 54 66 
120 777 219 175 64 70 
121 776 219 197 102 103 
121 777 219 177 68 84 
122 776 219 190 139 122 
122 777 219 188 103 108 
123 776 218 177 139 112 
123 776 219 174 136 114 
123 777 219 177 132 114 
122 778 219 178 93 105 
123 778 219 173 134 124 
123 779 219 174 133 126 
120 777 220 167 62 67 
121 777 220 166 65 81 
120 778 220 163 96 93 
120 779 220 127 50 74 
121 778 220 167 85 100 
121 779 220 131 56 78 
122 778 220 166 64 86 
122 779 220 150 62 80 
123 779 220 161 110 111 
120 780 220 115 33 63 
120 780 221 134 57 70 
120 781 220 114 37 44 
120 781 221 129 71 56 
121 780 220 101 28 53 
121 781 220 103 43 48 
121 781 221 109 62 44 
120 782 221 126 114 106 
120 783 221 100 117 140 
121 782 221 114 106 103 
121 783 221 89 114 144 
122 780 220 106 28 55 
122 781 220 96 50 57 
123 780 220 132 80 88 
123 781 220 93 36 45 
122 782 221 101 92 94 
122 783 221 97 124 150 
123 782 220 93 72 70 
123 782 221 87 85 89 
123 783 221 97 119 138 
124 776 218 163 130 106 
124 777 218 158 125 98 
124 777 219 155 126 101 
125 776 218 137 119 113 
125 777 218 128 116 112 
124 778 219 151 126 107 
124 779 219 157 133 111 
125 778 219 128 124 126 
125 779 219 120 115 114 
127 776 217 44 31 66 
126 776 218 72 76 96 
126 777 218 56 68 96 
127 776 218 39 25 57 
127 777 218 52 40 64 
126 778 218 61 77 110 
126 778 219 77 99 129 
126 779 219 106 121 143 
127 778 218 67 60 91 
127 778 219 56 57 93 
127 779 219 67 75 114 
124 780 219 172 147 129 
125 780 219 123 113 107 
126 780 219 95 110 128 
127 780 219 97 117 141 
124 780 220 159 135 120 
124 781 220 103 71 55 
125 780 220 128 114 112 
125 781 220 98 74 73 
124 782 220 88 67 62 
124 783 221 97 107 119 
125 782 220 79 57 50 
125 783 221 95 95 99 
126 780 220 88 89 102 
126 781 220 71 56 63 
127 780 220 92 107 126 
127 781 220 73 81 96 
126 782 220 76 57 47 
126 783 220 89 76 67 
126 783 221 100 96 95 
127 782 220 76 68 67 
127 783 220 86 77 75 
127 783 221 95 86 85 
112 784 223 209 132 125 
113 784 223 209 156 140 
113 785 223 204 135 138 
114 784 222 195 157 134 
114 784 223 205 160 142 
114 785 223 202 152 148 
115 784 222 189 156 129 
115 784 223 196 160 140 
115 785 223 194 158 145 
115 786 223 186 148 146 
116 784 222 187 154 125 
116 785 222 184 152 130 
116 785 223 186 154 137 
117 784 222 174 145 119 
117 785 222 177 145 120 
117 785 223 177 147 130 
116 786 223 181 154 146 
117 786 223 169 147 138 
118 784 222 133 122 118 
118 785 222 122 112 117 
118 785 223 157 139 127 
119 784 222 68 66 93 
119 785 222 54 41 87 
118 786 223 141 131 133 
119 786 223 77 79 109 
119 787 223 128 136 153 
121 784 221 45 48 99 
120 784 222 49 37 80 
120 785 222 69 34 79 
121 784 222 66 28 81 
121 785 222 80 39 87 
120 786 222 70 33 93 
120 786 223 59 39 106 
120 787 223 79 86 132 
121 786 222 86 46 110 
121 786 223 81 46 118 
121 787 223 71 67 121 
122 784 221 67 68 106 
123 784 221 75 95 120 
123 785 221 67 53 89 
122 785 222 82 39 92 
123 785 222 74 50 89 
122 786 222 86 58 111 
122 786 223 90 65 118 
122 787 222 88 68 111 
122 787 223 79 62 108 
123 786 222 81 59 97 
123 787 222 77 69 94 
123 787 223 70 69 90 
121 788 223 79 79 114 
122 788 223 65 50 89 
123 788 223 63 63 75 
123 789 223 64 62 64 
124 784 221 97 119 139 
124 785 221 68 77 99 
125 784 221 113 125 138 
125 785 221 83 93 105 
124 785 222 66 58 85 
125 786 221 66 69 75 
124 786 222 67 57 75 
124 787 222 66 68 78 
124 787 223 69 73 86 
125 786 222 60 59 69 
125 787 222 60 61 67 
126 784 221 99 102 109 
126 785 221 71 77 86 
127 784 221 85 80 83 
127 785 221 57 56 66 
126 786 221 59 61 69 
127 786 221 51 49 57 
127 787 221 56 46 52 
126 786 222 58 56 63 
126 787 222 60 58 62 
127 787 222 57 44 56 
124 788 223 73 77 85 
124 789 223 74 76 82 
125 788 222 59 63 68 
125 788 223 63 69 76 
125 789 223 73 76 82 
126 788 222 55 58 63 
126 789 223 57 57 62 
127 788 222 60 49 61 
127 789 222 90 81 84 
127 789 223 74 68 69 
126 790 223 70 69 71 
127 790 223 107 98 95 
96 772 224 177 144 156 
96 773 224 172 75 96 
97 773 224 163 114 118 
96 774 224 184 14 47 
96 774 225 185 26 52 
96 775 225 195 46 71 
97 774 224 177 50 71 
97 775 224 188 28 60 
97 775 225 193 22 60 
96 775 226 208 33 55 
96 775 227 202 40 59 
97 775 226 203 28 54 
98 774 224 167 86 92 
98 775 224 181 52 68 
98 775 225 189 0 43 
99 775 224 171 71 81 
100 775 224 167 73 80 
96 776 227 192 36 66 
97 776 226 207 28 52 
97 776 227 183 36 65 
98 776 225 190 5 44 
99 776 224 182 28 38 
99 776 225 186 9 42 
99 777 225 195 29 58 
98 776 226 204 25 47 
98 777 226 206 38 51 
98 777 227 177 52 51 
99 777 226 206 35 48 
99 778 226 209 30 55 
99 778 227 161 42 51 
96 776 228 127 35 78 
96 776 229 107 51 107 
97 776 228 141 24 72 
97 776 229 114 43 99 
97 777 228 142 30 75 
97 777 229 116 46 99 
96 776 230 131 117 146 
96 776 231 152 130 142 
97 776 230 125 99 139 
97 776 231 149 134 150 
97 777 230 122 76 128 
97 777 231 155 131 143 
98 777 228 145 24 72 
98 777 229 127 45 93 
98 777 230 122 54 116 
98 778 228 159 41 81 
98 778 229 136 47 89 
99 778 228 155 25 73 
99 778 229 144 53 88 
98 778 230 132 70 110 
98 778 231 155 130 136 
99 778 230 148 80 103 
99 778 231 160 125 122 
99 779 231 177 131 122 
100 776 224 175 36 47 
100 777 224 182 8 53 
100 777 225 192 35 62 
101 776 224 167 64 64 
101 777 224 179 43 65 
100 778 225 197 41 52 
101 778 224 190 28 64 
101 778 225 196 17 57 
101 779 225 194 11 60 
100 778 226 206 29 52 
100 778 227 190 41 56 
100 779 226 209 19 64 
100 779 227 170 40 56 
101 779 226 203 20 62 
102 777 224 176 54 75 
102 778 224 183 41 74 
102 779 224 176 9 58 
102 779 225 181 18 55 
103 778 224 174 40 78 
103 779 224 163 31 56 
100 779 228 158 27 78 
100 779 229 157 54 88 
100 779 230 169 108 92 
100 779 231 192 148 117 
100 780 227 151 36 36 
101 780 226 195 29 58 
101 780 227 172 38 47 
101 781 227 175 30 44 
102 780 225 189 35 58 
103 780 224 172 28 58 
103 780 225 189 38 62 
103 781 225 193 25 55 
102 780 226 195 37 49 
102 781 226 195 32 48 
102 781 227 185 29 57 
103 781 226 195 23 56 
103 781 227 189 29 54 
103 782 227 183 21 43 
100 780 228 163 39 82 
100 780 229 164 49 86 
101 780 228 171 27 72 
101 780 229 172 44 79 
101 781 228 176 31 55 
100 780 230 167 100 74 
101 780 230 185 122 84 
101 780 231 211 159 104 
102 781 228 185 30 58 
102 781 229 187 48 72 
102 780 231 227 170 112 
102 781 230 193 126 78 
102 781 231 223 164 96 
103 781 231 225 168 99 
103 782 228 196 30 60 
103 782 229 199 52 71 
103 782 230 198 124 80 
103 782 231 231 174 107 
96 776 232 159 60 86 
96 776 233 173 19 58 
96 777 233 173 23 58 
97 777 232 162 87 105 
97 777 233 173 21 59 
96 776 234 170 41 73 
96 777 234 173 37 71 
96 777 235 183 52 78 
97 777 234 179 20 59 
97 777 235 185 26 71 
97 778 235 197 26 74 
98 778 232 169 115 126 
98 778 233 171 34 71 
99 778 232 172 123 135 
99 778 233 171 39 81 
99 779 232 173 127 132 
99 779 233 172 48 86 
98 778 234 181 14 59 
98 778 235 191 24 70 
99 778 234 182 12 61 
99 778 235 191 26 58 
99 779 234 184 38 60 
99 779 235 193 51 63 
96 777 236 178 42 67 
96 777 237 129 30 51 
97 777 236 192 39 76 
96 778 237 134 30 45 
97 778 236 180 48 68 
97 778 237 145 37 51 
97 779 237 150 42 61 
96 778 238 147 37 88 
96 778 239 139 53 105 
96 779 239 132 64 126 
97 778 238 148 31 76 
97 779 238 155 36 74 
97 779 239 152 65 111 
98 778 236 194 47 69 
98 779 236 198 60 73 
98 779 237 165 43 60 
99 779 236 196 55 67 
99 779 237 178 44 65 
98 779 238 156 26 59 
97 780 239 157 74 116 
99 780 237 175 26 60 
98 780 238 158 22 59 
98 780 239 167 66 102 
99 780 238 165 26 53 
99 780 239 182 62 101 
99 781 239 181 67 97 
100 779 232 171 125 118 
100 779 233 173 67 87 
100 779 234 190 53 62 
100 779 235 195 61 51 
100 779 236 193 62 64 
101 780 232 176 135 110 
101 780 233 178 83 96 
101 780 234 196 60 63 
101 780 235 192 67 52 
102 780 232 187 145 105 
102 780 233 181 93 99 
102 781 232 188 147 100 
102 781 233 182 99 101 
103 781 232 200 158 113 
103 781 233 183 105 100 
102 780 234 198 62 65 
102 780 235 200 91 87 
102 781 234 199 59 66 
102 781 235 207 101 102 
103 781 234 199 56 72 
103 781 235 206 76 89 
103 782 232 204 165 122 
103 782 233 180 123 107 
100 780 236 191 79 71 
100 780 237 185 37 65 
101 780 236 197 104 97 
101 780 237 188 51 68 
101 781 237 192 37 64 
100 780 238 175 27 55 
100 781 238 180 25 64 
100 781 239 193 50 89 
101 781 238 186 22 57 
101 781 239 201 44 82 
102 780 236 218 156 144 
102 781 236 218 136 135 
102 781 237 196 48 65 
103 781 236 203 77 88 
103 781 237 194 34 56 
102 781 238 189 20 49 
102 781 239 198 31 65 
103 782 236 195 39 58 
103 782 237 194 36 56 
102 782 238 192 19 52 
102 782 239 200 29 55 
103 782 238 192 28 57 
103 782 239 197 24 47 
103 783 239 207 49 50 
104 779 224 165 63 57 
104 780 224 174 49 62 
104 781 224 190 33 65 
104 781 225 196 17 53 
105 780 224 177 46 62 
105 781 224 189 18 60 
105 781 225 199 6 55 
104 781 226 198 24 60 
105 782 225 199 28 56 
104 782 226 198 25 64 
104 782 227 189 28 51 
104 783 227 190 17 50 
105 782 226 199 33 63 
105 782 227 188 37 54 
105 783 226 197 33 63 
105 783 227 191 32 56 
106 781 224 189 30 59 
107 781 224 193 52 61 
106 782 224 199 0 57 
106 782 225 199 33 54 
106 783 225 198 36 52 
107 782 224 196 18 56 
107 782 225 200 11 61 
107 783 225 196 26 54 
106 783 226 197 35 59 
106 783 227 191 34 61 
107 783 226 195 34 54 
107 783 227 190 24 59 
104 782 228 209 26 65 
104 782 229 209 67 61 
104 783 228 213 29 60 
104 783 229 216 74 55 
105 783 228 214 37 63 
105 783 229 220 85 51 
104 782 230 205 129 76 
104 782 231 231 176 108 
104 783 230 208 126 65 
105 782 231 233 183 123 
105 783 230 211 128 67 
105 783 231 234 180 113 
106 783 228 216 59 60 
106 783 229 223 99 55 
106 783 230 214 133 76 
106 783 231 234 179 114 
108 782 224 198 45 60 
108 783 224 196 32 61 
108 783 225 193 13 55 
109 782 224 201 88 68 
109 783 224 198 53 63 
109 783 225 185 29 53 
110 783 224 198 63 79 
104 782 232 201 162 121 
104 782 233 185 122 107 
105 782 232 204 164 124 
105 782 233 192 141 116 
105 783 232 206 165 121 
105 783 233 197 149 117 
104 782 234 201 65 78 
104 782 235 204 49 68 
105 782 234 203 76 77 
105 782 235 202 47 68 
105 783 234 209 91 78 
105 783 235 202 46 66 
106 783 232 209 163 112 
106 783 233 206 157 116 
107 783 232 222 175 124 
107 783 233 219 171 124 
106 783 234 216 122 87 
106 783 235 204 45 58 
104 782 236 196 33 54 
104 782 237 194 30 51 
105 782 236 196 26 51 
105 782 237 194 30 48 
105 783 236 197 32 55 
105 783 237 195 32 53 
104 782 238 194 22 59 
104 783 238 192 2 54 
104 783 239 197 38 44 
105 783 238 190 22 59 
105 783 239 184 21 45 
106 783 236 199 31 61 
106 783 237 194 30 56 
106 783 238 189 31 62 
96 779 240 117 61 133 
96 779 241 150 128 156 
97 779 240 125 54 123 
96 780 241 137 109 142 
97 780 240 135 80 117 
97 780 241 148 125 133 
96 780 242 194 142 146 
96 780 243 194 61 89 
96 781 243 197 46 80 
97 780 242 179 144 132 
97 781 242 185 142 109 
97 781 243 190 80 88 
97 782 243 201 3 74 
98 780 240 151 84 100 
98 780 241 167 145 130 
98 781 240 161 108 97 
98 781 241 203 175 141 
99 781 240 175 109 85 
99 781 241 210 177 129 
98 781 242 208 169 122 
98 781 243 189 131 100 
99 782 241 230 193 139 
98 782 242 214 169 120 
98 782 243 196 90 89 
99 782 242 227 185 127 
99 782 243 204 144 101 
99 783 243 194 98 82 
96 781 244 207 21 64 
96 781 245 204 46 67 
96 782 245 205 39 59 
97 782 244 207 14 66 
97 782 245 208 22 61 
97 783 245 208 34 58 
96 782 246 204 36 58 
96 782 247 197 41 60 
96 783 247 190 34 51 
97 782 246 206 33 58 
97 783 246 202 35 63 
97 783 247 187 36 60 
98 782 244 203 18 68 
98 783 244 206 20 68 
98 783 245 209 17 60 
99 783 244 199 20 67 
99 783 245 208 15 60 
98 783 246 197 25 57 
98 783 247 181 25 52 
100 781 240 186 90 78 
101 781 240 198 46 73 
100 782 240 195 128 87 
100 782 241 218 176 113 
101 782 240 199 86 71 
101 782 241 210 154 85 
101 783 241 222 173 89 
100 782 242 238 193 126 
100 783 242 235 190 124 
100 783 243 204 143 99 
101 783 242 241 196 126 
101 783 243 227 182 119 
102 782 240 208 68 64 
102 783 240 209 89 60 
102 783 241 209 140 54 
103 782 240 211 58 56 
103 783 240 214 98 56 
103 783 241 208 121 31 
102 783 242 234 186 111 
100 783 244 189 50 80 
96 783 248 179 31 47 
96 783 249 173 57 71 
97 783 248 181 28 54 
96 783 250 142 34 52 
104 783 240 215 107 55 
106 784 227 194 30 59 
107 784 226 192 29 55 
107 784 227 190 34 61 
106 784 228 214 74 51 
106 784 229 224 107 54 
107 784 228 215 100 47 
107 784 229 227 127 57 
106 784 230 213 130 66 
107 784 230 210 130 57 
107 784 231 228 174 117 
108 784 225 189 31 60 
109 784 225 190 52 77 
108 784 226 189 31 51 
108 784 227 185 28 64 
108 785 227 182 43 73 
109 784 226 189 42 62 
109 785 226 188 41 67 
109 785 227 181 41 85 
110 784 224 198 71 96 
110 784 225 205 100 120 
110 785 225 193 43 76 
111 784 224 202 85 105 
111 785 224 200 62 99 
111 785 225 195 39 83 
110 785 226 188 25 72 
110 785 227 178 40 92 
111 785 226 190 16 74 
110 786 227 176 70 95 
111 786 226 182 18 83 
111 786 227 179 76 101 
108 784 228 212 110 47 
108 784 229 227 142 51 
108 785 228 214 123 79 
108 785 229 230 159 65 
109 785 228 211 132 99 
109 785 229 229 166 77 
108 784 230 210 139 53 
108 784 231 223 173 121 
108 785 230 215 152 51 
108 785 231 225 173 118 
109 785 230 220 158 64 
109 785 231 224 172 113 
110 786 228 205 142 107 
110 786 229 225 171 108 
111 786 228 203 154 112 
111 786 229 207 159 105 
111 787 229 194 148 102 
110 786 230 210 154 71 
110 786 231 209 160 105 
111 786 230 196 146 77 
111 786 231 206 163 118 
111 787 230 192 149 99 
111 787 231 210 174 141 
107 784 232 222 177 129 
107 784 233 223 176 129 
106 784 235 204 41 68 
107 784 234 223 145 102 
107 784 235 207 56 77 
105 784 239 183 52 55 
106 784 236 199 31 65 
106 784 237 192 28 54 
107 784 236 196 33 63 
107 784 237 187 29 52 
107 785 237 184 37 78 
106 784 238 183 34 65 
106 784 239 176 53 70 
106 785 239 176 83 87 
107 784 238 185 42 72 
107 785 238 180 49 79 
107 785 239 168 59 80 
107 786 239 170 90 97 
108 784 232 217 173 128 
108 784 233 213 165 119 
108 785 232 214 169 123 
108 785 233 213 165 117 
109 785 232 201 155 110 
109 785 233 213 164 125 
108 784 234 226 153 116 
108 784 235 206 69 89 
108 785 234 228 157 127 
108 785 235 208 82 103 
109 785 234 225 160 139 
109 785 235 205 90 117 
110 785 233 202 151 122 
110 786 232 188 144 104 
110 786 233 197 152 126 
111 786 232 196 158 126 
111 786 233 201 161 134 
111 787 232 201 164 134 
111 787 233 201 164 137 
110 786 234 214 156 146 
110 786 235 206 118 141 
111 786 234 208 157 144 
111 787 234 204 157 138 
111 787 235 204 138 145 
108 785 236 193 52 72 
108 785 237 190 81 101 
109 785 236 194 72 100 
109 785 237 197 101 116 
108 785 238 180 66 89 
108 785 239 165 46 72 
109 786 236 197 90 115 
109 786 237 191 89 105 
108 786 238 173 48 76 
108 786 239 169 81 95 
109 786 238 177 50 75 
109 786 239 168 62 86 
109 787 239 177 92 97 
110 786 236 192 67 110 
110 786 237 187 53 85 
110 787 236 191 62 104 
110 787 237 184 50 84 
111 787 236 187 93 116 
111 787 237 170 54 81 
110 786 238 181 23 69 
110 787 238 171 30 74 
110 787 239 167 69 83 
111 787 238 168 54 85 
111 788 237 169 84 92 
110 788 239 155 65 73 
111 788 238 161 72 97 
111 788 239 138 42 64 
111 789 239 137 87 73 
99 784 245 205 12 63 
98 784 246 193 15 51 
98 784 247 182 49 67 
99 784 246 190 27 53 
99 784 247 180 38 55 
99 785 247 193 44 64 
101 784 243 207 160 115 
103 784 241 209 132 37 
102 784 242 245 199 132 
102 784 243 231 190 136 
102 785 243 212 175 135 
103 784 242 225 175 96 
103 784 243 250 204 138 
103 785 243 232 193 140 
100 784 244 194 41 75 
100 784 245 203 13 63 
101 784 244 192 79 96 
