ply
format ascii 1.0
comment Created by CloudCompare v2.10.1 (Zephyrus)
comment Created 1/30/20 5:15 PM
obj_info Generated by CloudCompare!
element vertex 1975
property float x
property float y
property float z
property uchar red
property uchar green
property uchar blue
end_header
134 446 220 95 106 120 
134 447 220 97 108 122 
138 439 215 44 84 118 
139 438 214 52 87 118 
139 438 215 48 86 119 
139 439 214 47 84 116 
139 439 215 43 83 117 
141 439 210 74 92 112 
141 439 211 62 84 107 
140 439 212 54 82 107 
140 439 213 57 87 115 
141 439 212 63 89 112 
140 439 214 49 84 115 
137 437 219 39 81 112 
137 439 217 49 88 119 
136 438 219 49 85 112 
136 439 219 62 91 117 
137 438 218 54 90 120 
137 438 219 49 86 115 
137 439 218 56 91 121 
137 439 219 67 97 123 
138 438 216 48 85 120 
138 438 217 48 86 119 
138 439 216 47 85 119 
138 439 217 48 86 119 
139 438 216 49 85 120 
138 438 218 48 86 118 
136 437 220 38 79 109 
136 437 221 35 75 104 
137 437 220 36 80 110 
136 437 222 40 77 104 
136 438 220 42 78 106 
136 438 221 39 77 105 
136 439 220 50 81 106 
139 443 211 43 79 114 
137 442 215 38 82 115 
137 443 215 40 81 115 
139 440 213 46 81 114 
139 441 213 44 80 114 
138 440 214 39 80 116 
138 440 215 42 82 117 
138 441 214 35 78 115 
138 441 215 37 79 116 
139 440 214 41 80 115 
139 441 214 38 79 115 
138 442 213 38 78 116 
138 443 213 34 76 115 
139 442 212 46 80 113 
139 442 213 40 79 115 
139 443 212 43 78 115 
139 443 213 37 76 115 
138 442 214 32 77 115 
138 442 215 35 79 115 
138 443 214 35 78 115 
138 443 215 37 79 115 
139 444 211 34 76 113 
139 445 210 26 74 110 
139 445 211 29 74 113 
139 446 209 32 72 108 
139 447 209 30 72 110 
138 446 211 30 74 113 
138 447 210 49 80 114 
138 447 211 48 80 114 
139 446 210 26 72 109 
139 446 211 28 74 113 
139 447 210 39 74 111 
137 444 214 40 80 115 
137 444 215 47 84 116 
137 445 214 37 80 115 
137 445 215 47 84 114 
137 446 213 32 76 113 
137 447 212 49 80 111 
137 447 213 38 77 110 
136 446 215 54 88 115 
136 447 215 53 87 114 
137 446 214 31 79 114 
137 446 215 42 83 112 
137 447 214 36 79 111 
137 447 215 41 82 112 
138 444 212 36 76 116 
138 444 213 35 77 116 
138 445 212 29 75 115 
138 445 213 32 78 115 
139 444 212 34 76 115 
139 445 212 24 73 114 
138 444 214 37 78 115 
138 445 214 36 79 115 
138 446 212 36 76 113 
138 446 213 35 77 114 
138 447 212 48 80 112 
141 441 209 76 96 117 
140 440 211 20 66 95 
140 441 211 25 65 97 
141 440 210 55 79 101 
141 440 211 30 66 95 
141 441 210 46 74 101 
140 443 209 61 89 115 
141 442 208 76 97 119 
141 442 209 71 94 115 
141 443 208 76 98 120 
141 443 209 68 93 117 
140 442 210 40 74 105 
140 442 211 39 74 107 
140 443 210 44 81 109 
140 443 211 44 79 112 
141 442 210 48 77 105 
142 440 208 96 110 127 
142 440 209 94 108 125 
142 441 208 89 106 125 
142 441 209 90 106 124 
143 440 208 93 108 125 
142 440 210 82 99 117 
142 442 208 82 101 121 
140 440 212 33 72 101 
140 440 213 45 80 111 
140 441 212 36 75 105 
140 442 212 42 76 108 
140 444 209 57 88 114 
140 445 208 51 85 113 
140 445 209 40 79 110 
141 444 208 72 97 120 
141 445 208 60 90 116 
140 444 210 39 79 111 
140 445 210 30 76 109 
140 446 208 35 76 110 
140 446 209 33 74 108 
140 447 208 25 70 109 
137 440 216 51 86 118 
137 440 217 54 87 117 
137 441 216 48 83 116 
137 441 217 60 89 117 
136 440 219 65 93 118 
136 441 218 70 97 121 
136 441 219 70 97 120 
137 440 218 57 90 118 
137 441 218 64 92 118 
136 442 217 75 99 122 
136 443 217 79 101 122 
137 442 216 51 86 116 
137 442 217 67 94 119 
137 443 216 61 91 118 
137 443 217 73 97 120 
136 442 218 79 102 123 
136 442 219 82 105 126 
136 443 218 87 106 126 
136 443 219 89 107 127 
138 440 216 47 84 119 
138 441 216 47 82 117 
136 440 220 57 84 109 
136 444 216 72 96 118 
136 444 217 83 102 122 
136 445 216 75 98 120 
136 445 217 87 103 121 
137 444 216 61 91 117 
137 445 216 62 91 117 
136 444 218 87 105 123 
136 446 216 65 91 116 
136 446 217 75 96 115 
136 447 216 66 92 117 
136 447 217 72 93 115 
147 442 199 57 89 116 
147 443 199 55 88 115 
147 444 199 57 89 116 
147 445 198 53 88 117 
147 445 199 60 90 118 
146 446 199 66 93 120 
146 447 199 67 94 119 
147 446 198 55 88 118 
147 446 199 59 90 118 
147 447 198 56 89 119 
147 447 199 60 90 119 
150 443 195 68 92 116 
149 443 197 70 95 121 
148 443 198 55 89 116 
148 443 199 54 88 116 
150 443 196 72 94 117 
150 444 195 70 94 117 
150 445 195 71 94 119 
151 444 194 45 79 110 
151 444 195 63 91 117 
151 445 194 55 85 114 
151 445 195 68 93 118 
150 446 195 73 97 120 
150 447 195 73 97 121 
151 446 194 63 91 117 
151 446 195 72 96 121 
151 447 194 69 95 120 
148 444 197 58 90 118 
148 445 197 60 92 120 
149 444 196 75 97 120 
149 444 197 68 95 121 
149 445 196 70 96 120 
149 445 197 62 93 120 
148 444 198 56 89 117 
148 445 198 55 89 118 
148 446 197 58 91 120 
148 447 197 60 91 121 
149 446 196 67 94 119 
149 446 197 61 92 121 
149 447 196 66 94 120 
149 447 197 61 92 121 
148 446 198 57 90 119 
148 447 198 57 90 120 
150 444 196 74 96 119 
150 445 196 75 97 120 
145 441 202 76 97 118 
145 441 203 71 92 114 
144 442 203 67 90 113 
144 443 203 70 93 115 
145 442 202 74 95 117 
145 442 203 69 91 113 
145 443 202 73 95 117 
145 443 203 63 89 112 
146 442 201 72 96 120 
146 443 200 69 94 119 
146 443 201 74 97 120 
147 442 200 59 89 116 
147 443 200 61 91 117 
146 442 202 78 99 121 
144 441 204 56 82 108 
144 441 205 50 79 107 
145 441 204 58 83 108 
144 441 206 53 83 109 
144 442 204 69 92 116 
144 442 205 59 86 113 
144 443 204 78 100 123 
145 444 201 75 96 118 
145 445 201 72 94 115 
144 444 203 68 93 116 
144 445 202 53 82 109 
144 445 203 65 92 116 
145 444 202 65 90 114 
145 445 202 63 88 112 
145 446 201 71 92 113 
145 447 200 74 96 117 
145 447 201 65 88 110 
144 446 202 54 82 108 
144 446 203 56 87 113 
144 447 202 59 86 109 
144 447 203 58 88 113 
145 446 202 57 84 109 
146 444 200 71 94 119 
146 444 201 77 98 120 
146 445 200 72 95 118 
146 445 201 78 97 118 
147 444 200 66 92 117 
146 446 200 74 96 119 
146 447 200 72 96 120 
152 444 193 45 82 112 
152 445 193 44 78 109 
153 445 193 69 95 122 
152 444 194 37 76 107 
152 445 194 38 76 107 
152 446 193 45 80 110 
152 447 193 55 86 114 
153 446 192 83 105 130 
153 446 193 64 91 118 
153 447 192 83 104 128 
153 447 193 70 95 121 
154 445 192 62 94 123 
154 446 192 64 94 124 
154 447 192 67 95 124 
155 446 192 52 86 121 
131 435 229 67 95 119 
130 434 231 69 96 120 
130 435 231 73 99 123 
131 435 230 66 95 120 
131 435 231 70 97 122 
131 438 227 59 90 114 
131 439 227 60 90 114 
129 438 231 76 103 128 
129 439 231 69 98 124 
131 436 229 67 95 120 
131 437 228 56 87 113 
131 437 229 61 91 116 
130 436 231 73 100 125 
130 437 230 61 94 121 
130 437 231 75 103 128 
131 436 230 62 93 119 
131 436 231 68 97 122 
131 437 230 59 92 119 
130 438 229 52 85 113 
130 439 229 53 86 113 
131 438 228 48 83 111 
131 438 229 55 87 115 
131 439 228 56 87 112 
130 438 230 65 95 122 
130 438 231 75 103 128 
130 439 230 60 92 118 
130 439 231 77 103 128 
132 435 227 60 92 118 
132 435 228 71 97 121 
132 435 229 71 97 121 
133 436 225 53 86 112 
133 437 225 58 89 115 
132 436 227 55 87 114 
132 437 226 51 83 109 
132 437 227 50 82 109 
133 436 226 50 84 112 
133 436 227 47 84 111 
133 437 226 49 83 109 
132 439 225 63 91 115 
133 438 224 69 96 119 
133 438 225 65 93 117 
133 439 224 61 89 113 
133 439 225 63 91 115 
132 438 226 66 92 115 
132 438 227 62 90 114 
132 439 226 71 96 118 
133 438 226 59 88 112 
134 436 224 66 94 118 
134 436 225 54 87 113 
134 437 224 73 98 122 
134 437 225 61 91 116 
134 438 224 69 95 118 
132 436 228 72 97 121 
132 436 229 72 97 120 
132 437 228 59 89 115 
128 433 235 73 96 118 
129 434 233 60 90 117 
129 435 233 56 89 115 
128 434 235 58 88 112 
128 435 234 53 85 112 
128 435 235 56 87 113 
129 434 234 61 91 117 
129 434 235 60 89 114 
129 435 234 54 86 113 
130 434 232 67 94 119 
130 434 233 60 91 117 
130 435 232 70 97 121 
128 433 236 83 101 121 
128 433 237 86 102 121 
128 434 236 68 94 116 
128 435 236 56 86 113 
128 437 233 70 98 122 
129 436 232 77 102 126 
129 436 233 62 92 118 
129 437 232 74 102 126 
129 437 233 67 97 121 
128 436 234 49 83 109 
128 436 235 46 81 108 
128 437 234 66 94 118 
128 437 235 56 88 114 
129 436 234 51 85 110 
128 438 233 73 101 125 
128 439 232 68 98 123 
128 439 233 73 101 125 
129 438 232 72 101 125 
129 438 233 70 99 123 
129 439 232 67 97 123 
128 438 234 75 101 124 
128 439 234 74 101 124 
130 436 232 79 104 128 
130 437 232 77 104 128 
128 436 236 53 84 112 
130 441 227 64 91 115 
131 440 226 62 91 116 
131 440 227 59 88 113 
131 441 226 67 93 117 
131 441 227 64 91 116 
131 442 225 53 84 109 
131 443 225 43 79 106 
130 442 227 69 96 121 
130 443 226 59 89 115 
130 443 227 67 94 119 
131 442 226 62 91 116 
131 442 227 68 95 120 
131 443 226 49 83 110 
128 441 231 47 83 110 
129 440 230 50 86 114 
129 440 231 57 90 117 
129 441 230 52 86 113 
129 441 231 49 84 111 
129 442 229 80 102 124 
129 443 228 80 103 125 
129 443 229 80 103 124 
128 442 231 58 89 113 
128 443 230 79 102 124 
128 443 231 76 99 122 
129 442 230 67 95 119 
129 442 231 61 91 116 
129 443 230 75 100 123 
130 440 228 61 89 113 
130 440 229 52 85 110 
130 441 228 72 95 118 
130 441 229 66 92 115 
131 440 228 64 91 115 
130 440 230 41 81 109 
130 442 228 82 104 125 
130 442 229 84 104 125 
130 443 228 76 100 123 
129 445 227 65 93 117 
129 446 226 63 88 111 
129 446 227 55 84 111 
129 447 226 69 93 115 
129 447 227 62 87 111 
131 444 224 55 83 112 
131 444 225 49 80 109 
131 445 224 46 78 109 
131 445 225 48 78 107 
130 444 226 55 85 112 
130 444 227 68 95 119 
130 445 226 53 81 110 
130 445 227 66 92 116 
131 444 226 47 80 110 
130 446 225 53 82 112 
130 447 224 53 81 112 
130 447 225 61 86 115 
131 446 224 46 78 112 
131 446 225 48 79 112 
131 447 224 46 77 110 
130 446 226 53 81 108 
130 447 226 67 91 116 
128 445 229 85 106 126 
129 444 228 74 100 123 
129 444 229 76 101 123 
129 445 228 65 94 119 
129 445 229 75 100 123 
128 444 230 79 101 123 
128 444 231 80 102 123 
128 445 230 85 106 126 
128 446 228 62 90 115 
128 446 229 75 100 123 
128 447 228 59 86 111 
128 447 229 64 93 117 
129 446 228 60 89 115 
129 447 228 57 85 110 
128 446 230 83 104 125 
132 440 225 68 94 117 
132 441 224 63 86 110 
132 441 225 67 93 115 
133 440 224 56 85 109 
133 440 225 64 91 114 
133 441 224 55 82 107 
132 440 226 69 94 117 
132 441 226 66 93 116 
132 442 224 49 78 103 
132 442 225 59 86 110 
132 443 224 58 85 110 
132 443 225 46 79 105 
133 442 224 43 72 99 
132 444 224 52 80 109 
128 440 232 67 97 122 
128 440 233 69 99 123 
128 441 232 59 91 116 
128 441 233 62 93 118 
129 440 232 64 95 120 
128 442 232 49 83 109 
151 459 191 86 107 131 
151 460 191 88 108 133 
151 461 191 91 110 134 
151 462 191 90 109 134 
151 463 191 90 110 135 
153 451 191 62 95 126 
154 448 191 66 94 122 
154 449 191 64 94 121 
155 448 191 54 88 118 
155 449 191 59 91 120 
154 450 191 67 97 124 
154 451 191 61 94 125 
155 450 190 78 104 130 
155 450 191 66 96 124 
155 451 190 69 100 129 
155 451 191 61 95 125 
153 452 191 59 95 127 
153 453 191 61 96 126 
152 455 191 59 93 123 
153 454 191 62 96 127 
153 455 191 59 93 124 
154 452 191 59 93 127 
154 453 190 60 94 129 
154 453 191 61 95 128 
155 452 190 65 96 129 
155 453 190 63 96 130 
154 454 190 60 96 129 
154 454 191 65 99 129 
154 455 190 74 102 131 
154 455 191 70 100 129 
155 454 190 54 92 128 
155 455 190 61 95 130 
157 448 189 98 115 139 
157 449 189 108 123 145 
156 448 190 93 111 134 
156 448 191 63 91 121 
156 449 190 92 112 134 
157 448 190 91 110 136 
157 449 190 112 127 146 
156 451 189 111 129 148 
157 450 189 110 126 148 
157 451 189 111 128 150 
156 450 190 102 121 141 
156 451 190 98 118 141 
158 448 189 107 119 137 
158 449 189 108 121 140 
159 448 188 153 153 159 
159 448 189 141 144 154 
159 449 188 147 150 159 
159 449 189 124 132 145 
158 450 189 102 118 141 
158 451 189 102 123 148 
159 450 188 148 151 163 
159 451 188 135 142 158 
156 452 189 116 131 150 
156 453 189 95 118 141 
157 452 189 117 133 153 
157 453 189 115 132 151 
156 452 190 91 113 137 
156 453 190 70 100 129 
156 454 189 49 91 131 
156 455 189 33 83 128 
157 454 189 62 98 133 
157 455 189 32 83 128 
156 454 190 63 96 129 
158 452 188 135 150 169 
158 452 189 123 141 162 
158 453 188 116 135 156 
158 453 189 125 142 162 
159 452 188 118 135 154 
159 453 188 106 128 154 
158 454 188 54 89 129 
158 454 189 67 99 133 
158 455 188 35 77 125 
158 455 189 37 78 126 
159 454 188 50 82 127 
159 455 188 27 72 121 
152 456 191 67 95 124 
152 457 191 73 99 127 
153 456 191 58 90 121 
153 457 191 71 95 124 
152 458 191 76 101 130 
152 459 191 79 104 132 
153 458 191 75 101 130 
153 459 190 84 109 139 
153 459 191 78 106 137 
155 457 189 85 105 129 
154 456 190 80 103 131 
154 456 191 73 100 127 
154 457 190 70 97 125 
155 456 190 72 99 131 
155 457 190 73 97 127 
155 458 189 107 121 141 
155 459 189 116 131 150 
154 458 190 83 108 132 
154 459 190 90 115 141 
155 458 190 102 120 142 
155 459 190 102 123 146 
152 460 191 79 104 132 
152 461 191 82 105 132 
153 460 190 79 104 137 
153 460 191 73 103 133 
153 461 190 68 98 131 
152 462 190 91 110 133 
152 462 191 91 109 134 
152 463 190 98 114 134 
152 463 191 100 116 136 
153 462 190 66 97 128 
153 463 190 75 102 130 
155 460 189 109 129 154 
155 461 189 94 119 149 
154 460 190 88 113 143 
154 461 190 75 105 140 
155 460 190 99 122 148 
155 461 190 85 112 146 
154 463 189 59 95 134 
155 462 189 81 109 144 
155 463 189 72 102 136 
154 462 190 52 94 134 
154 463 190 47 88 127 
156 456 189 74 103 135 
156 457 189 101 116 139 
157 456 189 81 110 139 
157 457 189 111 126 147 
156 458 189 118 128 144 
156 459 189 117 130 149 
157 458 189 125 134 150 
157 459 189 117 130 147 
158 456 188 69 98 133 
158 456 189 69 102 136 
158 457 188 76 100 130 
159 456 188 35 74 115 
159 457 188 22 59 103 
158 458 188 88 105 129 
158 459 188 103 116 136 
159 458 188 27 59 99 
159 459 188 75 92 118 
156 460 189 101 122 147 
156 461 189 79 110 142 
157 460 188 97 118 141 
157 460 189 96 117 142 
157 461 188 61 94 127 
157 461 189 62 99 131 
156 462 189 58 97 137 
156 463 189 50 86 128 
157 462 188 42 85 125 
157 462 189 41 89 130 
157 463 188 54 91 130 
157 463 189 43 84 130 
158 460 188 105 121 142 
158 461 188 80 105 132 
159 460 188 107 120 139 
159 461 188 100 118 139 
158 462 188 47 83 123 
158 463 188 39 83 122 
159 462 188 71 101 134 
159 463 188 59 93 130 
151 464 191 95 113 135 
151 465 191 91 111 135 
151 466 191 90 111 137 
151 467 191 94 115 141 
150 468 191 92 116 143 
150 469 191 94 117 144 
151 468 191 91 115 141 
151 469 191 84 110 139 
150 470 191 96 118 144 
150 471 191 95 117 143 
151 470 191 81 109 139 
151 471 191 90 114 143 
150 472 191 92 114 141 
150 473 191 95 116 142 
151 472 191 98 119 145 
151 473 191 98 119 144 
150 474 191 100 118 144 
150 475 191 95 114 141 
151 474 191 99 119 144 
151 475 191 104 121 145 
150 476 191 89 110 140 
151 476 191 102 119 145 
151 477 191 94 114 144 
151 478 191 80 105 142 
151 479 191 72 100 143 
152 464 190 98 114 134 
152 464 191 102 116 134 
152 465 190 95 113 134 
152 465 191 99 116 136 
153 464 190 79 104 130 
153 465 190 81 105 132 
152 466 190 102 119 141 
152 466 191 104 119 140 
152 467 190 105 121 144 
152 467 191 106 122 143 
153 466 190 90 113 140 
153 467 190 93 113 143 
154 464 189 38 78 124 
154 465 189 46 82 126 
155 464 189 68 95 129 
155 465 189 88 108 136 
154 464 190 38 77 121 
154 465 190 43 81 124 
154 466 189 75 103 137 
154 467 189 77 106 141 
155 466 189 117 132 154 
155 467 189 106 127 152 
154 466 190 78 106 140 
154 467 190 84 110 143 
152 468 190 105 122 147 
152 468 191 97 118 144 
152 469 190 104 123 148 
152 469 191 94 116 144 
153 468 190 94 115 144 
153 469 190 94 115 144 
152 470 190 102 121 149 
152 470 191 85 110 141 
152 471 190 100 119 146 
152 471 191 87 111 141 
153 470 190 92 113 142 
153 471 190 96 115 141 
154 468 189 64 99 136 
154 469 189 72 100 138 
155 468 189 88 115 144 
155 469 189 56 90 127 
154 468 190 83 109 143 
154 469 190 86 109 143 
154 470 189 70 93 134 
154 471 189 81 102 136 
155 470 189 39 72 115 
155 471 189 57 88 122 
154 470 190 85 105 140 
154 471 190 86 105 138 
156 464 189 67 94 127 
156 465 189 102 119 142 
157 464 188 66 98 132 
157 464 189 69 98 132 
157 465 188 89 113 138 
157 465 189 81 106 135 
156 466 189 110 128 151 
156 467 189 101 125 151 
157 466 188 86 114 141 
157 466 189 75 108 138 
157 467 188 68 105 136 
157 467 189 60 101 135 
158 464 188 67 98 129 
158 465 188 105 123 146 
159 464 188 66 95 125 
159 465 188 93 114 138 
158 466 188 98 120 144 
158 467 188 65 99 132 
159 466 188 97 119 142 
159 467 188 70 99 130 
156 468 189 83 113 145 
156 469 189 64 99 136 
157 468 189 57 99 136 
157 469 189 68 104 140 
156 470 189 61 93 128 
156 471 189 91 113 139 
157 470 189 82 109 142 
157 471 189 100 119 144 
158 468 188 68 99 135 
158 469 188 76 103 136 
159 468 188 76 101 134 
159 469 188 89 109 137 
158 470 188 84 105 134 
158 470 189 82 105 135 
158 471 188 119 130 149 
158 471 189 115 127 147 
159 470 188 109 124 145 
159 471 188 121 133 150 
153 473 189 103 120 143 
152 472 190 98 117 144 
152 472 191 93 115 142 
152 473 190 99 118 143 
153 472 190 99 117 141 
153 473 190 103 119 142 
153 474 189 105 121 144 
153 475 189 106 121 143 
152 474 190 103 120 145 
152 475 190 106 122 146 
153 474 190 108 122 146 
153 475 190 108 122 146 
154 472 189 89 110 140 
154 473 189 94 115 142 
155 472 189 75 103 132 
155 473 189 76 106 136 
154 474 189 95 116 143 
154 475 189 94 112 141 
155 474 189 68 103 136 
155 475 189 69 100 139 
153 476 189 105 120 145 
152 476 190 105 121 146 
152 476 191 105 121 147 
152 477 190 103 120 146 
152 477 191 105 121 148 
153 476 190 106 122 145 
153 477 190 105 121 145 
152 478 190 104 121 149 
152 478 191 100 118 149 
152 479 190 100 119 149 
152 479 191 89 110 146 
153 478 190 101 119 145 
153 479 190 97 118 146 
154 476 189 86 108 140 
154 477 189 87 110 141 
155 476 189 68 97 143 
155 477 189 71 101 145 
154 478 189 94 116 146 
154 479 189 99 120 150 
155 478 189 74 102 144 
155 479 189 83 110 146 
156 472 189 99 120 145 
156 473 189 85 114 142 
157 472 188 122 134 152 
157 472 189 94 116 141 
157 473 188 127 139 157 
157 473 189 97 121 146 
156 474 189 62 104 140 
156 475 189 46 91 139 
157 474 189 103 129 156 
157 475 189 91 120 154 
158 472 188 132 140 156 
158 473 188 125 136 153 
159 472 188 119 131 149 
159 473 188 104 121 144 
158 474 188 118 133 154 
158 475 188 96 120 146 
158 475 189 111 131 155 
159 474 188 82 109 141 
159 475 188 62 100 136 
156 476 189 54 89 141 
156 477 189 67 96 143 
157 476 189 87 115 152 
157 477 189 79 105 140 
156 478 189 68 97 141 
156 479 189 77 104 141 
157 478 189 77 102 137 
157 479 189 94 114 143 
158 476 188 86 111 141 
158 476 189 99 122 150 
158 477 188 67 101 136 
158 477 189 72 101 134 
159 476 188 58 95 133 
159 477 188 60 100 136 
158 478 189 80 105 134 
158 479 189 107 124 147 
159 478 188 68 103 136 
159 479 188 85 114 144 
151 480 191 65 96 141 
151 481 191 63 94 140 
151 482 191 59 94 138 
151 484 191 104 126 155 
153 480 189 96 118 148 
152 480 190 94 113 148 
152 480 191 83 105 145 
152 481 190 102 119 154 
152 481 191 83 105 145 
153 480 190 100 120 151 
153 481 190 102 121 155 
152 482 190 97 116 154 
152 482 191 74 101 140 
152 483 191 85 111 145 
153 482 190 101 121 156 
153 482 191 92 114 151 
153 483 190 101 120 155 
153 483 191 98 118 152 
154 480 189 101 122 152 
154 481 189 101 121 153 
155 480 189 94 118 150 
155 481 189 99 121 151 
154 481 190 99 121 153 
154 482 189 95 118 151 
155 482 189 94 117 151 
154 482 190 98 120 154 
154 483 190 97 119 155 
155 482 190 97 119 154 
155 483 190 98 121 157 
152 484 191 102 123 155 
152 485 191 109 128 157 
153 484 191 101 118 154 
153 485 191 103 120 154 
152 486 191 105 125 154 
152 487 191 102 122 152 
153 486 191 106 122 152 
153 487 191 111 126 154 
154 484 190 91 115 151 
154 485 190 88 114 147 
154 485 191 95 116 150 
155 484 190 88 115 154 
155 485 190 79 111 149 
154 486 190 95 117 148 
154 486 191 101 119 149 
154 487 191 108 125 152 
155 486 190 88 116 152 
155 487 190 97 120 154 
156 480 189 92 115 148 
156 481 189 99 121 152 
157 480 189 103 121 150 
157 481 189 104 123 153 
156 482 189 95 118 150 
156 483 189 93 116 152 
157 482 189 105 123 153 
157 483 189 98 118 149 
156 483 190 93 115 153 
158 480 189 116 131 153 
158 481 189 112 129 153 
159 480 188 81 110 144 
159 481 188 82 111 146 
158 482 189 106 124 152 
158 483 189 110 127 155 
159 482 188 92 114 151 
159 482 189 97 119 150 
159 483 188 116 130 159 
159 483 189 114 129 159 
156 484 189 93 116 154 
156 485 189 92 117 156 
157 484 189 104 121 152 
157 485 189 111 128 159 
156 484 190 88 113 153 
156 485 190 80 110 152 
156 486 189 95 117 155 
156 487 189 95 117 155 
157 486 189 104 123 158 
157 487 189 107 125 162 
156 486 190 86 114 159 
156 487 190 93 116 157 
158 484 189 113 128 156 
158 485 189 119 132 162 
159 484 188 121 134 163 
159 484 189 118 132 162 
159 485 188 124 136 165 
158 486 189 118 131 164 
158 487 189 131 144 174 
159 486 188 130 140 169 
159 486 189 128 139 170 
159 487 188 127 141 173 
159 487 189 124 138 172 
153 488 191 115 131 155 
153 489 191 121 133 156 
153 490 191 126 135 157 
153 491 191 130 139 160 
154 488 191 116 130 155 
154 489 191 119 131 155 
155 488 190 110 129 159 
155 489 190 126 142 168 
155 489 191 117 131 156 
154 490 191 123 134 160 
154 491 191 125 136 163 
155 490 190 131 146 172 
155 490 191 122 136 162 
155 491 190 121 136 172 
155 491 191 120 133 167 
153 492 191 132 143 165 
154 492 191 130 140 168 
154 493 191 140 148 169 
155 492 191 126 137 169 
155 493 191 147 153 173 
154 494 191 162 164 178 
155 494 191 169 170 179 
155 495 191 168 168 178 
157 488 189 119 135 171 
157 489 189 125 142 178 
156 488 190 100 122 161 
156 489 190 125 144 174 
157 488 190 109 130 166 
157 489 190 115 135 172 
156 490 190 140 156 183 
156 491 190 128 144 176 
157 490 190 125 143 177 
157 491 190 128 143 175 
158 488 189 141 156 185 
158 489 189 133 149 183 
159 488 188 125 140 175 
159 488 189 128 143 178 
159 489 189 129 142 178 
158 490 189 127 142 178 
158 491 189 128 139 170 
159 490 189 128 139 172 
159 491 189 142 148 170 
158 491 190 129 142 172 
156 492 190 131 143 173 
156 493 190 154 159 176 
156 493 191 172 172 181 
157 492 190 137 146 171 
157 493 190 152 155 170 
156 494 190 167 167 176 
156 494 191 171 171 178 
156 495 190 155 160 173 
156 495 191 169 171 179 
157 494 190 161 162 173 
157 495 190 150 157 172 
158 492 189 142 146 166 
158 493 189 145 148 166 
159 492 189 144 148 168 
159 493 189 137 143 166 
158 492 190 140 146 168 
158 493 190 145 148 166 
158 494 189 135 142 165 
158 495 189 120 137 164 
159 494 189 122 133 164 
159 495 189 98 122 161 
158 494 190 149 153 168 
158 495 190 138 149 168 
154 497 191 118 130 153 
155 496 191 146 151 166 
155 497 191 120 131 154 
155 498 191 97 113 143 
155 499 191 92 113 147 
155 500 191 97 120 154 
155 501 191 99 126 160 
156 496 190 122 137 159 
156 496 191 136 146 163 
156 497 190 102 122 151 
156 497 191 114 130 157 
157 496 190 111 130 159 
157 497 190 86 112 152 
156 498 190 119 134 162 
156 498 191 122 135 159 
156 499 190 128 142 167 
156 499 191 125 138 164 
157 498 190 106 128 164 
157 499 190 120 140 167 
158 496 189 92 117 157 
159 496 189 98 121 162 
159 497 189 101 125 166 
158 496 190 98 123 159 
158 497 190 76 108 157 
159 498 189 104 130 170 
159 499 189 104 130 170 
158 498 190 91 119 164 
158 499 190 105 129 169 
159 499 190 115 136 174 
156 500 191 120 136 163 
156 501 191 116 136 166 
157 500 190 121 142 168 
157 500 191 126 145 170 
157 501 190 119 141 170 
157 501 191 123 144 173 
156 502 191 111 135 169 
156 503 191 95 125 166 
157 502 191 108 137 172 
157 503 191 87 119 162 
158 500 190 115 137 173 
158 501 190 102 130 169 
159 500 190 134 151 183 
159 501 190 118 141 177 
158 502 190 85 118 162 
158 503 190 94 121 164 
158 503 191 79 110 157 
159 502 190 97 127 169 
159 503 190 105 132 174 
156 504 191 76 109 162 
157 504 191 91 123 170 
157 505 191 81 115 168 
157 506 191 81 111 169 
158 504 191 103 133 173 
158 505 191 92 128 176 
159 504 190 122 148 184 
159 505 190 129 155 193 
159 505 191 106 138 182 
158 506 191 74 106 171 
158 507 191 69 87 160 
159 506 191 65 104 172 
159 507 191 61 84 160 
160 448 188 171 165 166 
160 449 188 170 166 168 
161 448 188 170 165 168 
161 449 188 171 166 169 
160 450 188 167 164 170 
160 451 188 156 157 169 
161 450 188 172 169 173 
161 451 188 164 166 175 
162 448 188 168 165 169 
162 449 188 173 169 173 
163 449 188 167 166 172 
162 450 188 172 170 177 
162 451 188 161 167 179 
163 450 188 160 163 172 
163 451 188 136 150 169 
163 452 187 65 108 146 
163 453 187 22 76 137 
162 454 187 65 92 144 
162 455 187 98 117 151 
163 454 187 60 86 146 
163 455 187 95 112 148 
160 452 188 123 138 156 
160 453 188 66 101 138 
161 452 188 128 144 163 
161 453 188 44 84 129 
160 454 188 35 73 127 
160 455 188 35 80 126 
161 454 188 38 72 129 
161 455 188 96 117 150 
162 452 188 107 133 159 
162 453 188 24 74 129 
163 452 188 105 131 159 
162 454 188 46 78 136 
162 455 188 106 124 155 
164 449 187 140 148 161 
164 450 187 134 144 159 
164 451 187 105 130 154 
165 450 187 126 139 155 
165 451 187 127 144 165 
166 450 187 149 157 170 
166 451 187 132 149 168 
167 450 187 151 158 171 
167 451 187 121 140 162 
164 449 188 158 161 170 
164 450 188 152 156 168 
164 452 187 63 108 148 
164 453 187 27 77 144 
165 452 187 70 110 149 
165 453 187 42 83 145 
164 454 187 60 87 146 
164 455 187 100 117 152 
165 454 187 69 97 146 
165 455 187 104 124 154 
166 452 187 63 103 140 
166 453 187 69 101 149 
167 452 187 59 92 136 
167 453 187 83 104 145 
166 454 187 104 125 161 
166 455 187 112 132 160 
167 454 187 119 133 161 
167 455 187 106 127 159 
162 456 187 105 124 148 
162 457 187 115 131 149 
163 456 187 117 130 150 
163 457 187 143 150 163 
162 458 187 119 133 152 
162 459 187 129 141 160 
163 458 187 150 156 168 
163 459 187 150 156 170 
160 456 188 62 90 124 
160 457 188 57 80 113 
161 456 188 125 140 161 
161 457 188 96 117 139 
160 458 188 34 62 103 
160 459 188 48 74 110 
161 458 188 65 90 119 
161 459 188 84 103 128 
162 456 188 124 139 160 
162 457 188 113 130 149 
162 460 187 121 134 154 
162 461 187 113 129 149 
163 460 187 132 142 159 
163 461 187 111 128 149 
162 462 187 110 127 152 
162 463 187 113 130 154 
163 462 187 111 127 153 
163 463 187 114 129 153 
160 460 188 95 113 137 
160 461 188 104 121 144 
161 460 188 103 118 141 
161 461 188 105 120 144 
160 462 188 63 97 132 
160 463 188 51 87 131 
161 462 188 79 103 134 
161 463 188 67 96 134 
162 461 188 108 123 145 
162 462 188 100 119 144 
162 463 188 102 121 148 
164 456 187 143 150 168 
164 457 187 150 156 169 
165 456 187 135 146 165 
165 457 187 128 140 159 
164 458 187 140 147 165 
164 459 187 132 142 164 
165 458 187 126 139 161 
165 459 187 125 139 164 
166 456 187 107 129 158 
166 457 187 116 133 162 
167 456 187 85 114 152 
167 457 187 104 125 158 
166 458 187 141 150 167 
166 459 187 149 156 170 
167 458 187 147 154 168 
167 459 187 159 161 170 
164 460 187 117 133 157 
164 461 187 103 124 153 
165 460 187 120 138 162 
165 461 187 105 128 157 
164 462 187 101 121 154 
164 463 187 113 130 155 
165 462 187 93 117 154 
165 463 187 120 134 160 
166 460 187 149 158 174 
166 461 187 126 143 166 
167 460 187 148 155 167 
167 461 187 127 142 162 
166 462 187 93 118 153 
166 463 187 102 120 151 
167 462 187 94 119 149 
167 463 187 98 115 148 
168 451 187 89 115 145 
169 451 187 54 94 138 
168 452 187 64 90 134 
168 453 187 105 120 149 
169 452 187 75 100 144 
169 453 187 123 135 158 
168 454 187 136 146 164 
168 455 187 101 124 155 
169 454 187 155 160 171 
169 455 187 99 121 149 
170 452 187 86 111 149 
170 453 187 128 141 163 
171 452 187 85 106 150 
171 453 187 112 129 157 
170 454 187 143 151 168 
170 455 187 91 116 147 
171 454 187 109 128 156 
171 455 187 79 107 144 
172 452 187 88 104 141 
172 453 187 103 119 148 
173 453 187 120 131 153 
172 454 187 112 128 156 
172 455 187 133 143 167 
173 454 187 129 141 164 
173 455 187 163 168 183 
174 453 187 141 151 170 
174 454 187 124 140 168 
174 455 187 141 155 180 
175 454 187 112 134 170 
175 455 187 108 131 173 
168 456 187 86 115 154 
168 457 187 75 106 149 
169 456 187 71 102 141 
169 457 187 69 98 147 
168 458 187 103 123 153 
168 459 187 124 135 155 
169 458 187 67 94 143 
169 459 187 103 119 152 
170 456 187 70 101 142 
170 457 187 70 95 151 
171 456 187 81 111 150 
171 457 187 76 100 152 
170 458 187 83 97 156 
170 459 187 134 141 167 
171 458 187 94 110 157 
171 459 187 139 146 167 
168 460 187 113 128 150 
168 461 187 118 131 153 
169 460 187 135 143 158 
169 461 187 149 152 163 
168 462 187 113 125 152 
168 463 187 115 126 154 
169 462 187 151 153 166 
169 463 187 124 133 155 
170 460 187 163 163 170 
170 461 187 168 166 170 
171 460 187 164 165 173 
171 461 187 158 161 169 
170 462 187 154 158 168 
170 463 187 121 136 158 
171 462 187 136 149 168 
171 463 187 115 137 165 
172 456 187 141 149 171 
172 457 187 115 130 160 
173 456 187 171 175 187 
173 457 187 145 157 179 
172 458 187 115 129 167 
172 459 187 133 144 171 
173 458 187 114 132 171 
173 459 187 118 135 171 
174 456 187 143 157 179 
174 457 187 124 146 176 
175 456 187 107 133 172 
175 457 187 101 134 174 
174 458 187 106 132 171 
174 459 187 99 129 167 
175 458 187 93 124 162 
175 459 187 87 119 158 
175 459 188 85 118 159 
172 460 187 142 153 173 
172 461 187 129 144 167 
173 460 187 115 135 166 
173 461 187 110 130 163 
172 462 187 120 139 167 
172 463 187 107 132 168 
173 462 187 103 127 164 
173 463 187 99 127 164 
174 460 187 99 124 160 
174 461 187 101 125 161 
174 462 187 101 125 162 
173 463 188 113 138 178 
174 460 188 98 123 163 
174 461 188 126 145 182 
175 460 188 94 120 163 
175 461 188 98 120 167 
174 462 188 111 135 168 
174 463 188 114 137 167 
175 462 188 114 133 164 
175 463 188 151 158 172 
161 466 187 105 125 152 
161 467 187 101 123 152 
162 464 187 117 131 154 
162 465 187 112 129 153 
163 464 187 114 127 150 
163 465 187 119 132 153 
162 466 187 109 128 153 
162 467 187 91 118 150 
163 466 187 136 147 165 
163 467 187 124 140 163 
160 464 188 64 94 134 
160 465 188 77 104 135 
161 464 188 76 103 139 
161 465 188 91 114 143 
160 466 188 90 112 138 
160 467 188 98 117 142 
161 466 188 98 120 146 
161 467 188 103 125 152 
162 464 188 110 126 152 
162 467 188 83 114 147 
162 468 187 71 103 145 
162 469 187 53 86 141 
163 468 187 103 124 157 
163 469 187 65 94 144 
162 470 187 35 75 137 
162 471 187 39 79 135 
163 470 187 39 73 136 
163 471 187 64 93 142 
160 468 188 100 117 142 
160 469 188 109 125 147 
161 468 188 95 119 149 
161 469 188 88 112 144 
160 470 188 122 135 154 
160 471 188 116 132 152 
161 470 188 96 118 146 
161 471 188 98 121 148 
162 468 188 67 105 143 
162 469 188 49 91 138 
162 470 188 37 78 135 
162 471 188 49 85 136 
164 464 187 99 117 143 
164 465 187 101 118 143 
165 464 187 104 120 147 
165 465 187 87 106 136 
164 466 187 143 150 166 
164 467 187 141 151 167 
165 466 187 116 126 151 
165 467 187 122 133 156 
166 464 187 97 117 147 
166 465 187 88 109 143 
167 464 187 94 115 149 
167 465 187 78 107 146 
166 466 187 112 122 155 
166 467 187 135 140 166 
167 466 187 96 114 156 
167 467 187 121 133 162 
164 468 187 119 133 156 
164 469 187 103 120 149 
165 468 187 135 143 160 
165 469 187 153 155 164 
164 470 187 89 107 144 
164 471 187 148 155 169 
165 470 187 158 158 165 
165 471 187 168 167 172 
166 468 187 157 159 173 
166 469 187 169 168 174 
167 468 187 155 160 174 
167 469 187 167 169 178 
166 470 187 174 169 172 
166 471 187 165 165 171 
167 470 187 160 163 172 
167 471 187 141 149 163 
162 472 187 68 99 143 
162 473 187 91 116 151 
163 472 187 74 103 144 
163 473 187 90 116 150 
163 474 187 78 105 148 
163 475 187 62 90 144 
160 472 188 104 124 148 
160 473 188 79 109 141 
161 472 188 96 121 148 
161 473 188 85 114 146 
160 474 188 53 93 136 
160 475 188 41 86 134 
161 474 188 67 101 142 
161 475 188 65 98 141 
162 472 188 78 107 143 
162 473 188 89 115 149 
162 474 188 77 107 144 
162 475 188 75 104 145 
163 475 188 64 93 140 
160 476 188 48 86 131 
160 477 188 70 101 138 
161 476 188 69 99 137 
161 477 188 81 107 141 
160 478 188 94 120 149 
160 479 188 89 117 150 
161 478 188 104 126 153 
161 479 188 106 129 157 
162 476 188 82 107 148 
162 477 188 88 112 151 
163 476 188 56 89 141 
163 477 188 59 94 145 
162 478 188 89 117 152 
162 479 188 94 122 155 
163 478 188 64 98 149 
163 479 188 64 103 149 
164 472 187 120 135 157 
164 473 187 108 127 154 
165 472 187 155 159 169 
165 473 187 132 143 161 
164 474 187 82 108 147 
164 475 187 62 93 143 
165 474 187 109 127 152 
165 475 187 108 127 155 
166 472 187 151 156 168 
166 473 187 132 142 163 
167 472 187 129 141 161 
167 473 187 121 135 160 
166 474 187 117 131 157 
166 475 187 107 125 151 
167 474 187 107 125 154 
167 475 187 97 117 148 
165 475 188 102 123 154 
167 474 188 98 119 150 
167 475 188 100 120 151 
164 476 187 63 96 143 
164 477 187 69 104 146 
165 476 187 112 131 157 
164 478 187 77 109 150 
166 476 187 106 126 151 
164 477 188 49 95 144 
165 476 188 106 128 156 
165 477 188 103 126 154 
164 478 188 60 100 149 
164 479 188 79 111 153 
165 478 188 95 120 155 
165 479 188 95 122 157 
166 476 188 112 131 155 
166 477 188 111 131 156 
167 476 188 106 125 151 
167 477 188 108 127 149 
166 478 188 105 126 156 
166 479 188 95 119 149 
167 478 188 104 122 146 
167 479 188 119 131 151 
168 464 187 113 128 156 
168 465 187 104 125 155 
169 464 187 119 132 157 
169 465 187 128 141 164 
168 466 187 84 109 150 
168 467 187 91 115 154 
169 466 187 109 129 159 
169 467 187 96 120 158 
170 464 187 109 128 157 
170 465 187 113 131 160 
171 464 187 101 128 164 
171 465 187 97 123 164 
170 466 187 107 130 161 
170 467 187 99 124 161 
171 466 187 96 123 163 
171 467 187 95 122 160 
168 468 187 121 137 165 
168 469 187 133 146 168 
169 468 187 96 121 156 
169 469 187 113 133 162 
168 470 187 120 139 164 
168 471 187 109 130 161 
169 470 187 123 141 169 
169 471 187 110 132 167 
170 468 187 109 129 165 
170 469 187 122 140 172 
171 468 187 103 126 163 
171 469 187 114 134 167 
170 470 187 114 134 169 
170 471 187 117 137 167 
171 470 187 117 135 166 
171 471 187 138 149 170 
169 469 188 120 139 169 
168 471 188 94 123 163 
169 470 188 117 137 170 
169 471 188 92 122 162 
170 469 188 125 141 172 
172 464 187 90 121 164 
172 465 187 79 114 164 
173 464 187 102 127 167 
173 465 187 81 112 161 
172 466 187 92 120 165 
172 467 187 96 122 163 
173 466 187 83 113 163 
173 464 188 77 113 160 
173 465 188 93 117 162 
173 466 188 104 126 164 
173 467 188 113 132 169 
174 464 188 133 145 169 
174 465 188 132 143 172 
175 464 188 153 159 174 
175 465 188 157 161 177 
174 466 188 129 142 169 
174 467 188 126 141 172 
175 466 188 128 141 167 
175 466 189 132 145 168 
175 467 188 128 144 169 
175 467 189 127 143 166 
172 468 187 99 123 163 
172 469 187 111 130 166 
172 470 187 109 128 162 
172 471 187 149 154 169 
172 468 188 98 122 158 
172 469 188 98 122 158 
173 468 188 108 129 165 
173 469 188 101 124 161 
172 470 188 113 130 160 
172 471 188 149 153 164 
173 470 188 124 138 163 
173 471 188 156 159 169 
174 468 188 131 146 174 
174 469 188 125 141 171 
175 468 188 142 155 175 
175 468 189 141 154 174 
175 469 188 136 149 171 
175 469 189 130 143 168 
174 470 188 121 135 160 
174 471 188 144 148 159 
175 470 188 88 109 140 
175 470 189 88 107 138 
175 471 188 112 121 135 
175 471 189 96 108 125 
168 472 187 109 128 157 
168 473 187 106 126 159 
169 472 187 83 115 155 
169 473 187 86 115 151 
168 474 187 109 126 157 
168 475 187 114 126 155 
169 474 187 102 123 151 
169 475 187 105 124 150 
170 472 187 119 137 164 
170 473 187 130 145 165 
171 472 187 150 156 170 
171 473 187 157 160 169 
170 474 187 132 144 164 
170 475 187 117 132 155 
171 474 187 149 154 166 
171 475 187 129 140 156 
168 472 188 94 120 159 
168 474 188 110 127 157 
168 475 188 112 126 155 
169 475 188 111 126 151 
170 475 188 108 126 149 
171 475 188 117 130 148 
168 476 187 118 129 155 
170 476 187 101 119 145 
168 476 188 117 130 154 
168 477 188 124 136 155 
169 476 188 116 131 155 
169 477 188 124 137 158 
168 478 188 133 141 156 
168 479 188 138 144 159 
169 478 188 127 138 155 
169 479 188 130 138 154 
170 476 188 104 122 147 
170 477 188 104 121 146 
171 476 188 98 114 137 
171 477 188 99 115 139 
170 478 188 103 121 144 
170 479 188 110 123 142 
171 478 188 98 116 139 
171 479 188 103 119 141 
172 472 187 163 162 169 
172 473 187 164 161 165 
172 474 187 160 159 164 
172 475 187 147 150 157 
173 475 187 151 153 160 
172 472 188 164 161 164 
172 473 188 165 161 163 
173 472 188 162 159 162 
173 473 188 162 158 160 
172 474 188 162 159 163 
172 475 188 121 131 145 
173 474 188 153 152 157 
173 475 188 137 140 148 
174 472 188 157 154 157 
174 473 188 156 153 156 
175 472 189 139 140 146 
175 473 189 147 146 150 
174 474 188 147 147 152 
174 475 188 135 138 145 
175 474 189 138 140 147 
175 475 188 126 131 142 
175 475 189 125 131 142 
172 476 188 103 118 138 
172 477 188 104 118 139 
173 476 188 112 122 136 
173 477 188 103 117 136 
172 478 188 103 119 140 
172 479 188 104 119 140 
173 478 188 104 120 140 
173 479 188 104 120 139 
174 476 188 113 122 134 
174 477 188 104 118 136 
175 476 188 109 118 132 
175 476 189 116 123 136 
175 477 188 101 115 133 
174 478 188 100 118 138 
174 479 188 96 115 137 
175 478 188 95 114 136 
175 479 188 89 110 136 
176 454 187 100 124 172 
176 455 187 92 118 174 
176 455 188 93 121 178 
177 454 188 98 130 177 
177 455 188 85 121 176 
178 455 188 85 123 172 
179 455 188 107 135 173 
176 456 187 87 122 172 
176 456 188 91 122 175 
176 457 188 95 124 166 
177 456 188 92 120 175 
177 457 188 103 123 166 
176 458 188 100 126 164 
176 459 188 97 123 165 
177 458 188 116 138 171 
177 459 188 134 151 178 
178 456 188 87 119 170 
178 457 188 121 136 172 
179 456 188 116 138 177 
179 457 188 127 142 172 
178 458 188 159 165 182 
178 459 188 161 165 177 
179 458 188 151 157 171 
179 458 189 159 162 174 
179 459 189 174 174 183 
176 460 188 107 129 171 
176 461 188 108 127 168 
177 460 188 129 143 169 
177 461 188 119 134 163 
176 462 188 139 149 170 
176 463 188 167 169 178 
176 463 189 180 180 188 
177 462 188 135 146 169 
177 462 189 145 154 173 
177 463 189 177 176 183 
178 460 188 151 159 174 
178 460 189 159 167 182 
178 461 189 123 140 170 
179 460 189 178 179 189 
179 461 189 142 153 172 
178 462 189 142 151 171 
178 463 189 170 170 179 
179 462 189 129 146 170 
179 463 189 161 166 179 
179 463 190 145 157 174 
180 456 188 153 159 178 
180 456 189 156 161 177 
180 457 188 144 152 170 
180 457 189 144 152 170 
181 456 189 165 169 182 
181 457 189 149 156 171 
180 458 189 150 157 172 
180 459 189 162 164 175 
181 458 189 140 149 166 
181 459 189 150 155 169 
181 458 190 130 142 163 
181 459 190 162 167 179 
182 456 189 157 162 175 
182 457 189 152 159 174 
182 457 190 147 155 173 
183 457 190 138 149 169 
182 458 190 129 143 164 
182 459 190 127 145 170 
183 458 190 118 135 160 
183 458 191 101 125 158 
183 459 191 94 121 158 
180 460 189 163 167 177 
180 461 189 148 157 173 
181 460 189 160 165 176 
180 461 190 154 167 187 
181 460 190 154 162 176 
181 461 190 135 150 171 
180 462 190 98 130 164 
180 463 190 113 134 165 
181 462 190 90 119 160 
181 463 190 98 123 167 
182 460 190 120 137 165 
182 461 190 108 130 164 
183 460 190 95 120 158 
183 460 191 83 112 156 
183 461 191 98 121 159 
182 462 190 106 129 171 
182 462 191 107 127 174 
182 463 190 114 133 165 
183 462 191 123 138 166 
183 463 191 135 144 168 
184 457 190 157 169 190 
184 457 191 127 147 178 
184 458 191 95 123 165 
184 459 191 79 113 162 
185 458 191 103 130 171 
184 460 191 70 104 162 
184 461 191 95 117 164 
184 462 191 146 155 174 
184 463 191 150 155 170 
176 464 188 170 171 180 
176 464 189 177 175 180 
176 465 189 169 169 179 
177 464 189 180 177 181 
177 465 189 176 174 179 
176 466 189 153 159 176 
176 467 189 140 151 172 
177 466 189 163 165 179 
177 467 189 130 143 162 
178 464 189 179 177 183 
178 465 189 179 175 179 
179 464 189 175 176 184 
178 465 190 175 173 178 
179 464 190 167 170 180 
179 465 190 168 169 178 
178 466 189 167 168 177 
178 466 190 163 165 175 
178 467 190 131 144 166 
179 466 190 147 156 172 
179 467 190 128 141 169 
176 468 189 132 144 167 
176 469 189 132 146 169 
177 468 189 119 134 152 
177 469 189 122 137 157 
176 470 189 90 110 133 
176 471 189 90 105 126 
177 470 189 93 114 138 
177 471 189 89 108 131 
178 469 189 108 126 150 
178 468 190 105 126 150 
178 469 190 106 126 152 
179 468 190 119 134 165 
179 469 190 100 121 151 
178 470 189 91 112 137 
178 471 189 85 108 132 
178 470 190 91 112 137 
179 470 190 86 108 135 
179 471 190 75 102 127 
180 464 190 129 146 168 
180 465 190 134 148 168 
181 464 190 116 137 167 
181 465 190 118 137 166 
180 466 190 120 139 168 
180 467 190 121 138 168 
181 466 190 114 135 166 
181 467 190 117 136 162 
182 464 190 123 138 166 
182 465 190 129 143 168 
183 464 190 123 136 160 
183 464 191 132 142 164 
183 465 191 142 151 169 
182 466 190 140 152 171 
182 467 190 150 157 171 
182 467 191 154 159 170 
183 466 191 155 159 170 
183 467 191 168 166 171 
180 468 190 117 135 162 
180 469 190 105 123 148 
181 468 190 113 131 154 
181 468 191 116 132 152 
181 469 191 110 124 143 
180 470 190 100 118 142 
180 470 191 116 128 147 
180 471 190 106 121 141 
180 471 191 125 134 149 
181 470 191 111 123 140 
181 471 190 123 134 149 
181 471 191 122 132 149 
182 468 191 148 154 166 
182 469 191 126 133 146 
183 468 191 168 167 173 
183 469 191 149 150 159 
182 470 191 108 121 137 
182 471 191 105 122 142 
183 470 191 109 121 136 
183 471 191 88 111 133 
176 472 189 109 118 132 
176 473 189 121 127 139 
177 472 189 94 111 132 
177 473 189 89 109 130 
177 473 190 82 106 128 
176 474 189 114 124 138 
176 475 189 106 118 134 
177 474 189 89 109 130 
177 475 189 93 111 132 
177 474 190 86 109 131 
178 472 189 82 106 131 
178 473 189 81 105 130 
178 472 190 72 100 127 
178 473 190 66 97 124 
179 472 190 67 98 125 
179 473 190 71 99 127 
178 474 189 80 104 128 
178 474 190 83 105 129 
178 475 190 95 112 133 
179 474 190 88 108 134 
179 475 190 94 112 135 
176 476 188 102 115 131 
176 476 189 99 113 131 
176 477 188 93 112 132 
177 476 189 95 113 135 
177 477 188 89 112 136 
177 477 189 90 113 138 
176 478 188 85 107 135 
176 479 188 90 110 140 
177 478 188 81 106 135 
177 478 189 78 104 133 
177 479 188 94 112 137 
178 476 189 94 114 137 
178 477 189 82 105 138 
178 476 190 99 116 136 
179 476 190 90 112 134 
179 477 190 82 107 137 
178 478 189 88 108 137 
178 479 188 108 118 138 
178 479 189 102 116 138 
179 478 189 91 112 140 
179 479 189 102 116 139 
180 472 190 86 107 128 
180 473 190 87 108 130 
181 472 190 102 117 135 
181 472 191 104 121 140 
181 473 190 93 112 132 
181 473 191 92 112 133 
180 474 190 95 111 134 
180 475 190 94 112 136 
181 474 190 96 113 133 
181 474 191 93 111 134 
181 475 190 87 108 131 
182 472 191 95 117 140 
182 473 191 86 111 136 
183 472 191 86 111 135 
183 473 191 90 113 138 
182 474 191 88 110 135 
182 475 190 76 101 128 
182 475 191 84 106 131 
183 474 191 85 107 134 
183 475 191 80 101 126 
180 477 189 89 110 136 
181 477 189 98 115 139 
180 476 190 84 107 131 
180 477 190 84 108 135 
181 476 190 83 105 129 
181 477 190 99 116 139 
180 478 189 97 116 141 
180 479 189 91 113 140 
181 478 189 100 118 141 
181 479 189 80 108 140 
181 478 190 103 121 144 
181 479 190 90 111 137 
182 476 190 88 108 133 
182 477 190 100 117 142 
183 476 190 93 111 138 
183 476 191 93 111 136 
183 477 190 95 109 146 
182 478 190 98 119 146 
182 479 190 102 126 155 
183 478 190 91 112 152 
183 479 190 108 130 160 
184 464 191 142 148 165 
184 465 191 144 150 165 
184 466 191 165 165 173 
184 467 191 176 172 176 
185 466 191 163 163 172 
185 467 191 160 160 168 
184 468 191 169 165 167 
184 469 191 153 150 153 
185 468 191 155 154 160 
185 469 191 147 146 150 
184 470 191 123 129 140 
184 471 191 91 108 127 
185 470 191 117 124 134 
185 471 191 92 105 121 
184 472 191 85 107 129 
184 473 191 87 108 131 
185 472 191 86 103 122 
185 473 191 80 100 123 
184 474 191 75 100 125 
184 475 191 79 102 128 
185 474 191 76 99 123 
185 475 191 87 108 136 
186 472 191 88 104 122 
186 473 191 87 106 128 
186 474 191 97 114 136 
186 475 191 94 115 144 
187 475 191 97 117 147 
184 476 191 96 113 142 
184 477 190 93 106 145 
184 477 191 95 110 138 
185 476 191 96 114 147 
185 477 191 111 125 155 
184 478 190 97 113 140 
184 478 191 109 122 145 
184 479 190 115 132 154 
184 479 191 136 145 161 
185 478 191 155 158 171 
185 479 191 170 169 176 
186 476 191 96 115 151 
186 477 191 127 140 167 
187 476 191 95 116 154 
187 477 191 135 147 171 
186 478 191 171 170 177 
186 479 191 178 173 175 
187 478 191 171 170 176 
187 479 191 176 171 173 
188 478 191 166 166 174 
188 479 191 172 169 172 
189 479 191 166 166 174 
160 480 188 72 104 145 
160 481 188 73 101 148 
161 480 188 87 114 152 
161 481 188 77 101 151 
160 482 188 92 110 154 
160 483 188 120 132 161 
161 482 188 89 107 153 
161 483 188 122 133 163 
162 480 188 85 114 152 
162 481 188 75 103 149 
163 480 188 71 106 148 
163 481 188 75 105 145 
162 482 188 79 106 148 
162 483 188 126 139 163 
163 482 188 94 117 148 
163 483 188 137 146 163 
160 484 188 125 137 165 
160 485 188 125 136 164 
161 484 188 129 140 166 
161 485 188 129 140 165 
160 486 188 132 140 169 
160 487 188 122 135 169 
161 486 188 132 141 168 
161 487 188 126 139 167 
162 484 188 136 146 166 
162 485 188 135 143 166 
163 484 188 146 153 168 
163 485 188 138 147 167 
162 486 188 126 138 164 
162 487 188 121 133 159 
163 486 188 116 130 158 
163 487 188 118 127 155 
166 483 187 121 131 151 
167 483 187 113 127 149 
164 480 188 79 109 147 
164 481 188 87 111 145 
165 480 188 77 106 140 
165 481 188 87 109 139 
164 482 188 115 129 152 
164 483 188 144 150 163 
165 482 188 118 129 150 
165 483 188 135 141 156 
166 480 188 91 113 143 
166 481 188 104 121 147 
167 480 188 121 131 152 
167 481 188 122 132 153 
166 482 188 120 131 152 
166 483 188 122 132 151 
167 482 188 118 130 151 
165 484 187 128 136 154 
165 485 187 120 130 148 
165 486 187 123 132 152 
165 487 187 130 136 158 
166 484 187 118 128 149 
166 485 187 118 129 149 
167 484 187 107 122 146 
167 485 187 116 126 150 
166 486 187 125 133 151 
166 487 187 124 134 153 
167 486 187 117 127 148 
167 487 187 113 125 149 
164 484 188 143 149 163 
164 485 188 122 133 153 
165 484 188 134 141 157 
165 485 188 122 132 150 
164 486 188 106 121 150 
164 487 188 125 131 157 
165 486 188 114 125 150 
166 485 188 117 128 148 
160 488 188 121 135 169 
160 489 188 132 141 167 
160 489 189 127 139 171 
161 488 188 131 142 165 
161 489 188 152 155 169 
160 490 188 151 153 169 
160 490 189 142 148 170 
160 491 189 151 154 172 
161 490 188 173 171 176 
161 490 189 159 160 171 
161 491 188 173 173 181 
161 491 189 163 165 176 
162 488 188 139 145 162 
162 489 188 161 161 169 
163 488 188 138 143 162 
163 489 188 152 154 167 
162 490 188 170 169 174 
162 491 188 150 156 173 
163 490 188 151 154 169 
163 491 188 134 143 167 
160 492 189 145 151 172 
160 493 189 131 141 168 
161 492 188 143 152 174 
161 492 189 148 155 176 
161 493 188 129 144 177 
161 493 189 133 144 174 
160 494 189 112 129 164 
160 495 189 104 125 166 
161 494 188 100 125 166 
161 494 189 90 120 162 
161 495 188 102 128 168 
161 495 189 88 117 162 
162 492 188 118 135 163 
162 493 188 99 121 158 
163 492 188 120 132 164 
163 493 188 106 124 160 
162 494 188 94 118 160 
162 495 188 96 121 166 
163 494 188 98 120 163 
163 495 188 95 116 167 
164 489 187 135 141 160 
165 488 187 130 137 157 
165 489 187 123 134 156 
165 490 187 103 122 151 
165 491 187 79 105 143 
166 488 187 115 129 153 
166 489 187 95 117 151 
167 488 187 99 115 149 
167 489 187 76 101 148 
166 490 187 78 109 151 
166 491 187 84 113 156 
167 490 187 61 98 152 
167 491 187 59 99 151 
164 488 188 139 142 161 
164 489 188 142 147 162 
164 490 188 134 142 160 
164 491 188 110 125 152 
