ply
format ascii 1.0
comment Created by CloudCompare v2.10.1 (Zephyrus)
comment Created 1/31/20 6:08 PM
obj_info Generated by CloudCompare!
element vertex 1988
property float x
property float y
property float z
property uchar red
property uchar green
property uchar blue
end_header
171 881 339 174 133 112 
170 882 337 175 134 112 
170 883 337 175 135 114 
170 882 338 174 133 112 
170 883 338 176 136 115 
171 882 338 174 133 112 
171 882 339 174 132 112 
171 883 338 176 135 115 
171 883 339 175 135 114 
168 884 336 177 136 114 
168 885 336 176 136 114 
168 885 337 175 135 113 
169 884 337 178 138 117 
169 885 337 177 137 116 
169 885 338 176 136 115 
168 886 336 176 136 114 
168 886 337 176 136 114 
168 887 336 176 137 115 
168 887 337 175 136 114 
169 886 337 175 135 114 
169 887 337 172 134 112 
169 886 338 174 135 113 
169 887 338 171 133 111 
170 884 338 177 137 116 
170 885 338 175 136 115 
171 884 338 176 136 115 
171 884 339 175 135 114 
171 885 339 175 137 115 
170 886 338 173 135 114 
170 886 339 172 134 114 
170 887 338 170 133 111 
170 887 339 170 133 112 
171 886 339 172 135 114 
171 887 339 169 134 113 
172 880 339 175 134 113 
172 881 339 173 131 110 
172 882 339 173 131 110 
172 883 339 174 133 113 
172 880 340 174 133 112 
172 881 340 172 131 110 
173 880 340 175 134 113 
173 881 340 172 130 110 
172 882 340 172 130 110 
172 883 340 173 133 112 
173 882 340 171 129 109 
173 883 340 172 133 112 
173 883 341 171 132 111 
174 880 340 175 134 113 
174 880 341 174 133 112 
174 881 340 172 131 111 
174 881 341 171 130 109 
175 880 341 173 132 112 
175 881 341 170 129 109 
174 882 341 168 127 107 
174 883 341 168 129 108 
175 882 341 167 126 106 
175 883 341 164 125 104 
175 883 342 164 125 104 
172 884 339 174 135 113 
172 885 339 175 137 115 
172 884 340 174 135 113 
172 885 340 173 136 114 
173 884 340 174 136 113 
173 884 341 173 136 113 
173 885 340 174 136 113 
173 885 341 172 135 112 
172 886 340 171 134 113 
172 887 340 168 132 111 
173 886 341 170 134 112 
173 887 341 166 130 109 
174 884 341 171 133 111 
174 885 341 170 133 111 
175 884 341 167 129 108 
175 884 342 165 127 106 
175 885 342 165 129 107 
174 886 341 168 132 110 
174 887 341 165 130 109 
174 886 342 166 131 109 
174 887 342 163 129 108 
175 886 342 164 128 107 
175 887 342 161 127 107 
168 888 336 175 136 115 
168 888 337 174 135 114 
168 889 336 172 133 112 
168 889 337 168 130 109 
169 888 338 169 132 111 
169 889 338 164 128 107 
168 890 337 163 125 104 
168 891 337 160 124 103 
168 890 338 161 125 104 
168 891 338 158 124 104 
169 890 338 157 123 102 
169 890 339 154 121 101 
169 891 338 157 123 104 
169 891 339 153 121 102 
170 888 338 166 130 109 
170 888 339 165 130 109 
170 889 338 164 128 107 
170 889 339 158 124 103 
171 888 339 163 129 107 
171 889 339 156 122 101 
170 890 339 152 120 99 
170 891 339 151 120 101 
171 889 340 154 121 99 
170 891 340 149 119 100 
171 890 340 147 118 97 
171 891 340 145 117 98 
171 891 341 143 115 97 
168 892 337 158 124 104 
168 892 338 158 124 105 
168 893 338 154 120 103 
168 893 339 152 119 104 
169 892 339 153 121 104 
169 893 339 149 116 101 
168 894 338 140 105 89 
168 894 339 138 102 87 
168 895 339 118 84 70 
169 894 339 143 110 95 
170 892 339 149 119 102 
168 895 340 109 75 64 
169 894 340 134 101 87 
169 895 340 114 79 71 
170 892 340 147 116 101 
170 893 340 140 107 94 
171 892 340 145 115 100 
171 892 341 140 110 97 
171 893 340 137 105 93 
171 893 341 129 96 87 
170 894 340 128 95 83 
170 894 341 122 91 81 
170 895 340 118 86 77 
170 895 341 116 86 81 
171 894 341 125 96 90 
171 895 341 125 102 95 
171 894 342 131 109 104 
171 895 342 134 117 111 
172 888 340 162 128 106 
172 888 341 160 126 105 
172 889 340 152 119 98 
172 889 341 147 115 94 
173 888 341 159 125 104 
173 889 341 146 114 93 
173 889 342 141 109 87 
172 890 340 145 116 96 
172 890 341 140 112 92 
172 891 341 140 113 97 
173 890 341 137 108 87 
173 890 342 137 108 89 
173 891 342 138 110 95 
174 888 342 157 123 102 
174 889 342 141 109 87 
175 888 342 155 121 101 
175 888 343 151 117 97 
175 889 342 146 112 91 
175 889 343 140 107 85 
174 890 342 136 106 86 
174 890 343 136 108 90 
174 891 342 137 109 94 
174 891 343 134 103 91 
175 890 343 138 110 92 
175 891 343 135 105 93 
172 892 341 136 104 94 
172 892 342 133 101 92 
172 893 342 123 91 87 
173 892 342 129 96 89 
173 893 342 122 93 90 
173 893 343 122 96 91 
172 894 342 130 111 108 
172 895 342 144 133 130 
172 895 343 150 141 138 
173 894 342 127 108 105 
173 894 343 134 123 121 
173 895 343 137 132 131 
174 892 343 121 88 82 
174 893 343 120 96 91 
175 892 343 119 87 82 
175 893 343 119 95 92 
174 894 343 134 125 122 
174 895 343 121 116 117 
175 894 343 130 118 114 
175 893 344 121 101 98 
174 895 344 97 92 92 
175 894 344 119 109 105 
175 895 344 85 77 75 
176 864 336 149 118 93 
176 864 337 150 117 93 
176 865 337 149 116 91 
177 864 337 152 120 96 
176 865 338 151 117 93 
177 864 338 153 120 96 
177 865 338 153 119 95 
176 866 337 151 118 92 
176 866 338 151 119 93 
176 867 338 152 119 94 
177 866 338 153 119 95 
177 867 338 152 118 94 
177 867 339 152 118 95 
178 864 338 161 126 104 
178 865 338 157 122 98 
178 865 339 158 122 98 
179 864 338 168 132 111 
179 864 339 169 133 112 
179 865 339 165 127 106 
178 866 339 155 119 96 
178 867 339 151 116 94 
179 866 339 157 119 97 
179 867 339 151 113 92 
176 868 338 152 118 92 
176 869 338 152 119 93 
176 869 339 150 117 92 
177 868 339 149 115 91 
177 869 339 147 114 90 
176 870 339 153 119 94 
176 871 339 154 119 95 
177 870 339 148 116 92 
177 871 339 151 118 95 
178 868 339 145 111 87 
178 869 339 142 110 86 
179 868 339 142 106 83 
179 869 339 138 104 81 
178 870 339 144 113 89 
177 871 340 151 119 97 
179 868 340 139 102 80 
179 869 340 135 102 80 
178 870 340 142 111 88 
178 871 340 146 115 93 
179 870 340 135 104 82 
179 871 340 137 107 85 
180 864 339 174 136 116 
180 865 339 173 134 114 
180 866 339 163 123 104 
180 864 340 175 136 116 
180 865 340 175 134 116 
181 864 340 175 134 115 
181 865 340 178 135 117 
180 866 340 168 127 109 
180 867 340 155 113 95 
181 866 340 175 133 114 
181 867 340 166 123 105 
182 864 340 175 132 113 
182 864 341 177 134 115 
182 865 340 180 135 117 
182 865 341 182 137 119 
183 864 341 179 136 118 
183 865 341 184 139 121 
182 866 340 181 136 118 
182 866 341 183 137 119 
182 867 341 176 130 113 
183 866 341 185 139 122 
183 867 341 182 134 118 
180 868 340 142 102 83 
180 869 340 133 97 75 
181 868 340 152 109 91 
181 869 340 137 96 77 
180 870 340 130 99 77 
180 871 340 130 100 77 
180 871 341 127 97 75 
181 870 340 127 92 70 
181 870 341 128 89 69 
181 871 341 125 91 68 
182 868 341 166 120 104 
182 869 341 150 105 89 
183 868 341 175 127 112 
183 869 341 159 114 100 
182 870 341 133 93 74 
182 871 341 124 87 66 
183 870 341 142 100 84 
183 871 341 130 92 74 
183 871 342 134 96 79 
176 872 339 154 119 96 
176 873 339 156 121 98 
176 874 339 159 123 100 
176 873 340 156 120 98 
177 872 340 153 120 98 
177 873 340 155 121 99 
176 874 340 160 125 101 
176 875 340 164 127 104 
177 874 340 157 122 98 
177 875 340 161 125 101 
177 875 341 161 124 100 
178 872 340 150 118 96 
178 873 340 152 120 97 
179 872 340 142 111 88 
179 873 340 147 115 92 
179 873 341 145 112 90 
178 874 340 155 121 98 
178 874 341 156 123 99 
178 875 341 160 125 102 
179 874 341 150 117 94 
179 875 341 157 123 100 
176 876 340 166 128 106 
176 877 340 170 130 109 
176 877 341 170 131 110 
177 876 341 164 127 103 
177 877 341 168 129 108 
176 878 340 173 133 112 
176 878 341 172 132 111 
176 879 341 172 132 111 
177 878 341 168 129 108 
177 879 341 169 129 109 
178 876 341 163 127 104 
178 877 341 165 129 107 
179 876 341 160 124 102 
179 877 341 162 126 104 
178 878 341 166 128 107 
178 879 341 166 127 107 
179 878 341 164 127 105 
178 879 342 166 127 107 
179 878 342 164 125 105 
179 879 342 163 124 104 
180 872 340 135 105 82 
180 872 341 133 103 80 
180 873 341 138 106 83 
181 872 341 128 96 75 
181 873 341 132 100 79 
180 874 341 143 110 87 
180 875 341 149 116 94 
181 874 341 136 103 81 
181 875 341 142 109 87 
181 874 342 136 103 81 
181 875 342 142 108 87 
182 872 341 124 90 69 
182 873 341 128 95 75 
183 872 341 126 90 70 
182 873 342 128 94 74 
183 872 342 127 91 73 
183 873 342 126 91 72 
182 874 342 132 98 78 
182 875 342 136 102 81 
183 874 342 129 94 75 
183 875 342 132 96 77 
183 875 343 132 95 76 
180 876 341 154 119 98 
180 877 341 159 123 102 
180 876 342 150 117 95 
180 877 342 156 120 99 
181 876 342 147 114 93 
181 877 342 152 117 97 
180 878 342 161 124 103 
180 879 342 162 123 103 
181 878 342 157 120 100 
181 879 342 160 121 102 
182 876 342 140 105 85 
182 877 342 147 111 91 
183 876 342 137 100 81 
183 876 343 135 97 78 
183 877 342 141 104 85 
183 877 343 142 104 85 
182 878 342 153 116 97 
182 878 343 155 117 98 
182 879 342 158 119 100 
182 879 343 159 119 101 
183 878 343 151 113 94 
183 879 343 158 119 99 
184 864 341 179 137 118 
184 865 341 183 139 120 
184 864 342 178 135 117 
184 865 342 181 137 119 
185 864 342 175 132 114 
185 864 343 172 129 110 
185 865 342 178 133 115 
185 865 343 174 129 111 
184 866 341 185 139 121 
184 867 341 182 134 119 
184 866 342 183 136 120 
184 867 342 180 132 117 
185 866 342 177 131 115 
185 866 343 173 125 110 
185 867 342 175 127 113 
185 867 343 169 120 107 
186 864 343 170 128 108 
186 865 343 172 128 109 
186 866 343 170 123 108 
186 867 343 163 113 101 
184 868 341 176 128 114 
184 869 341 166 119 106 
184 868 342 174 126 113 
184 869 342 157 111 99 
185 868 342 168 118 107 
185 868 343 160 108 98 
185 869 342 154 105 95 
185 869 343 145 96 85 
184 870 342 144 103 88 
184 871 342 138 100 85 
185 870 342 144 100 87 
185 870 343 142 99 85 
185 871 343 144 103 88 
186 868 343 152 99 88 
186 869 343 144 91 80 
186 865 344 172 127 109 
187 864 344 169 126 107 
187 865 344 171 127 109 
186 866 344 171 124 109 
186 867 344 162 111 99 
187 866 344 169 123 108 
187 867 344 160 109 97 
187 867 345 159 109 96 
185 870 344 144 103 88 
185 871 344 151 110 94 
186 868 344 148 94 81 
186 869 344 138 91 77 
186 869 345 132 90 73 
187 868 345 144 92 80 
187 869 345 133 84 71 
187 868 346 137 88 78 
187 869 346 123 79 65 
187 869 347 106 62 49 
186 870 344 142 101 85 
186 870 345 141 106 86 
186 871 345 155 115 97 
186 870 346 138 105 85 
186 871 346 154 114 96 
186 871 347 151 115 94 
187 870 346 127 95 76 
187 870 347 124 91 71 
187 871 347 143 111 88 
187 870 348 110 81 60 
187 870 349 118 92 69 
187 871 348 146 114 93 
187 871 349 145 114 93 
187 871 350 141 111 91 
187 871 351 144 111 91 
188 864 344 171 128 109 
188 864 345 171 129 109 
188 865 344 172 128 111 
188 865 345 172 129 112 
189 864 345 171 130 109 
189 865 345 172 131 112 
189 865 346 173 133 114 
188 866 345 170 124 109 
188 867 345 158 108 95 
189 866 345 170 125 110 
188 867 346 151 98 87 
189 866 346 169 125 111 
189 867 346 154 105 92 
189 867 347 139 92 78 
190 864 345 170 131 110 
190 865 345 171 133 112 
191 864 345 168 130 108 
190 865 346 172 134 114 
191 865 346 171 134 113 
190 866 346 170 127 113 
190 867 346 157 110 98 
190 867 347 143 98 84 
191 866 346 168 128 112 
191 867 347 146 102 89 
191 867 348 134 93 76 
188 868 346 139 89 79 
188 868 347 127 79 71 
188 869 347 112 60 56 
189 868 346 140 90 79 
189 868 347 135 88 76 
190 868 347 137 94 79 
188 869 348 107 57 52 
188 869 349 94 47 42 
189 868 348 125 79 70 
189 868 349 116 66 62 
189 869 349 109 57 54 
188 869 350 89 43 36 
189 869 350 95 43 40 
189 869 351 90 47 35 
188 870 349 96 65 46 
188 870 350 99 69 49 
188 870 351 111 83 64 
188 871 351 136 107 85 
189 870 351 98 64 49 
190 868 348 131 91 76 
190 868 349 120 75 64 
191 868 348 130 91 74 
191 868 349 125 86 71 
190 868 350 113 67 58 
190 869 350 103 54 47 
190 869 351 93 44 32 
191 868 350 119 79 65 
191 869 350 109 68 54 
191 869 351 110 73 55 
184 872 342 135 97 81 
184 873 342 129 92 75 
184 873 343 138 99 82 
185 872 343 145 105 89 
185 873 343 146 105 88 
184 874 343 135 97 80 
184 875 343 134 96 78 
184 876 343 135 96 77 
184 877 343 140 101 81 
184 878 343 150 112 92 
184 879 343 157 118 98 
185 872 344 156 114 97 
185 872 345 163 118 101 
185 873 344 154 109 92 
185 873 345 168 119 104 
185 873 346 178 127 115 
184 875 344 146 104 88 
185 874 344 152 107 91 
185 874 345 165 117 102 
185 875 344 154 110 94 
185 875 345 160 112 97 
185 874 346 177 127 114 
185 875 346 171 121 109 
186 872 345 165 119 102 
186 872 346 167 121 104 
186 872 347 170 125 107 
186 873 346 177 127 113 
186 873 347 181 131 119 
186 874 346 181 129 118 
186 874 347 183 131 120 
186 875 346 179 126 115 
186 875 347 181 128 118 
186 872 348 171 127 111 
186 873 348 182 132 119 
186 873 349 180 130 118 
187 872 348 164 125 107 
187 872 349 168 126 110 
186 873 350 178 128 115 
187 872 350 161 120 104 
187 872 351 154 115 96 
187 873 350 174 127 113 
187 873 351 169 124 109 
186 874 348 182 130 119 
186 874 349 180 128 117 
186 875 348 180 128 118 
186 875 349 179 128 116 
186 874 350 178 127 116 
186 875 350 177 127 115 
187 874 350 176 128 115 
187 874 351 174 127 112 
187 875 351 177 129 114 
184 876 344 141 100 83 
184 877 344 144 104 85 
185 876 344 148 105 89 
185 876 345 157 110 95 
185 877 344 146 105 86 
185 877 345 155 112 94 
185 876 346 168 118 106 
185 877 346 165 118 103 
185 877 347 170 123 107 
184 878 344 152 113 93 
184 879 344 161 122 102 
184 879 345 165 127 106 
185 878 345 158 118 98 
185 879 345 164 125 105 
185 878 346 167 123 106 
185 878 347 171 126 109 
185 879 346 170 127 109 
185 879 347 171 127 110 
186 876 347 177 125 113 
186 877 347 174 125 111 
186 878 347 172 128 111 
186 879 347 175 131 115 
186 876 348 176 125 114 
186 876 349 177 126 114 
186 877 348 173 125 110 
186 877 349 173 125 109 
186 876 350 176 127 113 
186 877 350 175 127 111 
187 876 350 177 129 113 
187 876 351 178 131 113 
187 877 350 178 129 113 
187 877 351 179 132 114 
186 878 348 174 129 112 
186 878 349 174 128 111 
186 879 348 175 131 114 
186 879 349 175 130 113 
186 878 350 177 130 113 
186 879 350 177 131 114 
187 878 350 179 132 115 
187 878 351 180 133 116 
187 879 350 179 132 115 
187 879 351 180 132 116 
176 880 341 170 130 110 
176 881 341 168 127 107 
177 880 341 167 127 106 
176 881 342 166 125 105 
177 880 342 165 125 105 
177 881 342 164 123 104 
176 882 341 165 125 105 
176 882 342 163 124 103 
176 883 342 161 122 101 
177 882 342 160 121 102 
177 883 342 157 120 100 
178 880 342 163 124 104 
178 881 342 160 120 101 
179 880 342 161 121 102 
179 881 342 158 118 100 
178 882 342 156 117 98 
178 883 342 153 116 96 
179 882 342 153 114 95 
179 883 342 149 111 92 
179 883 343 146 110 91 
176 884 342 162 123 103 
176 885 342 161 124 104 
177 884 342 158 121 101 
177 885 342 157 122 101 
177 885 343 156 122 102 
176 886 342 160 125 104 
176 886 343 158 123 102 
176 887 342 160 125 105 
176 887 343 157 123 103 
177 886 343 155 121 101 
177 887 343 154 119 100 
178 884 342 154 118 99 
178 884 343 153 118 99 
178 885 343 154 120 101 
179 884 343 148 113 93 
179 885 343 149 117 97 
178 886 343 152 119 100 
178 887 343 151 117 99 
179 886 343 149 117 98 
179 887 343 148 115 96 
180 880 342 161 121 103 
180 881 342 158 118 101 
181 880 342 161 122 103 
181 881 342 160 120 103 
181 881 343 160 121 103 
180 882 342 153 114 96 
180 882 343 153 114 96 
180 883 343 146 108 89 
181 882 343 156 118 100 
181 883 343 151 112 94 
182 880 343 162 122 104 
182 881 343 162 122 104 
183 880 343 162 122 103 
183 881 343 163 123 105 
182 882 343 159 121 103 
182 883 343 156 116 99 
183 882 343 162 122 103 
183 883 343 159 119 101 
180 884 343 143 106 87 
180 885 343 143 109 90 
181 884 343 145 106 88 
181 885 343 140 103 84 
180 886 343 141 109 90 
180 887 343 141 109 91 
181 886 343 136 101 83 
181 887 343 133 100 83 
182 884 343 149 110 92 
182 885 343 142 103 85 
183 884 343 154 115 97 
182 886 343 135 99 82 
182 887 343 131 96 80 
183 881 344 165 125 105 
183 882 344 165 125 106 
183 883 344 162 123 104 
181 887 344 133 101 84 
183 884 344 157 118 100 
183 885 344 147 108 92 
182 886 344 134 97 81 
182 887 344 131 96 79 
183 886 344 139 101 85 
183 887 344 132 97 81 
176 888 343 152 118 98 
176 889 343 143 109 89 
177 888 343 150 116 97 
176 890 343 140 110 92 
176 891 343 136 106 93 
178 888 343 150 116 98 
179 888 343 147 114 96 
177 889 344 144 109 90 
176 890 344 139 108 91 
176 891 344 130 98 87 
177 890 344 139 107 90 
177 891 344 132 100 89 
178 888 344 147 113 95 
178 889 344 143 109 91 
179 888 344 145 113 95 
179 889 344 141 108 91 
178 890 344 138 105 90 
178 891 344 131 98 87 
179 890 344 137 104 88 
179 891 344 132 98 87 
176 892 344 117 83 77 
176 893 344 117 93 90 
177 892 344 118 85 77 
177 893 344 119 96 91 
176 894 344 104 88 84 
176 895 344 79 66 60 
177 894 344 103 86 80 
177 895 344 83 69 61 
178 892 344 118 86 77 
178 893 344 121 96 91 
179 892 344 121 87 80 
179 893 344 118 90 85 
178 894 344 112 94 88 
178 895 344 83 69 63 
179 894 344 120 102 97 
179 895 344 97 81 79 
179 895 345 96 80 79 
180 888 344 140 109 91 
180 889 344 140 109 91 
181 888 344 133 102 85 
181 889 344 136 106 90 
180 890 344 135 103 87 
180 891 344 133 99 88 
181 890 344 136 105 90 
181 891 344 135 103 90 
182 888 344 127 96 80 
182 889 344 128 100 83 
183 888 344 126 93 77 
183 889 344 123 93 76 
182 890 344 131 103 88 
182 891 344 131 102 88 
183 890 344 127 99 83 
183 890 345 125 97 81 
183 891 345 127 100 84 
180 892 344 123 90 82 
180 893 344 116 85 79 
181 892 344 127 94 85 
181 893 344 120 86 81 
181 893 345 117 83 77 
180 894 344 119 95 91 
180 894 345 119 93 89 
180 895 344 113 97 94 
180 895 345 116 97 94 
181 894 344 117 86 82 
181 894 345 114 84 79 
181 895 345 112 88 83 
182 892 344 129 97 85 
182 892 345 127 96 84 
182 893 344 124 90 82 
182 893 345 117 83 75 
183 892 345 126 96 82 
183 893 345 119 85 73 
182 894 345 105 70 62 
182 895 345 97 70 60 
183 894 345 106 71 59 
183 895 345 96 65 53 
183 895 346 95 65 55 
184 880 344 165 126 107 
184 880 345 170 131 111 
184 881 344 168 128 108 
184 881 345 172 132 112 
185 880 345 171 131 111 
185 881 345 174 133 114 
185 880 346 173 131 112 
185 880 347 175 131 114 
185 881 346 176 133 115 
185 881 347 178 135 117 
184 882 344 169 129 110 
184 882 345 172 131 112 
184 883 344 168 127 109 
184 883 345 171 130 112 
185 882 345 175 133 114 
185 883 345 174 132 114 
185 882 346 177 134 116 
185 882 347 179 135 117 
185 883 346 177 133 115 
185 883 347 179 134 117 
186 880 347 176 133 116 
186 881 347 179 135 118 
186 882 347 180 135 118 
186 883 347 180 134 118 
186 880 348 176 132 115 
186 880 349 177 132 115 
186 881 348 179 135 118 
186 881 349 179 134 118 
187 881 349 180 134 119 
186 880 350 178 132 116 
187 880 350 178 132 116 
187 880 351 180 133 117 
187 881 350 180 134 119 
187 881 351 180 133 119 
186 882 348 181 136 120 
186 882 349 181 135 120 
186 883 348 182 134 119 
187 882 349 181 135 120 
187 883 348 182 134 119 
187 883 349 181 134 119 
187 882 350 181 135 120 
187 882 351 180 133 119 
187 883 350 180 133 119 
184 884 344 164 124 106 
184 884 345 169 129 110 
184 885 344 156 116 99 
184 885 345 160 119 102 
185 884 345 171 130 111 
185 885 345 167 125 107 
185 884 346 174 130 113 
185 885 346 168 124 108 
184 886 344 148 109 93 
184 886 345 151 111 95 
184 887 344 137 100 84 
184 887 345 142 104 88 
185 886 345 157 115 99 
185 887 345 148 109 93 
185 886 346 160 117 102 
185 887 346 154 112 97 
186 884 347 179 132 117 
186 885 346 173 127 112 
186 885 347 177 130 115 
187 885 347 177 130 115 
186 886 346 166 121 106 
186 886 347 171 124 109 
186 887 346 158 115 100 
186 887 347 164 120 104 
187 886 347 174 127 112 
187 887 347 169 123 107 
186 884 348 181 133 119 
187 884 348 183 135 120 
187 884 349 182 134 120 
187 885 348 181 132 118 
187 885 349 182 134 119 
187 886 348 177 129 114 
187 886 349 180 132 117 
187 887 348 173 126 110 
188 880 351 182 134 119 
188 881 351 181 133 118 
188 882 350 180 134 120 
188 882 351 180 132 118 
188 883 350 180 133 118 
188 883 351 179 132 117 
189 883 351 179 131 117 
188 885 349 182 134 120 
188 884 350 180 133 118 
188 884 351 179 132 117 
188 885 350 182 135 120 
189 884 351 179 131 117 
189 885 351 180 133 118 
188 886 349 179 131 115 
188 887 349 176 128 112 
188 886 350 180 133 117 
188 887 350 178 130 114 
189 886 350 181 134 118 
189 886 351 182 135 120 
189 887 350 180 132 116 
190 885 351 181 133 118 
190 886 351 186 139 123 
190 887 351 186 139 122 
191 887 351 191 143 127 
184 888 344 130 95 79 
184 888 345 137 101 85 
184 889 344 127 92 77 
184 889 345 128 95 78 
185 888 345 143 106 91 
185 889 345 136 103 86 
185 888 346 147 110 94 
185 889 346 140 107 90 
184 890 345 125 95 79 
184 891 345 125 97 81 
185 890 345 131 101 84 
185 890 346 132 102 85 
185 891 346 128 98 81 
186 888 346 152 113 97 
186 888 347 158 117 101 
186 889 346 145 111 95 
186 889 347 151 115 99 
187 888 347 165 121 105 
187 889 347 155 117 101 
186 890 346 137 107 90 
186 890 347 145 113 97 
186 891 346 136 107 91 
186 891 347 140 110 95 
187 890 347 150 116 100 
187 891 347 144 111 96 
187 888 348 166 122 106 
187 889 348 160 119 103 
187 890 348 153 116 101 
187 891 348 147 112 97 
184 892 345 125 95 79 
184 893 345 124 91 77 
184 893 346 125 92 79 
185 892 346 129 101 85 
185 893 346 128 98 83 
184 894 345 114 80 66 
184 894 346 117 84 70 
184 895 346 106 75 63 
185 894 346 120 87 74 
185 894 347 117 88 73 
185 895 346 112 81 66 
185 895 347 110 82 67 
186 892 346 136 109 94 
186 892 347 137 110 95 
186 893 346 134 107 93 
186 893 347 130 103 90 
187 892 347 137 108 93 
187 893 347 133 107 92 
186 894 347 123 96 81 
186 895 347 114 89 72 
187 892 348 142 110 95 
187 893 348 135 108 91 
186 895 348 117 93 75 
187 894 348 127 102 85 
187 895 348 122 98 79 
188 888 349 172 125 109 
188 889 349 166 122 105 
188 888 350 175 127 111 
189 888 350 177 129 112 
189 889 350 173 126 109 
188 890 348 156 117 102 
188 890 349 159 118 101 
188 891 348 151 114 99 
188 891 349 153 115 99 
189 890 350 166 122 104 
189 891 350 159 118 100 
190 888 351 185 138 121 
190 889 351 183 137 119 
191 888 351 193 146 129 
191 889 351 194 147 129 
190 890 350 175 130 111 
190 890 351 183 137 118 
190 891 350 169 126 106 
190 891 351 178 133 113 
191 890 351 193 147 128 
191 891 351 188 142 122 
188 892 348 143 111 96 
188 892 349 147 112 96 
188 893 349 139 108 91 
189 893 349 144 109 91 
189 892 350 153 114 96 
189 893 350 148 111 92 
188 894 349 133 104 85 
188 895 349 127 100 80 
188 895 350 131 102 81 
189 894 350 139 105 87 
189 895 350 136 105 84 
189 895 351 139 108 87 
190 892 350 163 121 101 
190 892 351 171 127 108 
190 893 350 155 115 95 
190 893 351 161 119 100 
191 892 351 182 138 118 
191 893 351 170 126 107 
190 894 350 147 109 89 
190 894 351 148 110 89 
190 895 351 147 112 91 
191 894 351 157 116 95 
191 895 351 153 115 94 
188 870 352 129 102 82 
188 871 352 143 111 89 
188 871 353 138 109 86 
189 870 352 123 96 76 
189 870 353 133 107 84 
189 871 353 138 109 85 
189 871 354 142 112 87 
190 869 352 103 71 50 
191 869 352 118 87 66 
191 869 353 129 104 82 
190 870 352 115 89 71 
190 870 353 132 106 84 
191 870 353 134 108 86 
190 870 354 135 108 84 
190 871 354 143 114 89 
191 870 354 136 109 85 
191 871 354 146 116 93 
191 871 355 151 121 99 
187 872 352 157 118 99 
187 873 352 167 125 108 
187 873 353 170 130 111 
187 874 352 175 130 113 
187 874 353 177 134 116 
187 875 352 179 134 116 
187 875 353 181 136 118 
187 876 352 182 135 117 
187 877 352 182 135 116 
187 878 352 182 134 116 
188 872 352 148 114 91 
188 872 353 153 118 96 
188 873 353 171 130 112 
188 872 354 162 125 106 
188 873 354 170 130 113 
189 872 354 155 121 100 
189 873 354 174 133 116 
189 873 355 181 139 123 
188 874 353 177 135 117 
188 875 353 182 137 119 
188 874 354 179 137 119 
188 875 354 185 139 123 
189 874 354 185 141 124 
189 874 355 188 142 126 
189 875 354 188 141 125 
189 875 355 191 142 128 
190 872 354 160 128 106 
190 872 355 166 133 113 
190 873 355 185 142 126 
191 872 355 169 132 114 
191 873 355 184 140 125 
190 874 355 190 140 125 
190 875 355 192 139 126 
191 874 355 189 137 123 
191 875 355 193 139 125 
188 876 353 184 138 119 
188 877 352 184 135 117 
188 877 353 186 138 121 
188 876 354 187 140 124 
189 876 354 191 142 127 
189 877 354 192 141 126 
188 878 352 184 135 118 
188 878 353 185 136 119 
188 879 352 184 135 119 
188 879 353 185 135 120 
189 878 353 187 136 121 
189 879 353 187 136 122 
189 878 354 191 139 124 
189 879 354 188 137 123 
190 876 355 196 142 129 
190 877 354 196 143 129 
190 877 355 197 144 130 
191 876 355 197 143 129 
191 877 355 198 144 131 
190 878 354 194 142 128 
190 878 355 196 143 130 
190 879 354 191 139 125 
191 878 354 196 144 130 
191 878 355 197 144 130 
191 879 354 194 142 129 
188 880 352 184 135 121 
188 881 352 182 133 119 
189 880 353 184 135 121 
189 881 352 180 131 117 
189 881 353 181 132 117 
188 882 352 180 131 117 
189 882 352 179 131 117 
189 883 352 180 131 118 
190 880 353 186 135 121 
190 881 353 184 134 120 
191 881 353 188 138 125 
190 880 354 188 136 123 
191 880 354 191 139 127 
191 881 354 190 139 127 
190 882 352 182 133 119 
190 882 353 184 135 122 
190 883 352 184 135 122 
191 882 353 189 140 128 
191 883 352 189 139 126 
191 883 353 190 140 128 
190 884 352 184 134 121 
190 885 352 185 136 122 
191 884 352 191 141 128 
191 885 352 191 141 127 
191 886 352 192 144 128 
191 887 352 195 146 130 
191 895 352 155 118 97 
192 839 318 118 89 61 
192 839 319 119 91 63 
193 839 318 120 91 63 
193 839 319 122 93 66 
194 839 318 123 93 65 
194 839 319 124 94 67 
195 839 318 124 93 66 
195 839 319 125 94 68 
196 839 318 125 93 66 
196 839 319 125 94 68 
197 839 318 126 93 66 
197 839 319 127 94 67 
198 839 318 127 93 66 
198 839 319 128 94 67 
199 839 318 128 93 66 
199 839 319 129 94 67 
192 842 307 105 79 49 
192 843 307 105 79 49 
193 842 306 103 78 46 
193 842 307 105 79 48 
194 842 306 102 77 45 
194 842 307 104 79 47 
195 842 306 102 77 44 
195 842 307 105 79 45 
192 841 311 112 84 55 
193 841 311 113 84 55 
192 842 308 107 82 52 
192 842 309 110 83 54 
193 842 308 107 81 51 
193 842 309 110 83 52 
192 842 310 111 84 55 
192 842 311 112 84 55 
193 842 310 111 83 54 
193 842 311 112 84 55 
194 841 311 113 84 55 
195 841 310 114 84 54 
195 841 311 114 85 55 
194 842 308 107 81 49 
194 842 309 110 82 51 
195 842 308 108 81 49 
195 842 309 110 82 52 
194 842 310 112 83 53 
195 842 310 112 84 54 
196 842 306 103 78 45 
196 842 307 106 80 47 
197 842 306 105 79 48 
197 842 307 108 81 50 
198 842 306 106 80 50 
198 842 307 109 81 52 
199 842 306 107 81 52 
199 842 307 110 82 53 
196 841 310 114 84 55 
196 841 311 115 85 55 
197 841 310 115 84 55 
197 841 311 116 85 56 
196 842 308 109 81 50 
196 842 309 112 83 53 
197 842 308 110 82 52 
197 842 309 113 83 53 
196 842 310 114 84 54 
198 841 310 116 84 55 
198 841 311 117 85 56 
199 841 310 116 84 56 
199 841 311 118 85 56 
198 842 308 112 83 53 
198 842 309 114 83 54 
199 842 308 112 83 54 
199 842 309 114 84 55 
192 841 312 112 84 56 
192 841 313 113 85 56 
193 841 312 113 85 56 
193 841 313 114 85 56 
192 840 315 115 86 58 
192 841 314 114 86 57 
192 841 315 115 86 57 
193 840 315 117 87 58 
193 841 314 115 86 57 
194 841 312 114 85 56 
194 841 313 115 86 57 
195 841 312 115 85 56 
195 841 313 116 86 57 
194 840 315 118 88 59 
194 841 314 117 87 58 
195 840 314 118 87 59 
195 840 315 119 88 60 
195 841 314 118 87 58 
192 840 316 116 87 58 
192 840 317 117 88 59 
193 840 316 118 88 60 
193 840 317 119 89 61 
192 840 318 117 89 61 
194 840 316 119 89 61 
194 840 317 121 90 63 
195 840 316 121 90 61 
195 840 317 122 91 63 
196 841 312 116 85 56 
196 841 313 118 86 57 
197 841 312 117 86 57 
197 841 313 119 87 58 
196 840 314 119 88 59 
196 840 315 121 89 60 
196 841 314 119 87 59 
197 840 314 121 88 60 
197 840 315 122 89 61 
197 841 314 121 88 59 
198 841 312 118 86 57 
198 841 313 120 87 58 
199 841 312 119 86 57 
199 841 313 121 87 58 
198 840 315 123 89 61 
198 841 314 122 88 60 
199 840 315 124 89 61 
199 841 314 123 88 60 
199 841 315 124 89 60 
196 840 316 122 90 62 
196 840 317 124 91 64 
197 840 316 123 90 62 
197 840 317 125 92 64 
198 840 316 125 91 63 
198 840 317 126 92 64 
199 840 316 126 91 63 
199 840 317 127 92 64 
198 840 318 127 93 65 
199 840 318 128 93 65 
200 839 319 130 94 67 
201 839 319 131 94 67 
200 842 306 107 81 53 
200 842 307 110 82 53 
201 842 306 106 82 53 
201 842 307 109 82 53 
202 842 306 107 82 52 
202 842 307 108 83 52 
203 842 306 106 82 51 
203 842 307 109 83 51 
200 841 310 118 85 56 
200 841 311 119 85 57 
201 841 311 121 86 58 
200 842 308 112 83 54 
200 842 309 115 84 55 
201 842 308 112 83 54 
201 842 309 115 84 55 
200 842 310 117 85 56 
201 842 310 119 85 57 
201 842 311 121 86 58 
202 841 311 123 87 59 
202 842 308 111 84 52 
202 842 309 116 85 55 
203 842 308 112 84 51 
203 842 309 117 86 55 
202 842 310 120 86 59 
202 842 311 123 87 60 
203 842 310 123 88 60 
203 842 311 126 89 63 
204 842 307 110 84 51 
204 843 307 110 84 50 
205 843 307 112 85 50 
206 843 307 120 88 57 
207 843 307 125 90 61 
204 842 308 113 85 52 
204 842 309 119 88 55 
204 843 308 114 86 53 
205 843 308 117 87 54 
205 843 309 122 89 58 
204 842 310 125 89 60 
204 842 311 128 89 62 
205 842 310 127 90 60 
205 842 311 129 90 61 
205 843 310 128 91 61 
205 843 311 129 90 61 
206 843 308 123 89 59 
206 843 309 126 90 61 
207 843 308 127 90 61 
207 843 309 128 88 61 
206 843 310 128 90 60 
206 843 311 129 90 61 
207 843 310 129 89 61 
207 843 311 130 89 60 
207 844 307 127 89 60 
207 844 308 129 89 61 
207 844 309 129 88 60 
207 844 310 130 88 61 
200 841 312 121 86 58 
200 841 313 123 87 59 
201 841 312 123 87 59 
201 841 313 124 87 59 
200 840 315 126 90 61 
200 841 314 124 88 60 
200 841 315 125 89 61 
201 841 314 126 89 60 
201 841 315 127 89 61 
202 841 312 125 88 60 
202 841 313 127 88 60 
203 841 312 127 88 61 
203 841 313 128 89 61 
202 841 314 128 89 60 
202 841 315 129 89 61 
203 841 314 130 89 61 
203 841 315 131 89 61 
203 842 312 127 89 61 
203 842 313 128 89 61 
200 840 316 127 91 62 
200 840 317 128 92 64 
201 840 316 128 91 62 
201 840 317 130 92 64 
201 841 316 129 90 62 
200 840 318 129 93 65 
201 840 318 130 93 65 
201 840 319 131 94 66 
202 840 317 131 92 63 
202 841 316 130 91 62 
202 841 317 131 91 63 
203 840 317 132 92 63 
203 841 316 132 91 62 
203 841 317 132 91 63 
202 840 318 132 93 65 
202 840 319 132 94 66 
203 840 318 133 92 64 
203 840 319 133 93 66 
204 841 314 131 90 61 
204 841 315 132 90 61 
205 841 315 132 92 61 
204 842 312 129 89 62 
204 842 313 130 89 62 
205 842 312 131 88 59 
205 842 313 132 89 59 
204 842 314 131 90 62 
205 842 314 132 91 60 
205 842 315 133 92 60 
206 842 312 132 89 59 
206 842 313 134 90 61 
206 843 312 131 89 60 
207 842 313 134 91 62 
207 843 312 130 89 58 
207 843 313 133 91 61 
206 842 314 134 92 62 
206 842 315 134 94 62 
207 842 314 134 92 63 
207 842 315 135 94 63 
207 843 314 134 93 63 
204 841 316 132 91 61 
204 841 317 133 92 63 
205 841 316 132 92 61 
205 841 317 133 93 64 
204 840 318 133 92 64 
204 840 319 134 93 66 
204 841 318 133 92 64 
205 840 318 134 93 66 
205 840 319 135 93 67 
205 841 318 134 93 66 
206 841 316 133 94 62 
206 841 317 133 95 63 
207 841 317 134 97 62 
206 840 319 134 94 67 
206 841 318 134 95 67 
206 841 319 135 95 69 
207 841 318 134 97 64 
207 841 319 134 96 68 
206 842 316 134 95 62 
207 842 316 135 96 62 
207 842 317 134 97 63 
208 844 307 129 88 58 
209 844 307 129 86 55 
208 844 308 129 88 59 
208 844 309 130 88 59 
209 844 308 129 85 53 
209 844 309 129 86 53 
208 844 310 130 88 59 
208 844 311 131 88 60 
209 844 310 129 85 53 
209 844 311 129 86 54 
210 845 308 128 84 53 
210 845 309 129 85 52 
211 845 308 129 84 55 
211 845 309 129 85 54 
210 844 311 130 87 55 
210 845 310 130 86 53 
210 845 311 132 89 56 
211 845 310 131 88 56 
211 845 311 132 90 58 
212 845 310 133 89 59 
212 845 311 134 92 61 
212 846 308 129 84 56 
212 846 309 131 86 58 
213 846 308 131 86 57 
213 846 309 132 87 60 
213 847 309 134 89 63 
212 846 310 132 88 59 
212 846 311 135 92 62 
213 846 310 134 89 62 
213 846 311 136 93 64 
213 847 310 136 91 63 
213 847 311 137 92 65 
214 847 309 134 89 61 
215 847 309 135 90 61 
214 847 310 136 91 63 
214 847 311 138 94 65 
215 847 310 137 92 64 
215 847 311 139 95 66 
208 843 312 130 88 58 
208 843 313 131 90 59 
209 843 313 132 91 60 
208 842 315 135 96 65 
208 843 314 133 94 63 
208 843 315 134 96 66 
209 843 314 134 94 64 
209 843 315 135 95 66 
210 843 315 136 97 69 
208 841 318 135 98 65 
208 841 319 134 97 67 
208 842 316 136 97 66 
208 842 317 136 97 66 
209 842 317 136 98 68 
209 843 316 136 98 67 
209 843 317 137 99 69 
208 842 318 136 98 66 
208 842 319 136 98 68 
209 842 318 137 98 68 
209 842 319 138 99 69 
210 843 316 137 97 69 
210 843 317 137 98 69 
210 842 318 138 99 69 
210 842 319 139 101 70 
210 843 318 138 99 70 
210 843 319 140 102 72 
211 843 318 140 101 72 
211 843 319 142 103 73 
208 844 312 130 88 58 
209 844 312 131 87 58 
209 844 313 131 90 59 
209 844 314 133 93 63 
210 844 312 132 89 60 
210 844 313 135 93 65 
210 845 312 132 90 59 
211 844 313 137 96 68 
211 845 312 134 92 61 
211 845 313 137 95 66 
210 844 314 137 96 68 
210 844 315 137 97 69 
211 844 314 140 99 72 
211 844 315 141 101 73 
211 845 314 140 98 72 
210 844 316 138 98 70 
211 844 316 140 101 73 
211 844 317 140 101 73 
211 844 318 141 102 72 
211 844 319 142 104 74 
212 845 312 136 94 64 
212 845 313 139 97 68 
213 845 313 142 101 71 
212 845 314 142 100 73 
212 845 315 143 101 74 
213 845 314 143 101 73 
213 845 315 144 101 73 
212 846 312 136 94 63 
213 846 312 138 95 67 
213 846 313 141 99 69 
213 846 314 143 101 72 
213 846 315 144 102 72 
214 846 313 142 100 71 
214 847 312 140 97 70 
214 847 313 142 100 71 
215 847 312 141 98 70 
215 847 313 143 101 72 
214 846 314 144 102 71 
214 846 315 145 102 71 
214 847 314 143 102 70 
215 847 314 144 103 72 
215 847 315 145 104 72 
212 844 316 142 103 74 
212 844 317 142 102 73 
212 845 316 143 102 73 
212 845 317 143 103 73 
213 845 316 144 103 74 
213 845 317 145 105 74 
212 844 318 143 104 74 
212 844 319 144 107 76 
213 845 318 146 107 75 
213 845 319 148 110 78 
213 846 316 145 104 74 
214 846 316 146 104 73 
214 846 317 147 106 75 
215 846 316 147 105 73 
215 846 317 148 107 75 
215 847 316 146 105 73 
215 847 317 149 108 76 
214 846 318 150 110 77 
214 846 319 151 112 79 
215 846 318 151 111 79 
215 846 319 153 113 81 
215 847 318 151 111 79 
215 847 319 153 113 81 
216 847 314 145 104 74 
216 847 315 146 105 74 
216 847 316 148 107 76 
216 847 317 150 109 78 
216 847 318 152 111 80 
216 847 319 154 113 81 
215 848 309 135 90 61 
215 848 310 138 94 65 
215 848 311 140 97 66 
215 848 312 141 98 69 
216 848 309 137 92 63 
216 848 310 139 95 66 
216 848 311 141 97 68 
217 848 311 143 99 69 
217 849 310 140 97 67 
217 849 311 143 100 70 
218 849 310 140 97 67 
218 849 311 144 101 71 
218 850 310 143 99 70 
218 850 311 145 102 72 
219 850 310 144 102 72 
219 850 311 146 104 74 
219 851 311 147 104 74 
220 851 311 147 105 75 
220 852 311 148 106 76 
221 852 311 147 106 76 
221 853 311 147 106 76 
222 853 311 148 107 77 
216 848 312 143 100 70 
216 848 313 144 102 73 
217 848 312 144 101 70 
217 848 313 145 102 73 
217 849 312 144 101 71 
217 849 313 146 103 74 
216 848 314 146 103 74 
216 848 315 147 105 75 
217 848 314 147 104 76 
217 848 315 148 106 76 
217 849 314 148 105 77 
217 849 315 150 107 78 
218 849 312 145 102 72 
218 849 313 147 104 74 
218 849 314 149 106 78 
218 849 315 150 107 78 
218 850 312 146 103 73 
218 850 313 148 105 74 
219 850 312 148 105 74 
219 850 313 149 105 75 
219 850 314 150 106 77 
219 850 315 152 109 79 
216 848 316 148 107 76 
217 848 316 150 108 77 
217 848 317 151 110 78 
217 849 316 150 108 78 
217 849 317 151 109 78 
216 848 318 153 112 81 
216 848 319 154 113 82 
217 848 318 152 111 80 
217 848 319 154 113 81 
217 849 318 153 112 80 
217 849 319 154 114 82 
218 849 316 151 109 79 
218 849 317 152 110 79 
218 849 318 154 112 80 
218 849 319 154 113 81 
219 850 316 154 111 80 
219 850 317 154 112 81 
218 850 318 154 113 81 
218 850 319 155 114 82 
219 850 318 155 112 82 
219 850 319 154 113 81 
219 851 318 154 111 80 
219 851 319 154 111 80 
220 851 312 148 106 75 
220 851 313 150 107 76 
220 851 314 151 109 78 
220 851 315 155 112 82 
220 851 316 155 113 82 
220 851 317 155 112 81 
220 851 318 154 111 80 
220 851 319 154 111 80 
220 852 312 148 106 76 
221 852 312 148 106 76 
221 852 313 150 108 77 
221 853 312 149 107 77 
221 853 313 150 108 78 
221 852 314 152 109 78 
221 852 315 154 111 80 
221 853 314 152 110 80 
221 853 315 154 111 79 
222 853 312 149 107 77 
222 853 313 150 108 78 
222 853 314 151 109 78 
222 853 315 153 110 79 
222 854 312 149 107 78 
222 854 313 150 108 77 
223 854 312 149 107 78 
223 854 313 150 108 78 
223 855 312 150 108 78 
223 855 313 150 107 77 
222 854 314 151 108 78 
222 854 315 153 110 79 
223 854 314 150 108 78 
223 855 314 151 108 78 
223 855 315 153 110 80 
220 852 317 154 111 80 
221 852 316 155 113 82 
221 852 317 155 111 81 
221 853 316 155 112 82 
221 853 317 155 112 81 
220 852 318 154 110 80 
220 852 319 154 111 80 
220 853 319 154 111 80 
221 852 318 154 110 79 
221 853 318 154 111 80 
221 853 319 154 111 81 
221 854 317 154 111 81 
221 854 318 154 111 80 
221 854 319 154 111 80 
222 853 316 155 111 81 
222 854 316 154 111 81 
222 854 317 154 111 81 
222 855 316 154 110 81 
222 855 317 154 110 80 
223 855 316 154 110 80 
223 855 317 154 110 80 
222 854 318 154 111 80 
222 854 319 155 111 80 
222 855 318 155 110 80 
222 855 319 155 111 80 
223 856 313 150 107 77 
223 856 314 152 108 79 
223 856 315 153 109 80 
223 856 316 154 110 81 
223 856 317 154 110 81 
223 857 316 154 110 81 
223 857 317 155 110 81 
222 856 318 155 111 80 
222 856 319 155 110 80 
223 856 318 155 110 80 
223 857 318 155 110 80 
223 857 319 155 110 80 
223 858 318 155 108 79 
223 858 319 155 108 78 
224 856 313 150 108 78 
224 857 313 150 107 78 
224 856 314 151 108 79 
224 857 314 151 107 78 
224 857 315 152 108 79 
224 858 314 151 106 78 
224 858 315 152 106 77 
225 858 314 150 106 77 
225 859 314 150 105 76 
225 859 315 152 105 78 
224 857 316 154 109 80 
224 857 317 154 109 80 
224 858 316 153 107 78 
224 858 317 154 108 79 
224 859 316 153 106 77 
224 859 317 153 106 78 
225 859 316 153 106 78 
224 858 318 155 108 80 
224 858 319 154 106 76 
224 859 318 154 108 79 
224 859 319 154 108 78 
225 860 315 151 106 77 
226 861 315 151 107 78 
225 860 316 152 106 79 
225 860 317 153 106 78 
225 861 316 152 107 78 
225 861 317 153 107 78 
224 860 318 155 107 79 
224 860 319 155 110 79 
224 861 319 156 110 81 
225 860 318 154 106 77 
225 861 318 154 107 78 
225 861 319 155 109 80 
225 862 318 153 107 78 
225 862 319 154 108 79 
225 863 318 153 108 78 
225 863 319 155 109 80 
226 861 316 152 107 78 
226 862 316 152 108 79 
226 862 317 152 108 78 
226 863 316 153 109 81 
226 863 317 153 110 80 
226 862 318 152 107 78 
226 863 318 153 108 79 
226 864 317 153 109 80 
227 864 317 154 110 81 
227 865 317 154 109 82 
226 864 318 153 109 80 
226 864 319 155 110 80 
226 865 318 154 111 81 
226 865 319 154 110 80 
227 865 318 155 111 82 
226 866 319 154 109 79 
227 866 318 154 109 81 
227 866 319 154 109 79 
227 867 318 153 106 79 
227 867 319 154 108 77 
227 868 319 154 107 76 
227 869 319 153 106 79 
228 869 319 152 105 79 
192 838 321 123 95 70 
192 839 320 121 93 66 
192 839 321 122 94 68 
193 838 321 124 96 70 
193 839 320 123 94 68 
193 839 321 124 95 69 
192 838 322 123 96 70 
192 838 323 123 96 71 
193 838 322 124 96 71 
193 838 323 124 97 72 
194 838 321 125 96 71 
194 839 320 125 95 69 
194 839 321 125 96 70 
195 839 320 125 95 69 
195 839 321 126 96 70 
194 838 322 125 97 71 
194 838 323 126 98 73 
195 838 322 126 97 72 
195 838 323 127 98 73 
192 837 324 123 97 73 
192 837 325 123 98 73 
193 837 324 124 98 73 
193 837 325 125 98 74 
192 837 326 124 98 75 
192 837 327 125 100 76 
193 837 326 125 99 76 
193 837 327 127 101 78 
192 838 324 123 97 72 
193 838 324 124 97 73 
194 837 324 126 98 74 
194 837 325 126 99 75 
195 837 324 128 99 75 
195 837 325 128 100 76 
194 837 326 127 100 77 
194 837 327 128 101 79 
195 837 326 129 101 78 
195 837 327 129 102 80 
194 838 324 126 98 74 
195 838 324 127 99 74 
196 839 320 126 96 69 
196 839 321 127 97 71 
197 839 320 128 96 69 
197 839 321 128 97 70 
196 838 322 128 98 72 
196 838 323 129 99 74 
197 838 322 129 98 72 
197 838 323 130 99 74 
198 839 320 129 95 69 
198 839 321 129 97 70 
199 839 320 129 96 69 
199 839 321 130 97 70 
198 838 322 130 98 72 
198 838 323 130 99 73 
199 838 322 130 98 71 
199 838 323 131 99 73 
196 837 325 130 101 77 
197 837 325 132 102 78 
196 837 326 130 101 78 
196 837 327 130 102 80 
197 837 326 131 101 78 
197 837 327 131 102 80 
196 838 324 130 101 76 
197 838 324 132 101 76 
197 838 325 131 100 76 
198 837 325 131 100 76 
198 837 326 131 101 78 
198 837 327 131 101 79 
199 837 326 132 101 77 
199 837 327 132 102 79 
198 838 324 130 99 75 
198 838 325 130 100 75 
199 838 324 131 100 74 
199 838 325 131 100 76 
192 837 328 127 102 79 
192 837 329 131 104 82 
193 837 328 129 103 80 
193 837 329 133 106 84 
192 838 329 134 105 84 
192 838 330 137 107 86 
192 839 331 145 111 94 
193 838 330 137 107 87 
193 838 331 142 109 90 
193 839 331 146 111 94 
194 837 328 129 102 80 
194 837 329 133 106 84 
195 837 328 130 102 81 
195 837 329 133 105 83 
195 837 330 136 107 85 
194 838 330 138 108 87 
194 838 331 142 109 89 
194 839 331 145 112 93 
195 838 330 138 107 86 
195 838 331 142 110 89 
195 839 331 147 113 94 
193 839 332 148 112 95 
194 839 332 150 114 97 
195 839 332 151 117 99 
196 837 328 131 103 81 
196 837 329 133 105 83 
197 837 328 132 103 82 
197 837 329 134 105 84 
197 838 329 137 107 85 
196 838 330 138 108 86 
196 838 331 143 111 91 
196 839 331 147 114 94 
197 838 330 140 109 88 
197 838 331 145 112 92 
197 839 331 148 114 95 
198 837 328 133 103 81 
198 837 329 136 105 84 
199 837 328 134 103 81 
198 838 329 138 107 86 
199 838 328 135 104 81 
199 838 329 138 106 84 
198 838 330 142 110 90 
198 839 331 150 115 95 
199 838 330 144 112 90 
199 839 330 149 115 94 
199 839 331 151 116 96 
196 839 332 152 117 99 
197 839 332 153 117 99 
198 839 332 156 119 101 
192 840 331 151 114 98 
192 840 332 155 117 102 
192 841 332 162 122 108 
193 840 332 153 116 101 
193 841 332 162 122 109 
193 841 333 164 124 110 
192 842 332 165 124 110 
192 842 333 165 123 110 
192 843 333 166 123 110 
193 842 332 164 123 109 
193 842 333 165 123 110 
193 843 333 165 121 108 
194 840 332 157 121 105 
194 841 332 164 126 111 
194 841 333 165 125 110 
195 840 332 159 123 107 
195 841 332 165 127 112 
195 841 333 165 126 110 
194 842 333 165 124 109 
194 843 333 164 120 107 
195 842 333 165 124 109 
195 843 333 165 122 108 
192 844 333 167 123 110 
192 845 333 164 123 108 
193 844 333 165 120 107 
193 845 333 163 120 106 
192 845 334 156 118 101 
193 845 334 156 117 100 
192 846 334 142 109 86 
192 847 334 134 104 79 
192 847 335 129 102 77 
193 846 334 142 107 86 
193 847 334 133 102 77 
193 847 335 127 99 74 
194 844 333 163 118 105 
194 845 333 162 118 104 
195 844 333 163 119 105 
195 845 333 162 119 105 
194 845 334 157 116 100 
195 845 334 158 118 101 
194 846 334 143 107 86 
194 847 334 133 101 77 
194 847 335 128 99 74 
195 846 334 144 109 88 
195 847 334 135 103 79 
195 847 335 128 100 75 
199 840 331 157 121 103 
196 840 332 161 125 108 
196 841 333 165 126 110 
197 840 332 160 123 106 
197 841 332 163 125 109 
197 841 333 164 124 108 
196 842 333 165 124 109 
196 843 333 165 123 109 
197 842 333 164 124 109 
197 843 333 164 123 108 
198 840 332 158 121 103 
198 841 332 163 124 107 
198 841 333 164 124 108 
199 840 332 160 123 105 
199 841 332 164 125 108 
199 841 333 164 126 108 
198 842 333 164 124 108 
198 843 333 163 122 106 
199 842 333 164 125 108 
199 843 333 162 122 105 
196 844 333 164 120 106 
196 845 333 163 121 105 
197 844 333 162 120 105 
197 845 333 161 120 104 
196 845 334 158 118 102 
197 845 334 157 119 101 
196 846 334 146 110 90 
196 847 334 136 106 82 
196 847 335 130 102 77 
197 846 334 147 113 91 
197 847 334 138 107 83 
197 847 335 133 105 80 
198 844 333 161 120 104 
198 845 333 158 118 101 
199 844 333 159 118 102 
199 845 333 155 116 98 
198 845 334 155 117 98 
199 845 334 151 114 94 
198 846 334 147 113 90 
198 847 334 139 110 84 
199 846 334 146 113 90 
199 847 334 140 111 85 
200 839 320 130 96 68 
200 839 321 131 96 69 
201 839 320 131 95 68 
201 839 321 131 96 69 
200 838 322 131 98 72 
200 838 323 132 99 72 
200 839 322 131 97 70 
201 838 322 132 98 71 
201 838 323 132 99 72 
201 839 322 132 97 70 
202 839 320 132 95 67 
202 839 321 132 95 68 
203 839 320 132 95 67 
203 839 321 133 95 68 
202 838 323 133 99 71 
202 839 322 133 96 70 
202 839 323 133 98 71 
203 839 322 133 96 69 
203 839 323 135 98 73 
200 838 324 132 100 74 
200 838 325 132 101 75 
201 838 324 133 100 73 
201 838 325 133 101 75 
200 838 326 133 102 77 
200 838 327 134 104 79 
201 838 326 135 103 78 
201 838 327 137 106 81 
202 838 324 134 99 72 
202 838 325 135 101 75 
202 839 324 135 100 74 
202 839 325 137 102 77 
203 839 324 136 100 75 
203 839 325 138 102 78 
202 838 326 137 103 79 
202 838 327 140 106 83 
202 839 326 139 104 80 
202 839 327 142 107 84 
203 839 326 141 105 81 
203 839 327 143 108 83 
204 839 321 133 94 68 
204 839 322 133 95 69 
204 839 323 135 98 73 
205 839 322 134 97 71 
205 839 323 136 98 74 
204 839 324 138 101 76 
204 839 325 140 103 78 
205 839 324 140 102 77 
205 839 325 141 105 78 
204 839 326 142 107 79 
204 839 327 145 110 82 
200 838 328 137 106 82 
200 838 329 141 108 85 
201 838 328 140 108 83 
201 838 329 142 110 85 
201 839 329 144 111 87 
200 838 330 145 112 90 
200 839 330 149 115 94 
200 839 331 154 119 99 
201 839 330 149 114 92 
201 839 331 154 119 98 
202 838 328 142 108 85 
202 839 328 144 109 85 
202 839 329 147 112 88 
203 839 328 146 112 86 
202 839 330 150 115 93 
203 840 320 133 94 66 
204 840 320 133 93 66 
204 840 321 133 94 67 
205 840 320 134 93 67 
205 840 321 134 94 67 
205 840 322 133 95 68 
205 840 323 136 100 74 
206 840 320 135 94 68 
206 840 321 135 93 68 
207 840 321 135 94 67 
207 841 320 135 96 68 
207 841 321 135 95 67 
206 840 322 135 95 69 
206 840 323 137 98 73 
207 840 322 136 94 68 
207 840 323 138 98 72 
207 841 322 136 95 68 
207 841 323 139 100 73 
205 840 324 140 103 77 
205 840 325 142 107 78 
204 840 326 144 109 81 
204 840 327 147 112 85 
205 840 326 145 110 82 
205 840 327 149 113 86 
206 840 324 140 103 77 
206 840 325 144 107 79 
207 841 324 142 104 78 
207 841 325 146 109 82 
206 840 326 147 111 82 
206 841 326 150 114 85 
206 841 327 152 115 88 
207 841 326 150 114 85 
207 842 326 152 116 87 
207 842 327 154 117 89 
200 840 331 158 122 103 
201 840 331 159 123 104 
203 840 328 149 114 88 
203 840 329 151 115 92 
202 840 330 154 119 98 
202 840 331 159 123 103 
202 841 331 161 124 103 
203 840 330 154 117 96 
203 841 330 158 121 100 
203 841 331 162 124 103 
203 842 331 163 124 102 
200 840 332 162 125 107 
200 841 332 164 126 108 
200 841 333 164 126 107 
201 840 332 163 125 107 
201 841 332 163 125 106 
200 842 333 164 126 107 
200 843 333 162 123 105 
201 842 332 163 124 104 
201 842 333 163 125 105 
201 843 333 162 123 104 
202 841 332 163 125 105 
202 842 332 162 123 101 
202 843 332 161 122 101 
202 843 333 161 122 102 
203 842 332 163 123 102 
203 843 332 161 121 100 
200 844 333 159 119 101 
200 845 333 153 114 95 
201 844 333 157 119 99 
201 845 333 150 111 91 
200 845 334 150 113 91 
201 845 334 148 111 89 
201 846 333 146 111 87 
200 846 334 146 113 90 
200 847 334 140 111 85 
201 846 334 145 112 88 
201 847 334 142 112 86 
202 844 332 159 120 100 
202 844 333 156 117 96 
202 845 333 148 110 88 
203 844 332 157 118 97 
203 844 333 154 116 95 
203 845 333 150 113 92 
202 846 333 145 110 87 
203 846 333 145 110 88 
203 847 333 143 109 86 
202 846 334 144 111 86 
202 847 334 143 112 86 
203 847 334 142 111 85 
204 840 328 151 115 90 
204 840 329 153 116 93 
204 841 329 155 118 94 
