ply
format ascii 1.0
comment Created by CloudCompare v2.10.1 (Zephyrus)
comment Created 1/31/20 5:52 PM
obj_info Generated by CloudCompare!
element vertex 1976
property float x
property float y
property float z
property uchar red
property uchar green
property uchar blue
end_header
152 408 211 89 104 121 
152 409 210 69 92 114 
152 409 211 78 97 116 
152 410 209 67 92 115 
152 411 208 65 89 112 
152 411 209 68 92 115 
153 410 208 63 89 113 
153 410 209 69 92 114 
153 411 208 63 88 112 
152 410 210 66 90 113 
152 411 210 67 92 114 
154 408 208 67 92 116 
152 412 208 65 89 113 
152 412 209 69 92 114 
152 413 208 57 85 110 
152 413 209 64 89 112 
153 412 208 62 87 111 
152 414 208 50 81 106 
152 415 208 53 80 103 
129 384 239 145 147 156 
129 385 239 108 120 136 
129 386 239 97 115 137 
129 387 239 111 129 152 
130 384 238 139 143 154 
130 384 239 143 145 156 
130 385 238 120 129 144 
130 385 239 116 126 141 
131 384 238 139 142 152 
131 385 238 131 137 150 
130 386 238 111 125 143 
130 386 239 103 119 139 
130 387 238 119 133 154 
130 387 239 117 133 155 
131 386 238 128 137 152 
131 387 238 121 135 155 
129 388 239 105 125 149 
129 389 239 95 117 143 
130 388 239 110 128 151 
130 389 239 105 125 148 
131 388 238 108 126 148 
131 389 238 109 126 147 
130 390 239 109 127 149 
130 391 239 104 124 147 
131 390 238 114 130 150 
131 390 239 115 131 152 
131 391 238 114 130 150 
131 391 239 109 127 149 
133 384 235 157 155 161 
134 384 235 156 154 159 
134 385 235 152 152 158 
135 384 234 152 151 158 
135 385 234 150 150 158 
134 386 235 136 141 151 
134 387 235 120 130 144 
135 386 234 137 141 150 
135 387 234 124 133 145 
135 387 235 113 125 140 
132 384 237 146 146 154 
132 385 237 151 151 159 
133 384 236 154 153 159 
133 385 236 155 155 162 
132 385 238 145 148 157 
132 386 237 148 151 161 
132 387 237 124 135 151 
133 386 236 147 150 160 
133 387 236 126 136 150 
133 387 237 126 136 151 
132 386 238 143 148 160 
132 387 238 122 135 153 
134 385 236 153 152 159 
134 386 236 142 145 154 
134 387 236 126 135 149 
134 388 235 108 122 140 
135 388 234 114 126 142 
135 388 235 109 123 140 
135 389 235 112 127 146 
135 390 235 114 129 148 
135 391 235 110 126 144 
132 388 237 103 121 141 
132 389 237 110 126 145 
133 388 236 113 127 145 
133 388 237 110 125 143 
133 389 236 113 128 146 
133 389 237 114 129 147 
132 388 238 104 123 143 
132 389 238 108 125 145 
132 390 237 115 129 148 
132 391 237 118 131 149 
133 390 237 113 128 146 
133 391 237 119 132 150 
132 390 238 115 130 148 
132 391 238 116 130 148 
134 388 236 112 126 144 
134 389 236 115 130 148 
134 390 236 114 129 147 
134 391 236 113 128 146 
130 392 239 93 117 142 
130 393 239 89 115 141 
131 392 238 96 118 142 
131 392 239 96 119 143 
131 393 238 96 118 141 
131 393 239 90 115 140 
130 394 239 93 116 140 
130 395 239 102 120 142 
131 394 238 104 124 145 
131 394 239 98 120 142 
131 395 238 107 124 143 
131 395 239 104 122 142 
130 396 239 111 126 146 
130 397 239 123 134 149 
131 396 239 118 130 146 
131 397 239 134 140 152 
130 398 239 131 137 149 
131 398 239 146 147 152 
131 399 239 147 146 150 
135 392 235 108 125 144 
135 393 235 110 127 147 
135 394 235 108 125 144 
135 395 235 112 125 143 
132 392 237 120 133 151 
132 393 237 116 131 150 
133 392 237 117 132 150 
133 393 237 111 127 146 
132 392 238 112 128 146 
132 393 238 110 127 146 
132 394 237 106 124 146 
133 394 237 107 124 144 
133 395 237 114 128 147 
132 394 238 109 126 146 
132 395 238 107 124 144 
134 392 236 110 127 146 
134 393 236 106 125 145 
134 394 236 108 125 145 
134 395 236 113 126 143 
135 396 235 101 116 134 
135 397 235 98 115 134 
135 398 235 107 122 141 
135 399 235 91 110 132 
133 396 237 112 125 142 
133 397 237 107 119 134 
132 396 238 118 130 146 
132 397 238 131 136 148 
133 398 237 119 127 140 
133 399 237 109 119 134 
132 398 238 144 145 151 
132 399 238 144 144 150 
133 399 238 114 123 136 
134 396 236 106 120 138 
134 397 236 86 105 126 
134 397 237 94 109 128 
134 398 236 96 111 130 
134 398 237 97 110 128 
134 399 236 105 118 137 
138 384 231 147 145 151 
139 384 231 143 143 148 
139 385 231 142 142 148 
139 386 231 139 139 146 
139 387 231 133 135 142 
139 388 231 137 139 148 
139 389 231 128 133 144 
139 390 231 110 120 134 
139 391 231 113 124 139 
143 384 227 145 144 149 
143 385 227 143 142 146 
143 386 227 144 142 147 
143 387 227 146 144 148 
141 384 229 143 142 148 
141 385 229 146 145 150 
140 384 230 138 139 145 
140 385 230 145 144 149 
141 386 229 141 140 146 
141 387 229 137 137 142 
140 386 230 135 135 142 
140 387 230 129 131 138 
142 384 228 147 146 150 
142 384 229 146 144 149 
142 385 228 150 147 152 
142 385 229 150 148 152 
143 384 228 148 146 150 
143 385 228 147 145 149 
142 386 228 146 143 146 
142 386 229 144 142 146 
142 387 228 145 143 148 
142 387 229 142 140 145 
143 386 228 144 141 145 
143 387 228 144 142 146 
143 388 227 145 143 147 
143 389 227 135 136 141 
143 390 227 119 124 133 
143 391 227 95 105 119 
141 388 229 140 140 146 
141 389 229 133 136 144 
140 388 230 134 136 143 
140 389 230 133 136 145 
140 389 231 126 131 141 
141 390 229 125 130 141 
141 391 229 110 120 133 
140 390 230 123 129 141 
140 390 231 117 125 137 
140 391 230 114 124 137 
140 391 231 114 125 139 
141 391 230 109 120 134 
142 388 228 143 142 148 
142 388 229 142 142 148 
142 389 228 138 138 145 
142 389 229 135 137 144 
143 389 228 131 132 139 
142 390 228 126 130 139 
142 390 229 128 132 141 
142 391 228 110 119 133 
142 391 229 108 118 131 
143 390 228 116 123 134 
143 391 228 105 115 128 
136 384 233 145 145 151 
136 385 233 151 150 157 
137 384 232 147 146 151 
137 384 233 147 146 151 
137 385 232 149 148 153 
137 385 233 150 150 156 
136 384 234 148 148 154 
136 385 234 149 149 157 
136 386 233 148 149 156 
136 387 233 135 139 149 
137 386 233 150 150 156 
137 387 233 140 143 151 
136 386 234 142 144 153 
136 387 234 130 136 148 
138 384 232 147 146 151 
138 385 232 144 144 149 
138 386 232 145 145 150 
138 387 232 143 143 151 
136 388 233 122 131 146 
136 389 233 113 125 141 
137 388 233 127 134 146 
137 389 233 111 123 138 
136 388 234 119 129 144 
136 389 234 115 128 146 
137 390 233 102 116 132 
137 391 233 117 128 144 
136 390 234 111 125 142 
136 391 234 119 129 145 
136 391 235 112 126 143 
137 391 234 122 132 147 
138 388 232 131 137 147 
138 389 232 119 127 141 
138 390 232 106 117 132 
138 391 232 112 124 141 
139 390 232 111 121 134 
139 392 231 120 130 144 
139 393 231 121 132 147 
139 394 231 113 127 144 
139 395 231 107 122 141 
139 396 231 94 115 136 
139 397 231 95 112 133 
139 398 231 89 107 128 
139 399 231 90 107 126 
143 392 227 90 103 117 
143 393 227 106 116 130 
143 394 227 117 125 138 
143 395 227 109 120 135 
141 392 229 104 117 133 
141 393 229 110 122 137 
140 392 230 111 122 137 
140 392 231 118 129 143 
140 393 230 112 124 140 
140 393 231 117 128 144 
141 392 230 108 120 135 
141 394 229 112 125 142 
141 395 229 105 121 139 
140 394 230 110 124 142 
140 394 231 114 126 143 
140 395 230 100 119 139 
142 392 228 98 110 125 
142 392 229 99 112 128 
142 393 228 113 122 136 
143 392 228 94 106 121 
143 393 228 111 118 131 
142 394 228 123 131 143 
142 395 228 119 130 145 
142 395 229 113 126 143 
143 396 226 66 93 117 
143 396 227 77 99 121 
143 397 226 57 86 114 
143 397 227 42 71 104 
142 398 227 37 68 97 
142 399 227 55 80 103 
143 398 226 57 84 116 
143 398 227 41 67 100 
143 399 226 42 76 113 
143 399 227 46 75 105 
141 396 229 96 114 134 
141 397 229 73 98 123 
140 396 230 88 110 132 
140 397 230 85 106 127 
141 398 229 76 96 120 
141 399 229 120 126 137 
140 398 230 80 101 124 
140 399 230 96 111 129 
141 398 230 59 88 115 
141 399 230 115 123 137 
142 396 228 93 111 131 
142 397 228 49 79 108 
142 398 228 61 79 106 
142 399 228 91 101 117 
137 392 233 117 130 147 
137 393 233 117 130 147 
136 392 234 114 127 145 
136 392 235 114 128 147 
136 393 234 109 125 144 
136 393 235 108 126 146 
137 392 234 117 129 146 
137 393 234 108 124 144 
137 394 233 105 120 138 
137 395 233 103 116 133 
136 394 234 107 123 141 
136 394 235 108 124 142 
136 395 234 107 121 138 
136 395 235 111 124 141 
137 394 234 109 123 141 
137 395 234 102 116 133 
138 392 232 120 132 148 
138 393 232 119 130 146 
139 393 232 122 133 147 
138 394 232 110 125 142 
138 395 232 110 123 140 
139 394 232 113 126 144 
139 395 232 111 125 142 
137 396 233 121 129 142 
137 397 233 98 116 135 
136 396 234 113 124 139 
136 396 235 107 120 136 
136 397 234 117 129 145 
137 396 234 119 128 141 
137 397 234 116 128 145 
137 398 233 83 105 128 
137 399 233 98 112 132 
136 398 234 97 115 136 
136 398 235 111 125 145 
136 399 234 82 103 125 
137 398 234 85 107 130 
137 399 234 89 106 127 
138 396 232 104 119 136 
138 396 233 106 120 137 
138 397 232 84 106 128 
138 397 233 81 104 127 
139 396 232 97 115 135 
139 397 232 92 111 132 
138 398 232 95 112 132 
138 398 233 84 105 128 
138 399 232 100 113 131 
138 399 233 100 113 131 
139 398 232 99 114 133 
139 399 232 90 107 127 
128 384 240 142 147 158 
128 385 240 104 121 140 
129 384 240 144 147 157 
129 385 240 104 118 136 
128 386 240 95 116 140 
128 387 240 104 124 148 
129 386 240 92 113 136 
129 387 240 108 126 150 
128 388 240 104 124 148 
128 388 241 105 125 150 
128 389 240 86 112 139 
128 389 241 97 119 144 
129 388 240 104 124 148 
129 389 240 82 109 136 
128 390 240 77 105 133 
128 390 241 87 112 138 
128 391 241 95 118 143 
129 390 240 83 109 135 
129 391 240 97 119 143 
128 392 241 94 119 145 
128 393 241 88 115 143 
129 392 240 90 115 142 
129 393 240 86 114 141 
129 393 241 84 113 141 
128 394 241 91 118 144 
128 395 241 90 117 143 
129 394 240 92 117 142 
129 394 241 90 116 142 
129 395 240 98 119 143 
129 395 241 92 117 143 
130 394 240 92 116 141 
130 395 240 100 120 143 
128 396 241 90 116 142 
128 397 241 91 116 142 
129 396 240 100 121 145 
129 396 241 93 117 142 
129 397 241 97 119 143 
128 396 242 88 115 141 
128 397 242 87 114 141 
128 398 241 94 117 142 
128 399 241 96 118 142 
129 398 241 100 120 142 
129 399 241 101 121 143 
128 398 242 90 116 141 
128 399 242 94 117 142 
130 396 240 105 124 145 
130 397 240 109 126 146 
130 398 240 117 130 146 
130 399 240 123 132 146 
131 399 240 139 142 151 
131 400 239 143 144 150 
131 401 239 126 131 143 
131 402 239 116 124 138 
131 403 239 104 115 131 
131 404 239 100 111 128 
131 405 238 109 118 134 
131 405 239 108 117 133 
131 406 239 103 113 130 
131 407 239 98 109 127 
135 400 235 93 107 125 
135 401 235 112 119 133 
135 402 235 107 116 131 
135 403 235 97 110 127 
133 400 237 108 119 136 
133 401 237 105 115 130 
132 400 238 119 127 140 
132 401 238 114 122 136 
133 400 238 109 120 136 
133 402 237 106 114 127 
133 403 237 113 120 133 
132 402 238 106 115 130 
132 403 238 102 112 126 
134 400 236 100 112 130 
134 401 236 106 114 128 
134 402 236 115 121 133 
134 403 236 116 122 135 
135 402 236 118 124 136 
135 404 234 102 116 134 
135 404 235 103 115 131 
135 405 234 92 108 127 
135 405 235 105 116 132 
134 406 235 108 116 130 
134 407 235 131 133 140 
135 406 234 110 120 134 
135 406 235 108 116 130 
135 407 234 124 129 139 
135 407 235 133 135 143 
133 404 237 111 119 133 
133 405 236 106 115 130 
133 405 237 100 111 126 
132 404 238 111 119 134 
132 405 238 102 113 129 
132 407 237 113 121 135 
133 406 236 113 121 135 
133 406 237 108 117 132 
133 407 236 120 126 136 
133 407 237 115 122 134 
132 406 238 96 108 125 
132 407 238 107 117 133 
134 404 236 106 115 129 
134 405 236 110 118 133 
134 406 236 112 120 133 
134 407 236 126 129 137 
131 408 239 113 121 136 
131 409 238 134 135 141 
131 409 239 124 128 138 
130 410 239 129 133 143 
130 411 239 133 137 146 
131 410 238 146 144 148 
131 410 239 139 140 147 
131 411 238 140 140 146 
131 411 239 140 141 148 
130 412 239 126 130 139 
130 413 239 125 128 137 
131 412 238 126 130 139 
131 412 239 126 130 139 
131 413 238 117 122 132 
131 413 239 120 125 134 
131 415 237 145 141 142 
130 414 239 144 142 147 
130 415 239 148 145 147 
131 414 238 141 139 144 
131 414 239 139 138 144 
131 415 238 147 143 144 
134 408 235 145 143 146 
134 409 235 142 140 143 
135 408 234 126 128 136 
135 408 235 139 138 142 
135 409 234 120 124 132 
135 409 235 133 134 140 
135 411 233 121 127 137 
134 410 235 136 137 144 
134 411 235 121 128 140 
135 410 234 113 120 131 
135 410 235 130 132 140 
135 411 234 105 115 129 
132 408 237 125 129 138 
132 409 237 144 142 146 
133 408 236 140 139 145 
133 408 237 133 135 142 
133 409 236 146 142 144 
133 409 237 146 142 145 
132 408 238 118 124 135 
132 409 238 140 140 145 
132 410 237 144 141 144 
132 411 237 139 139 144 
133 410 236 144 142 145 
133 410 237 144 141 144 
133 411 236 140 141 147 
132 410 238 144 142 146 
132 411 238 139 139 144 
134 408 236 145 142 146 
134 409 236 147 143 145 
133 412 235 105 117 134 
133 413 235 86 103 122 
133 414 235 98 110 126 
133 415 235 110 117 129 
135 412 233 104 115 131 
135 413 233 72 95 118 
134 412 234 84 104 125 
134 412 235 85 105 125 
134 413 234 56 87 113 
134 413 235 68 93 117 
135 412 234 90 107 126 
135 413 234 56 86 115 
135 414 232 83 99 116 
135 414 233 62 88 112 
135 415 232 114 120 130 
135 415 233 101 113 127 
134 414 234 48 78 105 
134 414 235 69 89 111 
134 415 234 85 101 118 
134 415 235 85 99 115 
132 412 237 126 130 139 
132 413 236 110 117 130 
132 413 237 114 120 130 
133 412 236 122 128 140 
133 413 236 101 112 127 
132 412 238 125 129 138 
132 414 236 128 131 138 
132 414 237 136 135 141 
132 415 236 137 136 140 
132 415 237 143 140 143 
133 414 236 118 124 135 
133 415 236 131 132 139 
139 400 231 114 123 137 
139 401 231 143 143 149 
138 403 231 107 120 136 
139 402 230 133 136 144 
139 402 231 133 135 144 
139 403 230 110 120 134 
139 403 231 113 123 137 
139 405 229 74 92 115 
138 404 231 85 105 127 
138 405 231 94 107 125 
139 404 230 75 97 119 
139 404 231 79 101 123 
139 405 230 82 97 117 
139 406 229 101 109 123 
139 407 229 122 124 132 
138 406 231 123 126 134 
138 407 230 135 134 138 
138 407 231 140 137 139 
139 406 230 109 115 127 
139 407 230 125 127 134 
143 401 225 61 89 117 
142 400 227 73 89 112 
142 401 227 77 92 114 
143 400 226 40 71 109 
143 400 227 48 73 105 
143 401 226 49 79 108 
143 402 225 63 91 116 
143 403 225 62 90 116 
142 402 226 63 87 112 
142 402 227 85 101 121 
142 403 226 71 94 116 
142 403 227 92 107 125 
143 402 226 59 88 113 
143 403 226 61 89 115 
141 400 228 116 120 131 
141 400 229 134 135 142 
141 401 228 122 126 136 
141 401 229 138 139 145 
140 400 230 136 139 147 
140 401 230 144 143 147 
141 400 230 137 139 148 
140 402 229 124 129 138 
140 403 229 107 117 131 
141 402 228 114 122 135 
141 402 229 128 132 141 
141 403 228 106 116 131 
141 403 229 111 119 132 
140 402 230 134 137 144 
140 403 230 104 115 130 
142 400 228 103 110 123 
142 401 228 109 115 129 
142 402 228 107 115 131 
141 404 227 98 112 130 
141 405 227 90 107 126 
141 406 227 85 102 122 
141 407 226 64 89 113 
141 407 227 90 106 123 
142 405 225 55 84 108 
143 404 225 57 87 113 
143 405 225 61 88 112 
142 404 226 70 95 118 
142 404 227 89 106 125 
142 405 226 66 92 115 
143 404 226 59 89 114 
142 406 225 60 87 110 
142 407 225 62 87 111 
143 406 224 83 100 120 
143 406 225 71 93 115 
143 407 224 77 96 116 
143 407 225 70 91 114 
142 406 226 65 90 113 
142 407 226 58 85 110 
140 404 229 80 98 118 
140 405 228 95 108 125 
140 405 229 81 97 117 
141 404 228 97 111 127 
141 405 228 97 111 129 
140 404 230 74 95 117 
140 406 228 98 109 123 
140 406 229 100 108 122 
140 407 228 107 115 127 
140 407 229 117 121 130 
141 406 228 95 108 125 
137 400 233 96 109 127 
137 401 233 87 102 121 
136 400 234 104 114 131 
136 401 234 97 109 126 
137 400 234 102 114 131 
137 401 234 88 103 122 
137 402 233 102 114 128 
137 403 233 111 120 134 
136 402 234 85 102 121 
136 403 234 98 111 129 
138 400 232 91 106 125 
138 400 233 92 106 126 
138 401 232 122 128 139 
138 401 233 97 110 126 
138 402 232 128 133 143 
138 402 233 118 125 138 
138 403 232 109 120 135 
136 405 233 66 93 116 
137 404 232 64 94 120 
137 404 233 71 97 120 
137 405 232 88 107 127 
137 405 233 65 93 118 
136 404 234 97 113 131 
136 405 234 70 96 119 
136 406 233 94 109 126 
136 407 233 118 123 134 
137 406 232 130 134 143 
137 406 233 112 122 135 
137 407 232 142 140 143 
137 407 233 131 133 140 
136 406 234 94 109 126 
136 407 234 114 121 132 
138 404 232 82 104 126 
138 405 232 101 113 130 
138 406 232 125 129 139 
137 408 231 142 138 140 
137 409 231 140 137 139 
137 410 231 138 135 137 
137 411 230 132 131 135 
137 411 231 137 135 137 
139 408 229 133 132 137 
139 409 228 129 130 136 
139 409 229 135 133 137 
138 408 230 138 136 139 
138 408 231 142 138 140 
138 409 230 137 135 138 
138 409 231 139 136 139 
139 408 230 135 134 138 
139 409 230 137 134 138 
138 411 229 128 130 137 
139 410 228 127 128 135 
139 410 229 134 132 136 
139 411 228 113 121 132 
139 411 229 130 131 137 
138 410 230 136 134 136 
138 411 230 132 132 136 
139 413 227 88 103 121 
139 414 227 82 99 117 
139 415 227 76 93 112 
136 412 231 113 120 131 
136 413 231 88 103 121 
137 412 230 118 124 134 
137 412 231 122 126 134 
137 413 230 81 100 120 
137 413 231 86 103 121 
136 414 231 79 96 114 
136 415 231 111 116 126 
137 414 230 71 90 111 
137 414 231 76 94 114 
137 415 230 97 105 119 
138 412 229 112 120 133 
138 413 229 61 85 109 
139 412 228 89 104 122 
139 412 229 102 114 129 
139 413 228 62 87 110 
138 412 230 116 123 135 
138 413 230 78 96 117 
138 414 229 60 83 106 
138 415 228 72 90 108 
138 415 229 77 93 111 
139 414 228 63 87 110 
139 415 228 62 84 106 
138 414 230 62 82 107 
140 408 227 99 111 125 
140 409 227 94 106 121 
141 408 226 68 90 113 
141 408 227 86 102 120 
141 409 226 84 100 118 
141 409 227 84 100 118 
141 410 225 101 109 122 
141 411 225 103 112 125 
140 410 227 97 109 123 
140 411 226 111 118 129 
140 411 227 100 110 125 
141 410 226 102 111 124 
141 411 226 110 116 128 
142 408 224 65 88 112 
142 408 225 67 89 112 
142 409 224 67 89 113 
142 409 225 79 95 115 
143 408 224 68 90 111 
143 409 224 64 87 110 
142 408 226 63 87 111 
142 410 224 73 93 115 
142 410 225 86 100 116 
142 411 224 69 91 113 
142 411 225 83 99 118 
143 410 224 67 89 111 
143 411 224 68 90 111 
140 408 228 121 125 133 
140 408 229 127 128 135 
140 409 228 122 125 133 
140 410 228 113 120 130 
140 411 228 110 118 130 
141 412 225 103 113 126 
141 413 225 102 111 123 
140 412 226 115 121 132 
140 412 227 99 111 126 
140 413 226 112 119 132 
140 413 227 103 114 129 
141 412 226 115 121 131 
140 414 225 97 107 120 
140 415 225 92 103 116 
141 414 224 95 105 118 
141 414 225 95 104 117 
141 415 224 97 106 118 
141 415 225 96 104 117 
140 414 226 100 110 124 
140 414 227 97 109 125 
140 415 226 87 100 116 
142 412 224 82 99 117 
142 412 225 89 104 121 
142 413 224 95 105 118 
142 414 224 99 107 119 
136 408 233 127 130 137 
136 409 232 138 137 140 
136 409 233 130 132 139 
137 408 232 142 139 141 
137 408 233 133 133 140 
137 409 232 140 138 140 
136 408 234 117 122 132 
136 410 232 136 134 137 
136 410 233 127 130 137 
136 411 232 135 134 137 
136 411 233 128 131 138 
137 410 232 139 135 137 
136 412 232 123 126 135 
136 412 233 120 125 135 
136 413 232 91 106 123 
136 414 232 79 97 115 
136 415 232 115 120 129 
128 400 241 96 118 141 
128 401 241 98 117 139 
129 400 241 104 122 143 
129 401 241 107 123 142 
128 400 242 94 117 141 
128 401 242 98 118 140 
128 402 241 103 120 140 
128 403 241 109 122 140 
129 402 241 113 125 142 
129 403 241 114 125 141 
128 402 242 103 121 142 
128 403 242 108 122 141 
130 400 240 124 133 147 
130 401 240 128 135 149 
131 400 240 140 143 152 
131 401 240 135 140 150 
130 402 240 125 133 146 
130 403 240 114 124 139 
128 404 241 112 123 141 
128 405 241 103 117 136 
129 404 241 108 121 138 
129 405 240 94 109 128 
129 405 241 96 111 132 
128 404 242 113 125 142 
128 405 242 110 123 141 
128 406 241 93 108 129 
128 407 241 101 112 131 
129 406 240 100 111 130 
129 406 241 94 108 129 
129 407 240 108 116 133 
129 407 241 105 114 132 
128 406 242 98 113 133 
128 407 242 98 112 131 
130 404 240 100 113 131 
130 405 240 97 109 128 
130 406 240 108 117 134 
130 407 240 107 116 132 
128 408 241 104 113 130 
128 409 241 93 105 124 
129 408 240 98 109 126 
129 408 241 99 109 125 
129 409 240 104 115 132 
129 409 241 96 108 126 
128 408 242 107 117 134 
128 409 242 96 109 127 
128 410 241 104 115 134 
128 411 241 111 121 137 
129 410 240 113 122 138 
129 410 241 111 122 138 
129 411 240 108 117 131 
129 411 241 107 117 133 
128 410 242 100 112 130 
128 411 242 114 123 139 
130 408 240 102 112 129 
130 409 240 115 123 137 
130 410 240 117 124 137 
130 411 240 124 129 140 
128 412 241 114 121 135 
128 413 241 125 129 139 
129 412 240 109 116 129 
129 412 241 106 116 129 
129 413 240 124 128 137 
129 413 241 115 121 132 
128 412 242 111 120 134 
128 414 241 126 128 136 
128 415 241 124 126 132 
129 414 240 135 136 142 
129 415 240 139 139 144 
130 412 240 125 128 138 
130 413 240 128 131 139 
130 414 240 142 141 147 
130 415 240 146 144 148 
145 384 225 140 140 145 
145 385 225 143 142 147 
144 384 226 138 138 143 
144 384 227 141 141 146 
144 385 226 143 141 145 
144 385 227 141 140 145 
145 384 226 140 139 144 
145 385 226 145 143 147 
145 386 225 137 137 143 
145 387 225 128 131 139 
144 386 226 147 145 148 
144 386 227 145 143 147 
144 387 226 144 142 146 
144 387 227 148 145 148 
145 386 226 144 142 146 
145 387 226 133 133 139 
146 384 225 133 136 144 
146 385 224 121 127 138 
146 385 225 132 135 143 
147 384 224 115 125 139 
147 385 224 113 124 140 
146 386 224 106 116 131 
146 386 225 126 131 140 
146 387 224 99 112 128 
146 387 225 115 121 132 
147 386 224 105 119 135 
147 387 224 106 121 138 
145 388 225 110 116 126 
145 389 225 100 107 119 
144 388 226 137 136 140 
144 388 227 141 140 144 
144 389 226 121 124 131 
144 389 227 125 127 134 
145 388 226 125 126 132 
145 389 226 113 117 126 
145 390 225 96 105 117 
145 391 225 105 116 129 
144 390 226 104 110 120 
144 390 227 109 115 125 
144 391 226 99 110 124 
144 391 227 90 102 115 
145 390 226 93 102 114 
146 388 224 100 113 128 
146 388 225 102 111 123 
146 389 224 107 118 132 
146 390 224 106 116 130 
146 391 224 112 123 137 
145 392 224 111 124 139 
145 392 225 104 117 133 
145 393 224 97 115 134 
145 393 225 104 118 134 
144 392 226 98 113 129 
144 392 227 95 108 124 
144 393 226 98 112 129 
144 393 227 101 113 129 
144 394 225 100 114 129 
144 395 225 102 115 131 
145 394 224 91 111 131 
145 394 225 101 115 132 
145 395 224 82 104 126 
145 395 225 97 113 131 
144 394 226 103 115 130 
144 395 226 94 109 125 
146 392 224 105 120 137 
146 393 224 85 108 130 
146 394 224 79 104 128 
146 395 224 77 102 125 
144 396 225 87 107 127 
144 397 225 64 95 123 
145 396 224 51 85 115 
145 396 225 68 96 120 
145 397 224 55 87 116 
145 397 225 51 87 117 
144 396 226 81 101 122 
144 397 226 64 92 121 
144 398 225 43 86 119 
144 399 225 44 85 118 
145 398 224 70 96 123 
145 398 225 59 92 120 
145 399 224 79 102 126 
145 399 225 73 100 126 
144 398 226 47 82 119 
144 399 226 42 78 116 
146 396 224 56 87 117 
146 397 224 64 90 119 
146 398 224 69 93 121 
144 400 225 68 95 122 
144 401 224 89 107 126 
144 401 225 78 101 123 
145 400 224 85 104 126 
145 401 224 87 105 125 
144 402 224 82 102 122 
144 402 225 76 99 122 
144 403 224 72 94 116 
144 403 225 69 93 117 
145 402 224 82 101 121 
145 403 224 77 97 117 
144 404 224 71 93 115 
144 404 225 61 89 113 
144 405 224 80 99 119 
144 406 224 85 101 120 
144 407 224 85 101 120 
143 419 219 57 85 109 
141 416 223 91 103 118 
141 417 223 100 110 123 
140 419 223 104 113 125 
141 418 222 104 111 123 
141 418 223 101 110 123 
141 419 222 94 105 119 
141 419 223 101 110 123 
142 417 221 107 114 124 
143 416 220 103 111 123 
143 416 221 107 114 125 
143 417 220 95 105 120 
143 417 221 108 115 125 
142 416 222 103 111 124 
142 416 223 93 104 118 
142 417 222 107 113 124 
142 417 223 104 112 125 
142 418 221 94 105 119 
142 419 220 71 90 109 
142 419 221 79 94 111 
143 418 220 77 94 112 
143 419 220 61 87 109 
142 418 222 105 112 123 
142 419 222 98 107 120 
151 416 207 72 91 110 
151 417 206 88 103 119 
151 417 207 81 98 116 
150 419 207 81 99 118 
151 418 206 94 107 122 
151 418 207 88 103 120 
151 419 206 93 106 122 
151 419 207 91 106 123 
155 418 199 90 105 124 
155 419 199 84 103 123 
158 417 195 88 108 129 
159 416 195 80 101 123 
159 417 194 87 104 123 
159 417 195 89 108 128 
158 418 195 88 107 128 
158 419 195 87 105 125 
159 418 194 90 107 125 
159 418 195 95 112 132 
159 419 194 95 111 129 
159 419 195 99 115 134 
157 416 197 66 93 117 
157 417 197 71 95 117 
156 416 199 86 104 122 
156 417 198 75 97 117 
156 417 199 87 105 123 
157 416 198 71 96 118 
157 416 199 81 101 120 
157 417 198 72 95 117 
156 419 197 75 97 118 
157 418 196 74 96 118 
157 418 197 75 97 118 
157 419 196 78 98 119 
157 419 197 77 98 118 
156 418 198 77 98 118 
156 418 199 86 103 122 
156 419 198 79 100 120 
156 419 199 86 104 124 
157 418 198 73 95 116 
158 416 196 74 100 124 
158 416 197 69 95 120 
158 417 196 74 98 121 
158 417 197 70 95 118 
159 416 196 74 100 125 
158 418 196 77 98 119 
158 419 196 78 99 119 
153 417 203 78 96 115 
153 418 203 83 99 118 
153 419 202 79 99 119 
153 419 203 78 98 117 
154 417 201 85 103 122 
155 416 200 106 118 132 
155 416 201 100 113 128 
155 417 200 99 113 128 
155 417 201 95 109 126 
154 416 202 68 91 113 
154 416 203 61 86 109 
154 417 202 76 96 115 
154 417 203 74 93 113 
155 416 202 78 97 117 
154 418 201 83 101 121 
154 419 200 81 100 120 
154 419 201 82 101 121 
155 418 200 88 105 124 
155 419 200 82 101 121 
154 418 202 82 100 119 
154 419 202 83 102 121 
152 417 205 84 99 117 
153 416 204 72 92 115 
153 416 205 74 93 113 
153 417 204 82 98 116 
153 417 205 82 98 116 
152 416 206 72 92 112 
152 416 207 69 89 110 
152 417 206 86 101 118 
152 417 207 82 98 117 
153 416 206 67 89 111 
152 418 204 85 101 118 
152 418 205 89 103 119 
152 419 204 81 99 117 
152 419 205 89 103 120 
153 418 204 85 101 119 
152 418 206 93 106 121 
156 416 200 103 116 131 
156 417 200 100 114 129 
147 417 213 73 92 112 
146 416 215 76 94 114 
146 417 215 77 94 113 
147 416 214 76 94 114 
147 416 215 75 94 113 
147 417 214 79 96 115 
147 417 215 77 94 113 
147 418 212 72 91 111 
147 418 213 70 90 110 
147 419 212 71 91 111 
147 419 213 73 92 112 
146 418 214 81 97 115 
146 418 215 80 96 114 
146 419 214 78 95 114 
146 419 215 79 96 114 
147 418 214 81 97 115 
147 419 214 76 94 114 
148 417 211 73 93 113 
149 416 210 68 89 110 
149 416 211 73 92 112 
149 417 210 64 87 109 
149 417 211 70 91 111 
149 418 209 65 89 111 
149 419 209 64 87 110 
148 418 211 76 94 114 
148 419 210 75 94 113 
148 419 211 76 95 114 
149 418 210 67 89 110 
149 418 211 73 92 113 
149 419 210 71 91 112 
150 416 209 63 86 108 
150 417 208 73 93 113 
150 417 209 66 88 110 
151 416 208 67 88 108 
151 416 209 58 84 106 
151 417 208 75 94 114 
150 416 210 67 88 109 
150 417 210 65 88 110 
150 418 208 74 94 116 
150 418 209 66 89 112 
150 419 208 67 90 112 
150 419 209 68 90 112 
148 416 212 76 95 114 
148 416 213 73 92 113 
148 417 212 76 94 114 
148 417 213 74 93 113 
149 416 212 75 94 113 
149 417 212 76 94 114 
148 418 212 76 94 114 
148 419 212 76 94 113 
145 416 217 83 99 116 
145 417 216 73 93 114 
145 417 217 75 94 114 
144 416 219 93 104 118 
144 417 218 76 95 115 
144 417 219 82 99 117 
145 416 218 89 102 118 
145 416 219 92 103 116 
145 417 218 74 94 115 
144 419 217 71 94 116 
145 418 216 77 96 116 
145 418 217 70 92 114 
145 419 216 81 98 117 
145 419 217 76 97 118 
144 418 218 64 89 112 
144 418 219 64 89 111 
144 419 218 61 88 113 
144 419 219 61 87 111 
145 418 218 66 90 113 
146 416 216 78 95 114 
146 416 217 79 96 115 
146 417 216 76 95 114 
146 418 216 82 98 116 
144 416 220 101 110 122 
144 417 220 96 107 121 
135 417 231 135 134 138 
135 418 231 130 131 138 
135 419 231 119 125 135 
129 418 239 82 100 119 
129 419 239 91 105 124 
131 416 237 144 140 142 
131 417 237 122 127 137 
130 416 239 144 142 146 
130 417 238 126 131 141 
130 417 239 124 129 140 
131 416 238 144 141 144 
131 417 238 125 130 139 
131 418 236 73 97 119 
131 418 237 79 100 120 
131 419 236 75 98 121 
131 419 237 68 94 118 
130 418 238 76 98 119 
130 418 239 80 100 120 
130 419 238 67 91 114 
130 419 239 81 99 119 
131 418 238 89 106 125 
132 417 235 98 110 125 
133 416 235 111 119 130 
133 417 234 124 128 136 
133 417 235 106 115 128 
132 418 235 89 106 124 
132 419 235 88 106 125 
133 418 234 118 124 134 
133 418 235 105 115 129 
133 419 234 101 112 126 
133 419 235 97 111 128 
134 416 233 132 133 140 
134 417 233 133 133 138 
135 416 232 135 135 138 
135 416 233 135 135 140 
135 417 232 136 134 138 
135 417 233 134 134 138 
134 416 234 121 126 136 
134 417 234 132 133 139 
134 418 233 126 128 136 
134 419 232 120 125 135 
134 419 233 110 117 129 
135 418 232 130 131 137 
135 419 232 124 129 138 
134 418 234 123 127 135 
132 416 236 135 135 140 
132 416 237 142 138 141 
132 417 236 115 123 136 
132 418 236 83 102 122 
132 419 236 80 101 123 
139 417 225 89 101 117 
138 417 227 90 101 116 
139 416 226 88 101 116 
139 416 227 82 96 113 
139 417 226 92 103 118 
139 417 227 91 102 116 
139 418 225 88 101 117 
139 419 224 97 107 121 
139 419 225 90 103 118 
138 418 227 91 102 116 
138 419 226 84 98 115 
138 419 227 87 99 114 
139 418 226 89 101 116 
139 419 226 85 99 115 
137 416 229 106 113 126 
137 417 229 103 112 125 
136 416 230 130 131 136 
136 416 231 132 132 136 
136 417 230 127 130 137 
136 417 231 135 134 139 
137 416 230 117 121 130 
137 417 230 120 124 134 
137 418 228 88 100 114 
137 418 229 92 103 117 
137 419 228 88 100 116 
137 419 229 88 100 115 
136 418 230 117 122 131 
136 418 231 129 131 138 
136 419 230 97 106 120 
137 418 230 103 111 123 
138 416 228 83 96 112 
138 416 229 93 103 118 
138 417 228 87 98 113 
138 417 229 97 107 121 
139 416 228 69 88 107 
138 418 228 89 100 114 
138 419 228 89 101 115 
140 416 225 93 104 118 
140 417 224 91 102 118 
140 417 225 91 103 118 
141 416 224 92 103 117 
141 416 225 95 105 119 
141 417 224 92 104 118 
140 416 226 90 102 118 
140 418 224 93 104 118 
140 418 225 88 101 116 
140 419 224 97 107 121 
141 418 224 99 108 122 
136 416 232 132 132 137 
128 416 241 124 128 136 
128 417 240 107 116 129 
128 417 241 112 120 133 
129 416 240 138 138 144 
129 417 240 111 119 130 
128 418 240 66 88 108 
128 418 241 77 95 115 
128 419 240 82 98 116 
128 419 241 77 95 114 
129 418 240 76 94 113 
129 419 240 93 106 123 
163 387 203 106 116 129 
161 384 207 122 126 133 
161 385 206 109 117 128 
161 385 207 114 120 130 
160 386 207 101 111 124 
160 387 207 92 105 119 
161 386 206 90 105 121 
161 386 207 99 109 123 
161 387 206 85 101 118 
161 387 207 90 103 119 
163 384 205 96 108 122 
163 385 204 110 117 127 
163 385 205 95 106 120 
162 384 206 109 116 126 
162 384 207 124 127 133 
162 385 206 93 106 121 
163 384 206 107 114 125 
162 386 205 85 100 117 
162 387 205 89 103 119 
163 386 204 105 113 125 
163 386 205 95 106 121 
163 387 204 102 112 124 
162 386 206 85 101 119 
163 388 203 94 106 121 
163 389 202 81 97 114 
163 389 203 84 98 114 
162 390 203 77 93 110 
162 391 203 75 92 110 
163 390 202 76 94 112 
163 390 203 78 94 110 
163 391 202 77 95 113 
161 388 205 89 102 117 
161 389 205 86 97 111 
160 388 207 101 110 123 
160 389 206 108 114 123 
160 389 207 112 118 127 
161 388 206 94 105 118 
161 389 206 98 105 116 
161 390 205 86 97 110 
161 391 204 78 93 109 
161 391 205 91 101 113 
160 390 206 110 115 123 
160 390 207 119 123 130 
160 391 206 112 116 124 
160 391 207 123 125 131 
161 390 206 100 107 117 
162 388 204 92 104 119 
162 388 205 89 102 117 
162 389 204 84 97 113 
162 389 205 82 96 113 
163 388 204 96 107 121 
162 390 204 78 93 109 
162 390 205 76 91 107 
162 391 204 75 91 107 
164 386 203 120 123 131 
164 387 203 112 120 131 
164 384 204 119 123 131 
164 385 204 121 123 129 
164 386 204 117 121 128 
164 388 202 92 106 120 
164 388 203 101 111 125 
164 389 202 79 97 115 
164 390 201 78 96 116 
164 391 201 78 96 115 
164 390 202 78 96 114 
163 396 199 83 101 120 
163 397 199 81 100 119 
162 398 199 79 98 117 
162 399 199 75 96 115 
163 398 199 80 100 118 
163 399 198 70 95 116 
163 399 199 72 94 114 
164 394 199 82 102 121 
164 395 199 78 100 120 
164 396 198 76 100 121 
164 396 199 79 100 120 
164 397 198 75 97 119 
164 397 199 85 103 122 
164 399 197 61 88 113 
164 398 198 70 94 117 
164 399 198 67 92 113 
161 393 203 76 93 111 
161 394 203 76 96 114 
161 395 202 78 97 117 
161 395 203 77 97 116 
163 392 201 77 96 115 
163 393 201 75 94 113 
162 392 202 74 91 110 
162 392 203 75 92 110 
162 393 202 74 92 111 
162 393 203 74 92 110 
163 392 202 75 94 112 
163 393 202 77 95 113 
162 394 201 78 96 114 
162 395 201 81 98 116 
163 394 200 80 99 117 
163 394 201 78 97 115 
163 395 200 81 99 118 
163 395 201 81 99 116 
162 394 202 76 95 113 
162 395 202 80 98 116 
160 392 205 100 108 120 
160 393 205 87 100 115 
161 392 204 80 96 113 
161 392 205 91 102 116 
161 393 204 78 94 111 
161 393 205 84 98 114 
160 392 206 113 118 126 
160 392 207 123 125 131 
160 393 206 104 112 123 
160 394 204 79 96 114 
160 394 205 82 97 113 
160 395 204 79 96 115 
160 395 205 82 96 113 
161 394 204 77 95 113 
161 395 204 79 97 115 
162 392 204 78 94 111 
161 396 201 84 101 118 
161 397 201 83 100 118 
160 396 203 81 98 116 
160 397 202 87 102 119 
160 397 203 88 103 119 
161 396 202 82 100 117 
161 396 203 81 99 119 
161 397 202 85 101 118 
160 399 201 97 110 125 
161 398 201 85 102 120 
161 399 200 87 103 121 
161 399 201 95 109 126 
160 398 202 92 106 122 
160 398 203 98 111 126 
160 399 202 100 111 124 
162 396 200 82 98 115 
162 396 201 82 98 115 
162 397 200 82 100 118 
162 397 201 81 99 118 
163 396 200 82 100 118 
163 397 200 79 98 116 
162 398 200 83 101 119 
162 399 200 78 99 119 
160 396 204 79 96 114 
160 396 205 82 98 114 
160 397 204 82 98 115 
164 392 200 78 98 118 
164 392 201 77 97 116 
164 393 200 80 100 120 
164 393 201 77 98 117 
164 394 200 80 100 119 
160 384 208 116 120 129 
160 384 209 112 117 125 
160 385 208 108 115 126 
160 385 209 101 109 120 
161 384 208 120 124 132 
160 386 208 94 106 121 
160 387 208 98 109 122 
160 388 208 107 115 125 
160 389 208 112 118 127 
161 401 199 66 91 114 
161 402 199 66 93 118 
161 403 198 68 98 124 
161 403 199 64 92 118 
163 401 197 67 96 119 
162 400 199 67 91 111 
162 401 198 67 92 115 
162 401 199 66 90 113 
163 400 198 63 90 112 
163 401 198 71 97 119 
162 403 197 73 100 124 
163 402 197 73 100 124 
163 403 196 71 98 123 
163 403 197 71 99 124 
162 402 198 71 96 120 
162 402 199 67 93 118 
162 403 198 72 99 123 
163 405 195 60 90 117 
162 407 195 67 97 123 
163 406 195 61 91 119 
163 407 195 63 93 120 
161 405 197 63 93 118 
160 404 199 68 95 119 
160 405 199 66 96 121 
161 404 198 65 95 121 
161 404 199 67 96 120 
161 405 198 67 96 121 
161 405 199 67 96 121 
161 406 197 63 94 119 
161 407 196 67 96 121 
161 407 197 61 93 120 
160 406 198 63 95 121 
160 406 199 67 97 122 
160 407 198 60 94 121 
160 407 199 67 98 124 
161 406 198 61 94 120 
162 404 197 70 98 122 
162 405 196 63 93 118 
162 405 197 62 91 116 
163 404 196 61 92 118 
163 404 197 66 96 121 
163 405 196 59 91 117 
162 404 198 71 99 124 
162 406 196 66 94 120 
162 406 197 63 94 121 
162 407 196 70 98 123 
163 406 196 60 90 117 
164 403 195 47 76 107 
164 400 197 58 86 111 
164 401 196 56 85 112 
164 401 197 60 88 113 
164 400 198 64 90 112 
164 402 196 56 84 112 
164 402 197 68 94 118 
164 403 196 61 89 115 
164 404 195 53 81 111 
164 405 194 42 76 109 
164 405 195 49 80 111 
164 406 194 45 78 109 
164 406 195 55 87 115 
164 407 194 51 85 113 
164 404 196 63 91 116 
160 400 201 99 110 125 
160 401 200 73 94 115 
160 401 201 90 103 119 
161 400 200 76 96 116 
161 400 201 91 106 124 
161 401 200 68 92 114 
160 400 202 106 115 127 
160 402 200 68 91 113 
160 402 201 78 96 114 
160 403 200 65 91 113 
160 403 201 72 93 113 
161 402 200 66 92 115 
162 400 200 77 96 115 
160 404 200 65 93 116 
161 409 195 56 87 115 
161 410 195 54 84 112 
161 411 195 50 81 109 
162 408 195 67 99 124 
162 409 195 63 94 120 
163 408 194 64 93 120 
163 408 195 60 93 121 
163 409 194 53 86 115 
163 410 193 54 86 114 
163 411 193 58 86 115 
162 410 194 56 87 114 
162 410 195 59 89 116 
162 411 194 61 90 116 
163 410 194 50 82 111 
163 411 194 54 83 112 
160 408 197 56 90 117 
160 409 197 46 82 112 
161 408 196 64 95 120 
161 408 197 60 92 118 
161 409 196 52 86 114 
160 408 198 57 91 118 
160 409 198 49 85 114 
160 410 196 40 78 109 
160 410 197 41 77 108 
160 411 196 38 76 107 
160 411 197 44 80 109 
161 410 196 45 81 111 
162 408 196 71 100 124 
160 412 195 50 84 111 
160 413 195 57 86 111 
161 412 194 61 88 112 
161 412 195 53 83 111 
161 413 194 72 96 118 
161 413 195 64 91 115 
161 414 193 80 102 122 
161 415 193 77 100 121 
160 414 195 66 91 113 
160 415 194 71 94 115 
160 415 195 73 95 115 
161 414 194 79 101 122 
161 415 194 74 97 117 
162 413 193 74 96 120 
163 412 193 63 89 116 
163 413 192 65 89 113 
163 413 193 63 88 114 
162 412 194 68 93 118 
162 413 194 74 97 119 
162 414 193 80 100 121 
162 415 192 95 109 127 
162 415 193 85 104 122 
163 414 192 77 96 116 
163 414 193 75 93 113 
163 415 192 93 106 123 
160 412 196 42 78 107 
160 413 196 49 83 109 
164 409 193 56 89 114 
165 409 193 50 82 110 
164 408 194 54 87 114 
164 409 194 62 92 117 
164 410 193 57 88 114 
164 411 192 60 88 115 
164 411 193 61 89 116 
165 410 193 41 77 107 
165 411 192 42 76 110 
164 412 192 63 91 119 
164 412 193 66 92 119 
164 413 192 68 95 122 
165 412 192 49 81 111 
165 413 192 53 84 112 
164 414 192 72 97 120 
160 417 193 81 99 116 
161 416 193 83 103 123 
161 417 193 81 100 118 
160 416 194 75 95 115 
160 416 195 80 100 120 
160 417 194 86 102 119 
161 416 194 70 94 114 
160 418 193 95 108 123 
160 419 193 93 107 123 
161 418 192 95 110 127 
161 418 193 89 104 120 
161 419 192 96 112 129 
160 418 194 93 107 123 
162 416 192 93 108 125 
162 416 193 86 105 123 
162 417 192 94 109 126 
162 417 193 93 111 130 
163 416 192 102 113 128 
163 417 192 106 116 130 
162 418 192 93 111 128 
162 419 192 95 113 132 
93 355 257 108 61 63 
94 355 257 108 58 65 
95 355 256 105 67 74 
93 356 257 113 55 40 
93 357 257 126 95 83 
93 358 257 148 135 130 
93 359 257 153 148 148 
93 358 258 148 137 133 
93 359 258 152 147 148 
94 356 257 120 49 39 
94 357 257 127 92 76 
95 356 256 117 44 38 
95 356 257 118 43 37 
95 357 256 123 76 61 
95 357 257 127 89 73 
94 358 257 151 135 128 
94 359 257 156 150 149 
95 358 256 148 129 123 
95 358 257 151 134 128 
95 359 257 160 152 150 
91 366 259 96 119 144 
91 367 259 108 127 148 
92 360 258 139 140 146 
92 361 258 123 131 145 
93 360 258 140 141 148 
93 361 258 126 133 146 
92 362 258 103 122 143 
92 362 259 98 118 140 
92 363 258 92 117 143 
92 363 259 89 115 141 
93 362 258 114 129 147 
93 363 258 105 124 148 
94 360 257 147 146 152 
94 361 257 139 143 152 
95 360 257 152 149 152 
95 361 257 149 149 155 
94 362 257 131 140 153 
94 363 257 128 138 153 
95 362 257 138 143 153 
95 363 257 132 139 155 
94 362 258 122 134 150 
94 363 258 117 132 152 
92 364 258 92 118 146 
92 364 259 92 118 144 
92 365 259 93 119 146 
93 364 258 101 124 150 
93 365 258 94 120 148 
92 366 259 94 119 147 
92 367 259 109 128 150 
93 366 258 94 120 148 
93 367 258 104 125 150 
93 367 259 106 126 150 
95 364 257 130 140 157 
95 365 257 124 139 160 
94 364 258 114 132 154 
94 365 258 105 128 154 
95 364 258 126 138 156 
95 365 258 114 132 156 
94 366 258 95 121 152 
94 367 258 102 124 151 
95 366 258 102 126 154 
95 367 258 103 125 153 
91 368 259 115 132 152 
91 369 259 113 130 151 
91 370 259 111 128 150 
91 371 259 111 127 148 
91 368 260 110 127 147 
91 369 260 109 126 148 
91 370 260 108 126 148 
91 371 260 113 126 145 
90 372 260 125 132 145 
90 373 260 141 141 148 
91 372 260 128 134 148 
91 373 260 142 143 151 
90 374 261 143 140 144 
90 375 261 144 143 148 
91 374 260 143 142 147 
91 375 260 145 144 150 
92 368 259 122 137 156 
92 369 259 118 134 155 
93 368 258 122 137 156 
93 368 259 123 137 157 
93 369 259 122 137 156 
92 370 259 114 131 152 
92 371 259 116 131 150 
93 370 259 116 133 154 
93 371 259 117 132 152 
94 368 258 125 138 157 
94 369 258 126 139 157 
95 368 258 130 141 158 
95 369 258 136 145 160 
94 370 258 122 137 157 
94 370 259 119 134 155 
94 371 258 123 136 155 
94 371 259 121 135 155 
95 370 258 124 139 159 
95 371 258 125 139 159 
92 372 259 131 139 153 
92 373 259 144 145 153 
93 372 259 128 137 153 
93 373 259 145 146 155 
92 374 259 146 144 149 
93 374 259 150 148 153 
93 375 259 147 146 152 
94 372 258 128 138 156 
94 372 259 130 140 156 
94 373 259 147 149 158 
95 372 258 127 139 158 
95 373 258 139 144 158 
95 373 259 144 147 158 
94 374 259 155 153 158 
94 375 259 146 146 152 
95 374 259 153 152 158 
95 375 259 152 152 158 
92 373 260 144 145 153 
92 374 260 144 143 148 
92 375 260 147 146 151 
93 375 260 144 144 151 
90 376 261 144 143 149 
90 377 261 132 135 145 
91 376 260 144 145 152 
91 377 260 134 138 148 
91 377 261 128 133 143 
90 378 261 122 130 144 
90 379 261 114 128 146 
91 378 260 124 134 150 
91 378 261 121 130 145 
91 379 260 115 131 150 
91 379 261 113 128 148 
89 380 262 108 125 144 
89 381 262 107 124 144 
89 382 262 111 127 147 
89 383 262 94 116 139 
89 383 263 87 110 133 
90 380 261 103 123 146 
90 381 261 102 123 149 
91 380 260 107 126 150 
91 380 261 105 126 151 
91 381 261 104 127 154 
90 381 262 103 124 147 
90 382 261 105 127 152 
90 383 261 100 124 151 
91 382 261 103 127 155 
91 383 261 99 124 153 
90 382 262 107 126 149 
90 383 262 98 121 147 
93 376 259 133 138 149 
94 376 259 133 138 149 
94 377 259 121 130 147 
95 376 259 136 142 153 
95 377 259 111 123 141 
94 378 259 110 126 148 
95 378 259 100 120 144 
95 379 259 94 120 148 
92 376 260 142 143 152 
92 377 260 131 137 150 
93 376 260 137 140 149 
93 377 260 125 134 150 
92 378 260 124 135 152 
92 379 260 114 131 152 
93 378 260 121 133 153 
93 379 260 110 129 153 
94 377 260 119 130 147 
94 378 260 116 130 152 
94 379 260 102 123 150 
95 379 260 93 119 148 
92 380 260 104 126 153 
92 381 260 102 127 155 
93 380 260 97 123 151 
93 381 260 99 125 153 
92 382 260 104 128 155 
92 382 261 104 127 155 
92 383 260 99 123 151 
92 383 261 100 124 152 
93 382 260 100 125 153 
93 383 260 100 125 153 
94 380 260 86 115 146 
94 381 260 98 124 154 
95 380 260 82 109 140 
95 381 260 90 115 145 
94 382 260 98 123 151 
94 383 260 93 119 147 
95 382 260 94 118 145 
95 383 260 86 111 138 
96 356 256 115 48 45 
96 357 256 122 77 67 
97 356 256 114 47 41 
97 357 256 121 68 57 
96 358 256 143 123 117 
96 359 256 161 149 145 
96 359 257 161 154 154 
97 358 256 137 113 104 
97 359 256 157 148 145 
98 356 256 111 51 44 
98 357 256 121 57 49 
99 356 256 113 58 53 
99 357 256 120 51 49 
98 358 256 127 92 86 
98 359 256 154 144 142 
99 358 256 120 76 73 
99 359 256 142 131 129 
100 356 256 107 61 67 
100 357 256 119 44 41 
101 357 256 117 41 45 
100 358 256 117 66 63 
100 359 256 136 123 121 
101 358 256 118 61 64 
101 359 256 135 118 113 
102 357 256 118 48 53 
103 357 256 115 46 42 
102 358 256 116 54 57 
102 359 256 136 114 108 
103 358 256 116 50 49 
103 359 256 136 109 100 
96 360 257 155 152 155 
96 361 257 153 151 155 
97 360 256 158 153 155 
97 360 257 159 154 156 
97 361 257 158 154 158 
96 362 257 143 146 154 
96 363 257 139 143 154 
97 362 257 155 153 157 
97 363 257 153 152 159 
98 360 256 161 155 156 
98 361 256 163 157 159 
98 361 257 160 156 158 
99 360 256 160 154 154 
99 361 256 161 156 158 
99 361 257 160 156 158 
98 362 257 156 153 156 
98 363 257 151 149 154 
99 362 257 160 156 158 
99 363 257 154 150 153 
96 364 257 140 146 158 
96 365 257 127 140 159 
97 364 257 145 148 159 
97 365 257 131 140 156 
96 366 257 109 130 158 
96 367 257 99 125 160 
97 366 257 115 133 157 
97 367 257 104 126 157 
96 366 258 102 125 154 
96 367 258 106 126 153 
97 367 258 106 128 157 
98 364 257 156 155 161 
98 365 257 151 154 164 
99 364 257 155 152 156 
99 365 257 149 150 158 
98 366 257 130 143 161 
98 367 257 108 130 155 
99 366 257 135 145 161 
99 367 257 109 130 156 
100 360 256 157 152 152 
100 361 256 160 156 158 
100 361 257 159 155 159 
101 360 256 155 148 149 
101 361 256 157 153 156 
100 362 257 159 154 157 
100 363 257 157 152 154 
101 362 257 160 155 156 
101 363 257 159 153 153 
102 360 256 156 148 147 
102 361 256 153 149 152 
103 360 256 157 149 145 
103 361 256 147 144 148 
102 362 257 156 151 153 
102 363 257 162 156 156 
103 362 257 148 145 149 
103 363 257 159 153 154 
100 364 257 158 154 158 
100 365 257 151 151 157 
101 364 257 160 154 156 
101 365 257 153 152 156 
100 366 257 136 144 158 
100 367 257 112 131 156 
101 366 257 138 144 157 
101 367 257 118 134 155 
102 364 257 157 151 153 
102 365 257 138 138 144 
103 364 257 160 153 155 
103 365 257 142 140 145 
102 366 257 131 138 151 
102 367 257 117 132 154 
103 366 257 133 137 149 
103 367 257 117 131 152 
104 357 256 119 55 50 
105 357 256 113 53 49 
104 358 256 118 56 50 
104 359 256 137 110 100 
105 358 256 112 53 51 
105 359 256 132 111 102 
106 357 256 112 56 49 
106 358 256 112 61 56 
106 359 256 125 104 96 
107 358 256 105 42 40 
107 359 256 111 72 67 
108 358 256 104 29 35 
108 359 256 111 56 55 
109 358 256 106 32 37 
109 359 256 108 40 38 
110 358 256 105 35 34 
110 359 256 105 42 35 
104 360 256 158 148 145 
104 361 256 142 140 144 
105 360 256 163 152 148 
105 361 256 145 142 145 
104 362 257 138 136 142 
104 363 257 153 148 150 
105 362 256 139 137 141 
105 362 257 141 138 142 
105 363 257 154 149 150 
106 360 256 162 151 145 
106 361 256 158 151 150 
107 360 256 157 143 137 
107 361 256 162 154 151 
106 362 256 153 148 148 
106 363 257 160 154 153 
107 362 256 161 153 152 
107 363 256 163 155 154 
107 363 257 160 154 155 
104 364 257 160 153 154 
104 365 257 150 146 148 
105 364 257 159 153 154 
105 365 257 160 154 156 
104 366 257 141 142 151 
104 367 257 117 132 152 
105 366 257 148 149 157 
105 367 257 128 138 155 
105 367 258 111 129 152 
106 364 257 159 154 156 
106 365 257 161 157 160 
107 364 257 153 150 155 
107 365 257 153 151 158 
106 366 257 150 152 161 
106 367 257 126 139 157 
107 366 257 145 150 163 
107 367 257 121 137 158 
106 367 258 110 130 154 
107 367 258 108 130 155 
108 360 256 143 121 118 
108 361 256 158 149 146 
109 360 256 125 93 92 
109 361 256 146 139 139 
108 362 256 162 155 154 
108 363 256 161 154 156 
108 363 257 153 149 152 
109 362 256 160 155 156 
109 363 256 164 156 159 
110 360 256 120 84 86 
110 361 256 138 125 125 
111 360 256 120 73 77 
111 361 256 138 119 115 
110 362 256 157 150 150 
110 363 256 165 157 158 
111 362 256 155 147 145 
111 363 256 157 150 151 
108 364 256 149 144 150 
108 364 257 145 142 149 
108 365 257 143 143 154 
109 364 256 151 145 151 
109 365 256 148 144 152 
109 365 257 143 143 155 
108 366 257 135 144 161 
108 367 257 112 133 159 
109 366 257 130 141 159 
109 367 257 109 130 156 
110 364 256 160 154 157 
110 365 256 154 153 160 
111 364 256 160 155 157 
111 365 256 148 150 158 
110 366 256 129 139 156 
110 366 257 130 141 159 
110 367 256 108 127 151 
110 367 257 108 128 154 
111 366 256 124 136 153 
111 367 256 110 127 149 
97 368 257 104 127 156 
96 368 258 126 139 157 
96 369 258 141 148 163 
97 368 258 120 136 158 
97 369 258 135 143 159 
96 370 258 125 138 157 
96 371 258 124 139 159 
97 370 258 128 139 156 
97 371 258 123 139 160 
98 368 257 104 127 154 
99 368 257 105 127 153 
98 368 258 116 132 156 
98 369 258 135 143 161 
99 368 258 111 129 153 
99 369 258 131 140 160 
98 370 258 127 139 157 
98 371 258 123 138 158 
99 370 258 128 139 157 
99 371 258 122 138 158 
96 372 258 125 139 160 
96 373 258 138 144 159 
97 372 258 122 137 159 
97 373 258 132 141 157 
96 374 259 153 152 158 
96 375 259 155 154 160 
97 374 258 147 149 159 
97 374 259 158 156 161 
97 375 259 162 159 164 
98 372 258 120 136 159 
98 373 258 129 138 154 
99 372 258 123 140 162 
99 373 258 134 141 156 
98 374 258 141 144 156 
98 374 259 150 150 158 
98 375 259 161 158 162 
99 374 259 149 148 157 
99 375 259 160 156 160 
