ply
format ascii 1.0
comment Created by CloudCompare v2.10.1 (Zephyrus)
comment Created 1/31/20 6:08 PM
obj_info Generated by CloudCompare!
element vertex 1748
property float x
property float y
property float z
property uchar red
property uchar green
property uchar blue
end_header
205 827 287 167 123 96 
206 827 286 168 124 97 
206 827 287 168 124 96 
207 827 286 169 124 96 
205 828 287 166 122 95 
205 829 287 168 124 99 
205 830 287 168 125 98 
206 828 286 168 124 95 
206 828 287 168 124 95 
206 829 287 168 124 97 
207 828 286 169 125 97 
207 829 286 168 124 97 
207 829 287 168 124 97 
206 830 287 168 126 98 
206 831 287 167 125 97 
207 830 287 169 126 98 
207 831 287 168 126 98 
209 827 285 169 124 97 
208 827 286 168 123 96 
209 827 286 169 124 96 
210 827 285 168 123 95 
211 827 285 167 120 93 
208 828 286 169 124 97 
208 829 286 169 124 98 
209 828 286 168 123 96 
209 829 286 168 122 95 
208 830 287 169 126 99 
208 831 287 169 126 99 
209 830 286 167 121 95 
209 830 287 167 122 96 
209 831 287 166 122 95 
210 828 285 168 122 95 
211 828 285 167 119 93 
210 828 286 167 121 93 
210 829 286 165 117 90 
211 828 286 165 118 90 
211 829 286 164 115 88 
210 830 286 164 116 89 
210 831 287 163 116 89 
211 830 286 163 115 87 
211 831 286 163 114 85 
211 831 287 163 115 87 
212 827 285 166 118 90 
213 827 285 165 117 89 
214 827 285 167 118 90 
215 827 285 168 117 91 
212 828 285 166 117 90 
213 828 285 166 116 89 
213 829 285 166 116 88 
212 828 286 165 116 88 
212 829 286 164 114 86 
213 829 286 165 115 87 
212 830 286 164 114 86 
212 831 286 163 114 85 
212 831 287 162 113 84 
213 830 286 165 115 87 
213 831 286 165 115 87 
214 828 285 167 117 89 
214 829 285 167 117 89 
215 828 285 167 117 89 
215 829 285 167 116 89 
214 830 285 167 117 89 
215 830 285 167 117 89 
215 831 285 166 117 87 
214 830 286 166 117 88 
214 831 286 165 115 85 
215 831 286 166 116 86 
218 827 283 170 117 89 
219 827 283 169 117 88 
216 827 284 170 117 91 
216 827 285 170 118 92 
217 827 284 171 118 91 
218 827 284 171 117 90 
218 828 283 168 115 86 
218 829 283 168 114 88 
219 828 283 168 114 86 
219 829 283 167 114 86 
218 830 283 168 115 88 
218 831 283 165 113 85 
219 830 283 166 113 86 
219 831 283 164 112 85 
216 828 284 170 119 92 
216 828 285 169 117 91 
216 829 285 167 115 89 
217 828 284 169 117 89 
217 829 284 168 115 89 
216 830 285 167 116 88 
216 831 285 166 116 87 
217 830 284 167 115 88 
217 831 284 166 114 86 
217 831 285 166 115 86 
218 828 284 169 116 87 
218 829 284 168 116 89 
218 830 284 168 116 89 
218 831 284 166 114 87 
220 827 282 167 114 87 
220 827 283 169 115 88 
221 827 282 166 113 87 
222 827 281 166 116 88 
223 827 280 168 116 89 
223 827 281 167 116 89 
222 827 282 166 114 87 
221 828 281 167 117 91 
221 829 281 168 119 92 
220 828 282 166 113 85 
220 828 283 167 114 86 
220 829 282 166 114 86 
220 829 283 166 114 85 
221 828 282 166 114 87 
221 829 282 166 116 89 
221 830 281 167 117 91 
221 831 281 167 116 89 
220 830 282 165 114 86 
220 830 283 165 113 85 
220 831 282 165 113 86 
220 831 283 165 113 86 
221 830 282 166 115 88 
221 831 282 165 114 87 
222 828 281 168 118 92 
222 829 281 168 118 92 
223 828 280 168 117 91 
223 828 281 167 117 89 
223 829 280 172 122 96 
223 829 281 170 120 94 
222 830 281 168 118 91 
222 831 281 169 119 92 
223 830 280 171 121 96 
223 830 281 170 120 94 
223 831 280 172 121 96 
205 830 288 167 124 97 
205 831 288 167 124 97 
206 831 288 167 124 97 
233 831 271 167 114 90 
234 829 271 173 120 95 
235 829 271 172 118 93 
234 830 271 169 116 92 
234 831 270 163 110 85 
234 831 271 166 112 88 
235 830 271 169 114 90 
235 831 270 165 112 87 
235 831 271 167 113 89 
238 827 271 172 118 94 
239 827 270 169 118 92 
239 827 271 170 117 91 
236 828 271 174 120 96 
236 829 271 171 117 93 
237 828 271 172 118 94 
237 829 270 170 118 94 
237 829 271 170 117 94 
236 830 270 169 116 91 
236 830 271 169 115 90 
236 831 270 167 115 91 
237 830 270 170 118 93 
237 831 270 167 115 89 
238 828 270 169 117 92 
238 828 271 169 116 92 
238 829 270 170 120 94 
239 828 270 171 120 95 
239 829 270 171 121 94 
238 831 269 169 118 90 
239 830 269 172 124 91 
239 831 269 173 123 93 
238 830 270 169 119 90 
238 831 270 167 115 88 
239 830 270 171 122 91 
225 827 279 171 119 95 
226 827 278 171 122 98 
226 827 279 171 120 97 
227 827 278 170 122 97 
225 828 279 171 120 96 
225 829 279 173 123 98 
224 830 279 173 124 99 
224 831 279 174 124 100 
225 830 279 173 124 98 
225 831 279 174 124 99 
227 828 277 168 120 95 
227 829 277 168 119 94 
226 828 278 170 120 95 
226 828 279 171 120 97 
226 829 278 170 120 95 
226 829 279 171 120 96 
227 828 278 168 120 95 
226 831 277 170 121 95 
227 830 277 168 119 94 
227 831 276 168 118 94 
227 831 277 169 120 94 
226 830 278 171 122 97 
226 831 278 172 123 98 
231 827 275 174 121 97 
228 827 277 169 121 97 
229 827 277 170 121 98 
228 827 278 169 121 97 
230 827 276 171 120 97 
231 827 276 173 121 97 
229 829 275 170 122 98 
228 831 275 167 118 94 
229 830 275 169 121 97 
229 831 274 171 124 98 
229 831 275 169 122 97 
230 828 275 172 122 97 
230 829 275 171 122 97 
231 828 274 172 121 97 
231 828 275 172 121 97 
231 829 274 173 122 98 
231 829 275 171 121 96 
231 830 273 173 122 99 
231 831 272 173 121 100 
231 831 273 173 124 100 
230 830 274 173 125 100 
230 830 275 171 123 98 
230 831 274 173 125 100 
231 830 274 172 123 98 
231 831 274 172 124 99 
228 828 277 168 120 96 
228 829 276 168 119 96 
228 829 277 168 119 96 
229 828 276 169 120 96 
229 828 277 169 120 96 
229 829 276 170 121 98 
228 830 276 168 119 95 
228 831 276 166 116 92 
229 830 276 169 120 97 
230 828 276 171 122 98 
224 827 280 168 116 91 
225 827 280 170 118 93 
224 828 280 170 119 94 
224 829 280 173 123 98 
225 828 280 170 118 94 
224 830 280 173 124 99 
224 831 280 173 123 99 
232 827 274 176 122 97 
232 827 275 175 122 97 
233 827 274 178 123 99 
234 827 273 180 126 101 
235 827 272 178 124 97 
235 827 273 179 126 100 
234 827 274 179 124 100 
232 829 273 174 121 98 
233 828 273 176 122 99 
233 829 272 174 121 98 
233 829 273 174 121 99 
232 828 274 174 121 97 
232 828 275 174 121 96 
232 829 274 173 122 98 
233 828 274 176 121 98 
232 830 272 173 120 98 
232 830 273 173 121 99 
232 831 272 170 118 96 
233 830 272 172 119 96 
233 831 272 169 115 92 
234 828 272 176 122 97 
234 828 273 177 123 99 
234 829 272 174 121 97 
235 828 272 177 122 97 
235 829 272 174 120 96 
234 830 272 172 120 95 
236 827 272 177 123 96 
236 827 273 178 125 98 
237 827 272 175 121 96 
238 827 272 175 122 97 
236 828 272 176 122 97 
240 827 270 171 120 94 
240 827 271 171 118 92 
240 828 270 174 124 98 
240 829 270 175 127 97 
240 830 269 176 129 95 
240 831 269 176 126 95 
208 832 287 168 124 97 
209 832 287 165 120 93 
210 832 287 162 115 88 
210 833 287 161 115 87 
211 832 287 161 113 84 
211 833 287 159 111 81 
212 832 287 163 114 85 
212 833 287 162 113 85 
213 832 286 164 116 87 
213 832 287 164 116 87 
213 833 287 164 115 87 
213 834 287 163 113 86 
213 835 287 164 115 88 
215 832 285 166 117 87 
215 833 285 165 117 86 
214 832 286 165 116 86 
214 833 286 166 117 88 
214 833 287 165 116 88 
215 832 286 166 117 86 
215 833 286 166 117 87 
214 834 286 165 115 87 
214 834 287 164 115 87 
214 835 287 164 114 87 
215 834 286 165 116 86 
215 835 286 164 114 85 
214 836 287 164 114 88 
214 837 287 162 111 84 
215 836 286 162 111 82 
215 836 287 161 110 83 
215 837 286 161 110 81 
215 837 287 161 111 82 
215 838 287 161 112 82 
215 839 287 162 114 84 
223 833 279 175 125 99 
223 834 279 176 125 98 
223 835 279 177 125 98 
222 836 279 177 123 97 
222 837 279 178 124 97 
223 836 278 178 125 96 
223 836 279 177 124 97 
223 837 278 178 125 97 
223 837 279 179 125 97 
222 838 279 177 123 97 
222 839 279 177 125 98 
223 838 278 178 125 98 
223 838 279 179 124 99 
223 839 278 178 124 99 
218 832 283 164 113 86 
218 833 283 161 112 84 
219 832 283 163 113 85 
219 833 283 163 113 86 
218 834 283 163 114 87 
218 835 283 164 116 89 
219 834 282 166 116 89 
219 834 283 164 114 87 
219 835 282 167 117 91 
219 835 283 165 116 89 
216 832 285 165 116 86 
216 833 285 165 116 87 
217 832 284 164 114 85 
217 832 285 164 114 85 
217 833 284 163 114 86 
217 833 285 164 116 87 
216 834 285 164 116 86 
216 835 285 163 114 85 
217 834 284 163 115 87 
217 834 285 163 115 86 
217 835 284 163 115 89 
217 835 285 162 114 87 
218 832 284 164 113 86 
218 833 284 162 113 85 
218 834 284 163 115 87 
218 835 284 164 116 90 
218 836 283 164 116 90 
219 836 282 168 118 92 
219 836 283 166 116 90 
219 837 283 166 116 90 
219 838 283 168 117 90 
219 839 283 168 116 90 
216 836 285 162 112 84 
216 837 285 162 112 85 
217 836 284 162 112 85 
217 836 285 161 111 84 
217 837 284 163 112 87 
217 837 285 162 112 86 
216 836 286 163 112 83 
216 837 286 161 111 82 
216 838 285 162 113 87 
217 838 284 164 113 89 
217 838 285 164 113 88 
217 839 285 164 113 88 
216 838 286 162 112 84 
216 839 286 162 113 86 
216 839 287 162 113 85 
217 839 286 163 112 87 
218 836 284 164 115 89 
218 837 284 164 113 88 
218 838 284 165 113 88 
218 839 284 167 114 90 
218 839 285 165 113 89 
219 839 284 167 114 90 
221 832 281 168 117 89 
221 833 281 169 117 89 
220 832 282 164 113 86 
220 833 282 165 113 86 
221 832 282 166 115 87 
221 833 282 167 116 88 
220 835 281 170 119 91 
221 834 281 170 119 91 
221 835 281 172 120 92 
220 834 282 167 116 89 
220 835 282 169 119 92 
222 832 280 172 122 94 
222 832 281 170 120 92 
222 833 280 172 121 93 
222 833 281 171 119 91 
223 832 280 173 123 96 
223 833 280 174 123 97 
222 834 280 174 122 95 
222 834 281 172 120 92 
222 835 280 175 122 95 
223 834 280 175 125 98 
220 836 281 170 118 90 
221 836 281 173 120 93 
221 837 280 176 123 98 
221 837 281 174 121 94 
220 836 282 169 118 91 
220 837 282 170 118 91 
221 838 280 176 123 97 
221 838 281 173 122 95 
221 839 281 174 124 97 
220 838 282 171 121 95 
220 839 282 172 120 95 
221 839 282 173 123 96 
222 836 280 176 122 96 
222 837 280 177 124 98 
222 838 280 177 124 98 
222 839 280 176 126 98 
222 840 279 176 125 96 
222 841 279 176 125 96 
223 840 278 176 122 96 
223 840 279 176 123 96 
223 841 279 176 124 96 
223 842 279 175 123 96 
223 843 279 174 122 95 
223 844 279 172 121 93 
219 840 283 170 118 92 
219 841 283 171 119 93 
217 840 285 164 112 88 
216 840 286 163 113 86 
216 840 287 163 114 87 
216 841 287 165 116 89 
217 840 286 164 113 87 
217 841 286 166 116 90 
217 841 287 166 117 90 
216 842 287 165 116 89 
217 842 286 167 118 91 
217 842 287 167 118 91 
217 843 287 168 119 92 
218 840 284 167 115 90 
218 840 285 165 114 89 
218 841 285 167 115 91 
219 840 284 168 116 90 
219 841 284 169 117 91 
219 841 285 168 116 91 
218 842 285 168 116 91 
218 843 285 168 116 90 
219 842 284 169 117 90 
219 842 285 168 117 91 
219 843 284 170 118 92 
219 843 285 168 116 90 
218 842 286 168 117 91 
218 843 286 168 117 90 
217 844 287 169 120 92 
217 845 287 168 119 91 
219 844 285 168 115 89 
219 845 285 168 116 89 
218 844 286 168 117 89 
218 844 287 168 119 91 
218 845 286 168 117 89 
218 845 287 169 120 92 
219 844 286 168 116 88 
219 845 286 168 116 89 
218 846 287 169 120 92 
218 847 287 168 119 91 
219 846 286 168 117 89 
219 846 287 168 118 89 
219 847 286 168 118 90 
219 847 287 168 119 90 
221 840 281 175 125 98 
221 841 281 174 124 96 
220 840 282 172 120 94 
220 840 283 171 119 93 
220 841 282 173 122 95 
220 841 283 171 119 93 
221 840 282 173 123 96 
221 841 282 174 123 97 
221 842 281 174 123 95 
221 843 281 173 122 93 
220 842 282 172 119 92 
220 842 283 171 119 92 
220 843 282 173 121 93 
220 843 283 172 120 93 
221 842 282 173 121 93 
221 843 282 173 122 94 
222 840 280 176 126 98 
222 841 280 176 127 98 
222 841 281 175 126 98 
222 842 280 174 123 94 
222 842 281 174 124 95 
222 843 280 172 120 90 
222 843 281 171 120 90 
223 843 280 173 122 93 
220 842 284 170 118 91 
220 843 284 170 119 91 
221 844 281 171 120 91 
220 844 283 171 119 91 
220 845 283 170 118 90 
221 844 282 172 120 92 
221 844 283 171 119 91 
221 845 282 169 117 89 
221 845 283 170 119 91 
221 846 282 170 118 91 
221 846 283 170 119 91 
221 847 283 168 117 89 
222 844 280 171 120 91 
222 844 281 171 119 91 
222 845 281 170 119 91 
223 844 280 171 120 92 
223 845 280 169 118 91 
222 846 281 168 117 90 
222 847 281 167 117 90 
223 846 280 168 117 90 
223 846 281 169 117 90 
223 847 280 166 117 89 
223 847 281 167 118 89 
222 846 282 168 116 88 
222 847 282 166 115 87 
220 844 284 169 117 89 
220 844 285 168 115 89 
220 845 284 168 116 88 
220 845 285 167 115 89 
221 845 284 169 118 90 
220 846 284 167 115 87 
220 846 285 167 115 88 
220 847 285 166 115 88 
221 846 284 168 117 88 
221 847 284 168 117 89 
221 847 285 166 115 87 
220 847 286 167 116 89 
219 848 287 168 118 90 
219 849 287 166 117 89 
219 850 287 165 117 87 
221 848 283 167 116 89 
222 848 281 166 116 89 
223 848 281 167 118 90 
223 849 281 164 115 86 
222 848 282 166 116 89 
222 848 283 167 115 88 
222 849 282 165 115 86 
222 849 283 166 115 86 
223 850 281 163 115 86 
222 850 282 164 114 85 
222 850 283 164 115 86 
222 851 283 163 113 84 
223 850 282 162 114 85 
223 851 282 162 114 85 
223 851 283 162 114 84 
220 848 285 167 116 89 
221 848 284 167 115 89 
221 848 285 167 116 89 
221 849 284 167 116 88 
221 849 285 167 117 89 
220 848 286 168 118 91 
220 848 287 168 118 91 
220 849 286 167 118 91 
220 849 287 166 117 89 
221 849 286 167 118 91 
221 850 284 166 116 87 
221 850 285 166 118 89 
221 851 285 165 118 89 
220 850 286 166 118 90 
220 850 287 165 117 88 
220 851 287 166 118 89 
221 850 286 166 119 90 
221 851 286 165 118 88 
221 851 287 166 118 89 
222 849 284 166 115 86 
222 850 284 165 115 86 
222 851 284 163 115 85 
222 851 285 164 117 88 
223 852 283 161 113 84 
221 852 285 164 118 89 
220 852 287 168 121 92 
221 852 286 165 118 88 
221 852 287 166 120 90 
222 852 284 162 115 86 
222 852 285 164 118 89 
223 852 284 161 114 86 
205 832 288 167 124 99 
205 832 289 167 124 100 
205 833 289 159 117 91 
205 834 290 153 110 84 
205 835 290 150 110 83 
205 835 291 149 109 83 
206 832 288 167 124 99 
206 833 289 159 117 91 
207 832 288 167 125 99 
207 833 288 164 122 97 
207 833 289 158 116 90 
207 834 289 153 110 84 
206 834 290 151 109 83 
206 835 290 148 108 82 
207 834 290 150 109 82 
207 835 290 148 107 81 
205 836 291 147 108 81 
205 837 291 143 105 78 
206 836 291 146 106 80 
206 837 291 143 103 77 
207 836 291 145 105 79 
207 837 291 142 101 74 
205 837 292 140 103 76 
205 838 292 134 99 72 
205 838 293 132 96 69 
205 839 293 123 88 58 
206 837 292 140 101 75 
207 837 292 140 99 73 
206 838 292 135 98 71 
206 838 293 132 95 68 
206 839 293 124 86 58 
207 838 292 135 96 68 
207 839 293 128 88 60 
205 840 294 119 83 54 
205 840 295 118 83 55 
205 841 295 117 83 55 
206 840 294 121 84 57 
206 840 295 121 84 58 
206 841 295 121 85 57 
207 840 294 127 88 62 
207 840 295 126 88 63 
207 841 295 129 91 64 
205 841 296 116 82 54 
205 841 297 114 81 52 
205 842 297 114 81 50 
205 842 298 112 80 47 
205 842 299 110 79 43 
206 841 296 120 84 55 
206 841 297 116 82 53 
207 841 296 128 90 62 
206 842 297 119 86 56 
207 842 296 129 93 65 
207 842 297 130 96 68 
206 842 298 119 86 54 
206 842 299 116 83 48 
206 843 299 122 89 56 
207 842 298 128 95 65 
207 843 298 133 100 70 
207 843 299 133 100 68 
205 842 300 110 79 44 
205 842 301 107 76 43 
205 843 301 108 76 42 
205 842 302 104 76 43 
205 842 303 105 78 46 
205 843 302 107 76 43 
205 843 303 106 80 46 
206 843 300 118 85 51 
206 843 301 115 81 49 
207 843 300 131 98 67 
207 843 301 127 93 63 
206 843 302 113 80 49 
206 843 303 113 83 51 
207 843 302 120 86 56 
207 843 303 120 87 55 
207 844 302 127 94 61 
207 844 303 126 93 60 
205 842 304 104 79 47 
205 843 304 106 81 48 
205 843 305 106 82 48 
205 843 306 109 83 49 
206 843 304 113 86 51 
206 843 305 114 86 51 
207 843 304 120 90 55 
207 843 305 120 91 57 
206 843 306 116 86 53 
207 843 306 122 90 60 
207 844 304 124 92 59 
207 844 305 124 93 61 
207 844 306 125 90 60 
208 832 288 167 125 99 
208 833 288 163 121 95 
208 833 289 158 115 89 
209 832 288 166 122 96 
209 833 288 160 116 89 
209 833 289 157 113 86 
208 834 289 153 111 85 
209 834 289 153 109 82 
209 835 289 150 105 77 
208 834 290 151 110 83 
208 835 290 148 107 81 
209 835 290 148 105 78 
210 833 288 158 111 83 
211 833 288 156 107 76 
210 834 288 153 106 75 
210 834 289 152 106 77 
210 835 289 150 104 75 
211 834 288 155 107 76 
211 834 289 154 106 76 
211 835 289 154 107 78 
210 835 290 148 102 73 
208 836 290 145 104 78 
208 836 291 144 103 77 
208 837 291 141 99 72 
209 836 290 145 101 73 
209 836 291 144 101 73 
209 837 291 142 98 69 
211 836 289 154 108 79 
210 836 290 147 102 72 
210 837 290 146 101 71 
210 837 291 147 103 74 
211 836 290 151 106 76 
211 837 290 153 107 79 
211 837 291 153 108 79 
210 838 291 150 106 78 
211 838 291 157 113 84 
211 839 291 161 117 89 
208 837 292 139 98 70 
208 838 292 137 94 66 
208 839 293 132 90 62 
209 838 292 142 99 70 
209 839 292 141 97 68 
209 839 293 141 97 69 
210 838 292 151 108 79 
210 839 292 150 107 79 
211 839 292 157 113 84 
212 833 288 158 109 78 
212 834 288 159 111 82 
212 835 288 160 112 83 
212 835 289 159 111 82 
213 834 288 162 112 84 
213 835 288 163 114 87 
212 836 289 159 112 83 
212 837 289 160 114 84 
213 836 288 164 114 88 
213 836 289 161 113 84 
213 837 288 163 113 85 
213 837 289 162 113 84 
212 837 290 159 113 83 
213 838 289 165 116 88 
213 839 289 165 116 87 
212 838 290 162 118 88 
212 838 291 162 118 88 
212 839 290 166 120 92 
212 839 291 164 120 91 
213 838 290 165 119 90 
213 839 290 166 118 90 
214 837 288 163 112 85 
214 838 288 163 112 83 
214 839 288 164 114 86 
214 839 289 164 114 86 
215 838 288 162 112 83 
215 839 288 162 114 85 
208 840 293 134 93 66 
209 840 293 142 100 72 
208 840 294 135 94 67 
208 841 295 137 97 70 
209 840 294 142 101 73 
209 841 294 148 106 79 
209 841 295 147 105 78 
209 842 295 155 113 85 
210 840 292 153 109 81 
210 840 293 152 108 81 
210 841 293 159 115 87 
211 840 292 160 114 87 
211 840 293 158 113 85 
211 841 292 163 116 87 
211 841 293 164 118 90 
210 841 294 157 113 86 
211 842 293 169 123 93 
211 843 293 172 126 96 
210 842 294 165 121 92 
210 842 295 162 118 91 
210 843 295 169 125 96 
211 842 294 167 123 94 
211 843 294 172 126 97 
211 843 295 172 127 98 
210 844 295 173 128 98 
211 844 294 173 128 97 
211 844 295 173 128 98 
211 845 295 172 127 96 
213 840 289 166 117 88 
212 840 291 166 119 92 
212 841 291 165 116 90 
213 840 290 167 119 91 
213 841 290 166 118 90 
213 841 291 166 117 92 
213 842 290 164 115 87 
213 842 291 164 113 87 
213 843 291 163 112 87 
214 840 288 164 115 86 
214 840 289 165 116 87 
214 841 289 164 115 87 
215 840 288 163 114 86 
215 841 288 163 114 86 
215 841 289 163 114 86 
214 841 290 166 118 90 
214 842 289 164 115 87 
215 842 288 163 114 86 
215 842 289 163 114 85 
215 843 288 164 116 89 
215 843 289 163 115 87 
214 842 290 164 116 88 
214 843 290 163 113 85 
214 843 291 163 114 86 
212 840 292 165 117 90 
212 841 292 165 116 88 
212 842 292 167 118 90 
212 843 292 169 120 90 
212 843 293 171 124 93 
213 843 292 166 116 89 
213 844 291 165 115 89 
215 844 289 164 115 86 
214 844 290 163 114 86 
214 844 291 164 116 88 
214 845 291 166 119 91 
215 844 290 163 115 86 
215 845 290 164 117 88 
215 845 291 166 119 91 
215 846 291 167 120 92 
215 847 291 169 122 93 
212 844 293 171 123 91 
212 845 293 172 125 93 
213 844 292 167 118 90 
213 844 293 169 120 89 
213 845 292 167 121 92 
213 845 293 169 123 92 
212 844 294 173 127 95 
212 845 294 172 126 94 
212 845 295 171 125 95 
213 845 294 170 124 92 
213 846 293 169 124 94 
212 846 294 170 125 92 
212 846 295 170 124 93 
213 846 294 170 124 93 
213 846 295 169 124 92 
213 847 294 169 124 94 
213 847 295 168 124 92 
214 844 292 167 119 91 
214 845 292 167 120 90 
214 846 292 167 122 91 
214 846 293 169 124 94 
214 847 292 169 125 92 
214 847 293 170 125 95 
215 846 292 168 121 92 
215 847 292 169 123 92 
214 847 294 170 125 95 
208 841 296 135 96 69 
208 842 296 140 102 75 
208 842 297 140 103 75 
208 843 297 146 109 81 
209 842 296 149 109 82 
209 843 296 159 119 91 
209 843 297 157 119 90 
208 843 298 145 111 80 
208 843 299 144 111 79 
209 843 298 155 118 87 
210 843 296 168 125 96 
208 843 300 142 108 76 
209 844 297 165 125 95 
208 844 299 149 114 82 
209 844 298 161 123 92 
209 844 299 158 121 89 
209 845 299 162 123 92 
210 844 296 170 127 97 
210 844 297 170 128 98 
210 845 297 171 128 98 
211 845 296 172 126 96 
211 845 297 171 125 96 
210 845 298 170 128 99 
210 845 299 167 125 96 
211 845 298 169 126 96 
211 845 299 166 123 93 
211 846 297 168 123 92 
211 846 298 166 121 90 
211 846 299 162 117 88 
208 844 300 145 110 78 
208 844 301 140 106 73 
209 844 300 155 118 86 
209 844 301 149 112 80 
209 845 300 159 120 88 
209 845 301 152 113 81 
208 844 302 135 100 68 
208 844 303 131 97 65 
209 844 302 141 105 72 
209 844 303 138 100 69 
209 845 302 147 107 75 
209 845 303 141 102 70 
210 845 300 161 119 88 
210 845 301 155 113 81 
210 845 302 149 107 75 
210 845 303 144 102 71 
211 845 303 144 101 69 
211 846 300 159 114 86 
211 846 301 154 109 79 
211 846 302 148 105 72 
211 846 303 144 99 67 
212 846 296 169 123 93 
212 846 297 166 120 91 
212 847 297 163 117 86 
213 847 296 166 121 90 
213 847 297 161 116 84 
212 846 298 163 117 86 
212 846 299 161 115 84 
212 847 298 161 114 83 
212 847 299 158 112 81 
213 847 298 158 113 82 
213 847 299 155 109 79 
212 846 300 155 110 80 
212 846 301 151 106 76 
212 847 300 153 108 77 
212 847 301 149 104 73 
213 847 300 152 106 76 
213 847 301 148 103 72 
212 846 302 147 102 70 
212 846 303 143 98 66 
212 847 302 146 101 71 
212 847 303 142 97 66 
213 847 302 144 100 70 
213 847 303 140 96 66 
216 841 288 164 115 88 
216 842 288 164 115 88 
216 843 288 166 118 91 
217 843 288 168 119 92 
216 844 288 167 120 93 
216 844 289 166 119 91 
216 845 289 166 119 90 
217 844 288 168 120 93 
217 845 288 168 120 91 
216 845 290 165 118 89 
216 846 289 166 118 89 
217 846 288 168 120 91 
217 846 289 167 119 90 
217 847 289 166 118 89 
216 846 290 167 120 91 
216 847 290 168 120 91 
216 847 291 169 121 93 
217 847 290 167 119 91 
218 846 288 168 120 92 
218 847 288 166 118 89 
208 844 304 130 95 64 
208 844 305 130 93 63 
209 844 304 135 97 66 
209 844 305 133 93 63 
209 845 304 137 97 66 
209 845 305 134 91 62 
208 844 306 129 90 60 
209 844 306 130 88 58 
209 845 306 131 87 58 
209 845 307 129 85 53 
210 845 304 139 96 65 
210 845 305 134 91 61 
211 845 304 138 94 63 
211 845 305 134 90 61 
210 845 306 131 87 59 
210 845 307 129 84 56 
211 845 306 132 87 58 
211 845 307 129 84 56 
211 846 304 138 94 63 
211 846 305 135 91 61 
211 846 306 131 86 57 
211 846 307 129 84 53 
212 846 304 138 93 61 
212 846 305 134 89 57 
212 847 304 139 94 63 
213 847 304 137 93 61 
213 847 305 134 90 58 
212 846 306 131 86 55 
212 846 307 129 84 53 
213 846 306 131 87 56 
213 846 307 130 86 56 
213 847 306 132 87 57 
213 847 307 131 87 58 
214 847 305 134 90 59 
214 847 306 133 88 57 
214 847 307 132 87 58 
213 847 308 132 87 59 
214 847 308 133 88 59 
214 848 293 170 126 95 
215 848 292 170 125 93 
215 848 293 171 126 95 
215 849 292 171 126 95 
215 849 293 170 126 94 
214 848 294 169 125 95 
214 848 295 167 122 91 
214 849 294 169 125 94 
214 849 295 167 123 91 
215 849 294 170 125 94 
215 849 295 168 124 93 
215 850 293 171 126 95 
215 850 294 170 125 94 
215 850 295 167 123 91 
215 851 295 167 122 90 
213 848 296 162 117 85 
213 848 297 160 116 85 
213 848 298 158 112 82 
213 848 299 155 109 79 
214 848 296 164 119 88 
214 848 297 160 116 86 
214 849 296 163 118 87 
214 849 297 160 116 86 
214 848 298 157 112 81 
214 848 299 154 108 77 
214 849 298 156 111 80 
214 849 299 152 107 75 
215 849 299 150 106 74 
215 850 296 163 119 88 
215 850 297 160 116 85 
215 851 296 162 118 87 
215 850 298 155 110 79 
215 850 299 152 107 75 
213 848 300 151 106 76 
213 848 301 147 102 71 
214 848 300 150 105 75 
214 848 301 147 101 72 
214 849 300 149 104 73 
215 849 300 149 103 72 
215 849 301 146 100 71 
214 848 302 143 98 68 
214 848 303 140 95 66 
215 848 302 143 97 69 
215 848 303 139 94 66 
215 849 302 143 97 68 
215 849 303 140 94 65 
215 850 300 149 104 73 
215 850 301 146 101 71 
217 848 289 167 118 90 
216 848 290 168 120 92 
216 848 291 170 122 93 
216 849 291 169 121 92 
217 848 290 169 120 93 
217 849 290 169 121 92 
217 849 291 169 121 91 
216 850 291 170 124 93 
217 850 290 170 123 93 
217 850 291 170 123 93 
217 851 291 171 125 95 
218 848 288 164 116 87 
218 848 289 165 117 89 
218 849 288 165 117 88 
218 849 289 167 120 91 
219 848 288 166 117 88 
219 849 288 165 117 87 
218 850 289 168 121 91 
219 850 288 167 119 90 
219 850 289 168 121 91 
219 851 288 168 121 91 
219 851 289 170 123 93 
218 850 290 169 122 93 
218 851 290 171 123 94 
216 849 292 171 125 94 
216 850 292 171 126 94 
216 850 293 171 126 95 
216 851 292 171 126 95 
216 851 293 171 126 95 
217 851 292 172 126 95 
216 851 294 170 126 94 
216 851 295 166 121 89 
219 852 288 170 122 93 
219 852 289 171 123 93 
220 851 288 167 119 90 
220 852 288 169 122 92 
216 851 296 163 118 87 
216 849 302 142 96 67 
216 849 303 139 94 65 
216 850 300 148 104 73 
216 850 301 145 99 69 
216 850 302 142 96 67 
216 850 303 139 93 65 
217 850 303 140 94 66 
214 848 304 136 91 62 
214 848 305 135 90 60 
215 848 304 137 92 64 
215 848 305 135 89 60 
215 849 304 136 91 63 
214 848 306 133 88 58 
214 848 307 132 86 57 
215 848 306 133 87 58 
215 848 307 133 86 57 
215 848 308 134 89 59 
216 849 304 137 91 62 
216 849 305 135 89 61 
217 849 305 135 89 61 
216 848 307 134 88 57 
216 849 306 134 88 60 
216 849 307 135 89 59 
217 849 306 135 89 61 
217 849 307 135 90 61 
216 848 308 135 90 59 
216 849 308 136 91 60 
217 849 308 137 92 62 
217 849 309 138 94 64 
218 849 309 139 96 67 
231 833 271 167 118 94 
231 834 271 165 117 93 
231 835 271 162 114 89 
230 836 271 163 117 90 
230 837 271 157 111 84 
231 836 271 158 111 86 
231 837 271 156 109 83 
231 838 271 153 105 78 
231 839 271 153 105 79 
231 840 271 154 108 83 
231 841 271 153 107 81 
232 832 271 166 115 91 
232 833 271 163 114 90 
233 832 270 160 109 81 
233 832 271 163 112 86 
233 833 270 159 109 83 
232 834 271 159 110 86 
232 835 270 156 107 83 
232 835 271 157 109 84 
233 834 270 157 108 83 
233 835 270 155 106 81 
235 833 269 156 109 76 
234 832 270 161 110 82 
234 832 271 163 112 85 
234 833 270 158 109 80 
235 832 270 161 112 83 
235 833 270 158 110 79 
234 835 269 156 111 81 
235 834 269 157 111 79 
235 835 269 157 111 80 
234 834 270 155 107 77 
234 835 270 154 106 77 
235 834 270 155 108 76 
232 836 270 155 107 83 
232 836 271 156 109 84 
232 837 270 152 105 78 
232 837 271 153 105 78 
233 836 270 154 106 80 
233 837 270 154 105 76 
232 838 270 152 105 76 
232 838 271 152 104 75 
232 839 271 153 106 78 
233 838 270 153 105 74 
233 839 270 151 104 73 
234 836 269 156 111 82 
234 837 269 154 108 78 
235 836 269 156 109 78 
235 837 269 155 107 77 
234 836 270 155 107 80 
234 837 270 154 107 78 
234 838 269 152 105 70 
234 839 269 153 107 72 
235 838 268 158 108 78 
235 838 269 153 106 72 
235 839 268 158 109 77 
235 839 269 155 108 75 
234 838 270 152 103 70 
234 839 270 150 102 67 
238 835 267 164 111 81 
239 834 267 168 115 87 
239 835 266 170 117 88 
239 835 267 166 113 83 
236 832 269 161 113 83 
236 833 269 160 112 80 
237 832 269 164 114 85 
237 833 269 163 115 85 
236 832 270 162 112 84 
237 832 270 163 112 84 
236 834 269 159 113 80 
236 835 268 158 110 77 
236 835 269 159 112 79 
237 834 268 163 115 83 
237 834 269 162 114 82 
237 835 268 162 112 81 
238 832 269 168 119 90 
238 833 268 167 116 84 
238 833 269 166 118 87 
239 832 268 169 117 85 
239 832 269 172 120 89 
239 833 268 168 115 84 
238 834 268 165 115 84 
238 835 268 163 110 81 
239 834 268 168 115 87 
237 836 267 161 108 79 
237 837 266 167 115 84 
237 837 267 161 109 78 
236 838 267 160 106 78 
236 839 267 162 109 79 
237 838 266 172 121 91 
237 838 267 163 110 79 
237 839 266 178 128 100 
237 839 267 169 119 88 
239 837 265 184 132 104 
238 836 266 167 115 83 
238 836 267 163 111 80 
238 837 266 172 121 90 
239 836 266 175 123 94 
239 837 266 182 131 103 
238 839 265 188 134 106 
239 838 265 186 134 106 
239 839 265 190 136 108 
238 838 266 180 129 100 
238 839 266 184 132 105 
236 836 268 159 110 79 
236 836 269 157 109 77 
236 837 268 159 108 79 
237 836 268 161 110 80 
236 838 268 159 107 78 
236 839 268 159 108 78 
235 845 262 194 144 115 
235 845 263 193 145 116 
234 847 262 194 144 115 
234 847 263 192 142 112 
235 846 262 194 145 116 
235 846 263 193 144 114 
237 842 263 193 141 110 
237 843 262 197 145 114 
237 843 263 194 142 112 
238 841 262 198 144 116 
238 841 263 195 141 111 
239 840 262 198 145 116 
239 840 263 197 141 114 
239 841 262 199 145 117 
238 842 262 197 145 114 
238 842 263 195 141 110 
236 844 262 196 145 116 
236 844 263 194 144 115 
236 845 262 195 144 115 
236 845 263 193 144 115 
237 844 262 197 146 115 
237 844 263 194 143 114 
235 842 267 173 124 99 
235 843 267 174 126 100 
232 840 271 152 104 77 
232 841 271 146 99 69 
233 840 270 147 99 68 
233 841 270 144 98 68 
233 841 271 144 97 68 
232 842 271 141 94 64 
233 842 270 140 94 66 
233 842 271 139 92 62 
233 843 271 136 90 60 
234 840 269 152 105 73 
234 841 269 149 102 74 
235 840 268 159 109 78 
235 840 269 156 109 79 
235 841 268 157 106 76 
235 841 269 152 104 75 
234 841 270 146 99 71 
234 842 269 147 100 73 
235 842 268 158 106 78 
235 842 269 149 100 71 
235 843 268 162 112 85 
235 843 269 147 98 68 
234 842 270 143 97 71 
234 843 270 142 95 69 
234 843 271 139 93 67 
235 845 264 193 145 116 
235 845 265 188 139 111 
235 844 266 184 135 107 
235 844 267 177 128 102 
235 845 266 185 135 108 
235 845 267 177 128 100 
234 846 264 188 138 108 
234 847 264 189 138 109 
234 847 265 184 133 106 
235 846 264 192 142 112 
235 846 265 186 135 107 
234 847 266 182 132 104 
234 847 267 170 122 92 
235 846 266 183 134 106 
235 846 267 174 127 98 
233 844 271 134 87 58 
235 844 268 163 115 88 
235 844 269 145 96 65 
235 845 268 164 117 89 
235 845 269 147 100 71 
234 844 270 137 92 65 
234 844 271 133 88 58 
234 845 271 131 86 58 
235 844 270 140 94 66 
235 845 270 137 92 63 
234 847 268 157 112 85 
234 847 269 143 100 74 
235 846 268 161 115 86 
235 846 269 147 102 76 
235 847 269 145 102 76 
234 846 270 135 90 63 
234 846 271 127 85 55 
234 847 270 131 89 61 
234 847 271 125 84 55 
235 846 270 132 89 60 
235 846 271 130 87 58 
237 841 265 188 134 109 
236 840 267 168 118 89 
236 841 267 171 120 93 
237 840 266 182 130 104 
237 840 267 176 126 99 
237 841 266 183 130 104 
236 843 265 186 134 107 
237 842 264 191 139 110 
237 842 265 188 135 108 
237 843 264 190 138 110 
237 843 265 187 135 107 
236 842 266 182 129 103 
236 842 267 177 126 100 
236 843 266 183 131 104 
236 843 267 178 128 102 
237 842 266 184 130 104 
238 840 264 192 138 109 
238 840 265 190 136 109 
238 841 264 192 138 108 
238 841 265 191 136 109 
239 840 264 196 141 113 
238 842 264 193 140 110 
236 844 264 191 142 113 
236 844 265 189 138 110 
236 844 266 184 134 106 
236 844 267 181 131 104 
224 832 279 174 124 99 
224 833 279 176 125 100 
225 832 278 174 125 99 
225 832 279 175 125 100 
225 833 278 174 124 98 
224 834 278 177 125 99 
224 834 279 177 125 99 
224 835 278 178 126 99 
224 835 279 178 125 98 
225 834 278 175 124 98 
225 835 278 176 124 97 
226 832 277 171 121 95 
226 833 277 171 121 96 
227 832 276 167 116 91 
227 832 277 168 119 92 
227 833 276 167 116 91 
227 833 277 169 118 93 
226 832 278 173 124 97 
226 834 277 171 120 94 
226 835 277 172 121 95 
227 834 276 167 116 91 
227 834 277 169 118 93 
227 835 276 166 116 90 
226 834 278 173 122 96 
227 839 275 169 119 94 
225 836 277 176 125 98 
225 837 277 176 124 96 
224 836 278 178 126 98 
224 837 278 178 125 97 
225 836 278 177 125 98 
225 837 278 176 125 97 
225 838 277 176 125 98 
225 839 277 175 124 97 
224 838 278 178 125 98 
224 839 278 177 124 99 
226 836 276 171 120 94 
226 836 277 174 123 97 
226 837 276 173 124 96 
226 837 277 175 124 96 
227 836 276 168 118 92 
227 837 276 169 121 93 
226 838 276 174 123 96 
226 838 277 175 124 96 
226 839 276 172 121 94 
226 839 277 173 122 95 
227 838 276 169 121 93 
227 839 276 171 120 95 
229 833 273 170 121 95 
228 832 275 165 117 92 
228 833 275 165 116 91 
229 832 274 170 123 98 
229 832 275 167 120 95 
229 833 274 168 120 94 
229 834 273 169 121 95 
229 835 273 168 121 95 
228 834 274 165 117 91 
228 834 275 164 115 90 
228 835 274 165 117 91 
228 835 275 164 116 90 
229 834 274 167 119 94 
229 835 274 167 119 93 
230 832 273 173 126 101 
230 833 272 170 123 97 
230 833 273 170 122 96 
231 832 272 170 121 97 
231 832 273 173 124 100 
231 833 272 170 122 98 
230 832 274 172 124 98 
230 834 272 170 122 97 
230 834 273 170 123 96 
230 835 272 167 121 93 
230 835 273 169 122 94 
231 834 272 169 122 96 
231 835 272 166 119 92 
228 832 276 165 115 91 
228 833 276 165 115 91 
229 836 273 167 121 94 
229 837 273 165 119 91 
228 836 274 163 116 89 
228 836 275 164 117 90 
228 837 274 162 116 86 
228 837 275 164 117 89 
229 836 274 165 117 90 
229 837 274 163 116 87 
229 838 273 162 116 89 
229 839 273 160 112 85 
228 838 274 164 118 89 
228 838 275 165 118 89 
228 839 274 164 118 90 
228 839 275 165 118 92 
229 838 274 163 116 88 
229 839 274 162 114 87 
230 836 272 166 120 93 
230 836 273 168 122 95 
230 837 272 163 117 90 
230 837 273 166 121 93 
230 838 272 158 112 84 
230 839 272 156 109 82 
224 832 280 174 124 99 
225 840 277 173 122 95 
225 841 277 172 120 94 
224 840 278 176 122 96 
224 841 278 173 120 93 
225 841 278 173 120 92 
225 842 277 169 117 91 
224 842 278 173 120 93 
224 842 279 173 121 94 
224 843 278 172 120 93 
224 843 279 172 120 94 
225 842 278 171 119 93 
225 843 278 169 117 90 
226 840 276 171 120 95 
226 840 277 172 121 94 
226 841 277 171 120 94 
227 840 276 170 121 95 
227 841 276 169 120 94 
226 842 277 169 119 92 
226 843 277 167 116 89 
227 842 276 169 118 91 
227 842 277 168 117 90 
227 843 276 168 118 90 
227 843 277 168 117 90 
224 844 279 171 120 93 
224 845 279 168 117 90 
225 844 278 168 118 90 
225 844 279 169 120 93 
225 845 278 167 118 91 
225 845 279 167 118 91 
224 846 279 165 116 88 
224 847 279 164 117 88 
225 846 278 166 117 88 
225 846 279 165 116 87 
225 847 278 164 117 85 
225 847 279 164 117 86 
226 844 277 167 116 90 
226 845 277 166 116 90 
227 844 277 168 118 91 
227 845 277 167 117 90 
226 844 278 166 115 90 
226 845 278 166 116 90 
227 846 277 166 116 89 
227 847 277 168 119 91 
226 846 278 166 116 90 
226 847 278 166 119 89 
227 847 278 168 120 92 
229 840 273 157 107 80 
229 841 273 157 107 79 
228 840 274 163 116 90 
228 840 275 166 119 93 
228 841 275 166 118 91 
229 840 274 161 113 84 
229 841 274 160 112 84 
228 842 275 166 117 90 
228 843 275 166 119 91 
229 842 274 161 113 85 
229 842 275 163 116 88 
229 843 274 163 115 87 
229 843 275 165 117 90 
230 840 272 155 107 80 
230 840 273 157 107 80 
230 841 272 155 107 81 
230 841 273 157 107 80 
231 840 272 155 108 82 
231 841 272 153 106 79 
230 842 273 158 109 83 
230 843 273 158 109 83 
231 842 272 151 105 76 
231 843 272 149 102 74 
231 843 273 153 106 79 
230 843 274 160 111 84 
228 842 276 168 119 92 
228 843 276 167 118 90 
228 844 275 166 118 90 
229 844 274 163 115 87 
229 844 275 165 117 89 
229 845 275 165 115 88 
229 846 275 164 114 87 
230 844 273 156 107 81 
231 844 273 153 105 79 
231 845 273 153 105 80 
230 844 274 160 110 83 
230 845 274 161 111 84 
230 845 275 162 113 84 
231 845 274 156 107 81 
230 846 275 162 112 84 
230 847 275 162 112 84 
231 846 274 157 108 82 
231 846 275 161 111 85 
231 847 275 160 110 84 
228 844 276 166 116 89 
228 845 276 167 118 90 
228 845 277 167 118 90 
229 845 276 165 115 88 
228 846 276 167 117 90 
228 846 277 167 117 90 
228 847 276 166 115 88 
228 847 277 167 118 89 
229 846 276 165 115 87 
229 847 276 165 114 87 
230 847 276 163 113 86 
224 846 280 165 116 88 
224 847 280 165 117 88 
232 832 272 169 117 94 
232 842 272 145 98 68 
232 843 272 142 95 66 
232 844 272 140 93 65 
232 844 273 145 98 71 
232 845 273 146 99 72 
233 844 272 132 85 56 
233 845 272 130 83 55 
233 845 273 134 86 58 
233 846 273 133 84 56 
232 846 274 149 101 75 
232 847 274 150 102 75 
232 847 275 155 105 78 
233 846 274 138 90 62 
233 847 274 140 92 64 
234 845 272 131 86 60 
234 846 272 127 83 56 
234 846 273 127 79 52 
234 847 272 124 80 54 
234 847 273 128 81 54 
231 851 262 191 142 109 
229 855 262 129 74 46 
230 853 262 170 118 90 
231 852 262 190 141 110 
231 852 263 174 124 98 
231 853 262 180 132 105 
231 853 263 150 95 69 
230 854 262 141 85 56 
230 854 263 132 78 48 
230 855 262 125 66 35 
230 855 263 132 87 62 
231 854 263 130 73 42 
231 853 264 135 80 52 
230 855 264 142 104 82 
231 854 264 135 91 67 
231 855 264 139 100 77 
231 855 265 125 84 57 
233 848 262 196 145 117 
233 849 262 193 142 111 
233 849 263 194 144 113 
232 850 262 190 141 104 
232 850 263 188 140 105 
232 851 262 189 141 107 
232 851 263 186 137 104 
233 850 263 190 142 108 
234 848 262 195 146 116 
234 848 263 194 145 115 
232 852 263 178 129 101 
233 849 264 190 142 111 
233 849 265 183 135 105 
233 849 266 175 129 102 
232 851 264 179 130 98 
233 850 264 187 139 108 
233 850 265 176 130 102 
233 851 264 174 126 96 
233 851 265 163 116 90 
233 850 266 163 118 93 
233 850 267 149 104 80 
233 851 266 150 104 81 
233 851 267 135 90 65 
234 848 264 190 141 112 
234 848 265 185 133 104 
234 849 264 188 138 108 
234 849 265 183 133 102 
234 848 266 178 129 99 
234 848 267 167 121 91 
234 849 266 174 128 99 
234 849 267 162 119 92 
234 850 267 147 104 79 
233 849 270 123 82 54 
233 849 271 123 82 55 
233 850 268 128 86 62 
233 850 269 123 80 60 
233 851 268 124 82 58 
233 851 269 123 82 61 
233 850 270 124 83 60 
233 850 271 123 82 54 
233 851 270 123 83 60 
233 851 271 122 83 56 
234 848 268 154 112 85 
234 848 269 137 96 68 
234 849 268 144 102 74 
234 849 269 127 84 59 
234 848 270 127 85 56 
234 848 271 124 84 56 
234 849 270 123 81 55 
234 849 271 123 82 55 
234 850 268 133 90 65 
234 850 269 124 81 61 
232 852 264 162 114 86 
232 853 264 142 93 67 
232 853 265 135 92 68 
233 852 265 149 103 80 
232 853 266 123 79 55 
233 852 266 138 92 70 
233 852 267 127 83 59 
233 853 266 127 83 60 
233 853 267 121 78 53 
232 854 264 136 94 71 
232 854 265 129 88 63 
232 855 265 118 76 46 
232 854 266 116 72 43 
232 854 267 121 80 56 
232 855 266 118 75 47 
232 855 267 128 90 67 
233 854 267 122 82 58 
233 852 268 122 81 56 
233 852 269 125 85 63 
233 853 268 125 87 61 
233 853 269 128 90 67 
232 852 271 123 83 56 
232 853 270 122 83 56 
232 853 271 124 84 58 
233 852 270 122 82 56 
233 852 271 122 83 57 
233 853 270 124 84 58 
233 854 268 130 93 69 
233 854 269 130 91 67 
232 854 270 123 82 54 
232 854 271 126 87 62 
233 854 270 123 81 53 
225 848 279 164 118 86 
225 849 279 165 118 89 
226 848 278 166 119 90 
226 848 279 165 119 87 
226 849 278 166 118 88 
226 849 279 165 118 88 
227 848 278 167 119 91 
227 849 278 166 118 90 
226 850 279 166 118 89 
227 850 278 165 117 87 
227 850 279 165 117 87 
227 851 278 164 116 85 
227 851 279 163 116 85 
231 848 275 160 111 84 
231 849 275 159 110 84 
231 850 275 156 108 80 
231 851 275 154 107 78 
228 848 277 166 117 88 
228 849 277 164 115 86 
229 848 276 163 112 85 
229 848 277 164 113 85 
229 849 277 163 114 84 
228 848 278 166 117 88 
228 849 278 166 117 89 
228 850 277 163 114 84 
228 851 277 162 115 85 
229 850 277 162 114 83 
229 851 277 162 116 84 
228 850 278 164 116 87 
228 851 278 163 116 86 
230 848 276 162 111 83 
230 849 276 161 112 83 
230 849 277 162 113 83 
231 848 276 159 109 80 
231 849 276 159 110 83 
230 850 276 161 114 82 
230 850 277 162 115 83 
230 851 276 161 114 83 
230 851 277 162 115 83 
231 850 276 159 110 83 
231 851 276 158 111 82 
231 852 274 151 105 74 
231 852 275 154 108 78 
231 853 274 147 100 70 
231 853 275 153 107 77 
231 854 274 148 101 73 
231 854 275 155 109 82 
229 852 277 161 115 83 
228 852 278 162 116 86 
228 852 279 160 115 84 
228 853 279 160 115 84 
229 852 278 162 117 86 
229 853 278 161 116 86 
229 853 279 163 119 90 
230 852 276 161 116 86 
230 852 277 160 115 83 
230 853 276 162 118 88 
230 853 277 162 117 86 
231 852 276 159 114 84 
231 853 276 160 115 86 
230 853 278 162 117 86 
230 853 279 163 119 89 
224 848 280 164 117 87 
224 849 280 164 117 88 
225 849 280 165 117 88 
224 850 280 164 116 88 
224 850 281 163 115 86 
224 851 281 162 115 86 
225 850 280 164 117 89 
225 851 280 164 117 88 
225 851 281 162 115 86 
224 851 282 162 115 86 
225 851 282 162 115 87 
226 850 280 164 117 87 
226 851 280 163 117 87 
226 851 281 161 115 86 
227 851 280 162 116 86 
225 852 281 161 115 87 
224 852 282 162 115 86 
224 852 283 161 115 86 
225 852 282 161 115 85 
225 852 283 160 115 87 
226 852 281 159 114 85 
227 852 280 160 116 86 
227 852 281 158 114 85 
227 853 281 156 112 83 
226 852 283 158 114 86 
226 853 282 155 112 82 
227 853 282 153 111 81 
228 852 280 160 115 84 
228 852 281 158 114 85 
228 853 280 158 114 84 
228 853 281 157 113 85 
229 853 280 160 115 86 
229 853 281 159 114 86 
233 848 273 131 84 57 
233 849 272 123 80 57 
233 849 273 130 85 59 
232 848 274 150 101 74 
232 848 275 156 107 80 
232 849 274 151 102 75 
232 849 275 156 107 80 
233 848 274 142 94 65 
233 849 274 143 96 68 
232 850 273 138 92 66 
232 851 272 128 84 58 
232 851 273 136 91 65 
233 850 272 125 81 57 
233 850 273 131 86 60 
233 851 272 125 83 57 
232 850 274 148 101 74 
232 850 275 154 105 78 
232 851 274 150 104 77 
234 848 272 123 80 54 
234 848 273 126 79 52 
234 849 272 124 79 54 
232 852 272 128 86 59 
232 852 273 136 92 64 
232 853 272 130 89 63 
232 853 273 139 95 69 
232 852 274 147 102 74 
232 854 272 130 89 64 
232 854 273 138 93 68 
240 839 262 199 148 118 
240 839 263 196 143 116 
240 833 267 171 116 89 
240 834 267 169 115 87 
240 835 266 175 122 93 
240 835 267 171 116 87 
240 832 268 173 120 91 
240 833 268 170 116 88 
240 837 265 186 134 106 
240 836 266 182 131 103 
240 838 264 192 139 112 
240 838 265 190 137 110 
240 839 264 194 140 112 
240 840 262 199 147 117 
240 840 263 196 143 115 
