ply
format ascii 1.0
comment Created by CloudCompare v2.10.1 (Zephyrus)
comment Created 1/31/20 5:55 PM
obj_info Generated by CloudCompare!
element vertex 1934
property float x
property float y
property float z
property uchar red
property uchar green
property uchar blue
end_header
231 822 229 222 161 122 
231 823 229 223 162 124 
231 822 230 222 160 121 
231 823 230 224 162 123 
224 824 229 219 160 120 
225 824 229 221 162 123 
224 824 230 220 161 119 
224 825 230 222 162 122 
225 825 230 222 161 123 
224 826 230 223 163 125 
225 826 230 223 161 123 
226 824 229 221 159 123 
226 825 229 222 158 123 
227 824 229 222 157 122 
227 825 229 222 157 121 
226 825 230 223 159 124 
227 825 230 223 158 123 
226 826 230 224 161 125 
227 826 230 225 161 124 
228 824 229 224 160 124 
229 824 229 224 162 125 
228 825 230 225 161 126 
229 824 230 225 162 125 
229 825 230 226 163 127 
228 826 230 226 163 127 
229 826 230 227 164 129 
230 824 229 223 161 125 
230 824 230 225 163 125 
230 825 230 226 163 127 
231 824 230 225 164 126 
231 825 230 226 165 128 
230 826 230 228 164 129 
231 826 230 227 164 128 
232 816 227 204 147 106 
233 816 227 206 149 108 
232 816 228 206 148 108 
232 817 228 208 150 109 
233 816 228 207 149 109 
233 817 228 210 151 110 
232 818 228 211 151 109 
232 818 229 212 152 111 
232 819 229 215 155 114 
233 818 228 211 152 110 
233 818 229 213 152 111 
233 819 229 216 154 114 
234 816 228 209 150 109 
234 817 228 211 152 111 
234 817 229 212 152 112 
235 816 228 209 150 108 
235 816 229 210 151 109 
235 817 229 213 152 110 
234 818 229 215 154 113 
234 819 229 217 154 114 
235 818 229 216 154 113 
234 819 230 218 155 114 
235 818 230 217 155 114 
235 819 230 218 155 115 
232 820 229 218 156 115 
233 820 229 218 155 116 
232 820 230 220 158 118 
232 821 230 220 158 119 
233 820 230 219 156 117 
233 821 230 221 158 120 
232 822 230 222 159 120 
232 823 230 224 161 123 
233 822 230 223 160 121 
233 823 230 223 160 122 
234 820 230 219 156 116 
234 821 230 222 159 119 
235 820 230 220 157 118 
235 821 230 222 160 121 
234 822 230 223 160 122 
234 823 230 224 161 122 
235 822 230 224 162 124 
235 823 230 225 162 125 
236 816 228 209 150 108 
236 816 229 211 151 109 
236 817 229 213 152 111 
237 816 229 211 151 110 
237 817 229 215 153 111 
236 818 230 217 154 114 
236 819 230 219 155 115 
237 818 230 217 154 114 
237 819 230 220 155 116 
238 816 228 212 151 110 
238 816 229 213 152 111 
238 817 229 215 153 113 
239 816 228 214 151 111 
239 816 229 215 152 112 
239 817 229 216 152 113 
238 818 229 218 154 114 
239 818 229 219 154 115 
239 819 229 222 156 118 
238 818 230 218 154 114 
238 819 230 220 155 116 
236 820 230 221 157 118 
236 821 230 223 159 121 
237 820 230 221 156 118 
237 821 230 223 158 121 
236 822 230 225 161 124 
236 823 230 225 163 126 
237 822 230 224 160 122 
237 823 230 225 161 123 
239 820 229 223 159 121 
239 821 229 225 160 123 
238 820 230 222 156 118 
238 821 230 223 157 119 
239 820 230 223 156 118 
239 821 230 224 159 120 
239 822 229 226 161 123 
239 823 229 228 163 125 
238 822 230 225 160 121 
238 823 230 227 162 124 
239 823 230 228 164 126 
232 824 230 225 163 126 
232 825 230 227 165 128 
233 824 230 225 163 124 
233 825 230 227 164 128 
232 826 230 227 164 128 
233 826 230 227 164 130 
234 824 230 225 162 124 
234 825 230 227 163 125 
235 824 230 225 162 124 
235 825 230 227 163 126 
234 826 230 228 164 129 
234 826 231 229 164 130 
235 826 231 229 164 128 
236 824 230 227 163 125 
236 825 230 228 164 126 
237 824 230 227 162 125 
237 825 230 229 164 127 
236 826 230 229 164 127 
236 826 231 230 165 127 
237 826 230 230 165 129 
237 826 231 231 167 130 
238 824 230 228 164 127 
238 825 230 229 164 128 
239 824 230 229 165 127 
239 825 230 230 165 127 
239 825 231 231 166 128 
238 826 231 232 166 129 
239 826 231 232 167 129 
239 826 232 233 168 131 
240 810 224 188 132 96 
240 811 224 193 137 98 
241 811 224 194 138 97 
242 811 224 198 139 99 
240 812 224 200 140 101 
240 812 225 204 144 103 
240 813 225 206 145 104 
241 812 224 204 144 104 
241 812 225 205 145 104 
241 813 225 210 148 107 
240 813 226 208 146 104 
241 813 226 209 147 106 
240 814 226 209 147 105 
240 814 227 209 147 106 
240 815 227 212 150 108 
241 814 226 212 149 109 
241 814 227 213 150 110 
241 815 227 215 152 113 
242 812 224 204 143 103 
242 812 225 208 146 106 
242 813 224 208 144 105 
242 813 225 210 145 107 
243 812 224 206 140 102 
243 813 224 210 143 105 
243 813 225 210 143 105 
242 814 225 212 146 107 
243 814 225 213 146 108 
242 814 226 213 147 109 
242 815 226 214 149 112 
242 815 227 216 150 113 
243 814 226 214 147 109 
243 815 226 215 148 110 
240 815 228 214 151 110 
244 813 224 211 144 107 
245 813 224 209 142 102 
244 814 224 213 147 109 
244 814 225 214 147 109 
244 815 225 216 150 113 
245 814 224 210 141 99 
245 814 225 212 144 103 
245 815 225 216 151 112 
244 815 226 216 150 112 
246 813 224 209 141 101 
247 813 224 214 149 111 
246 814 224 211 142 101 
246 815 225 217 150 112 
247 814 224 216 150 112 
247 815 225 219 153 115 
248 813 224 214 147 108 
249 813 224 215 149 108 
248 814 224 217 151 113 
248 815 225 219 154 115 
249 814 224 219 152 113 
249 815 225 221 156 118 
250 813 224 217 151 110 
251 813 224 218 152 112 
250 814 224 221 155 116 
250 815 225 223 159 120 
251 814 224 221 156 116 
251 815 225 223 159 120 
252 812 224 219 152 114 
252 813 224 220 154 115 
253 812 224 220 153 115 
253 813 224 221 156 118 
252 814 224 222 156 116 
252 814 225 223 157 118 
252 815 225 224 159 122 
253 814 224 224 158 119 
253 814 225 224 159 121 
253 815 225 226 161 123 
254 813 224 223 158 120 
255 812 224 224 158 119 
255 813 224 225 159 121 
254 814 224 225 161 122 
254 814 225 226 162 124 
254 815 225 228 164 126 
255 814 224 226 162 123 
255 814 225 227 164 125 
255 815 225 229 165 126 
254 815 226 229 165 127 
255 815 226 230 168 128 
241 816 227 216 153 115 
242 816 227 217 152 115 
242 817 227 219 154 116 
243 816 226 216 150 112 
243 816 227 217 150 113 
243 817 227 219 153 116 
242 818 227 220 157 118 
242 819 227 222 159 120 
243 818 227 221 157 118 
243 819 227 223 161 121 
240 816 228 216 152 112 
240 817 228 217 154 115 
240 817 229 218 154 115 
241 816 228 216 153 114 
241 817 228 219 156 117 
240 818 229 220 156 118 
240 819 229 222 158 120 
241 818 228 221 157 118 
241 819 228 223 159 120 
242 817 228 219 155 117 
242 818 228 220 157 118 
242 819 228 223 160 120 
243 820 227 225 164 125 
240 820 229 224 160 123 
240 821 229 225 160 123 
241 820 228 225 162 124 
241 821 228 226 164 126 
241 821 229 226 162 125 
240 822 229 227 162 125 
241 822 229 228 163 125 
241 823 229 229 164 126 
240 823 230 229 165 128 
241 823 230 230 165 127 
242 820 228 226 164 125 
242 821 228 227 166 127 
242 821 229 227 166 127 
243 820 228 227 166 126 
243 821 228 228 167 128 
242 822 229 229 167 127 
242 823 229 231 168 130 
243 822 229 230 168 130 
243 823 229 232 169 132 
242 823 230 231 167 129 
243 823 230 233 170 134 
245 816 225 219 154 116 
244 816 226 218 152 115 
244 816 227 220 154 118 
244 817 226 221 155 119 
244 817 227 221 156 120 
245 816 226 220 155 117 
245 817 226 221 157 119 
244 818 227 222 157 120 
244 819 227 224 160 121 
245 818 227 223 158 120 
245 819 227 225 159 120 
246 816 225 220 155 118 
247 816 225 221 157 119 
246 816 226 221 157 120 
246 817 226 222 158 121 
247 816 226 223 159 121 
247 817 226 224 160 122 
246 818 226 223 158 120 
246 818 227 224 159 122 
246 819 227 226 161 124 
247 818 226 225 162 123 
247 818 227 226 162 124 
247 819 227 227 163 125 
244 820 227 227 163 125 
245 820 227 227 163 125 
246 820 227 228 164 126 
244 820 228 228 165 127 
244 821 228 229 167 129 
245 820 228 228 165 126 
245 821 228 230 167 128 
244 822 229 231 168 130 
244 823 229 232 169 132 
245 822 229 231 169 129 
245 823 229 233 170 132 
244 823 230 234 171 134 
245 823 230 234 172 134 
246 820 228 229 166 128 
246 821 228 230 167 128 
247 820 228 229 165 127 
247 821 228 231 168 129 
246 822 229 232 170 131 
246 823 229 234 172 134 
247 822 229 232 169 131 
247 823 229 234 172 133 
246 823 230 235 173 135 
247 823 230 235 173 135 
240 824 230 230 166 128 
240 825 231 231 166 128 
241 824 230 231 167 129 
241 825 231 232 168 130 
240 826 231 233 168 131 
241 826 231 234 168 132 
242 824 230 232 169 131 
242 825 230 233 169 132 
242 825 231 234 170 133 
243 824 230 233 170 134 
243 825 231 236 172 137 
242 826 231 236 171 137 
243 826 231 236 172 138 
244 824 230 235 172 137 
244 825 230 236 173 138 
244 825 231 236 174 139 
245 824 230 235 173 137 
245 825 230 237 175 140 
245 825 231 238 177 143 
244 826 231 238 177 143 
245 826 231 240 180 146 
246 824 230 236 174 137 
246 825 230 237 175 139 
246 825 231 238 176 142 
247 824 230 237 175 137 
247 825 231 239 177 142 
246 826 231 239 178 146 
247 826 231 240 178 145 
240 826 232 234 169 133 
241 826 232 234 168 134 
242 826 232 236 171 136 
243 826 232 237 173 139 
244 826 232 240 178 144 
245 826 232 240 180 147 
246 826 232 240 178 146 
247 826 232 241 179 146 
248 816 225 222 157 118 
249 816 225 223 159 121 
248 816 226 224 160 121 
248 817 226 225 162 123 
249 816 226 224 160 121 
249 817 226 225 162 122 
248 818 226 226 164 125 
248 818 227 227 166 128 
248 819 227 228 166 127 
249 818 226 227 164 125 
249 818 227 228 167 129 
249 819 227 229 167 129 
250 816 225 224 160 121 
251 816 225 225 160 121 
250 816 226 225 161 122 
250 817 226 227 163 124 
251 816 226 226 162 123 
251 817 226 228 163 124 
250 818 226 228 165 126 
250 818 227 229 166 127 
250 819 227 230 168 130 
251 818 227 229 166 127 
251 819 227 231 168 129 
251 819 228 231 169 130 
249 820 227 230 168 129 
250 820 227 230 169 130 
248 820 228 229 166 126 
248 821 228 230 167 128 
248 821 229 233 170 131 
249 820 228 230 167 128 
249 821 228 232 170 131 
249 821 229 232 170 132 
248 822 229 234 171 132 
248 823 229 235 173 135 
249 822 229 234 172 134 
248 823 230 236 173 136 
249 822 230 236 174 137 
249 823 230 237 174 138 
250 820 228 232 170 132 
250 821 228 233 171 133 
250 821 229 234 172 134 
251 820 228 232 170 131 
251 821 228 233 171 132 
251 821 229 234 171 133 
250 822 229 235 173 136 
251 822 229 235 172 135 
250 822 230 237 174 138 
250 823 230 238 175 139 
250 823 231 239 176 140 
251 822 230 236 173 136 
251 823 230 237 174 138 
251 823 231 238 175 139 
252 816 226 227 162 125 
252 817 226 228 164 127 
253 816 226 228 163 125 
253 817 226 229 164 126 
253 817 227 229 165 127 
252 818 227 230 167 128 
252 819 227 231 168 129 
253 818 227 230 166 128 
253 819 227 232 169 130 
254 816 226 229 165 126 
254 817 226 230 166 126 
254 817 227 231 167 127 
255 816 226 231 168 128 
255 817 226 232 168 128 
255 817 227 232 168 129 
254 818 227 231 167 129 
255 818 227 232 168 129 
252 819 228 232 170 131 
253 819 228 232 169 131 
254 818 228 232 168 131 
254 819 228 234 169 133 
255 818 228 233 168 131 
255 819 228 233 168 133 
255 819 229 234 169 133 
252 820 228 233 170 132 
252 821 229 235 172 134 
253 820 228 234 171 133 
253 820 229 235 171 134 
253 821 229 235 172 135 
253 821 230 235 171 134 
252 822 229 235 172 135 
252 822 230 236 173 136 
252 823 231 239 175 139 
253 822 230 238 175 138 
253 822 231 239 175 139 
253 823 231 241 176 140 
254 820 228 234 171 134 
254 820 229 235 171 134 
254 821 229 236 173 136 
255 820 229 235 170 134 
254 821 230 237 173 136 
255 820 230 236 170 135 
255 821 230 238 171 136 
254 822 230 239 175 138 
254 822 231 241 176 141 
254 823 231 240 176 140 
255 822 231 239 174 139 
255 823 231 241 176 142 
252 823 232 241 177 141 
253 823 232 242 178 141 
254 823 232 242 178 144 
255 823 232 244 178 145 
248 824 230 237 174 138 
248 824 231 238 175 139 
248 825 231 239 177 141 
249 824 230 238 175 139 
249 824 231 238 176 140 
249 825 231 239 177 142 
250 824 231 239 177 142 
249 825 232 240 178 143 
248 826 232 241 179 145 
249 826 232 242 179 145 
250 824 232 241 178 143 
250 825 232 241 178 144 
251 824 232 241 178 143 
251 825 232 242 180 146 
251 825 233 245 182 148 
250 826 232 242 179 146 
250 826 233 243 180 147 
251 826 233 245 182 148 
252 824 232 242 178 143 
252 825 233 245 182 147 
253 824 232 244 179 145 
253 824 233 243 180 147 
253 825 233 245 181 150 
252 826 233 247 183 150 
253 826 233 246 182 150 
253 826 234 249 185 154 
254 824 232 245 181 148 
254 824 233 244 180 148 
254 825 233 244 180 150 
255 824 232 245 178 146 
255 824 233 244 179 148 
255 825 233 245 182 151 
254 826 234 245 182 151 
255 826 234 245 183 152 
239 826 271 173 118 94 
230 823 278 173 122 96 
231 823 278 176 124 98 
227 826 278 169 120 96 
229 825 277 170 119 95 
228 824 278 170 120 95 
228 825 278 170 121 96 
229 824 278 170 120 95 
229 825 278 170 119 95 
229 826 277 170 120 97 
228 826 278 170 121 98 
230 824 277 174 122 98 
230 825 277 173 121 97 
231 824 277 176 123 99 
231 825 276 175 122 99 
231 825 277 174 121 97 
230 824 278 172 121 95 
231 824 278 175 124 99 
230 826 276 172 120 97 
230 826 277 171 121 97 
231 826 276 174 121 98 
232 823 277 176 122 97 
233 823 277 178 123 99 
232 822 278 178 124 99 
232 823 278 176 123 98 
233 822 278 180 125 101 
233 823 278 178 123 98 
234 821 278 182 126 103 
235 821 278 183 126 101 
234 822 277 181 124 99 
234 823 276 180 125 103 
234 823 277 180 124 100 
235 822 277 182 125 101 
235 823 276 181 126 104 
235 823 277 181 126 104 
234 822 278 181 125 103 
235 822 278 183 126 101 
237 823 275 180 125 102 
238 823 275 180 125 102 
239 823 274 181 126 102 
239 823 275 181 126 103 
237 821 277 181 122 99 
236 821 278 183 124 101 
237 821 278 182 123 100 
236 822 277 182 124 101 
236 823 276 180 124 103 
236 823 277 181 125 103 
237 822 277 181 123 100 
237 823 276 180 124 102 
238 821 277 180 122 97 
239 821 277 180 123 96 
238 820 278 181 121 96 
238 821 278 181 122 97 
239 820 278 181 121 96 
239 821 278 181 122 97 
238 822 276 180 124 99 
238 822 277 180 123 98 
238 823 276 180 125 102 
239 822 276 179 123 98 
239 822 277 180 123 97 
233 825 275 179 125 101 
232 826 275 177 124 99 
233 826 274 179 124 100 
233 826 275 178 124 100 
234 824 275 180 125 104 
234 825 274 180 125 102 
234 825 275 180 125 102 
235 824 275 180 124 103 
235 825 274 180 125 100 
235 825 275 180 124 102 
235 826 273 181 128 102 
234 826 274 180 125 101 
235 826 274 180 126 101 
232 824 276 177 123 99 
232 824 277 176 123 98 
232 825 276 177 123 99 
233 824 276 179 124 99 
233 824 277 178 124 99 
233 825 276 178 124 98 
232 826 276 177 123 99 
234 824 276 180 125 102 
235 824 276 180 125 104 
236 825 273 180 125 100 
237 825 273 180 125 98 
236 824 274 179 124 100 
236 824 275 179 124 101 
236 825 274 179 125 100 
237 824 274 179 125 100 
237 824 275 179 125 101 
237 825 274 180 126 100 
236 826 273 180 126 99 
237 826 272 177 123 96 
237 826 273 179 125 97 
238 824 273 180 125 99 
238 825 272 177 122 97 
238 825 273 179 124 98 
239 824 273 180 125 100 
239 825 272 178 122 99 
239 825 273 178 123 99 
238 824 274 180 125 100 
239 824 274 181 125 101 
238 826 272 175 121 97 
239 826 272 175 120 96 
241 825 271 177 121 96 
240 826 271 173 118 94 
241 826 271 175 121 94 
242 825 271 177 122 95 
243 825 271 179 124 97 
242 826 271 177 124 95 
243 826 270 179 127 96 
243 826 271 179 125 96 
244 825 271 180 124 96 
245 825 271 180 123 95 
244 826 270 181 128 98 
244 826 271 180 127 98 
245 826 270 181 128 98 
245 826 271 181 126 97 
246 824 271 183 123 96 
246 825 271 181 123 95 
247 824 271 184 124 97 
247 825 271 184 127 97 
246 826 270 183 127 98 
246 826 271 182 125 96 
247 826 270 186 131 100 
247 826 271 185 130 100 
249 823 271 188 128 99 
250 823 271 192 133 104 
251 822 271 196 137 110 
251 823 271 194 135 107 
252 822 271 197 138 110 
252 823 270 196 139 110 
252 823 271 197 137 109 
253 822 271 200 140 111 
253 823 270 199 140 111 
254 821 271 207 147 119 
255 821 271 208 148 119 
254 823 268 204 146 115 
254 823 269 204 146 116 
255 822 269 207 149 119 
255 823 268 206 147 116 
255 823 269 207 148 118 
254 822 270 204 145 115 
254 822 271 204 144 116 
254 823 270 203 145 115 
255 822 270 207 147 118 
255 822 271 207 146 117 
248 824 271 186 127 98 
248 825 270 187 130 99 
248 825 271 187 129 98 
249 824 271 188 129 99 
249 825 270 189 133 103 
249 825 271 188 131 101 
248 826 270 187 131 101 
249 826 270 188 132 102 
251 825 269 193 138 109 
250 824 270 192 136 106 
250 824 271 190 131 101 
250 825 270 191 136 106 
251 824 270 194 138 109 
251 824 271 193 136 107 
251 825 270 193 138 108 
250 826 269 189 133 103 
251 826 268 192 136 106 
251 826 269 192 138 108 
250 826 270 189 133 103 
253 826 267 197 140 111 
254 825 266 204 146 116 
254 825 267 203 146 115 
255 824 267 207 148 116 
255 825 266 205 147 117 
255 825 267 206 147 116 
254 826 265 199 142 111 
255 826 265 203 146 115 
254 826 266 200 143 112 
254 826 267 200 143 113 
255 826 266 205 146 117 
252 824 269 194 138 108 
252 825 268 196 140 112 
252 825 269 195 140 112 
253 824 268 200 143 114 
253 824 269 197 140 111 
253 825 268 198 140 112 
252 824 270 195 138 109 
252 826 268 195 138 110 
254 824 268 203 145 114 
254 824 269 202 144 114 
254 825 268 202 144 114 
255 824 268 206 148 116 
240 822 275 182 128 104 
240 823 274 181 126 101 
240 823 275 181 127 102 
241 822 275 182 127 102 
241 823 274 181 125 101 
241 823 275 181 127 102 
242 823 273 180 122 97 
243 823 273 180 121 97 
242 822 275 181 124 98 
242 823 274 181 124 98 
243 822 274 180 122 97 
243 822 275 181 122 97 
243 823 274 180 122 96 
240 821 277 179 122 96 
241 821 277 178 120 93 
240 820 278 181 120 94 
241 820 278 181 118 93 
240 822 276 180 125 100 
241 822 276 179 124 98 
242 820 277 181 120 94 
242 821 276 178 120 93 
242 821 277 179 120 93 
243 820 277 184 123 96 
243 821 276 181 121 94 
243 821 277 182 120 93 
242 820 278 185 120 95 
243 820 278 189 127 101 
242 822 276 179 122 95 
243 822 276 180 121 95 
244 819 278 193 129 103 
245 819 278 194 128 102 
246 819 278 194 128 102 
247 819 278 195 127 102 
245 821 275 184 122 99 
244 823 273 180 120 96 
245 823 272 181 123 95 
245 823 273 181 121 95 
244 822 274 181 122 97 
244 822 275 182 121 97 
244 823 274 181 121 96 
245 822 274 183 122 97 
245 822 275 183 121 97 
246 821 275 187 122 98 
247 821 275 188 125 100 
246 822 273 186 125 97 
246 823 272 184 124 97 
246 823 273 184 123 96 
247 822 273 189 127 101 
247 823 272 186 125 97 
247 823 273 187 125 99 
246 822 274 185 124 98 
246 822 275 185 121 97 
247 822 274 188 126 101 
244 820 277 188 126 99 
244 821 276 184 122 97 
245 820 277 191 129 103 
245 821 276 186 124 100 
244 820 278 192 129 103 
245 820 278 193 130 104 
246 820 276 190 128 104 
246 820 277 193 129 105 
246 821 276 188 124 100 
247 820 276 191 130 103 
247 820 277 194 130 105 
247 821 276 189 125 101 
246 820 278 194 129 104 
240 824 272 179 121 98 
240 824 273 180 124 100 
240 825 272 178 121 98 
241 824 272 178 120 97 
241 824 273 180 123 99 
241 825 272 177 120 97 
242 824 272 178 119 96 
242 824 273 180 122 98 
242 825 272 177 119 94 
243 824 272 178 120 95 
243 824 273 179 120 96 
243 825 272 178 121 94 
244 824 272 179 122 96 
244 825 272 179 123 95 
245 824 272 180 122 94 
246 824 272 182 122 95 
247 824 272 186 125 98 
249 819 277 195 131 105 
248 819 278 195 129 103 
249 819 278 197 131 105 
250 819 277 198 130 107 
251 819 276 200 132 110 
251 819 277 200 130 109 
250 819 278 200 132 109 
251 818 278 203 133 113 
251 819 278 201 131 110 
248 821 274 191 130 104 
248 821 275 191 130 104 
249 821 274 194 136 108 
249 821 275 195 134 108 
248 822 273 190 128 102 
248 823 272 187 125 97 
248 823 273 188 125 98 
249 822 272 193 133 105 
249 822 273 194 134 107 
249 823 272 191 130 102 
248 822 274 191 130 103 
250 821 273 199 142 113 
251 821 273 200 142 113 
250 820 275 197 137 110 
250 821 274 198 141 112 
250 821 275 197 139 110 
251 820 275 200 140 111 
251 821 274 201 142 113 
250 822 272 194 136 108 
250 822 273 197 138 109 
250 823 272 193 135 107 
251 822 272 197 138 111 
248 820 276 193 131 105 
248 820 277 193 131 103 
248 821 276 191 128 104 
249 820 276 194 132 107 
249 820 277 195 131 105 
250 820 276 197 133 108 
251 820 276 200 135 110 
254 819 275 206 144 117 
255 819 275 208 147 119 
252 819 276 202 133 111 
252 819 277 202 130 110 
253 819 276 204 136 112 
253 819 277 205 133 114 
252 818 278 203 133 113 
252 819 278 204 131 113 
253 818 278 204 133 113 
255 817 278 204 141 115 
254 818 277 206 139 117 
254 819 276 204 138 113 
254 819 277 205 138 114 
255 818 277 203 140 113 
255 819 276 204 141 113 
254 818 278 205 137 115 
255 818 278 205 142 116 
252 821 272 202 144 117 
252 821 273 203 145 117 
253 821 272 204 145 118 
253 821 273 205 146 118 
252 820 274 202 139 112 
252 820 275 202 138 112 
252 821 274 202 142 113 
253 820 274 204 142 114 
253 820 275 204 140 113 
252 822 272 200 142 114 
253 822 272 202 143 115 
254 820 273 208 149 120 
254 821 272 208 150 122 
254 821 273 207 148 120 
255 820 272 211 152 125 
255 820 273 210 151 123 
255 821 272 211 152 125 
254 820 274 207 147 119 
254 820 275 206 144 117 
255 820 274 209 149 122 
252 820 276 201 136 111 
253 820 276 204 137 112 
256 793 218 149 109 72 
257 793 218 148 109 72 
256 794 218 150 109 70 
256 795 218 149 109 69 
257 794 218 149 109 72 
257 795 218 149 109 68 
258 793 218 147 108 70 
259 793 218 147 106 64 
258 794 218 149 109 71 
258 795 218 150 110 68 
259 794 218 146 107 67 
259 795 218 148 109 67 
256 796 218 150 108 69 
256 797 218 151 109 69 
257 796 218 151 110 70 
257 797 218 152 110 71 
256 798 218 152 110 71 
256 799 218 156 111 74 
257 798 218 152 110 70 
257 799 218 156 111 73 
258 796 218 150 110 70 
258 797 218 151 109 71 
259 796 218 150 110 69 
259 797 218 152 110 72 
258 798 218 152 109 71 
258 799 218 156 111 74 
259 798 218 152 111 73 
259 799 218 155 112 74 
260 793 218 146 105 61 
261 793 218 143 104 63 
260 794 218 145 106 66 
260 795 218 146 108 67 
261 794 218 144 106 65 
261 795 218 144 106 65 
262 793 218 141 104 61 
263 793 218 140 103 60 
262 794 218 142 106 62 
262 795 218 144 106 64 
263 794 218 141 104 62 
263 795 218 144 105 64 
260 796 218 149 110 68 
260 797 218 150 110 70 
261 796 218 146 106 65 
261 797 218 149 107 67 
260 798 218 152 111 71 
260 799 218 155 113 72 
261 798 218 150 108 67 
261 799 218 155 113 71 
262 796 218 146 106 64 
262 797 218 148 105 66 
263 796 218 147 106 65 
263 797 218 149 107 68 
262 798 218 150 105 67 
262 799 218 156 112 72 
263 798 218 151 108 70 
263 799 218 157 113 74 
264 793 218 139 103 59 
265 793 218 138 101 59 
264 794 218 141 103 61 
264 795 218 144 104 65 
265 794 218 141 103 61 
265 795 218 144 105 64 
266 793 218 139 102 60 
267 793 218 140 104 62 
266 794 218 142 105 61 
266 795 218 145 107 62 
267 794 218 143 106 63 
267 795 218 147 108 63 
264 796 218 147 107 67 
264 797 218 151 109 67 
265 796 218 147 108 66 
265 797 218 152 110 66 
264 798 218 153 108 67 
264 799 218 158 113 72 
265 798 218 154 110 67 
265 799 218 159 114 72 
266 796 218 148 109 67 
266 797 218 153 112 69 
267 796 218 151 111 68 
267 797 218 155 114 71 
267 797 219 157 116 73 
266 798 218 157 112 71 
266 799 218 161 117 75 
267 798 218 159 116 74 
267 798 219 161 117 74 
267 799 218 164 120 77 
267 799 219 165 120 77 
268 793 218 141 106 67 
269 793 218 141 106 68 
269 793 219 143 108 67 
268 794 218 144 107 64 
268 795 218 148 109 62 
268 795 219 149 110 59 
269 794 219 146 110 64 
269 795 219 150 111 62 
270 793 219 145 108 66 
271 793 219 146 108 67 
270 794 219 149 112 66 
270 795 219 152 111 67 
271 794 219 150 111 71 
271 795 219 154 113 72 
271 795 220 155 112 71 
268 796 219 153 113 68 
268 797 219 158 116 73 
269 796 219 155 114 71 
269 797 219 160 118 76 
268 798 219 162 118 75 
268 799 219 165 121 77 
269 798 219 163 118 76 
269 799 219 165 120 76 
270 796 219 158 115 75 
270 797 219 161 118 77 
271 796 219 157 115 73 
271 797 219 161 117 74 
270 798 219 163 118 76 
270 799 219 167 121 78 
271 798 219 163 117 74 
271 799 219 166 119 76 
271 796 220 158 114 72 
271 797 220 160 116 72 
271 798 220 162 117 73 
271 799 220 167 120 76 
272 793 219 147 107 67 
272 794 219 150 110 70 
272 793 220 148 107 65 
273 793 220 147 107 64 
272 794 220 152 112 70 
272 795 220 154 113 72 
273 794 220 151 111 67 
273 794 221 150 111 66 
273 795 220 154 113 72 
273 795 221 155 113 73 
274 793 221 148 108 68 
275 793 221 148 110 71 
274 794 221 151 111 70 
274 795 221 155 112 74 
275 794 221 151 111 74 
274 795 222 155 114 74 
275 794 222 151 111 72 
275 795 222 154 112 74 
272 796 220 157 114 73 
272 796 221 159 115 75 
272 797 220 160 115 75 
272 797 221 160 117 76 
273 796 221 158 116 76 
273 797 221 160 117 77 
272 798 220 162 117 73 
272 798 221 162 118 75 
272 799 220 166 120 78 
272 799 221 165 120 78 
273 798 221 161 116 76 
273 799 221 163 117 77 
274 796 221 157 116 76 
274 797 221 159 116 77 
274 796 222 157 116 75 
274 797 222 158 115 76 
275 796 222 155 114 74 
275 797 222 157 115 75 
274 799 221 161 115 77 
274 798 222 160 116 78 
274 799 222 161 115 77 
275 798 222 158 115 76 
275 799 222 160 115 76 
276 793 222 148 110 72 
277 793 222 148 109 72 
277 793 223 148 109 70 
276 794 222 150 110 72 
276 795 222 153 111 71 
276 795 223 153 111 70 
277 794 222 150 110 74 
277 794 223 150 108 73 
277 795 223 152 109 72 
278 793 223 148 109 70 
279 793 223 147 109 69 
278 794 223 149 108 71 
278 795 223 152 109 73 
276 796 222 155 113 73 
276 796 223 155 113 72 
276 797 222 156 113 73 
276 797 223 157 113 73 
277 796 223 153 111 72 
277 797 223 156 113 73 
276 798 222 159 114 76 
276 798 223 159 114 75 
276 799 223 160 114 77 
277 798 223 159 114 75 
277 799 223 160 115 77 
278 796 223 154 111 72 
279 793 224 148 109 71 
278 794 224 150 109 72 
278 795 224 151 109 72 
279 794 224 149 109 71 
279 795 224 152 110 71 
277 799 224 160 115 76 
278 796 224 153 110 71 
278 797 224 156 113 73 
279 796 224 155 111 73 
279 797 224 157 114 76 
279 797 225 158 115 78 
278 798 224 158 115 76 
278 799 224 160 116 77 
278 799 225 160 116 78 
279 798 224 159 115 77 
279 798 225 160 116 80 
279 799 225 160 116 80 
280 793 224 148 109 71 
281 793 224 147 108 69 
281 793 225 148 109 70 
280 794 224 149 110 72 
280 795 224 152 111 72 
280 795 225 153 112 73 
281 794 224 149 111 73 
281 794 225 150 112 72 
281 795 225 153 114 74 
282 793 225 147 108 70 
283 793 225 146 107 69 
283 793 226 148 109 69 
282 794 225 151 113 72 
282 795 225 153 115 73 
282 794 226 151 113 73 
282 795 226 154 116 75 
283 794 226 151 113 73 
283 795 226 155 116 78 
280 796 225 156 113 76 
280 797 225 159 116 78 
281 796 225 156 115 79 
281 797 225 159 117 79 
281 797 226 159 116 78 
280 798 225 160 117 79 
280 799 225 161 117 79 
281 798 225 160 117 78 
281 798 226 160 117 78 
281 799 226 161 118 78 
282 796 226 156 117 79 
282 797 226 159 116 78 
283 796 226 156 116 78 
283 797 226 158 115 77 
283 797 227 158 114 77 
282 798 226 160 116 76 
282 799 226 161 118 78 
282 799 227 163 119 80 
283 798 226 159 115 77 
283 798 227 160 116 76 
283 799 227 163 119 79 
284 793 226 149 110 71 
285 793 226 149 111 72 
285 793 227 151 111 74 
284 794 226 152 114 75 
284 794 227 152 113 76 
284 795 226 155 115 78 
284 795 227 154 113 75 
285 794 227 152 110 75 
285 795 227 153 111 73 
286 793 227 151 111 73 
287 793 227 150 114 73 
286 794 227 152 109 75 
285 795 228 154 112 72 
287 793 228 151 113 73 
286 794 228 154 110 75 
286 795 228 155 113 73 
287 794 228 155 111 76 
287 795 228 156 113 76 
284 796 227 155 113 75 
284 797 227 158 114 78 
285 796 227 155 113 74 
284 798 227 160 115 78 
284 799 227 162 117 80 
285 796 228 156 114 74 
285 797 228 158 114 78 
284 798 228 161 115 80 
284 799 228 163 118 81 
285 798 228 161 116 81 
285 799 228 163 118 82 
286 796 228 157 115 75 
286 797 228 159 115 79 
287 796 228 158 116 77 
287 796 229 159 116 77 
287 797 228 158 115 78 
287 797 229 160 115 80 
286 798 228 161 115 80 
286 799 228 164 118 82 
286 799 229 164 119 82 
287 798 229 162 116 81 
287 799 229 165 120 82 
256 800 218 159 113 77 
256 801 219 160 113 76 
257 800 218 159 113 76 
257 801 218 159 112 74 
257 801 219 160 112 75 
256 802 219 163 115 79 
256 803 219 166 117 80 
257 802 219 162 113 76 
257 803 219 165 116 79 
258 800 218 159 114 78 
258 801 218 161 114 77 
259 800 218 159 116 78 
259 801 218 161 115 77 
258 802 219 162 113 75 
258 803 219 166 117 79 
259 802 219 163 114 74 
259 803 219 168 118 79 
256 804 219 171 121 83 
257 804 219 173 122 85 
258 804 219 174 122 84 
259 804 219 176 123 83 
256 804 220 174 122 84 
256 805 220 180 126 87 
257 805 220 183 128 89 
256 806 220 188 130 89 
256 807 220 196 135 92 
256 807 221 204 140 98 
257 806 220 193 135 94 
257 807 221 208 143 102 
258 805 220 184 128 89 
259 805 220 187 129 90 
258 806 220 201 138 98 
258 807 221 210 144 104 
259 806 220 203 138 98 
259 807 221 212 146 106 
260 800 218 159 116 75 
260 801 218 161 115 74 
261 800 218 160 116 76 
261 801 218 163 117 76 
260 802 219 165 117 75 
260 803 219 169 121 80 
261 802 219 167 120 78 
261 803 219 172 123 83 
262 800 218 161 116 75 
262 801 218 164 117 75 
262 801 219 165 117 76 
263 800 218 163 116 77 
263 801 218 165 118 77 
263 801 219 166 119 78 
262 802 219 169 120 78 
262 803 219 174 124 83 
263 802 219 170 121 79 
263 803 219 177 125 84 
260 804 219 178 125 87 
261 804 219 180 127 88 
262 804 219 181 127 89 
263 804 219 182 128 88 
260 805 220 191 131 93 
261 804 220 186 129 90 
261 805 220 193 132 93 
260 806 220 204 138 97 
260 807 221 212 146 107 
261 806 220 203 137 96 
261 806 221 206 140 99 
261 807 221 213 147 107 
262 804 220 189 131 92 
262 805 220 196 134 95 
263 804 220 190 133 94 
263 805 220 200 138 99 
262 806 220 204 139 100 
262 806 221 208 143 103 
262 807 221 214 148 109 
263 806 221 210 145 105 
263 807 221 212 147 107 
262 807 222 217 152 113 
263 807 222 217 151 112 
256 808 221 210 145 103 
257 808 221 212 147 106 
256 809 222 214 149 108 
257 808 222 214 149 107 
257 809 222 217 152 111 
257 809 223 219 153 113 
256 810 222 217 152 112 
256 810 223 220 153 114 
256 811 223 222 156 116 
257 810 223 221 155 116 
257 811 223 223 157 119 
258 808 221 214 148 107 
259 808 221 216 150 111 
258 808 222 217 150 109 
258 809 222 218 150 110 
258 809 223 221 153 113 
259 808 222 217 150 110 
259 809 222 219 152 112 
259 809 223 222 155 115 
258 810 223 221 154 114 
259 810 223 224 157 118 
261 808 221 217 151 112 
260 808 222 218 152 112 
260 809 222 220 155 115 
260 809 223 222 157 117 
261 808 222 218 154 114 
261 809 222 222 156 117 
261 809 223 223 158 118 
260 810 223 224 158 120 
261 810 223 225 159 119 
262 808 222 220 155 117 
262 809 223 224 159 120 
263 808 222 221 155 116 
263 808 223 221 155 117 
263 809 223 224 158 119 
262 810 223 226 161 122 
263 810 223 226 160 122 
264 800 218 164 117 77 
264 801 219 168 120 81 
265 800 218 165 119 78 
265 801 219 169 122 81 
264 802 219 172 123 82 
264 803 219 181 128 89 
265 802 219 176 125 86 
265 803 219 182 131 92 
266 800 218 166 121 79 
266 801 219 171 124 82 
267 800 218 168 124 82 
267 800 219 170 124 81 
267 801 219 172 125 82 
266 802 219 177 127 87 
266 803 219 183 131 92 
267 802 219 178 127 84 
267 803 219 183 131 90 
265 803 220 187 133 94 
266 803 220 189 134 95 
267 803 220 188 132 91 
264 804 220 192 134 94 
264 805 220 202 141 100 
264 805 221 206 143 102 
265 804 220 194 136 96 
265 805 220 203 141 100 
265 805 221 208 144 103 
264 806 221 211 146 105 
265 806 221 211 146 105 
264 806 222 215 149 108 
264 807 222 218 151 112 
265 806 222 214 149 107 
265 807 222 217 151 111 
266 804 220 195 136 97 
266 805 221 204 142 101 
267 804 220 195 135 95 
267 805 221 203 140 100 
266 806 221 210 146 106 
267 806 221 207 144 104 
266 806 222 212 148 108 
266 807 222 217 152 112 
266 807 223 218 153 113 
267 806 222 207 144 105 
267 807 222 212 149 109 
267 807 223 213 150 111 
268 800 219 170 124 80 
268 801 219 174 126 83 
269 800 219 171 125 82 
269 801 219 175 126 84 
268 802 219 180 128 86 
268 803 219 183 131 89 
269 802 219 180 128 86 
270 800 219 171 124 82 
270 801 219 175 126 85 
268 803 220 187 130 89 
269 802 220 180 127 85 
269 803 220 185 128 87 
270 801 220 177 126 86 
271 800 220 170 121 78 
271 801 220 174 123 81 
270 802 220 179 126 85 
270 803 220 184 126 84 
270 803 221 188 128 88 
271 802 220 178 123 83 
271 803 220 182 125 85 
271 803 221 183 126 88 
268 804 220 193 133 92 
268 804 221 197 135 95 
268 805 221 199 137 99 
269 804 220 193 131 93 
269 804 221 196 134 95 
269 805 221 197 135 97 
268 805 222 197 136 99 
269 805 222 195 135 98 
268 806 222 199 138 102 
268 806 223 197 138 101 
268 807 223 204 144 106 
269 806 222 195 135 99 
269 806 223 196 137 101 
269 807 223 200 141 104 
270 804 221 192 131 93 
271 804 221 186 128 91 
270 805 222 190 132 97 
271 804 222 183 127 91 
271 805 222 187 130 95 
271 805 223 185 129 95 
270 806 223 190 134 99 
270 807 223 194 137 102 
271 806 223 187 132 96 
264 808 222 220 153 114 
264 808 223 222 155 116 
264 809 223 224 157 118 
265 808 222 220 154 114 
265 808 223 221 154 114 
265 809 223 224 157 118 
264 810 223 226 159 121 
265 810 223 226 158 120 
266 808 222 219 154 114 
266 808 223 221 155 115 
266 809 223 223 157 118 
267 808 223 216 153 113 
267 809 223 220 155 116 
268 808 223 208 148 109 
272 800 220 170 122 79 
272 800 221 170 122 82 
272 801 220 173 121 82 
272 801 221 173 123 85 
273 800 221 167 119 81 
273 801 221 170 121 84 
273 801 222 168 120 82 
272 802 221 176 123 86 
272 803 221 178 124 86 
273 802 221 171 122 84 
272 803 222 178 125 87 
273 802 222 171 122 83 
273 803 222 173 123 86 
273 803 223 173 124 87 
274 800 222 163 117 78 
274 801 222 165 119 81 
275 800 222 162 116 78 
275 800 223 163 116 80 
275 801 222 165 118 82 
275 801 223 165 119 83 
274 802 222 168 121 83 
274 802 223 168 121 84 
274 803 223 170 122 85 
275 802 223 167 120 85 
275 803 223 170 121 87 
272 804 222 179 126 90 
272 804 223 179 126 91 
272 805 223 180 128 93 
273 804 223 176 125 90 
274 804 223 175 125 88 
276 800 223 162 116 79 
276 801 223 164 118 82 
277 800 223 161 116 78 
276 802 223 166 119 84 
256 811 224 224 158 120 
257 811 224 225 159 120 
258 810 224 224 156 117 
258 811 224 225 158 119 
259 810 224 225 159 120 
259 811 224 227 160 121 
259 811 225 229 162 123 
256 812 224 225 159 120 
256 813 224 227 162 123 
257 812 224 227 161 123 
257 813 224 229 164 126 
257 813 225 229 165 126 
256 814 224 229 165 126 
256 814 225 229 166 128 
256 815 225 230 167 129 
257 814 225 230 167 129 
257 815 225 231 168 131 
256 815 226 231 169 130 
257 815 226 231 170 133 
258 812 224 227 160 121 
258 812 225 228 162 124 
258 813 225 230 165 127 
259 812 225 230 164 126 
259 813 225 231 165 128 
259 813 226 232 167 131 
258 814 225 231 168 131 
258 815 225 232 169 133 
259 814 225 232 167 130 
258 815 226 233 171 135 
259 814 226 233 170 134 
259 815 226 234 171 135 
260 810 224 226 160 121 
260 811 225 229 162 123 
261 810 224 226 161 122 
261 811 224 229 163 124 
261 811 225 230 165 126 
262 810 224 228 163 125 
262 811 224 230 166 127 
262 811 225 231 167 129 
263 810 224 228 164 125 
263 811 224 230 165 127 
263 811 225 231 167 129 
260 812 225 230 163 125 
261 812 225 231 165 127 
260 812 226 232 164 128 
260 813 226 233 167 132 
261 812 226 233 166 130 
261 813 226 234 169 134 
260 814 226 235 172 137 
260 815 226 237 175 140 
261 814 226 236 173 138 
261 815 226 237 176 142 
261 815 227 238 178 145 
263 812 225 234 169 131 
262 812 226 234 170 132 
262 813 226 235 172 135 
263 812 226 234 170 132 
263 813 226 236 173 135 
262 814 226 237 175 139 
262 814 227 238 176 141 
262 815 227 239 178 144 
263 814 226 237 175 139 
263 814 227 238 177 140 
263 815 227 240 179 144 
269 807 224 202 143 107 
270 807 224 197 141 105 
271 806 224 187 131 96 
271 807 224 191 136 101 
271 807 225 192 137 100 
264 810 224 227 160 122 
264 811 224 229 163 125 
264 811 225 232 166 129 
265 810 224 227 160 123 
265 811 224 229 163 125 
267 809 224 219 154 115 
266 810 224 226 159 121 
266 811 224 227 161 123 
266 811 225 229 165 128 
267 810 224 222 157 118 
267 811 224 225 160 122 
267 811 225 224 160 122 
264 812 225 234 168 131 
265 812 225 232 167 130 
264 812 226 236 171 133 
264 813 226 237 173 136 
265 812 226 235 170 132 
265 813 226 234 171 133 
264 814 226 237 175 139 
264 814 227 237 175 138 
264 815 227 238 176 141 
265 814 227 234 171 134 
265 815 227 233 172 136 
266 812 225 230 166 128 
267 812 225 227 163 126 
266 812 226 230 167 129 
266 813 226 231 167 130 
266 813 227 227 165 129 
267 812 226 224 162 125 
267 813 226 229 165 129 
267 813 227 225 163 127 
266 814 227 229 167 131 
266 815 227 229 168 132 
267 814 227 226 164 129 
265 815 228 231 171 135 
266 815 228 230 169 133 
267 814 228 225 163 130 
267 815 228 226 165 131 
267 815 229 226 166 132 
268 808 224 210 148 110 
268 809 224 214 151 113 
269 808 224 206 147 110 
269 809 224 208 147 110 
269 809 225 211 149 112 
268 810 224 219 156 118 
268 810 225 217 155 118 
268 811 225 219 158 121 
269 810 225 216 154 118 
269 811 225 216 157 120 
268 811 226 218 158 122 
269 811 226 215 157 121 
270 808 224 202 144 108 
270 808 225 202 145 108 
270 809 225 205 147 110 
271 808 224 199 143 107 
271 808 225 198 143 106 
271 809 225 203 146 109 
271 809 226 205 148 110 
270 810 225 210 150 113 
270 810 226 211 152 116 
270 811 226 212 155 118 
270 811 227 213 156 121 
271 810 226 207 150 113 
271 811 226 211 154 119 
271 811 227 212 155 120 
268 812 226 220 160 123 
268 812 227 220 160 124 
268 813 227 220 159 122 
269 812 226 217 160 124 
269 812 227 218 160 123 
269 813 227 218 159 122 
270 812 227 215 158 122 
271 812 227 213 156 121 
269 813 228 219 160 123 
268 814 228 222 160 126 
268 815 228 223 160 127 
268 815 229 224 164 130 
269 814 228 220 160 125 
269 814 229 220 160 126 
269 815 229 224 164 130 
270 812 228 215 158 122 
270 813 228 218 159 123 
271 812 228 214 157 122 
271 813 228 216 159 123 
271 813 229 217 159 123 
270 814 228 220 161 126 
270 814 229 221 162 126 
270 815 229 223 165 130 
271 814 229 220 162 126 
270 815 230 224 166 131 
271 814 230 221 163 128 
271 815 230 223 166 130 
271 815 231 225 167 132 
256 816 226 232 169 131 
256 817 227 233 170 132 
257 816 226 233 171 135 
257 816 227 233 172 137 
257 817 227 234 173 137 
256 818 227 233 170 132 
258 816 226 234 172 137 
258 816 227 235 172 139 
258 817 227 235 173 139 
259 816 226 235 172 137 
259 816 227 236 173 139 
259 817 227 237 174 141 
256 818 228 234 170 133 
256 819 229 235 170 134 
257 818 228 235 173 137 
257 819 228 235 172 136 
257 819 229 236 172 137 
258 817 228 236 173 140 
259 817 228 238 176 144 
258 818 228 236 174 140 
258 819 229 237 174 139 
259 818 228 239 176 144 
259 818 229 238 176 143 
259 819 229 236 173 140 
258 819 230 237 174 141 
259 819 230 237 175 141 
256 820 229 235 169 134 
256 820 230 237 171 136 
256 821 230 239 173 139 
257 820 230 237 172 138 
257 821 230 238 173 140 
257 821 231 238 174 141 
256 822 231 240 175 142 
256 823 231 243 176 144 
257 822 231 241 177 143 
258 820 230 237 175 142 
258 821 230 238 175 142 
258 821 231 238 176 144 
259 820 230 240 178 146 
259 820 231 237 176 144 
259 821 231 238 177 146 
258 822 231 241 178 146 
259 822 231 239 177 146 
260 816 227 238 177 144 
260 817 227 238 176 145 
261 816 227 239 179 146 
262 816 227 240 180 147 
263 816 227 239 179 145 
260 817 228 239 178 146 
261 817 228 241 181 149 
260 818 228 240 178 146 
260 818 229 238 176 144 
260 819 229 235 172 139 
261 818 228 241 180 149 
261 818 229 241 181 150 
260 819 230 238 176 144 
261 819 230 240 179 148 
261 819 231 242 181 150 
262 816 228 241 182 149 
262 817 228 241 182 149 
262 817 229 240 182 148 
263 816 228 240 180 147 
263 817 228 242 182 149 
263 817 229 239 180 147 
262 818 229 241 182 150 
263 818 229 239 180 147 
262 818 230 244 185 153 
262 819 230 244 185 154 
262 819 231 248 189 159 
263 818 230 240 181 148 
263 819 230 240 182 150 
263 819 231 245 187 155 
260 820 231 242 178 147 
260 821 231 242 179 148 
261 820 231 244 182 151 
262 820 231 247 187 156 
263 820 231 248 189 157 
256 823 232 243 178 146 
257 823 232 243 179 146 
258 822 232 237 177 144 
258 823 232 241 179 146 
259 822 232 243 181 149 
259 823 232 241 180 147 
260 821 232 240 177 147 
261 821 232 245 183 152 
260 822 232 243 180 149 
260 823 232 240 179 147 
260 823 233 244 183 152 
261 822 232 244 182 152 
261 822 233 243 182 152 
261 823 233 240 179 148 
262 820 232 248 188 157 
262 821 232 249 188 157 
263 820 232 242 184 151 
263 821 232 245 187 155 
263 821 233 247 188 157 
262 822 233 247 186 156 
262 823 233 236 176 145 
263 822 233 244 186 154 
262 823 234 246 186 155 
263 823 234 245 187 155 
256 824 232 247 181 151 
256 824 233 244 180 150 
256 825 233 246 183 154 
257 824 232 243 180 148 
257 824 233 248 184 154 
257 825 233 244 181 152 
256 826 233 246 185 155 
257 826 233 248 185 156 
256 826 234 246 184 154 
257 826 234 242 180 151 
258 824 232 244 180 148 
258 824 233 245 180 149 
258 825 233 245 181 151 
259 824 232 244 182 149 
259 824 233 243 181 148 
259 825 233 246 184 152 
259 825 234 236 175 143 
258 826 233 240 178 148 
258 826 234 242 180 150 
259 826 234 239 178 147 
260 824 233 242 181 148 
260 825 233 242 180 148 
261 824 233 241 180 149 
260 825 234 239 177 146 
261 824 234 237 177 146 
261 825 234 236 176 143 
260 826 234 235 174 142 
261 826 234 231 169 136 
261 826 235 229 167 133 
262 824 234 242 182 150 
262 825 234 237 178 146 
262 825 235 233 172 139 
263 824 234 236 178 144 
263 824 235 238 180 146 
263 825 235 230 170 135 
262 826 235 229 168 133 
263 826 235 230 169 134 
263 825 236 230 170 133 
263 826 236 230 169 133 
264 816 228 237 177 143 
264 817 229 238 177 145 
265 816 228 234 174 139 
265 816 229 234 175 141 
265 817 229 234 175 143 
265 817 230 235 176 144 
264 818 230 239 177 145 
264 819 230 233 172 140 
264 819 231 237 175 141 
265 818 230 234 174 142 
265 819 231 236 174 142 
266 816 228 231 171 135 
266 816 229 230 171 137 
266 817 229 231 173 139 
267 816 229 228 169 135 
266 817 230 232 173 140 
267 816 230 229 172 137 
267 817 230 230 171 138 
266 818 230 232 172 140 
266 818 231 232 173 141 
266 819 231 235 175 142 
267 818 230 231 173 140 
267 818 231 231 172 139 
267 819 231 233 174 141 
264 820 231 236 175 142 
265 820 231 237 177 144 
266 820 231 234 175 141 
268 816 229 227 169 134 
268 816 230 228 170 135 
268 817 230 228 170 136 
268 817 231 229 170 136 
269 816 230 227 170 135 
269 816 231 227 170 136 
269 817 231 229 170 137 
268 818 231 230 171 137 
269 818 231 230 171 137 
270 816 230 226 169 134 
270 816 231 227 169 136 
270 817 231 230 171 139 
271 816 231 228 170 137 
267 819 232 233 175 140 
264 820 232 237 178 144 
264 821 232 244 183 151 
264 821 233 236 178 145 
265 820 232 238 179 145 
265 821 232 243 185 151 
265 821 233 240 183 149 
264 822 233 247 189 158 
265 822 233 242 185 152 
264 823 234 244 187 155 
265 823 234 237 179 146 
266 820 232 235 178 143 
266 821 232 243 187 152 
266 821 233 240 184 150 
267 820 232 236 178 143 
267 820 233 237 179 145 
267 821 232 234 176 141 
267 821 233 236 180 146 
266 822 233 240 183 149 
267 822 233 235 177 143 
266 823 234 237 178 143 
267 822 234 235 176 142 
267 823 234 235 175 141 
267 823 235 233 173 138 
268 818 232 231 172 137 
268 819 232 235 177 142 
269 818 232 231 173 138 
269 819 232 234 177 142 
269 819 233 234 178 143 
270 817 232 231 173 140 
271 816 232 229 171 138 
271 817 232 230 173 140 
270 818 232 231 175 139 
270 819 232 234 177 142 
270 819 233 235 179 143 
271 818 232 231 175 140 
271 818 233 232 176 140 
271 819 233 234 178 143 
268 820 232 234 177 142 
268 820 233 234 177 143 
268 821 233 236 179 145 
269 820 233 234 178 143 
269 821 233 236 180 146 
269 821 234 237 181 145 
268 822 234 235 177 143 
268 823 234 234 175 141 
268 823 235 233 173 138 
269 822 234 236 180 145 
269 822 235 234 176 142 
269 823 235 233 174 139 
270 820 233 234 178 143 
271 820 233 234 178 143 
270 820 234 235 179 145 
270 821 234 236 180 145 
270 821 235 234 178 143 
271 820 234 235 179 144 
271 821 234 234 178 143 
271 821 235 234 177 142 
270 822 235 234 177 143 
269 823 236 233 173 137 
270 822 236 234 175 141 
270 823 236 234 175 139 
271 822 236 234 176 141 
271 823 236 234 176 139 
271 823 237 234 176 138 
264 824 234 238 179 146 
264 824 235 235 176 141 
264 825 235 231 171 134 
265 824 235 233 172 138 
266 824 235 232 171 136 
267 824 235 232 170 135 
264 825 236 231 172 134 
265 825 236 231 171 134 
264 826 236 230 170 132 
264 826 237 231 170 134 
265 826 237 232 171 134 
265 826 238 234 173 137 
266 825 236 231 171 134 
266 825 237 231 171 133 
267 824 236 231 169 133 
267 825 236 230 170 132 
267 825 237 232 171 134 
267 825 238 234 173 136 
266 826 237 232 171 134 
267 826 237 233 172 135 
266 826 238 234 174 137 
267 826 238 234 175 137 
267 826 239 237 178 140 
268 824 236 231 169 132 
268 825 237 233 172 135 
269 824 236 232 172 134 
269 824 237 233 173 136 
269 825 237 234 174 137 
268 825 238 235 175 138 
268 825 239 237 178 140 
269 825 238 236 176 140 
269 825 239 237 179 141 
268 826 239 238 180 142 
269 826 239 239 181 143 
270 824 237 235 175 138 
271 824 237 236 176 139 
270 824 238 235 176 140 
270 825 238 237 177 141 
270 825 239 237 178 141 
271 824 238 236 177 140 
271 824 239 236 176 140 
271 825 239 236 177 140 
267 826 240 241 182 146 
268 826 240 241 183 147 
268 826 241 242 182 147 
269 826 240 241 183 146 
269 826 241 242 182 147 
269 826 242 242 182 146 
270 825 240 239 181 143 
271 825 240 237 179 142 
271 825 241 239 180 144 
271 825 242 241 181 146 
270 826 240 241 183 146 
270 826 241 241 182 147 
271 826 241 241 181 146 
270 826 242 243 183 147 
270 826 243 245 185 148 
271 826 242 242 182 146 
271 826 243 244 184 147 
271 826 244 246 186 149 
270 826 255 231 176 144 
271 826 254 235 179 148 
271 826 255 232 177 145 
274 803 224 172 123 86 
275 803 224 171 122 85 
272 805 224 180 128 94 
273 804 224 177 127 90 
273 805 224 179 128 93 
272 806 224 184 130 95 
272 807 224 187 132 96 
272 807 225 189 135 97 
273 806 224 182 129 94 
273 806 225 183 129 93 
273 807 225 189 134 96 
273 807 226 192 138 101 
274 804 224 176 126 89 
274 805 224 178 128 90 
274 805 225 179 128 91 
275 804 224 175 125 89 
275 804 225 176 126 90 
275 805 225 179 128 92 
275 805 226 181 130 94 
274 806 225 183 129 93 
274 807 225 187 133 97 
274 806 226 187 133 98 
274 807 226 191 137 101 
275 806 226 184 132 97 
275 807 226 189 136 101 
275 807 227 191 137 102 
276 801 224 165 118 82 
277 800 224 163 118 81 
277 801 224 165 119 83 
277 801 225 166 120 85 
276 802 224 167 119 82 
276 803 224 170 121 84 
277 802 224 167 118 82 
277 802 225 168 120 85 
277 803 225 171 122 86 
278 800 224 162 118 81 
278 800 225 163 118 81 
278 801 225 166 120 84 
279 800 225 163 118 81 
279 801 225 165 119 83 
279 801 226 168 121 85 
278 802 225 169 122 87 
278 802 226 171 123 88 
278 803 226 174 126 91 
279 802 226 172 125 88 
279 803 226 175 127 91 
279 803 227 175 126 90 
276 804 225 175 126 91 
277 804 225 174 126 91 
276 804 226 177 127 92 
276 805 226 182 130 95 
277 804 226 177 127 92 
277 805 226 179 129 93 
277 805 227 181 130 95 
276 806 226 183 132 96 
276 806 227 185 132 97 
276 807 227 193 138 102 
277 806 227 185 132 96 
277 807 227 195 138 103 
278 804 226 177 127 92 
278 804 227 178 127 92 
278 805 227 181 128 92 
279 804 227 178 128 92 
279 805 227 179 127 91 
278 806 227 191 135 100 
276 807 228 193 139 105 
277 807 228 195 139 104 
279 805 228 189 133 97 
278 806 228 189 135 100 
278 807 228 192 138 103 
279 806 228 187 134 99 
279 806 229 188 135 99 
279 807 229 193 138 103 
272 808 225 197 142 104 
272 808 226 199 144 106 
272 809 226 203 146 109 
273 808 226 197 142 105 
273 809 226 201 145 109 
273 809 227 203 146 110 
272 810 226 205 147 111 
272 810 227 207 150 115 
272 811 227 210 154 119 
273 810 227 206 149 114 
273 811 227 209 152 118 
274 808 226 196 140 104 
274 808 227 197 141 106 
274 809 227 202 146 111 
275 808 227 196 141 107 
274 810 227 206 149 116 
272 811 228 211 154 120 
273 810 228 208 151 117 
273 811 228 209 152 118 
274 809 228 204 148 114 
275 808 228 198 143 110 
275 809 228 202 146 112 
