ply
format ascii 1.0
comment Created by CloudCompare v2.10.1 (Zephyrus)
comment Created 1/31/20 6:09 PM
obj_info Generated by CloudCompare!
element vertex 2123
property float x
property float y
property float z
property uchar red
property uchar green
property uchar blue
end_header
150 938 301 101 85 71 
150 939 300 102 85 72 
150 939 301 102 85 72 
150 938 302 104 88 74 
150 938 303 103 86 74 
150 939 302 101 84 71 
150 939 303 97 81 67 
151 939 302 99 83 69 
151 939 303 96 79 67 
151 940 296 93 70 58 
151 940 297 95 73 62 
151 941 296 88 64 55 
151 941 297 92 72 64 
151 940 298 99 81 69 
151 940 299 101 83 71 
151 941 298 93 74 64 
151 941 299 94 75 63 
151 942 296 87 69 59 
151 942 297 87 69 61 
151 943 296 89 72 62 
151 943 297 90 75 67 
151 942 298 88 71 62 
151 942 299 95 78 68 
151 943 298 86 71 65 
151 943 299 90 75 67 
151 940 300 101 84 72 
151 940 301 102 85 72 
151 941 300 99 82 70 
151 941 301 100 85 73 
151 940 302 99 83 70 
151 940 303 94 77 67 
151 941 302 92 75 64 
151 941 303 90 73 63 
151 942 300 99 82 72 
151 942 301 88 72 60 
151 943 300 83 68 57 
151 943 301 79 62 48 
151 942 302 83 65 54 
151 942 303 89 72 63 
152 939 288 74 57 47 
152 939 289 79 62 55 
152 939 290 83 64 55 
152 940 288 75 57 49 
152 940 289 86 69 58 
152 941 289 105 87 70 
153 941 288 84 66 54 
153 941 289 108 89 70 
152 940 290 105 88 72 
152 940 291 136 117 99 
152 941 290 131 111 93 
152 941 291 140 119 101 
153 942 288 107 89 71 
153 942 289 134 114 95 
153 943 288 132 112 92 
153 943 289 135 113 93 
152 942 290 141 121 102 
152 942 291 122 99 81 
153 942 290 136 115 96 
153 942 291 115 89 70 
153 943 290 110 85 62 
153 943 291 90 61 48 
154 943 288 130 109 90 
154 943 289 139 118 99 
152 941 292 131 108 88 
152 942 292 101 74 61 
152 942 293 88 61 47 
152 943 292 82 56 49 
152 943 293 82 63 54 
153 943 292 78 54 49 
152 942 294 80 60 51 
152 943 294 86 70 60 
152 943 295 88 73 63 
152 943 296 91 76 66 
152 943 297 83 68 61 
152 943 298 81 66 61 
152 943 299 82 68 61 
152 943 300 75 60 50 
152 943 301 76 60 47 
152 942 303 88 71 62 
152 943 302 84 68 59 
152 943 303 88 72 64 
149 928 304 88 72 60 
149 928 305 78 59 50 
149 929 304 81 64 55 
149 929 305 75 56 46 
149 928 306 81 63 50 
149 928 307 97 81 69 
149 929 306 89 73 63 
149 929 307 101 86 74 
149 930 305 78 61 51 
149 930 306 91 76 66 
150 929 304 88 72 60 
150 928 307 102 88 76 
150 929 307 100 86 73 
150 930 304 74 55 47 
150 930 305 74 55 45 
150 931 304 71 53 42 
150 931 305 88 72 61 
150 930 306 98 84 73 
150 930 307 94 79 66 
150 931 306 97 83 71 
150 931 307 87 72 60 
150 928 308 98 83 71 
150 928 309 88 72 61 
150 929 308 92 76 63 
150 929 309 81 64 54 
150 928 310 82 64 54 
150 929 310 76 58 49 
151 928 311 83 66 55 
151 929 310 81 64 55 
151 929 311 83 66 57 
150 930 308 84 68 56 
150 930 309 75 56 47 
150 931 308 77 60 49 
150 931 309 78 61 51 
151 931 309 84 69 61 
150 930 310 78 61 53 
151 930 310 81 65 57 
151 930 311 82 65 56 
151 931 310 82 66 57 
151 931 311 83 66 57 
150 932 304 82 67 56 
150 932 305 97 82 70 
150 933 304 89 74 62 
150 933 305 100 86 73 
150 932 306 92 78 65 
150 932 307 79 61 51 
150 933 306 89 73 62 
150 933 307 80 63 53 
150 934 304 97 82 69 
150 934 305 100 85 73 
150 935 304 106 91 78 
150 935 305 97 81 69 
150 934 306 86 70 59 
150 934 307 83 66 57 
150 935 306 86 68 57 
150 935 307 86 69 59 
151 935 307 88 71 61 
150 932 308 77 60 50 
150 932 309 82 66 56 
150 933 308 83 67 58 
151 932 309 82 66 55 
151 933 309 82 67 55 
151 932 310 81 65 54 
151 932 311 84 68 57 
151 933 310 85 69 58 
151 933 311 87 72 61 
150 934 308 84 69 59 
151 934 308 84 68 58 
151 934 309 83 67 56 
151 935 308 84 68 58 
151 935 309 81 64 54 
151 934 310 85 69 59 
151 935 310 83 66 57 
151 928 312 82 63 53 
151 928 313 82 62 52 
151 929 312 79 61 50 
151 929 313 81 63 53 
151 930 312 80 62 53 
151 931 312 82 66 55 
150 936 304 103 88 74 
150 936 305 91 74 63 
150 937 304 100 84 72 
150 937 305 91 74 63 
150 936 306 87 69 57 
150 936 307 88 71 60 
150 937 306 88 71 59 
151 936 307 87 70 59 
151 937 306 89 72 60 
151 937 307 86 69 60 
150 938 304 95 78 67 
150 938 305 90 73 63 
150 939 304 92 76 63 
151 938 305 90 73 63 
151 939 304 93 77 64 
151 939 305 91 75 63 
150 938 306 89 72 61 
151 938 306 88 70 60 
151 938 307 82 65 55 
151 939 306 85 68 59 
151 939 307 78 61 52 
151 936 308 82 65 55 
151 936 309 76 59 50 
151 937 308 79 62 52 
151 937 309 74 56 48 
151 938 308 76 60 51 
151 938 309 74 59 51 
151 939 308 74 59 51 
151 939 309 73 57 50 
151 940 304 93 76 66 
151 940 305 91 75 64 
151 941 304 91 74 66 
151 941 305 85 70 62 
151 940 306 80 65 56 
151 940 307 74 58 51 
151 941 306 75 59 52 
151 942 304 90 74 66 
151 940 308 71 56 48 
152 932 311 85 69 58 
152 933 311 87 71 61 
152 934 310 86 70 60 
152 934 311 85 69 59 
152 935 310 79 61 54 
152 935 311 77 59 50 
152 928 313 84 65 55 
152 929 313 84 67 57 
152 928 314 84 66 56 
152 928 315 83 65 54 
152 929 314 83 67 56 
152 929 315 84 68 56 
152 930 313 82 66 55 
152 931 312 81 65 55 
152 931 313 84 69 58 
152 930 314 82 66 55 
152 930 315 85 70 59 
152 931 314 89 74 64 
153 930 315 89 74 63 
153 931 314 93 78 68 
153 931 315 93 77 67 
152 928 316 83 65 55 
152 929 316 84 67 57 
153 928 316 83 66 55 
153 928 317 86 69 58 
153 929 316 87 72 61 
153 929 317 90 74 64 
153 928 318 89 72 60 
153 929 318 90 74 64 
153 930 316 93 78 67 
153 930 317 96 80 69 
153 931 316 96 80 69 
153 931 317 97 82 70 
154 928 319 93 75 63 
154 929 318 91 74 64 
154 929 319 92 74 62 
154 930 317 96 80 69 
154 931 317 97 81 69 
154 930 318 93 77 66 
154 930 319 93 75 64 
154 931 318 95 77 67 
154 931 319 94 76 65 
155 931 319 93 74 63 
152 932 312 83 67 57 
152 932 313 87 72 62 
152 933 312 85 69 60 
152 933 313 86 70 61 
152 932 314 91 76 66 
153 932 314 89 73 63 
153 932 315 90 72 62 
153 933 314 85 67 56 
153 933 315 85 65 56 
152 934 312 83 67 58 
152 934 313 84 68 59 
152 935 312 77 60 52 
152 935 313 79 64 54 
153 934 313 84 68 58 
153 935 313 80 64 55 
153 934 314 83 65 56 
153 934 315 84 66 58 
153 935 314 82 65 56 
153 935 315 83 66 58 
154 935 315 84 66 57 
153 932 316 93 75 65 
153 933 316 87 68 59 
154 932 316 92 74 65 
154 932 317 93 75 64 
154 933 316 88 69 60 
154 933 317 87 67 58 
154 932 318 89 68 58 
155 932 318 88 68 58 
155 932 319 89 69 59 
155 933 318 86 66 57 
155 933 319 87 68 58 
154 934 316 86 68 59 
154 934 317 84 66 56 
154 935 316 85 67 57 
154 935 317 84 67 56 
155 934 317 84 65 55 
155 935 317 86 69 58 
155 934 318 83 64 55 
155 934 319 85 67 56 
155 935 318 87 70 58 
156 934 319 86 68 58 
156 935 319 89 72 61 
152 937 309 74 57 50 
152 936 310 73 56 48 
152 936 311 75 59 50 
152 937 310 75 59 53 
152 937 311 78 64 56 
152 938 309 75 60 53 
152 939 309 71 55 49 
152 938 310 76 61 54 
152 938 311 76 61 53 
152 939 310 72 56 50 
152 939 311 74 57 51 
153 938 311 75 59 52 
153 939 311 76 59 52 
152 940 307 71 55 48 
152 941 306 72 56 49 
152 941 307 68 51 45 
152 942 304 89 73 66 
152 942 305 79 64 57 
152 943 304 85 71 64 
152 943 305 72 57 50 
152 942 306 68 51 45 
152 942 307 66 49 43 
152 943 306 69 52 46 
152 943 307 75 59 52 
152 940 308 69 53 45 
152 940 309 71 55 48 
152 941 308 68 51 43 
152 941 309 73 57 49 
152 940 310 74 59 51 
152 941 310 75 60 50 
153 940 311 77 61 51 
153 941 310 75 60 49 
153 941 311 78 62 49 
152 942 308 71 55 47 
152 942 309 76 61 51 
152 943 308 79 63 54 
152 943 309 79 65 53 
153 943 309 82 67 54 
152 942 310 75 60 49 
153 942 310 78 62 49 
153 942 311 83 68 55 
153 943 310 86 71 58 
153 943 311 88 73 60 
154 943 311 87 71 58 
152 936 312 79 64 55 
152 937 312 81 66 58 
153 936 312 83 68 60 
153 936 313 84 69 60 
153 937 312 80 64 56 
153 937 313 83 67 58 
153 936 314 85 69 61 
153 937 314 84 68 59 
153 938 312 77 61 52 
153 938 313 80 64 54 
153 939 312 78 62 52 
153 939 313 80 64 54 
154 936 314 87 70 61 
154 936 315 87 70 60 
154 937 314 84 67 57 
154 937 315 86 67 57 
154 939 313 81 64 54 
154 938 314 83 66 55 
154 938 315 84 66 54 
154 939 314 82 65 54 
155 938 315 83 65 53 
155 939 314 80 62 48 
155 939 315 82 64 51 
154 936 316 89 71 61 
154 937 316 88 71 60 
155 936 316 89 72 62 
155 936 317 89 71 61 
155 937 316 86 69 57 
155 937 317 87 70 58 
155 936 318 89 72 61 
155 938 316 83 65 52 
155 938 317 83 64 51 
155 939 316 85 67 54 
155 939 317 86 68 55 
153 940 312 78 62 49 
153 941 312 82 65 52 
154 940 312 80 63 49 
154 940 313 83 66 55 
154 941 312 85 68 56 
154 941 313 88 71 60 
154 940 314 86 69 57 
155 940 314 85 68 55 
155 940 315 90 73 61 
155 941 314 87 69 57 
155 941 315 92 74 62 
154 942 312 88 71 58 
154 942 313 87 68 57 
154 943 312 84 66 53 
154 943 313 84 65 52 
155 942 313 83 65 52 
155 943 313 83 64 52 
155 942 314 85 65 52 
155 943 314 84 65 52 
156 937 317 86 67 55 
156 936 318 89 71 60 
156 936 319 88 70 58 
156 937 318 88 70 57 
156 937 319 89 71 59 
156 938 317 85 67 54 
156 939 316 91 74 62 
156 939 317 90 73 61 
156 938 318 88 70 58 
156 938 319 89 71 59 
156 939 318 92 74 62 
157 938 319 89 71 58 
157 939 318 93 75 62 
157 939 319 92 74 61 
156 941 315 92 75 62 
156 942 315 89 70 56 
156 943 314 90 72 59 
156 943 315 93 75 62 
156 940 316 94 77 65 
156 940 317 94 77 64 
156 941 316 93 74 62 
156 941 317 94 75 62 
157 940 317 93 75 62 
157 941 317 93 75 62 
157 940 318 93 75 62 
157 940 319 93 73 60 
157 941 318 96 77 63 
156 942 316 91 72 58 
156 943 316 95 76 64 
157 942 316 94 76 62 
157 942 317 96 77 63 
157 943 316 97 79 66 
157 943 317 100 80 67 
157 942 318 98 79 66 
158 940 319 96 77 64 
158 941 319 99 80 67 
158 943 317 99 79 65 
158 942 318 100 81 68 
158 942 319 102 82 67 
158 943 318 103 83 70 
158 943 319 105 86 71 
159 943 319 107 87 72 
153 944 290 91 65 48 
153 944 291 78 55 48 
154 944 288 135 113 92 
154 944 289 109 84 66 
154 945 288 119 96 72 
154 945 289 87 62 48 
155 945 288 108 83 62 
154 944 290 82 58 47 
154 944 291 77 59 51 
154 945 290 75 57 51 
154 945 291 74 60 53 
154 946 289 76 57 49 
155 946 288 92 66 57 
155 946 289 77 59 52 
155 947 288 79 57 53 
155 947 289 72 60 52 
154 946 290 73 59 53 
154 946 291 70 57 51 
154 947 290 73 62 55 
154 947 291 73 59 53 
155 947 290 73 61 53 
153 944 292 80 62 55 
153 944 293 82 67 59 
153 945 292 78 64 56 
153 945 293 77 63 57 
152 944 294 82 67 59 
152 944 295 82 67 58 
152 945 295 72 56 50 
153 944 294 78 63 55 
153 945 294 75 60 55 
153 945 295 73 56 53 
153 946 292 73 61 52 
153 946 293 73 59 52 
153 947 293 76 62 54 
153 946 294 74 61 54 
153 946 295 77 65 56 
153 947 294 85 72 61 
153 947 295 90 77 69 
154 945 292 75 61 53 
154 946 292 71 57 51 
154 947 292 73 58 54 
154 947 293 78 64 58 
155 948 288 74 60 52 
155 948 289 73 60 52 
155 949 289 78 64 55 
154 948 291 76 62 54 
155 948 290 74 61 51 
155 948 291 80 67 57 
155 949 290 83 69 60 
155 949 291 85 71 63 
155 950 290 83 67 61 
155 950 291 81 66 59 
155 951 291 81 65 58 
153 948 294 88 75 66 
153 948 295 90 74 69 
154 948 292 85 71 64 
154 948 293 87 74 66 
154 949 293 84 68 61 
155 948 292 88 75 66 
155 949 292 84 69 61 
155 949 293 82 66 58 
154 948 294 86 72 64 
154 948 295 88 74 66 
154 949 294 86 70 64 
154 949 295 86 70 64 
155 950 292 81 66 58 
155 950 293 85 69 63 
155 951 292 85 70 62 
155 951 293 86 71 63 
154 950 294 84 68 61 
154 950 295 83 66 58 
155 950 294 84 67 60 
155 950 295 83 67 58 
155 951 294 83 68 58 
155 951 295 83 68 57 
156 948 288 75 61 53 
156 949 288 75 63 53 
156 949 289 77 62 53 
156 950 288 77 63 53 
156 950 289 84 69 62 
156 951 288 84 70 61 
156 951 289 86 71 64 
157 951 288 82 68 58 
156 950 290 83 67 61 
156 951 290 82 66 59 
156 951 291 81 65 58 
156 951 292 84 70 61 
152 944 296 78 62 53 
152 944 297 77 60 53 
152 945 296 74 57 52 
152 945 297 79 66 60 
152 944 298 79 66 61 
152 944 299 78 65 58 
152 945 298 81 70 64 
152 945 299 80 68 61 
152 946 296 79 67 60 
152 946 297 86 74 67 
153 946 296 84 72 65 
153 946 297 89 78 72 
153 947 296 92 78 72 
153 947 297 92 78 73 
152 946 298 86 75 68 
152 946 299 83 71 61 
153 946 298 88 76 69 
153 946 299 87 73 64 
153 947 298 88 74 65 
153 947 299 93 78 67 
152 944 300 74 59 50 
152 944 301 82 68 58 
152 945 300 82 69 59 
152 945 301 89 74 64 
152 944 302 88 73 64 
152 944 303 88 74 66 
152 945 302 90 75 66 
152 945 303 87 72 64 
152 946 300 89 76 66 
152 946 301 93 77 67 
153 946 300 94 80 69 
153 946 301 95 78 67 
153 947 300 97 80 66 
153 947 301 98 81 69 
152 946 302 91 75 67 
152 946 303 85 69 61 
153 946 302 93 77 68 
153 946 303 85 69 60 
153 947 302 94 78 68 
153 947 303 86 69 57 
153 948 296 89 73 67 
153 948 297 87 72 63 
153 948 298 93 78 66 
153 948 299 96 80 67 
153 949 298 95 79 64 
153 949 299 95 78 64 
154 948 296 86 70 64 
154 949 296 83 67 58 
154 949 297 87 72 61 
154 949 298 94 78 63 
154 949 299 97 78 64 
154 950 296 83 68 56 
154 950 297 91 75 63 
154 951 297 96 79 66 
155 951 296 88 73 60 
155 951 297 96 79 65 
154 950 298 95 77 63 
154 950 299 99 79 65 
154 951 298 97 78 63 
154 951 299 102 80 67 
155 951 298 99 79 63 
155 951 299 104 82 66 
153 948 300 98 79 66 
153 948 301 103 85 72 
153 949 300 101 82 69 
153 948 302 95 77 64 
153 948 303 92 75 61 
154 949 300 103 84 70 
154 949 301 100 82 66 
154 948 303 97 79 65 
154 949 302 98 80 63 
154 949 303 104 87 72 
154 950 300 102 82 66 
154 950 301 103 83 65 
154 951 300 105 84 67 
154 951 301 106 85 68 
155 951 300 108 87 70 
155 951 301 111 90 73 
154 950 302 107 88 71 
154 950 303 109 89 72 
154 951 302 111 91 74 
155 951 302 111 88 72 
155 951 303 111 89 73 
155 952 294 84 69 59 
155 952 295 89 73 62 
156 952 289 85 68 61 
157 952 288 91 75 66 
157 952 289 84 67 58 
157 953 288 90 72 62 
157 953 289 84 67 56 
156 952 290 82 64 56 
156 952 291 85 69 60 
157 952 290 84 66 56 
157 953 290 87 71 60 
157 953 291 93 78 68 
157 954 289 84 67 55 
157 954 290 87 71 59 
157 954 291 95 79 69 
158 954 288 87 69 59 
158 954 289 85 67 56 
158 955 288 87 69 59 
158 955 289 88 69 60 
158 954 290 89 72 60 
158 954 291 96 80 68 
158 955 290 93 75 63 
158 955 291 96 79 67 
156 952 292 89 74 64 
156 952 293 86 71 61 
156 953 293 90 75 64 
157 953 292 93 77 66 
157 953 293 91 75 63 
156 952 294 89 73 62 
156 952 295 94 77 66 
156 953 294 93 76 64 
156 953 295 98 80 68 
157 953 294 96 79 65 
157 953 295 96 77 62 
157 954 292 94 78 65 
157 954 293 93 77 62 
157 954 294 100 82 68 
157 954 295 102 82 68 
158 954 292 95 79 67 
158 955 292 96 78 65 
158 955 293 100 83 67 
158 955 294 104 85 68 
158 955 295 114 93 78 
159 956 288 89 71 60 
159 956 289 91 70 59 
159 956 290 94 74 62 
159 956 291 98 80 67 
158 956 293 102 84 67 
159 956 292 102 85 71 
159 956 293 108 87 69 
158 956 294 114 94 77 
158 956 295 119 97 80 
159 956 294 119 97 78 
159 956 295 121 97 77 
159 957 295 121 95 72 
155 952 296 96 81 68 
155 952 297 97 77 60 
155 952 298 102 81 64 
155 952 299 107 85 69 
155 952 300 113 91 74 
155 952 301 112 89 72 
155 952 302 112 90 75 
155 952 303 110 88 73 
156 952 296 98 79 66 
156 952 297 99 79 61 
156 953 296 96 76 60 
156 953 297 103 82 65 
157 953 296 99 78 62 
157 953 297 105 84 68 
156 952 298 103 82 65 
156 952 299 110 87 70 
156 953 298 108 86 69 
156 953 299 114 91 74 
157 954 296 109 88 74 
157 954 297 113 92 75 
157 954 298 120 98 78 
157 954 299 116 93 73 
157 955 299 114 91 73 
158 955 296 117 95 78 
158 955 297 122 99 80 
158 955 298 120 97 76 
158 955 299 111 88 71 
156 952 300 114 91 73 
156 952 301 111 87 70 
156 953 300 113 89 70 
156 953 301 111 88 72 
156 952 302 113 91 76 
156 952 303 107 84 69 
156 953 302 107 86 71 
156 953 303 104 82 68 
157 954 300 112 87 72 
157 954 301 105 82 69 
157 955 300 108 83 69 
157 955 301 99 75 64 
157 954 302 100 77 64 
157 954 303 102 84 70 
157 955 302 98 77 64 
158 955 300 102 79 65 
158 955 301 97 74 64 
158 955 302 100 81 69 
158 955 303 101 84 72 
158 956 296 121 98 78 
158 956 297 123 99 79 
159 956 296 123 98 74 
159 956 297 122 98 78 
159 957 296 123 98 75 
159 957 297 119 96 77 
158 956 298 118 95 76 
158 956 299 107 84 67 
159 956 298 112 90 72 
159 956 299 103 81 64 
159 957 298 107 86 69 
158 956 300 99 77 63 
159 956 300 98 77 64 
159 956 301 97 77 65 
159 956 302 99 80 70 
159 956 303 98 80 68 
152 944 304 80 66 59 
152 944 305 72 57 48 
152 945 304 78 62 53 
152 945 305 80 64 54 
152 944 306 78 63 55 
152 944 307 83 68 57 
152 945 306 84 68 59 
152 945 307 87 70 58 
153 945 306 88 71 61 
153 945 307 90 72 59 
153 946 304 81 64 53 
153 946 305 86 70 59 
153 947 304 89 72 59 
153 947 305 95 78 65 
153 946 306 91 74 61 
153 946 307 94 76 63 
153 947 306 99 81 66 
153 947 307 101 83 69 
154 947 306 106 88 72 
154 947 307 102 84 68 
152 944 308 84 68 57 
153 944 308 85 69 57 
153 944 309 87 71 58 
153 945 308 89 71 58 
153 945 309 93 77 63 
153 944 310 90 74 61 
153 944 311 87 71 57 
153 945 310 93 78 65 
153 946 308 96 79 66 
153 946 309 96 80 67 
153 947 308 99 82 69 
154 944 311 84 67 53 
154 945 310 90 73 60 
154 945 311 84 65 51 
154 946 309 93 77 63 
154 947 308 101 84 71 
154 947 309 94 77 64 
154 946 310 88 71 56 
154 946 311 86 66 52 
154 947 310 88 70 55 
154 947 311 90 72 59 
155 946 311 91 73 61 
155 947 310 94 77 63 
155 947 311 96 78 66 
153 948 304 99 83 69 
153 948 305 101 84 70 
154 948 304 104 87 73 
154 948 305 104 86 70 
154 949 304 105 86 71 
154 949 305 111 92 77 
154 948 306 108 90 74 
154 948 307 105 86 71 
154 949 306 108 89 73 
154 949 307 103 85 70 
155 949 307 102 84 69 
154 950 304 109 88 72 
154 950 305 114 94 79 
155 950 304 112 92 75 
155 950 305 111 90 74 
155 951 304 110 89 73 
155 951 305 105 83 67 
155 950 306 104 84 69 
155 950 307 102 85 71 
155 951 306 102 83 68 
155 951 307 104 87 75 
154 948 308 101 84 70 
154 948 309 93 76 62 
155 948 309 96 79 66 
155 949 308 96 79 64 
155 949 309 99 81 69 
155 948 310 98 82 70 
155 948 311 94 77 64 
155 949 310 99 82 70 
155 950 308 101 83 70 
155 950 309 101 83 71 
156 951 305 103 84 70 
156 951 306 102 85 72 
156 951 307 101 83 70 
156 948 311 94 77 65 
156 949 310 97 80 68 
156 949 311 93 75 63 
157 949 311 90 73 61 
156 950 308 100 83 70 
156 950 309 101 83 71 
156 951 308 100 81 67 
156 951 309 100 82 69 
157 951 308 99 81 68 
157 951 309 96 78 67 
156 950 310 96 79 68 
157 950 310 89 71 61 
157 950 311 89 71 61 
157 951 310 89 71 61 
158 950 311 89 71 62 
158 951 310 87 71 62 
158 951 311 88 71 62 
159 951 311 88 72 63 
154 944 312 82 63 49 
154 945 312 84 64 52 
155 944 313 87 69 57 
155 945 312 89 70 57 
155 945 313 92 74 62 
155 944 314 90 73 60 
155 946 312 93 75 63 
155 946 313 94 76 64 
155 947 312 93 76 63 
156 944 314 93 75 62 
156 944 315 95 77 65 
156 945 314 94 77 64 
157 944 315 96 78 65 
157 945 315 96 77 64 
156 946 313 94 77 64 
156 947 312 91 74 60 
156 947 313 93 76 63 
157 947 313 93 76 63 
156 946 314 94 78 65 
157 946 314 95 78 65 
157 946 315 96 78 65 
157 947 314 94 77 63 
157 947 315 95 77 64 
158 947 314 95 77 63 
158 947 315 97 79 65 
157 944 316 97 78 65 
157 945 316 97 79 65 
158 944 317 101 81 68 
158 945 316 99 80 66 
158 945 317 104 84 72 
158 944 318 105 85 72 
159 944 318 108 88 75 
159 944 319 111 91 77 
159 945 318 109 89 76 
159 945 319 113 92 79 
158 946 316 101 82 69 
158 946 317 105 85 73 
158 947 316 101 81 67 
159 946 317 104 83 71 
159 947 316 99 79 66 
159 947 317 103 81 68 
159 946 318 107 85 72 
156 948 312 91 74 61 
156 948 313 91 74 61 
156 949 312 90 73 60 
157 948 313 90 73 60 
157 949 312 90 73 61 
157 949 313 91 73 62 
157 950 312 89 72 61 
158 948 313 91 73 59 
158 949 313 92 74 62 
159 949 313 92 73 61 
158 948 314 93 75 61 
158 948 315 96 77 63 
159 948 314 95 75 62 
159 948 315 97 77 64 
159 949 314 95 75 63 
158 950 312 90 72 62 
158 950 313 91 74 63 
159 950 312 90 73 62 
159 950 313 91 73 62 
159 951 312 88 72 62 
159 951 313 88 70 60 
159 948 316 98 78 65 
155 952 304 106 84 68 
156 952 304 103 81 65 
156 952 305 103 84 69 
156 953 304 105 85 71 
156 953 305 104 88 74 
157 953 304 105 88 75 
157 953 305 106 91 79 
156 952 306 102 85 72 
156 952 307 99 81 69 
157 952 306 100 83 70 
157 952 307 98 79 66 
157 953 306 100 83 70 
157 953 307 98 79 67 
157 954 304 105 88 76 
157 954 305 105 91 79 
158 953 307 98 79 68 
158 954 305 102 85 73 
158 955 304 101 85 73 
158 955 305 100 84 71 
159 955 304 102 86 73 
159 955 305 101 83 70 
158 954 306 99 82 69 
158 954 307 97 79 68 
159 954 306 98 80 68 
159 954 307 95 78 67 
159 955 306 99 81 68 
159 955 307 96 78 67 
157 952 308 99 81 69 
157 952 309 96 79 68 
158 952 309 91 75 65 
158 953 308 95 78 67 
158 953 309 92 75 66 
159 953 308 91 75 65 
159 953 309 88 72 63 
158 952 310 87 71 62 
159 952 310 88 71 62 
159 952 311 87 71 62 
159 953 310 88 72 62 
159 954 308 91 75 64 
159 954 309 89 72 62 
159 956 304 100 84 72 
159 956 305 103 87 75 
167 899 263 81 65 50 
165 902 263 89 70 54 
165 903 263 88 69 57 
166 900 263 83 65 50 
166 901 263 86 67 51 
167 900 262 81 63 48 
167 900 263 82 64 50 
167 901 262 83 64 49 
167 901 263 83 65 48 
167 902 261 81 65 51 
167 903 261 85 67 53 
166 902 263 87 68 54 
166 903 262 86 69 56 
166 903 263 86 68 57 
167 902 262 83 66 51 
167 902 263 84 67 51 
167 903 262 87 69 55 
161 899 271 100 77 56 
162 899 269 99 78 56 
163 899 268 94 74 53 
163 899 269 94 74 51 
162 899 270 99 78 55 
162 899 271 95 73 50 
163 898 270 93 73 49 
163 898 271 93 73 50 
163 899 270 93 73 51 
160 903 265 121 89 58 
160 902 267 118 84 57 
160 903 266 119 90 63 
160 903 267 113 83 61 
161 902 267 103 78 55 
161 903 266 114 86 60 
161 903 267 111 83 58 
163 901 265 97 75 53 
162 900 267 101 78 57 
162 901 266 101 77 54 
162 901 267 100 77 57 
163 900 266 97 75 53 
163 900 267 97 75 54 
163 901 266 99 77 54 
163 902 265 98 76 55 
163 903 265 101 77 58 
162 902 266 104 79 57 
162 902 267 101 76 56 
162 903 266 108 82 59 
163 902 266 101 77 57 
163 903 266 103 78 57 
160 901 269 108 78 52 
161 900 269 103 79 57 
161 901 268 103 77 54 
161 901 269 107 79 56 
160 900 270 105 78 57 
160 900 271 108 79 60 
160 901 270 105 77 58 
161 900 270 103 79 56 
161 900 271 103 78 57 
160 902 268 111 80 54 
160 902 269 107 75 46 
161 902 268 106 78 49 
162 900 268 100 78 57 
162 900 269 101 79 57 
162 901 268 103 78 58 
165 899 265 86 67 51 
164 899 266 90 69 53 
164 899 267 87 69 50 
165 898 266 83 65 47 
165 898 267 83 65 46 
165 899 266 85 66 50 
167 897 264 79 63 48 
167 897 265 78 63 48 
166 897 267 80 65 48 
167 896 266 76 62 48 
167 896 267 77 63 48 
167 897 266 78 63 48 
167 897 267 78 64 48 
166 898 265 82 66 49 
166 899 264 82 65 50 
166 899 265 83 66 50 
167 898 264 80 64 48 
167 898 265 81 65 48 
167 899 264 82 65 50 
166 898 266 83 66 49 
166 898 267 81 66 49 
167 898 266 81 65 48 
165 897 268 84 68 48 
165 897 269 85 69 48 
164 897 271 90 72 51 
165 896 271 86 69 52 
165 897 270 87 69 49 
165 897 271 88 71 51 
164 898 268 88 69 48 
164 898 269 90 71 49 
164 899 268 90 71 50 
165 898 268 85 68 48 
164 898 270 91 71 49 
164 898 271 91 72 50 
166 896 269 81 65 47 
166 897 268 81 65 48 
166 897 269 82 66 48 
167 896 268 78 64 47 
167 896 269 80 64 47 
166 896 270 84 67 49 
166 896 271 85 68 50 
166 898 268 84 67 48 
164 900 265 93 72 50 
164 901 265 96 74 53 
165 900 264 88 69 52 
165 900 265 91 71 51 
165 901 264 91 71 53 
165 901 265 92 72 53 
164 900 266 92 71 52 
164 902 265 95 73 53 
164 903 264 97 75 59 
164 903 265 96 74 55 
165 902 264 93 72 53 
165 903 264 92 72 55 
166 900 264 84 66 50 
161 907 259 152 125 99 
162 907 258 152 127 104 
162 907 259 153 128 104 
163 907 258 152 127 105 
163 907 259 150 125 99 
160 905 261 132 107 78 
161 905 260 136 111 83 
161 905 261 134 107 79 
160 904 262 130 102 69 
160 904 263 130 101 66 
161 904 262 130 101 73 
161 904 263 125 95 63 
161 905 262 133 104 79 
160 906 260 153 128 102 
160 906 261 151 126 99 
160 907 260 153 126 100 
161 906 260 150 126 101 
161 907 260 156 130 104 
162 905 261 134 108 81 
163 905 260 129 105 78 
163 905 261 124 99 72 
162 904 262 130 102 74 
162 904 263 113 88 55 
162 905 262 122 96 68 
163 904 263 105 80 52 
163 905 262 110 86 55 
163 905 263 104 81 55 
162 906 260 150 123 94 
162 906 261 134 108 80 
163 906 260 140 113 83 
163 906 261 131 106 77 
161 908 259 140 115 91 
161 909 259 118 94 72 
160 910 259 98 74 67 
161 910 259 100 76 63 
161 911 259 92 69 60 
163 908 257 153 130 108 
163 909 256 141 118 98 
163 909 257 140 115 92 
162 908 258 149 125 102 
162 908 259 144 119 96 
162 909 258 130 105 82 
163 908 258 153 129 107 
163 909 258 147 122 99 
162 910 257 102 74 65 
162 911 257 88 64 57 
163 910 256 120 97 79 
163 910 257 117 91 76 
163 911 256 95 68 53 
163 911 257 91 64 55 
162 910 258 104 79 67 
162 911 258 89 66 56 
160 908 260 135 110 87 
160 909 260 109 84 70 
160 910 260 97 72 64 
160 911 260 94 72 60 
160 911 261 95 72 59 
165 907 257 145 120 94 
164 906 259 130 104 75 
164 907 258 148 124 99 
164 907 259 142 117 91 
165 906 259 121 96 67 
165 907 258 141 117 93 
165 907 259 128 104 76 
167 905 259 88 68 49 
166 907 257 133 110 89 
166 906 259 105 83 59 
166 907 258 123 100 77 
166 907 259 112 89 63 
167 906 259 91 71 51 
167 907 258 99 79 62 
167 907 259 103 82 62 
164 905 260 123 98 67 
164 905 261 112 89 62 
165 905 261 103 82 60 
164 905 262 108 84 57 
164 905 263 101 79 53 
165 904 263 93 73 57 
165 905 262 102 80 58 
165 905 263 97 76 54 
164 906 260 131 105 76 
164 907 260 137 111 80 
165 906 260 112 90 65 
165 906 261 103 82 60 
166 905 261 96 75 57 
167 904 260 90 71 51 
167 904 261 91 73 54 
167 905 260 90 70 49 
167 905 261 92 73 53 
166 904 262 91 72 58 
166 904 263 92 72 59 
166 905 262 97 78 61 
166 905 263 96 76 58 
167 904 262 91 73 55 
166 906 260 100 79 57 
166 906 261 96 76 55 
167 906 260 92 71 51 
164 908 256 152 128 105 
164 908 257 153 130 108 
164 909 256 148 124 103 
165 908 256 151 127 105 
165 908 257 149 125 104 
164 908 258 155 131 110 
164 910 256 129 106 88 
164 911 256 98 72 54 
166 908 256 146 120 98 
166 908 257 132 106 84 
167 908 256 130 106 79 
167 908 257 117 94 74 
160 904 264 124 94 59 
160 904 265 120 90 59 
161 904 264 119 90 59 
161 904 265 119 89 61 
162 904 264 114 89 59 
162 904 265 115 88 60 
163 904 264 107 84 60 
163 904 265 107 82 62 
164 904 264 102 80 62 
164 904 265 101 78 62 
165 904 264 95 74 58 
170 899 259 73 60 49 
171 898 259 66 54 45 
171 899 258 67 53 45 
171 899 259 68 54 44 
168 897 263 76 62 48 
169 896 263 68 57 46 
169 897 262 73 61 49 
169 897 263 73 61 50 
169 898 261 77 64 52 
169 899 260 79 65 53 
169 899 261 78 64 51 
168 898 263 77 63 48 
168 899 262 79 64 51 
168 899 263 80 65 51 
169 898 262 77 64 51 
169 899 262 77 63 50 
170 897 260 68 56 45 
170 897 261 68 56 45 
171 896 260 66 52 45 
171 896 261 66 52 45 
171 897 260 66 53 43 
171 897 261 65 52 43 
170 896 262 64 53 43 
170 896 263 66 55 44 
170 897 262 68 57 46 
171 896 262 64 52 43 
170 898 260 72 60 48 
170 898 261 75 62 51 
170 899 260 76 63 51 
171 898 260 67 54 43 
169 900 259 78 61 48 
169 901 259 76 58 45 
169 903 257 72 55 46 
168 902 259 77 59 49 
168 903 259 78 59 47 
169 902 258 74 56 48 
169 902 259 75 57 47 
169 903 258 73 55 48 
169 903 259 75 56 48 
171 900 257 63 51 41 
171 901 256 68 55 45 
171 901 257 73 60 51 
170 900 259 78 63 53 
170 901 258 79 64 53 
170 901 259 77 60 47 
171 900 258 72 58 50 
171 900 259 71 58 49 
171 901 258 79 65 56 
170 902 257 75 59 48 
170 903 257 72 56 44 
171 902 256 76 63 54 
171 902 257 78 64 54 
171 903 256 73 58 47 
170 902 258 76 59 48 
170 903 258 73 55 45 
168 900 261 78 60 48 
168 901 260 78 60 46 
168 901 261 80 61 50 
169 900 260 78 61 49 
169 900 261 79 62 50 
169 901 260 77 58 45 
168 900 262 80 62 49 
168 901 262 81 63 48 
168 902 260 79 62 48 
168 902 261 80 63 50 
168 903 260 80 62 51 
168 903 261 83 64 53 
170 900 260 78 63 53 
173 897 257 71 58 48 
172 897 258 66 53 39 
172 897 259 66 53 40 
173 896 258 72 59 50 
173 896 259 71 58 49 
173 897 258 70 56 46 
173 897 259 69 56 45 
172 899 257 65 52 42 
173 898 256 68 55 43 
173 898 257 67 54 42 
173 899 256 67 54 45 
173 899 257 65 53 42 
172 898 258 66 53 44 
172 898 259 65 53 44 
172 899 258 65 53 43 
174 896 257 67 54 44 
174 897 256 68 55 45 
174 897 257 71 58 48 
175 896 256 66 54 42 
175 896 257 65 52 41 
175 897 256 65 51 39 
174 896 258 68 55 45 
174 898 256 69 56 45 
172 896 260 69 56 47 
172 897 260 65 52 41 
172 900 256 62 50 40 
172 900 257 62 50 40 
172 901 256 61 49 38 
172 901 257 63 52 42 
173 900 256 65 53 44 
172 902 256 69 55 45 
168 896 264 72 58 48 
168 896 265 73 59 48 
168 897 264 76 62 48 
168 897 265 76 61 48 
169 896 264 69 56 46 
169 896 265 69 56 45 
168 896 266 74 60 47 
168 896 267 75 61 46 
169 904 257 83 65 54 
169 905 257 93 74 62 
168 904 258 85 68 55 
168 904 259 88 69 55 
168 905 258 92 73 58 
168 905 259 90 71 53 
169 904 258 81 63 53 
169 905 258 92 74 59 
168 906 257 86 68 52 
168 907 257 92 73 60 
169 906 257 88 69 53 
169 907 256 87 69 54 
169 907 257 87 69 53 
168 906 258 88 69 52 
168 906 259 92 73 56 
168 907 258 91 72 56 
170 904 256 72 54 44 
170 904 257 74 55 45 
170 905 256 85 66 53 
171 904 256 70 54 44 
170 906 256 87 67 50 
170 907 256 84 65 48 
168 904 260 89 70 54 
168 904 261 86 67 52 
168 905 260 89 70 49 
168 908 256 101 79 63 
168 908 257 95 73 60 
169 908 256 94 72 63 
160 899 272 104 75 56 
160 899 273 103 74 56 
161 898 273 92 73 51 
161 899 272 97 73 51 
161 899 273 94 73 52 
160 898 275 95 72 52 
160 899 274 101 75 56 
160 899 275 98 74 54 
161 898 274 94 74 53 
161 898 275 97 76 52 
161 899 274 93 73 54 
163 897 273 95 75 51 
162 897 274 97 76 53 
162 897 275 99 78 54 
163 896 274 98 78 53 
163 896 275 102 81 56 
163 897 274 97 77 53 
163 897 275 101 80 55 
162 898 272 96 74 51 
162 898 273 96 75 51 
162 899 272 91 72 50 
163 898 272 95 75 51 
163 898 273 96 75 50 
162 898 274 95 74 52 
162 898 275 98 76 53 
160 897 277 105 77 50 
161 896 277 110 83 54 
161 897 276 103 79 54 
161 897 277 108 81 53 
160 896 278 113 81 48 
160 896 279 115 79 46 
160 897 278 111 77 46 
160 897 279 116 76 42 
161 896 278 113 84 52 
161 896 279 114 84 52 
160 898 276 98 74 51 
160 898 277 102 74 49 
160 899 276 100 73 51 
161 898 276 99 76 53 
162 896 276 104 82 56 
162 896 277 109 84 57 
162 897 276 103 79 55 
163 896 276 105 83 57 
162 896 278 114 87 56 
160 900 272 108 77 59 
160 900 273 111 76 58 
164 896 272 90 72 50 
164 896 273 93 74 51 
164 897 272 91 73 51 
164 897 273 94 75 52 
165 896 272 88 70 51 
165 896 273 91 73 52 
164 896 274 95 76 52 
164 896 275 100 79 55 
164 898 272 92 73 50 
160 896 280 119 72 35 
161 912 258 89 71 57 
161 912 259 89 72 59 
161 913 258 90 73 61 
161 913 259 90 73 61 
161 914 258 93 75 64 
161 914 259 90 73 58 
161 915 259 89 71 56 
162 912 257 85 66 55 
162 913 257 88 70 60 
163 912 256 82 58 48 
163 912 257 84 64 52 
163 913 256 82 64 52 
163 913 257 86 69 56 
162 912 258 88 68 57 
162 913 258 89 71 61 
162 914 257 92 73 60 
162 915 257 93 74 58 
163 914 256 84 65 56 
163 914 257 88 71 58 
163 915 256 86 68 55 
163 915 257 91 73 58 
162 914 258 92 74 61 
162 915 258 90 72 57 
160 912 260 91 72 59 
160 912 261 93 72 58 
160 913 260 91 74 61 
160 913 261 94 76 62 
161 913 260 89 73 62 
160 914 260 92 75 62 
160 914 261 92 75 62 
160 915 260 88 71 57 
160 915 261 90 73 61 
161 914 260 91 74 61 
161 915 260 88 69 56 
160 914 262 92 74 61 
160 915 262 89 71 60 
161 916 259 86 68 54 
161 917 259 84 67 55 
161 918 259 85 67 58 
161 919 259 83 64 55 
162 916 257 89 70 56 
162 917 257 83 65 52 
163 916 256 90 71 57 
163 916 257 90 71 56 
163 917 256 87 67 54 
163 917 257 85 66 54 
162 916 258 87 69 55 
162 916 259 85 67 55 
162 917 258 85 67 54 
162 917 259 86 68 56 
162 918 257 82 61 52 
162 919 257 79 60 49 
163 918 256 84 63 52 
163 918 257 82 61 51 
163 919 256 80 61 47 
163 919 257 78 59 46 
162 918 258 82 63 55 
162 918 259 84 66 56 
162 919 258 80 61 52 
160 916 261 90 71 61 
160 917 261 89 70 61 
161 916 260 88 70 58 
161 917 260 86 67 56 
160 916 262 88 69 59 
160 917 262 89 70 63 
160 918 261 90 72 65 
160 919 261 90 71 65 
161 918 260 87 67 58 
161 919 260 88 69 61 
160 918 262 89 70 65 
160 919 262 89 72 64 
164 915 256 87 69 56 
164 916 256 88 70 57 
164 917 256 88 69 56 
164 919 256 80 61 49 
161 920 259 79 61 51 
161 921 259 80 64 53 
160 922 259 96 79 66 
161 922 259 87 71 59 
161 923 258 84 68 57 
161 923 259 91 74 60 
162 920 257 75 58 46 
162 921 257 74 59 49 
163 920 256 77 58 43 
163 920 257 76 59 45 
163 921 257 74 57 46 
162 920 258 77 60 49 
162 921 258 76 61 50 
162 922 257 76 61 53 
162 923 257 78 63 56 
163 922 257 74 57 48 
163 923 257 74 57 49 
162 922 258 77 62 53 
162 923 258 80 65 58 
160 920 260 86 66 59 
160 920 261 92 74 66 
160 921 260 93 76 66 
160 921 261 96 77 67 
161 920 260 87 66 60 
161 921 260 88 71 60 
160 922 260 97 78 64 
160 922 261 97 78 65 
160 923 260 92 72 58 
161 922 260 95 79 68 
160 924 259 90 71 56 
160 925 259 89 72 60 
161 924 258 86 69 57 
161 924 259 89 70 57 
161 925 258 88 70 59 
161 925 259 90 71 59 
161 927 257 87 70 56 
160 926 259 90 71 60 
160 927 258 84 64 50 
160 927 259 87 67 55 
161 926 258 87 68 55 
161 927 258 86 67 54 
162 924 257 80 64 56 
162 925 257 83 67 57 
163 924 256 73 56 49 
163 924 257 74 59 51 
163 925 256 74 59 48 
162 925 258 86 69 59 
162 926 257 85 68 55 
162 927 257 85 68 56 
163 926 256 75 60 49 
163 927 256 81 66 53 
162 926 258 85 67 55 
162 927 258 85 67 52 
160 924 260 93 74 60 
164 920 256 79 60 46 
164 921 256 77 59 45 
164 922 256 76 57 44 
164 923 256 74 55 43 
164 924 256 74 58 48 
164 925 256 74 59 48 
164 926 256 74 60 49 
164 927 256 75 60 49 
176 896 256 71 58 47 
160 928 259 88 73 62 
160 929 259 91 75 64 
161 928 258 86 69 56 
161 929 258 88 72 61 
161 929 259 88 72 61 
160 930 259 92 74 61 
161 930 258 88 72 58 
161 930 259 91 75 61 
161 931 259 98 83 72 
162 928 257 84 67 55 
162 929 257 84 69 59 
163 928 256 83 68 57 
163 928 257 86 70 61 
163 929 256 85 72 62 
163 929 257 84 70 60 
162 928 258 85 68 55 
162 929 258 87 71 60 
163 930 257 83 68 57 
163 931 257 88 74 64 
162 930 258 86 72 60 
162 931 258 95 80 69 
162 931 259 96 81 70 
163 930 258 83 68 57 
163 931 258 89 75 66 
160 930 260 92 75 61 
160 931 260 97 79 67 
160 931 261 90 70 57 
161 932 259 90 74 62 
162 932 259 88 71 59 
163 932 258 86 70 60 
163 932 259 86 68 58 
163 933 259 82 64 53 
160 932 260 88 70 56 
160 932 261 77 59 44 
160 933 261 76 59 47 
161 932 260 81 65 51 
161 932 261 77 61 47 
161 933 261 78 62 52 
160 932 262 77 58 43 
160 933 262 79 63 51 
161 934 261 76 60 48 
160 934 262 81 64 50 
160 934 263 86 68 52 
160 935 263 85 66 47 
161 934 262 78 60 47 
161 935 262 79 61 48 
161 935 263 77 58 41 
162 932 260 77 59 46 
162 933 260 73 57 44 
162 933 261 75 59 49 
163 933 260 72 55 41 
162 934 261 75 59 48 
163 934 260 68 52 39 
163 934 261 69 53 40 
163 935 261 72 55 45 
162 934 262 76 60 48 
162 935 262 78 61 50 
163 935 262 77 61 51 
164 928 256 78 64 54 
164 929 256 81 68 58 
165 929 256 80 65 56 
164 930 256 81 66 57 
164 930 257 85 70 60 
164 931 257 86 70 62 
165 930 256 78 61 52 
165 931 256 77 60 49 
165 931 257 79 62 52 
166 930 256 80 61 48 
166 931 256 81 62 47 
167 931 256 90 71 54 
164 932 257 82 66 55 
165 932 257 78 62 49 
164 932 258 82 65 55 
164 933 258 87 70 61 
164 933 259 86 69 60 
165 932 258 82 65 51 
165 933 258 86 69 56 
165 933 259 90 73 60 
164 934 259 87 69 57 
165 934 259 89 72 58 
165 935 259 86 69 57 
166 932 257 76 57 41 
166 933 257 74 54 39 
167 932 256 87 68 51 
167 932 257 78 57 41 
167 933 256 90 69 53 
167 933 257 78 56 40 
166 933 258 79 60 46 
167 933 258 75 55 43 
167 934 257 76 53 37 
166 934 258 84 66 52 
166 934 259 90 72 59 
166 935 259 89 71 59 
167 934 258 78 58 45 
167 935 258 81 63 47 
167 935 259 86 67 52 
164 934 260 75 58 47 
164 935 260 74 57 46 
164 935 261 72 55 45 
165 935 260 80 63 51 
160 935 264 89 70 48 
160 936 263 83 63 41 
161 936 263 76 57 37 
161 937 263 80 61 40 
161 938 263 86 67 46 
162 936 262 76 59 47 
162 936 263 70 52 36 
162 937 263 68 48 29 
163 936 262 79 63 53 
163 937 262 77 61 50 
163 937 263 71 54 39 
162 938 263 75 55 36 
162 939 263 87 67 49 
163 938 262 71 53 41 
163 938 263 65 44 27 
163 939 263 69 47 29 
163 940 263 78 56 35 
163 941 263 90 67 43 
166 936 259 88 70 57 
167 936 259 89 71 55 
167 937 259 91 72 56 
164 936 261 75 58 45 
164 937 261 80 62 47 
165 936 260 76 58 45 
165 936 261 75 55 41 
165 937 260 75 55 41 
165 937 261 76 56 41 
164 936 262 81 64 54 
164 937 262 82 66 54 
165 938 261 79 59 42 
165 939 261 81 62 45 
164 938 262 82 65 52 
164 939 262 81 64 50 
164 939 263 66 44 29 
165 939 262 88 70 56 
166 936 260 83 65 52 
166 937 260 80 61 47 
167 937 260 91 72 58 
166 938 260 78 58 43 
166 938 261 76 55 38 
166 939 261 80 59 43 
167 938 260 91 73 57 
167 939 260 85 65 49 
164 940 262 81 62 47 
164 940 263 69 46 27 
164 941 263 77 55 32 
165 940 262 89 71 57 
165 941 262 94 77 62 
165 941 263 88 69 52 
164 942 263 82 55 28 
164 943 263 91 63 35 
165 942 262 98 79 62 
165 942 263 88 65 42 
165 943 263 90 62 36 
166 940 261 79 58 41 
166 941 261 79 60 42 
167 940 260 79 56 36 
167 940 261 76 54 38 
167 941 261 74 54 40 
166 940 262 83 64 46 
166 941 262 86 68 51 
167 942 261 75 57 43 
166 942 262 96 78 61 
166 943 262 101 81 63 
166 943 263 97 73 50 
167 942 262 79 61 46 
167 943 262 89 69 51 
160 936 264 92 72 50 
160 937 264 99 79 58 
161 937 264 91 72 52 
160 938 264 104 82 57 
160 938 265 110 86 62 
160 939 264 112 88 61 
160 939 265 118 93 67 
161 938 264 97 77 56 
161 939 264 108 86 63 
162 939 264 101 80 60 
160 940 265 123 97 71 
160 941 265 127 101 76 
161 940 264 115 90 64 
161 940 265 117 90 61 
161 941 264 119 91 63 
161 941 265 122 95 68 
160 940 266 126 100 72 
160 941 266 128 101 75 
161 942 265 131 103 75 
161 943 265 139 108 74 
160 942 266 133 104 73 
160 942 267 143 113 84 
160 943 266 143 113 82 
160 943 267 141 109 76 
161 942 266 133 104 71 
161 943 266 142 111 78 
162 940 264 110 88 66 
162 941 264 119 94 68 
163 940 264 94 72 51 
163 941 264 109 86 64 
162 942 264 123 96 68 
162 942 265 126 96 62 
162 943 265 133 102 66 
163 942 264 120 94 70 
163 943 264 130 101 72 
163 943 265 131 100 63 
160 943 268 134 101 71 
164 942 264 102 78 54 
164 943 264 115 89 64 
168 932 256 95 75 59 
168 933 256 96 75 57 
168 933 257 95 73 55 
169 933 256 93 70 46 
168 934 257 91 68 46 
168 935 257 90 67 45 
169 934 256 93 70 46 
169 934 257 95 73 51 
169 935 257 99 76 56 
168 934 258 79 57 39 
168 935 258 83 61 39 
170 933 256 95 72 50 
170 934 256 94 71 49 
170 935 256 95 72 52 
170 935 257 96 73 52 
171 934 256 95 72 53 
171 935 256 97 73 55 
169 936 257 102 78 57 
168 936 258 81 60 39 
168 936 259 85 65 48 
168 937 259 89 69 52 
169 936 258 91 66 47 
169 937 258 93 67 46 
169 937 259 83 59 42 
168 938 259 93 74 57 
168 939 259 96 77 62 
169 938 258 90 62 38 
169 938 259 86 62 42 
169 939 259 87 63 43 
170 936 257 99 75 53 
171 936 256 96 74 55 
171 936 257 94 71 48 
171 937 257 96 72 46 
170 936 258 104 79 58 
170 937 258 106 82 62 
171 937 258 105 81 58 
170 938 258 104 78 56 
170 939 258 106 79 56 
170 939 259 93 64 39 
171 938 258 109 85 61 
171 939 258 113 89 64 
171 939 259 106 80 55 
168 939 260 94 75 59 
169 940 259 89 66 48 
170 940 259 85 55 31 
170 941 259 87 57 33 
171 940 259 104 75 48 
171 941 259 93 62 33 
171 942 259 88 53 25 
168 940 260 89 68 53 
168 941 260 85 64 48 
168 941 261 79 58 42 
169 940 260 94 74 59 
169 941 260 93 73 57 
168 942 261 76 55 42 
168 943 261 80 58 46 
169 942 260 93 72 57 
169 942 261 83 61 48 
169 943 260 97 76 59 
169 943 261 85 61 44 
168 943 262 81 59 45 
170 941 260 89 64 43 
170 942 260 95 73 52 
170 943 260 103 81 63 
170 943 261 98 73 54 
171 942 260 88 58 34 
171 943 260 93 68 49 
172 936 256 95 71 50 
172 936 257 92 70 50 
172 937 256 95 72 49 
172 937 257 92 69 45 
173 936 256 95 67 40 
173 937 256 97 70 43 
172 938 257 90 67 40 
173 938 256 96 70 45 
173 938 257 93 68 43 
173 939 257 95 68 46 
172 938 258 98 74 47 
172 939 258 107 83 56 
173 939 258 98 73 49 
174 937 256 103 79 59 
174 938 256 102 78 58 
174 939 256 100 75 53 
174 939 257 98 71 48 
175 938 256 96 72 49 
175 939 256 99 74 51 
175 939 257 101 75 50 
172 940 258 114 89 65 
172 940 259 116 90 66 
172 941 259 112 87 62 
173 940 258 103 77 52 
173 941 258 110 84 59 
173 941 259 114 90 64 
172 942 259 100 71 46 
172 943 259 93 60 34 
173 942 258 115 90 63 
173 942 259 117 92 65 
173 943 259 115 88 61 
174 940 257 100 73 50 
174 941 257 99 72 48 
175 940 257 101 76 49 
175 941 257 103 77 53 
174 940 258 99 72 49 
174 941 258 98 71 44 
175 942 257 109 80 58 
174 942 258 104 76 50 
174 943 258 112 85 57 
174 943 259 120 94 64 
175 942 258 102 73 50 
175 943 258 102 71 45 
172 943 260 86 50 29 
165 944 263 96 67 38 
166 944 263 99 74 46 
166 945 263 104 76 44 
167 944 262 101 80 58 
167 944 263 108 85 61 
167 945 262 110 88 65 
167 945 263 110 86 60 
166 946 263 106 77 42 
167 946 263 112 86 57 
167 947 263 115 85 48 
160 944 267 137 104 68 
161 944 266 149 118 89 
161 944 267 146 114 82 
161 945 267 147 115 83 
162 944 265 142 110 77 
163 944 265 136 105 71 
163 945 265 142 110 73 
162 944 266 151 120 90 
162 945 266 161 129 99 
162 945 267 153 120 89 
163 945 266 151 119 85 
162 946 267 153 119 86 
163 946 266 165 132 99 
163 946 267 159 124 90 
163 947 267 154 119 85 
160 944 268 124 93 66 
160 944 269 112 82 61 
160 945 268 110 78 50 
160 945 269 120 90 70 
161 944 268 135 104 78 
161 945 268 123 91 64 
160 945 270 127 96 67 
160 946 269 132 103 78 
161 946 268 110 76 53 
161 946 269 128 99 74 
161 947 269 135 106 77 
160 946 270 126 92 57 
160 946 271 144 109 80 
160 947 271 162 130 104 
161 946 270 128 96 60 
161 947 270 133 100 63 
161 947 271 153 121 92 
162 946 268 128 96 72 
162 947 268 118 86 61 
162 947 269 136 109 81 
163 947 268 135 104 80 
163 948 267 149 114 84 
161 948 270 138 103 66 
161 948 271 168 135 105 
162 948 268 129 102 78 
162 948 269 144 115 85 
163 948 268 132 102 78 
163 948 269 145 117 89 
163 949 268 134 106 81 
163 949 269 147 116 89 
162 948 270 140 105 70 
162 948 271 162 127 96 
162 949 270 145 106 76 
162 949 271 172 137 104 
163 949 270 145 108 81 
163 950 269 149 118 93 
162 950 271 174 140 107 
163 950 270 150 114 88 
163 950 271 176 144 116 
163 951 270 153 117 90 
163 951 271 175 141 110 
164 944 264 129 102 76 
164 944 265 141 111 81 
164 945 264 145 116 90 
164 945 265 148 117 85 
165 944 264 107 78 49 
165 945 264 121 91 61 
164 946 265 155 122 88 
164 947 265 160 126 87 
165 946 264 138 108 76 
165 946 265 154 122 91 
165 947 264 148 116 81 
165 947 265 159 126 88 
164 946 266 162 128 93 
164 947 266 169 135 99 
166 946 264 117 86 50 
166 947 264 137 104 65 
167 947 264 120 89 48 
165 948 265 164 128 88 
164 948 266 172 137 100 
164 948 267 159 123 88 
164 949 267 156 120 86 
165 948 266 170 133 93 
165 949 266 173 137 99 
165 949 267 163 127 89 
164 950 267 146 111 79 
165 950 266 175 140 102 
165 950 267 157 122 87 
165 951 267 153 119 86 
166 948 264 152 117 77 
166 948 265 160 125 84 
166 949 265 168 132 92 
167 948 264 135 103 66 
167 949 264 149 115 75 
167 949 265 160 123 78 
166 950 265 176 139 99 
167 950 265 166 129 86 
167 951 265 173 136 94 
166 950 266 175 139 99 
166 951 266 178 141 102 
166 951 267 164 129 95 
167 951 266 179 142 102 
164 949 268 133 100 74 
164 950 268 132 102 77 
164 950 269 140 110 82 
164 951 268 127 97 69 
164 951 269 142 110 81 
165 951 268 131 101 73 
164 951 270 149 113 86 
163 952 271 171 134 102 
166 952 266 176 141 105 
166 952 267 157 123 90 
167 952 266 179 143 105 
167 952 267 175 139 103 
167 953 267 162 128 93 
164 952 269 142 108 79 
165 952 268 126 91 62 
165 952 269 137 102 73 
165 953 268 124 85 58 
165 953 269 137 101 72 
164 952 270 158 121 91 
164 952 271 170 134 101 
164 953 270 165 127 95 
164 953 271 166 128 93 
165 953 270 159 121 88 
165 954 269 138 102 69 
164 954 271 159 119 81 
165 954 270 154 117 85 
165 954 271 158 119 83 
165 955 270 151 114 86 
165 955 271 147 109 74 
166 952 268 132 98 69 
166 953 268 131 96 67 
167 953 268 143 110 77 
166 954 268 127 91 62 
166 954 269 131 94 65 
166 955 269 130 94 67 
167 954 268 139 106 75 
167 955 269 125 91 63 
166 955 270 141 104 79 
166 955 271 143 104 73 
169 944 261 84 59 41 
169 945 261 92 68 52 
168 944 262 93 72 55 
168 945 262 107 84 63 
169 944 262 90 71 55 
169 945 262 96 76 58 
168 946 262 111 87 61 
168 946 263 118 94 70 
168 947 263 122 97 70 
169 946 262 99 77 55 
169 947 262 100 76 53 
169 947 263 112 87 61 
170 944 261 97 70 50 
170 945 261 90 60 40 
171 944 260 103 81 63 
171 944 261 104 81 64 
171 945 261 101 77 55 
170 946 261 93 66 47 
171 946 261 97 69 41 
171 947 261 102 74 47 
170 946 262 96 72 56 
170 947 262 92 66 48 
171 947 262 98 70 48 
168 948 263 128 101 72 
169 948 263 119 95 71 
169 949 263 127 102 75 
169 950 263 127 102 75 
170 948 262 90 63 47 
170 948 263 101 78 62 
170 949 263 101 77 58 
171 948 262 90 58 36 
171 949 262 91 64 41 
171 949 263 95 72 51 
170 950 263 105 79 50 
170 951 263 109 85 57 
171 950 263 88 62 40 
171 951 263 92 66 44 
173 944 259 111 80 54 
173 945 259 107 73 45 
174 944 259 122 95 65 
174 945 259 121 92 66 
175 944 258 108 79 46 
175 945 258 111 83 50 
175 945 259 119 92 61 
174 946 259 120 91 67 
175 946 259 121 93 64 
175 947 259 122 92 64 
172 944 260 93 66 44 
172 945 260 100 75 53 
172 945 261 104 81 59 
173 944 260 89 49 26 
173 945 260 92 53 30 
172 946 260 105 81 58 
172 946 261 106 80 55 
172 947 261 109 82 56 
173 946 260 94 62 39 
173 947 260 97 67 45 
173 947 261 107 82 61 
172 947 262 109 80 56 
174 946 260 103 67 42 
174 947 260 96 55 32 
175 947 260 116 83 56 
173 948 261 109 83 59 
173 949 261 109 82 56 
172 948 262 104 75 49 
172 949 262 96 65 41 
173 948 262 111 83 60 
173 949 262 107 77 53 
172 950 262 101 73 57 
172 950 263 97 70 55 
172 951 263 87 60 46 
173 950 262 107 77 53 
173 951 262 106 77 54 
173 951 263 95 65 43 
174 948 260 98 58 32 
174 948 261 107 75 53 
174 949 261 113 84 62 
175 948 260 108 70 41 
175 949 260 107 69 38 
175 949 261 105 67 38 
174 950 261 116 87 64 
175 950 261 114 82 57 
174 950 262 114 85 61 
174 951 262 113 84 61 
175 951 262 119 91 71 
168 948 264 129 98 62 
168 949 264 136 104 69 
168 950 264 148 115 78 
168 951 264 156 121 84 
168 951 265 167 130 91 
169 950 264 136 107 78 
169 951 264 146 114 79 
169 951 265 164 129 89 
170 951 264 131 105 78 
171 952 263 95 71 51 
172 952 263 88 64 53 
172 953 263 82 57 40 
173 952 263 95 66 50 
173 953 263 96 72 57 
174 952 262 100 71 47 
174 952 263 95 66 46 
174 953 263 97 71 54 
175 952 262 111 81 61 
175 952 263 100 69 45 
175 953 263 100 69 46 
168 952 265 172 134 95 
169 952 264 154 121 82 
169 952 265 165 131 92 
169 953 265 167 131 93 
168 952 266 176 139 100 
168 953 266 174 137 98 
168 953 267 171 135 100 
169 953 266 170 132 93 
168 954 266 172 136 99 
168 954 267 166 130 94 
169 954 266 169 132 96 
170 952 264 145 115 82 
170 953 264 150 118 84 
170 953 265 156 122 87 
171 952 264 116 91 64 
171 953 264 137 108 78 
172 952 264 92 68 47 
172 953 264 103 77 52 
160 946 272 165 134 106 
160 947 272 158 122 91 
160 948 272 153 117 84 
160 948 273 145 108 75 
160 949 273 161 127 94 
161 948 272 157 120 83 
161 949 272 154 118 80 
161 949 273 157 122 84 
160 948 274 167 137 104 
160 949 274 174 143 112 
160 949 275 137 103 72 
161 950 272 150 115 75 
161 950 273 171 136 96 
161 951 273 190 155 120 
160 950 274 156 126 96 
160 950 275 123 91 71 
160 951 275 116 85 73 
161 950 274 172 140 110 
161 951 274 161 129 99 
161 951 275 117 85 71 
162 949 272 166 130 88 
162 950 272 162 128 91 
162 950 273 151 116 76 
162 951 272 161 125 88 
162 951 273 168 131 91 
163 951 272 167 130 94 
160 950 276 124 90 68 
160 951 276 133 102 75 
160 951 277 140 106 81 
160 951 278 125 97 71 
161 952 274 136 103 76 
161 952 275 104 70 60 
162 952 273 180 145 108 
163 952 272 164 127 91 
163 952 273 173 136 99 
163 953 272 163 126 90 
163 953 273 173 136 103 
162 952 274 146 112 81 
162 952 275 97 63 50 
162 953 274 117 82 56 
162 953 275 102 71 56 
163 953 274 126 89 56 
163 954 273 157 122 93 
162 954 275 100 70 51 
163 954 274 108 75 48 
163 954 275 99 70 50 
163 955 274 100 70 44 
163 955 275 104 77 59 
160 952 276 140 108 79 
160 952 277 142 108 80 
161 952 276 135 104 76 
161 952 277 146 112 82 
161 953 276 140 108 78 
161 953 277 147 115 84 
160 952 278 130 102 78 
160 952 279 107 81 62 
160 953 278 129 101 77 
160 953 279 100 73 52 
161 953 278 128 100 75 
161 954 277 148 116 83 
