ply
format ascii 1.0
comment Created by CloudCompare v2.10.1 (Zephyrus)
comment Created 1/30/20 5:16 PM
obj_info Generated by CloudCompare!
element vertex 1915
property float x
property float y
property float z
property uchar red
property uchar green
property uchar blue
end_header
235 559 204 126 142 173 
236 552 202 181 185 197 
236 552 203 184 187 198 
236 553 202 200 193 194 
236 553 203 200 193 195 
237 552 203 151 167 189 
237 553 203 189 189 197 
236 554 202 198 190 191 
236 554 203 198 191 192 
236 555 203 198 190 191 
238 552 203 95 127 167 
237 553 204 192 191 197 
236 555 204 198 190 192 
237 554 204 198 193 196 
237 555 204 199 192 195 
237 555 205 200 195 198 
238 552 204 113 137 174 
238 553 204 165 173 191 
238 553 205 175 179 192 
239 552 204 78 111 161 
239 552 205 80 110 162 
239 553 205 114 136 173 
239 553 206 102 129 169 
238 554 204 193 191 196 
238 554 205 195 194 200 
238 555 205 198 195 200 
239 554 205 173 178 193 
238 555 206 185 187 197 
239 554 206 153 166 186 
239 555 206 156 167 187 
239 555 207 126 144 176 
236 556 204 199 191 192 
236 557 204 194 190 195 
236 557 205 184 183 193 
237 556 204 200 193 196 
237 556 205 195 192 198 
237 557 205 159 167 183 
237 557 206 155 164 181 
236 558 204 177 179 190 
236 558 205 156 163 177 
236 559 205 143 152 172 
237 558 205 160 165 178 
237 558 206 167 171 184 
237 559 206 183 182 190 
238 556 205 192 192 200 
238 556 206 163 172 189 
238 557 206 142 158 179 
238 557 207 143 160 186 
239 556 207 110 135 172 
239 557 207 130 152 184 
238 558 206 174 177 188 
238 558 207 181 184 195 
238 559 206 196 192 196 
238 559 207 199 193 196 
239 558 207 179 185 199 
239 557 208 152 166 189 
238 559 208 199 192 195 
239 558 208 178 182 195 
239 559 208 184 185 195 
224 560 196 124 140 174 
224 560 197 121 138 173 
224 561 196 116 136 172 
224 561 197 117 134 170 
225 560 197 126 138 170 
225 561 197 123 135 170 
225 561 198 128 137 172 
224 562 197 122 136 170 
224 563 197 125 137 171 
224 562 198 125 136 170 
224 563 198 127 139 172 
225 562 198 129 139 172 
225 563 198 127 140 171 
225 563 199 122 137 171 
226 560 197 129 137 166 
226 560 198 139 145 169 
226 561 198 135 142 171 
226 561 199 141 148 175 
227 560 198 146 151 169 
227 560 199 165 167 179 
227 561 199 153 158 179 
226 562 198 131 140 175 
226 562 199 124 136 174 
226 563 199 111 128 169 
227 562 199 126 139 173 
224 564 198 128 138 175 
224 564 199 131 142 178 
224 565 199 127 139 178 
225 564 199 129 143 177 
225 565 199 128 143 179 
226 564 199 119 137 174 
228 560 199 186 183 189 
228 561 199 182 181 190 
226 563 200 96 119 165 
227 562 200 115 132 171 
227 563 200 83 110 159 
224 565 200 126 141 178 
225 565 200 127 144 179 
224 566 200 122 137 177 
224 567 200 122 137 178 
224 567 201 123 137 176 
225 566 200 119 136 175 
225 566 201 133 146 180 
225 567 201 140 150 183 
226 564 200 114 135 174 
226 565 200 135 152 185 
226 565 201 131 149 180 
227 564 200 87 116 159 
227 564 201 102 126 164 
227 565 201 139 155 181 
227 565 202 150 163 184 
226 566 201 142 154 182 
226 567 201 164 170 192 
226 566 202 174 179 194 
226 567 202 183 185 196 
227 566 202 177 181 194 
227 567 202 200 195 199 
227 567 203 205 197 200 
228 560 200 193 188 192 
228 561 200 174 176 189 
229 560 200 201 194 195 
229 561 200 194 191 197 
229 561 201 191 191 201 
228 562 200 121 138 168 
228 563 200 85 112 157 
228 563 201 78 110 155 
229 562 201 146 157 179 
229 563 201 99 127 162 
230 560 200 205 197 197 
230 560 201 203 197 199 
230 561 201 202 197 201 
231 560 201 200 196 201 
230 561 202 200 197 204 
231 560 202 188 190 199 
231 561 202 195 193 201 
230 562 201 176 181 197 
230 562 202 169 177 196 
230 563 202 118 142 172 
231 562 202 174 179 195 
231 562 203 158 168 188 
231 563 202 136 155 181 
231 563 203 132 151 179 
228 564 201 99 123 160 
228 565 201 130 147 171 
229 564 201 111 133 169 
228 565 202 140 154 176 
229 564 202 128 145 178 
229 565 202 132 147 173 
229 565 203 152 163 181 
228 566 202 183 186 197 
228 566 203 194 193 201 
228 567 203 204 196 199 
229 566 203 184 187 198 
229 567 203 201 196 199 
230 564 202 135 153 184 
230 564 203 135 152 186 
230 565 202 128 145 177 
230 565 203 113 135 169 
231 564 203 129 147 180 
231 565 203 128 146 184 
230 566 203 169 178 194 
229 567 204 200 194 198 
230 565 204 74 115 158 
231 564 204 123 143 180 
231 565 204 87 121 170 
230 566 204 151 166 188 
230 567 204 195 193 200 
230 567 205 197 194 201 
231 566 204 102 133 173 
231 566 205 115 142 175 
231 567 205 175 182 197 
224 568 201 124 136 176 
224 569 201 126 137 175 
225 568 201 137 146 180 
224 569 202 132 144 178 
225 568 202 147 153 182 
225 569 202 146 154 182 
224 570 202 126 142 178 
224 570 203 118 137 177 
224 571 203 128 144 184 
225 570 202 140 153 184 
225 570 203 133 149 182 
226 568 202 184 184 194 
226 568 203 201 197 201 
226 569 202 163 168 187 
226 569 203 182 184 196 
227 568 203 205 197 199 
227 569 203 204 198 201 
226 570 203 159 167 189 
224 571 204 137 153 188 
225 570 204 133 147 181 
225 571 204 126 145 181 
226 569 204 188 188 198 
227 569 204 203 197 200 
226 570 204 152 161 187 
226 571 204 111 132 172 
226 571 205 111 133 170 
227 570 204 184 185 197 
227 570 205 176 179 194 
227 571 205 132 147 178 
227 571 206 107 130 167 
224 572 204 146 161 189 
224 572 205 162 175 195 
224 573 205 168 179 199 
225 572 205 143 161 185 
224 573 206 169 181 200 
225 572 206 143 157 182 
225 573 206 154 170 193 
224 574 206 147 164 189 
224 574 207 151 166 186 
224 575 207 174 179 192 
225 574 207 155 169 190 
226 572 205 105 132 167 
226 572 206 90 115 160 
226 573 206 117 142 177 
226 573 207 113 140 175 
227 572 206 75 102 155 
227 572 207 92 114 165 
227 573 207 103 127 172 
226 574 207 137 157 184 
228 568 203 205 197 199 
228 568 204 204 196 199 
228 569 204 204 196 198 
228 569 205 205 196 197 
229 568 204 202 195 197 
229 569 204 203 195 198 
229 569 205 202 194 196 
229 569 206 201 193 196 
228 570 205 202 196 200 
228 570 206 197 195 202 
228 571 206 154 163 186 
228 571 207 131 147 175 
229 570 206 199 195 200 
229 570 207 182 184 196 
229 571 207 152 162 182 
230 568 204 200 194 197 
230 568 205 201 194 197 
230 569 205 203 195 197 
231 568 205 204 198 202 
230 569 206 200 195 199 
230 569 207 196 194 202 
231 568 206 203 198 202 
231 568 207 201 198 205 
231 569 206 204 199 203 
231 569 207 188 190 202 
230 570 206 197 194 201 
230 570 207 175 179 193 
230 571 207 144 154 172 
231 570 207 173 178 193 
228 572 207 100 122 165 
229 572 207 113 131 165 
232 560 202 152 164 183 
232 561 202 181 184 196 
232 561 203 164 171 187 
233 560 203 94 117 159 
233 561 203 124 141 169 
232 562 203 161 168 183 
232 563 203 148 162 183 
234 560 203 46 88 148 
233 561 204 107 131 164 
232 562 204 169 175 188 
232 563 204 175 180 194 
233 562 204 169 175 189 
233 563 204 194 194 204 
233 563 205 197 196 204 
234 560 204 65 99 153 
234 561 204 96 124 167 
234 561 205 119 141 174 
235 560 204 94 117 164 
235 560 205 112 129 170 
235 561 205 118 138 173 
234 562 205 181 187 201 
234 563 205 200 197 204 
235 562 205 158 169 189 
234 563 206 201 197 203 
235 562 206 170 176 192 
235 563 206 189 188 197 
232 564 204 148 160 183 
232 564 205 165 171 188 
232 565 204 99 127 174 
232 565 205 126 143 177 
233 564 205 192 191 198 
233 565 205 149 160 183 
233 564 206 193 190 196 
233 565 206 178 180 194 
232 566 205 84 121 168 
232 567 206 133 151 181 
232 567 207 119 139 172 
233 566 206 136 150 182 
233 566 207 157 165 189 
233 567 207 118 137 172 
234 564 206 202 196 200 
234 565 206 200 194 198 
234 565 207 202 196 200 
235 564 206 199 194 198 
235 564 207 198 193 196 
235 565 207 206 198 200 
234 566 207 199 196 202 
236 560 205 152 159 182 
236 560 206 171 174 189 
236 561 206 162 170 187 
237 560 206 191 189 194 
237 560 207 202 194 195 
237 561 206 186 186 195 
237 561 207 195 192 198 
236 562 206 161 169 186 
236 562 207 166 173 187 
236 563 207 167 170 183 
237 562 207 181 182 192 
238 560 207 202 194 194 
236 564 207 184 181 188 
232 568 206 184 186 198 
232 568 207 166 172 187 
232 569 207 170 176 191 
233 568 207 113 133 162 
224 575 208 196 193 199 
225 575 208 198 194 199 
225 575 209 203 195 197 
227 573 208 117 137 174 
226 574 208 170 178 196 
226 574 209 198 194 198 
226 575 208 198 195 201 
226 575 209 203 195 197 
227 574 208 161 172 191 
227 574 209 183 184 193 
226 575 210 202 194 196 
227 575 210 199 193 197 
230 571 208 152 161 177 
230 571 209 185 186 197 
231 570 208 152 161 179 
231 571 208 151 160 178 
231 571 209 187 187 197 
228 572 208 119 133 176 
228 573 208 116 133 174 
228 573 209 133 147 173 
229 572 208 139 149 178 
229 573 208 129 141 176 
229 573 209 140 151 175 
228 574 209 164 170 185 
229 574 209 140 152 174 
228 574 210 176 178 188 
228 575 210 191 188 194 
228 575 211 194 189 192 
229 574 210 170 174 188 
229 574 211 174 176 188 
229 575 211 185 183 191 
230 572 208 161 168 185 
230 572 209 177 178 190 
230 573 209 154 161 177 
231 572 209 187 185 192 
230 573 210 172 174 187 
230 573 211 180 180 189 
231 572 210 191 187 192 
231 573 210 184 183 191 
231 573 211 191 188 194 
230 574 210 175 178 192 
230 574 211 180 180 192 
229 575 212 181 179 186 
229 575 213 170 175 188 
231 573 212 195 190 194 
230 574 212 178 178 188 
230 575 212 171 171 183 
230 575 213 157 165 183 
231 574 212 191 187 194 
231 574 213 182 180 190 
231 575 213 165 171 187 
230 575 214 144 160 184 
231 575 214 145 163 188 
231 575 215 119 148 183 
233 567 208 123 136 165 
235 565 208 204 196 198 
234 566 208 181 182 195 
234 567 208 161 165 183 
235 566 208 202 196 201 
235 566 209 200 196 202 
235 567 209 174 174 186 
237 561 208 201 194 196 
236 563 208 155 158 171 
237 562 208 189 187 195 
237 563 208 173 173 184 
238 560 208 199 192 195 
238 561 208 200 193 195 
239 560 208 189 187 193 
239 560 209 180 181 192 
239 561 209 188 186 193 
238 562 208 198 192 196 
238 562 209 197 192 197 
238 563 208 188 185 193 
238 563 209 194 190 197 
239 562 209 191 188 195 
239 562 210 175 177 188 
239 563 210 184 183 191 
239 563 211 164 170 185 
236 564 208 184 181 188 
236 565 208 195 190 195 
236 565 209 191 189 198 
237 564 208 167 167 178 
237 564 209 175 176 186 
237 565 209 177 179 191 
237 565 210 162 168 184 
236 566 209 189 190 199 
236 567 209 170 174 188 
236 566 210 165 171 187 
236 567 210 160 166 180 
237 566 210 156 165 181 
237 566 211 155 161 177 
237 567 210 159 164 178 
237 567 211 175 176 187 
238 564 209 184 183 193 
238 564 210 178 180 192 
238 565 210 150 159 178 
238 565 211 140 153 176 
239 564 210 184 184 195 
239 564 211 163 171 189 
239 565 211 143 157 182 
238 566 211 152 161 181 
238 567 211 184 185 196 
239 565 212 141 154 181 
238 567 212 179 181 193 
239 566 212 152 162 184 
239 566 213 149 158 180 
239 567 212 165 171 187 
239 567 213 161 168 183 
232 569 208 162 170 186 
233 568 208 135 144 167 
233 569 208 151 159 179 
233 569 209 151 158 178 
232 570 208 157 165 182 
232 570 209 171 175 191 
232 571 209 197 193 200 
233 570 209 169 173 189 
232 571 210 202 196 200 
233 570 210 195 194 203 
233 571 210 205 198 199 
233 571 211 205 197 197 
234 568 208 140 146 169 
234 568 209 161 162 180 
234 569 209 153 160 181 
235 568 209 169 172 185 
234 569 210 166 171 186 
235 568 210 168 172 185 
235 569 210 169 173 186 
235 569 211 173 177 189 
234 570 210 188 189 200 
234 571 210 205 198 201 
234 571 211 205 197 198 
235 570 211 189 189 198 
235 571 211 200 195 200 
235 570 212 189 188 196 
235 571 212 198 193 198 
235 571 213 197 191 197 
232 572 210 201 193 196 
232 572 211 199 193 196 
232 573 211 198 192 195 
233 572 211 204 195 197 
232 573 212 200 193 195 
233 572 212 204 196 197 
233 573 212 204 195 197 
233 573 213 201 194 197 
232 574 213 190 186 192 
233 574 213 197 192 196 
232 574 214 174 177 191 
232 575 214 151 165 188 
232 575 215 122 150 184 
233 574 214 177 180 194 
233 574 215 142 160 185 
233 575 215 121 150 182 
234 572 212 204 196 197 
234 572 213 202 195 198 
234 573 213 200 194 198 
235 572 212 203 195 198 
235 572 213 199 193 198 
234 573 214 186 187 198 
235 572 214 192 190 199 
235 573 214 182 185 198 
235 573 215 142 160 184 
234 574 214 177 181 196 
234 574 215 130 154 182 
235 574 215 127 152 181 
236 568 210 181 182 193 
236 568 211 190 189 198 
236 569 210 180 181 192 
236 569 211 184 186 197 
237 568 211 191 190 200 
237 569 211 189 191 202 
237 568 212 190 190 201 
237 569 212 184 186 198 
237 569 213 176 180 195 
236 570 212 180 182 193 
236 570 213 171 174 186 
236 571 213 183 182 192 
237 570 212 176 180 192 
237 570 213 170 174 189 
236 571 214 178 180 192 
237 570 214 155 162 182 
237 571 214 153 165 187 
237 571 215 132 156 185 
238 568 212 186 187 198 
238 568 213 178 181 194 
238 569 213 173 178 194 
239 568 213 160 168 186 
238 569 214 149 161 183 
239 568 214 148 164 189 
239 569 214 145 162 187 
238 570 214 142 157 183 
238 570 215 130 154 184 
238 571 214 135 155 184 
238 571 215 131 156 186 
239 570 214 139 160 188 
239 570 215 131 156 186 
236 572 214 183 185 198 
236 572 215 153 168 192 
236 573 215 135 156 183 
237 572 214 151 168 192 
237 572 215 132 155 184 
237 573 215 128 152 181 
233 575 216 140 160 185 
233 575 217 165 172 189 
234 574 216 124 153 183 
234 575 216 135 157 183 
234 575 217 160 168 185 
235 574 216 132 156 185 
235 574 217 148 162 183 
235 575 217 153 163 182 
234 575 218 146 155 176 
235 575 218 141 151 175 
235 575 219 130 145 174 
238 571 216 142 164 192 
239 570 216 146 165 192 
239 571 216 147 166 193 
239 571 217 149 162 185 
236 573 216 134 158 187 
237 572 216 133 156 186 
237 573 216 136 158 187 
237 573 217 142 157 184 
236 574 216 139 160 187 
236 574 217 146 159 182 
237 574 217 144 157 181 
236 574 218 137 147 174 
236 575 218 139 149 176 
236 575 219 123 137 171 
237 574 218 136 146 176 
237 574 219 123 137 172 
237 575 219 122 138 173 
238 572 216 140 161 188 
238 572 217 144 158 184 
238 573 217 141 154 181 
239 572 217 142 153 178 
238 573 218 136 143 174 
238 573 219 134 145 177 
239 572 218 138 145 174 
239 573 218 136 143 175 
239 573 219 135 150 179 
238 574 218 133 141 175 
238 574 219 130 143 175 
236 575 220 128 148 178 
237 575 220 134 153 181 
237 575 221 145 163 186 
237 575 222 148 165 186 
239 573 220 136 156 182 
238 574 220 135 155 182 
238 575 220 135 156 181 
238 575 221 145 163 185 
239 574 220 138 157 183 
239 574 221 145 162 185 
238 575 222 149 165 186 
239 575 222 151 165 186 
239 575 223 151 160 177 
240 544 203 117 144 173 
240 545 203 118 141 170 
240 546 203 72 107 151 
240 544 204 126 151 179 
240 545 204 97 127 160 
241 544 204 108 139 173 
241 544 205 87 125 164 
241 545 204 72 110 150 
241 545 205 74 109 151 
240 546 204 49 88 149 
240 547 204 42 82 145 
240 547 205 51 90 144 
241 546 204 40 84 148 
241 546 205 53 89 148 
241 547 204 19 73 145 
241 547 205 36 82 144 
242 544 205 82 117 161 
242 545 205 81 112 154 
242 545 206 84 105 154 
243 544 206 101 124 168 
243 545 206 77 100 153 
242 546 205 61 89 147 
242 546 206 61 85 147 
242 547 206 58 92 144 
243 546 206 53 78 145 
243 546 207 42 75 146 
243 547 206 62 95 148 
243 547 207 59 94 151 
240 548 204 120 136 165 
240 548 205 120 137 164 
240 549 204 174 177 189 
240 549 205 185 183 189 
241 548 205 134 149 169 
241 549 205 195 191 194 
241 548 206 168 174 186 
241 549 206 197 191 191 
240 550 204 137 148 168 
240 550 205 152 158 176 
240 551 205 117 131 169 
240 551 206 159 161 180 
241 550 206 192 186 189 
241 551 206 180 178 187 
241 551 207 195 190 194 
242 548 206 151 163 180 
242 549 206 198 193 195 
242 549 207 194 193 200 
243 548 207 146 162 187 
243 549 207 176 183 198 
242 550 207 196 191 196 
242 551 207 192 190 196 
244 544 206 96 120 167 
244 544 207 83 110 163 
244 545 206 75 102 156 
244 545 207 42 79 147 
245 544 207 65 100 157 
244 546 207 27 68 144 
244 547 207 57 97 155 
244 548 207 112 138 176 
240 552 206 133 144 177 
240 553 206 114 134 172 
240 553 207 125 140 175 
241 552 206 177 175 188 
241 552 207 180 179 193 
241 553 207 157 163 185 
240 554 206 109 135 168 
240 554 207 108 127 168 
240 555 207 98 120 163 
241 554 207 128 139 175 
242 552 207 189 189 198 
240 556 207 87 119 161 
243 549 208 158 170 190 
242 551 208 178 181 194 
243 550 208 162 170 188 
243 551 208 160 169 186 
243 551 209 135 151 173 
245 544 208 64 100 157 
245 545 208 59 96 155 
244 546 208 39 82 149 
244 547 208 57 98 156 
245 546 208 65 100 158 
245 546 209 79 109 165 
245 547 208 75 111 164 
245 547 209 94 123 172 
246 544 208 89 120 166 
246 545 208 81 115 162 
246 545 209 95 125 168 
247 544 209 111 142 177 
247 545 209 109 140 176 
247 544 210 108 141 176 
247 545 210 113 147 182 
246 546 209 101 129 172 
246 547 209 105 132 176 
246 547 210 113 139 178 
247 546 210 112 141 177 
247 546 211 114 146 178 
247 547 210 116 143 178 
247 547 211 114 143 177 
244 548 208 100 133 172 
244 549 208 121 146 176 
244 549 209 110 138 169 
245 548 209 104 135 175 
245 549 209 125 148 178 
245 549 210 131 151 178 
244 550 208 133 152 176 
244 550 209 122 143 171 
244 551 209 129 146 170 
244 551 210 140 152 179 
245 550 210 133 150 175 
245 551 210 133 148 178 
245 551 211 123 140 176 
246 548 209 113 139 178 
246 548 210 117 143 179 
246 549 210 124 146 178 
246 549 211 109 138 177 
247 548 210 115 143 179 
247 548 211 110 141 179 
247 549 211 104 138 179 
246 550 210 122 144 173 
246 550 211 105 136 174 
246 551 211 106 135 175 
247 549 212 105 141 181 
246 551 212 108 142 179 
247 550 212 110 144 180 
247 551 212 123 151 183 
247 551 213 122 151 184 
241 554 208 127 137 172 
241 555 208 121 135 169 
242 552 208 178 180 193 
242 553 208 166 172 188 
242 553 209 146 159 181 
243 552 208 162 169 185 
243 552 209 138 152 173 
243 553 209 133 149 173 
243 553 210 133 149 176 
242 554 208 147 157 180 
242 554 209 140 154 179 
242 555 209 138 154 180 
243 554 209 130 148 175 
243 554 210 140 152 181 
243 555 210 139 151 179 
243 555 211 154 161 187 
240 556 208 107 130 163 
240 557 208 139 155 178 
241 556 208 121 140 169 
241 556 209 135 152 178 
241 557 209 143 156 181 
240 558 208 161 169 187 
240 558 209 153 163 184 
240 559 209 160 167 184 
241 558 209 148 159 182 
241 559 209 147 157 177 
241 558 210 155 163 184 
241 559 210 149 158 177 
242 556 209 139 155 180 
242 556 210 142 152 177 
242 557 210 150 157 179 
242 557 211 157 161 178 
243 556 210 148 154 179 
243 556 211 158 164 184 
243 557 211 159 165 182 
242 558 210 155 162 180 
242 558 211 155 161 179 
242 559 211 149 158 179 
243 558 211 158 166 185 
243 557 212 159 166 183 
243 558 212 157 166 185 
243 559 212 158 166 187 
243 559 213 149 160 182 
244 552 210 142 153 180 
244 553 210 141 154 182 
244 553 211 137 151 182 
245 552 210 133 146 179 
245 552 211 115 137 175 
245 553 211 123 142 177 
244 554 211 142 154 185 
244 555 211 147 157 184 
245 554 211 131 149 181 
245 553 212 126 150 183 
244 555 212 134 151 179 
245 554 212 127 150 181 
245 555 212 126 147 177 
245 555 213 123 147 178 
246 552 212 122 151 185 
246 552 213 129 157 189 
246 553 212 124 151 184 
246 553 213 131 159 190 
247 552 213 122 153 187 
247 553 213 123 155 188 
247 552 214 123 155 188 
247 553 214 125 155 188 
247 553 215 129 156 187 
246 554 213 133 157 187 
246 555 213 127 152 182 
246 554 214 131 156 186 
246 555 214 130 157 187 
246 555 215 131 160 193 
247 554 214 130 157 188 
247 554 215 127 156 188 
247 555 215 129 159 191 
244 556 211 153 162 183 
244 556 212 144 158 181 
244 557 212 152 163 183 
244 557 213 140 157 183 
245 556 212 129 148 176 
245 556 213 130 152 182 
245 557 213 137 157 184 
245 556 214 131 156 188 
245 557 214 130 156 186 
245 557 215 134 162 193 
244 558 212 154 164 183 
244 558 213 144 160 184 
244 559 213 144 158 182 
244 558 214 132 154 182 
244 559 214 127 151 181 
245 558 214 129 154 184 
245 558 215 134 161 191 
245 559 214 126 152 184 
245 559 215 137 162 190 
246 556 214 131 158 190 
246 556 215 130 160 194 
246 557 215 135 162 193 
247 556 215 127 158 192 
246 558 215 140 163 190 
246 559 215 148 167 192 
247 555 216 129 158 190 
246 556 216 129 159 191 
246 557 216 134 160 189 
247 556 216 132 159 189 
247 556 217 151 170 196 
247 557 216 135 161 190 
247 557 217 145 166 194 
247 557 218 156 173 197 
246 558 216 139 162 190 
246 559 216 144 166 193 
246 559 217 140 162 189 
247 558 216 137 161 190 
247 558 217 141 163 191 
247 559 217 140 162 189 
247 558 218 152 170 195 
247 558 219 158 175 200 
247 559 218 149 168 193 
247 559 219 158 174 196 
247 559 220 164 179 201 
248 544 210 126 154 183 
248 545 210 114 148 184 
248 545 211 122 152 184 
249 544 211 157 175 196 
249 545 211 141 163 190 
248 546 211 114 145 178 
248 547 211 113 144 179 
249 546 211 120 149 180 
249 545 212 154 175 199 
248 547 212 114 145 178 
249 546 212 140 164 191 
249 546 213 157 178 204 
249 547 212 127 154 184 
249 547 213 146 169 196 
250 544 212 134 160 189 
250 544 213 101 132 178 
250 545 212 152 174 200 
250 545 213 115 144 183 
251 544 213 71 102 168 
251 544 214 57 83 161 
251 545 214 24 71 156 
251 545 215 0 59 158 
250 546 213 138 164 192 
250 547 213 157 175 199 
250 546 214 93 130 167 
250 547 214 155 172 192 
251 546 214 38 91 148 
251 546 215 32 76 152 
251 547 215 146 160 185 
248 548 212 108 144 181 
248 549 212 110 147 184 
248 549 213 122 152 185 
249 548 212 117 150 183 
249 548 213 135 162 191 
249 549 213 130 157 188 
249 548 214 154 174 199 
249 549 214 149 170 197 
248 550 212 115 147 180 
248 550 213 127 153 184 
248 551 213 124 152 184 
248 551 214 127 155 189 
249 550 214 139 163 193 
249 550 215 157 176 201 
249 551 214 135 160 194 
249 551 215 143 167 197 
250 548 214 169 181 201 
250 548 215 174 182 198 
250 549 215 153 170 194 
251 548 215 186 191 204 
250 550 215 152 173 200 
252 544 214 96 114 173 
252 544 215 98 115 174 
252 545 215 51 75 164 
252 546 215 8 55 156 
251 547 216 180 189 211 
249 551 216 151 171 197 
250 549 216 112 140 170 
251 548 216 153 166 185 
251 548 217 156 174 198 
251 549 216 84 128 165 
251 549 217 125 159 194 
250 550 216 107 148 184 
250 551 216 148 172 200 
250 551 217 159 179 206 
251 550 216 87 140 182 
251 550 217 133 167 203 
250 551 218 154 175 201 
251 550 218 144 168 199 
251 551 218 147 169 198 
251 551 219 129 158 190 
251 551 220 122 156 192 
252 544 216 131 134 177 
252 545 216 99 99 167 
253 544 216 142 140 182 
253 544 217 117 119 167 
253 545 216 120 111 166 
253 545 217 130 134 171 
253 545 218 160 175 196 
252 546 216 56 66 154 
252 546 217 77 93 147 
252 547 216 153 165 198 
252 547 217 161 176 199 
253 546 217 121 133 167 
253 547 217 151 170 193 
253 546 218 155 173 196 
253 547 218 146 170 198 
253 547 219 123 155 188 
254 544 217 116 128 172 
254 544 218 135 161 188 
254 545 218 156 175 199 
254 545 219 136 163 192 
255 544 218 152 177 204 
255 544 219 140 169 200 
255 545 219 130 161 193 
254 546 218 149 170 196 
254 546 219 121 154 187 
254 547 219 119 153 186 
255 544 220 119 152 187 
255 545 220 112 146 186 
254 547 220 111 152 190 
254 547 221 109 152 190 
255 546 220 110 147 189 
255 546 221 112 146 187 
255 547 220 110 152 192 
255 547 221 95 138 181 
255 547 222 70 114 171 
252 548 217 168 185 208 
252 549 217 153 178 207 
252 548 218 153 176 204 
252 549 218 140 167 198 
252 549 219 124 154 186 
253 548 218 140 167 197 
253 548 219 118 151 186 
253 549 219 118 149 183 
252 550 218 141 167 198 
252 550 219 121 151 184 
253 548 220 121 154 189 
253 549 220 121 153 186 
253 549 221 130 158 191 
252 550 220 121 153 186 
252 550 221 131 160 192 
252 551 220 127 159 193 
252 551 221 145 169 197 
253 550 220 130 159 192 
253 550 221 135 160 189 
253 551 221 152 173 200 
252 551 222 165 181 204 
253 551 222 172 185 206 
253 551 223 157 175 202 
254 548 220 112 150 186 
254 548 221 117 154 191 
254 549 221 149 171 200 
255 548 221 106 147 185 
254 549 222 164 179 202 
255 548 222 138 163 193 
255 548 223 161 179 204 
255 549 222 175 187 206 
255 549 223 187 193 209 
254 550 221 136 157 185 
254 550 222 154 169 195 
254 550 223 154 167 193 
254 551 222 162 175 196 
254 551 223 132 153 186 
255 550 223 168 177 197 
248 552 214 122 153 186 
248 552 215 128 156 187 
248 553 215 128 156 186 
249 552 215 137 162 192 
248 553 216 142 165 192 
249 552 216 149 170 196 
249 552 217 161 178 201 
249 553 216 156 175 198 
249 553 217 159 178 203 
249 553 218 160 179 204 
248 554 216 140 164 193 
248 554 217 157 176 201 
248 555 216 142 164 191 
248 555 217 155 174 198 
249 554 217 158 177 202 
248 555 218 158 177 202 
249 554 218 157 177 203 
249 554 219 142 168 198 
249 555 218 159 179 204 
249 555 219 146 170 199 
250 552 217 159 178 203 
250 552 218 157 177 203 
250 552 219 140 167 196 
250 553 218 157 177 202 
250 553 219 136 164 193 
251 552 219 137 165 196 
250 554 219 117 150 182 
249 555 220 128 156 187 
250 553 220 132 160 192 
251 552 220 127 158 192 
251 552 221 140 163 196 
251 553 220 136 159 194 
251 553 221 136 161 193 
251 553 222 125 155 186 
250 554 220 129 158 189 
250 554 221 136 162 193 
250 555 220 127 156 186 
250 555 221 137 164 193 
251 554 221 136 163 193 
250 555 222 128 161 194 
251 554 222 127 158 191 
251 554 223 101 141 181 
251 555 222 123 157 191 
251 555 223 114 148 181 
248 556 217 157 174 198 
248 556 218 159 176 200 
248 556 219 158 178 203 
248 557 218 159 175 198 
248 557 219 159 177 202 
249 556 219 144 168 196 
248 558 219 161 178 202 
248 557 220 147 169 195 
248 557 221 145 168 196 
249 556 220 138 163 191 
249 556 221 139 164 194 
249 557 220 141 165 193 
249 557 221 139 164 192 
249 556 222 141 166 194 
249 557 222 146 167 193 
249 557 223 139 164 192 
248 558 220 155 175 200 
248 558 221 141 164 193 
248 559 220 159 177 201 
248 559 221 139 163 191 
248 558 222 134 160 189 
248 559 222 132 159 188 
249 558 222 144 167 195 
249 558 223 146 167 192 
249 559 222 143 165 191 
249 559 223 155 171 192 
250 556 222 138 165 196 
250 556 223 135 162 191 
250 557 222 142 167 195 
250 557 223 138 161 188 
251 556 223 148 168 193 
250 558 223 136 160 188 
252 552 221 142 167 198 
252 552 222 152 173 200 
252 552 223 136 160 193 
252 553 222 145 170 200 
252 553 223 102 135 179 
253 552 222 170 182 203 
253 552 223 147 166 197 
252 554 223 69 117 164 
240 560 209 168 174 188 
240 560 210 148 159 179 
240 561 210 161 169 187 
240 561 211 145 158 182 
241 560 210 142 153 175 
241 560 211 138 150 177 
241 561 211 138 151 179 
240 562 210 165 170 185 
240 562 211 152 161 184 
240 563 211 151 161 182 
241 562 211 142 153 181 
242 560 211 141 150 177 
241 561 212 134 144 175 
240 563 212 143 156 182 
241 562 212 134 145 174 
241 563 212 138 149 177 
241 563 213 139 148 177 
242 560 212 146 153 179 
242 561 212 140 148 178 
242 561 213 140 150 179 
243 560 212 152 159 181 
243 560 213 140 151 176 
243 561 213 136 149 178 
243 560 214 125 146 178 
243 561 214 130 151 180 
242 562 212 134 143 174 
242 562 213 141 151 180 
242 563 213 146 154 181 
242 562 214 139 155 182 
242 563 214 141 156 182 
243 562 214 132 154 182 
243 563 214 136 157 184 
243 563 215 140 161 189 
240 564 211 146 160 183 
240 564 212 143 156 182 
240 565 212 142 155 181 
240 565 213 143 154 181 
241 564 212 141 153 181 
241 564 213 139 148 178 
241 565 213 137 149 177 
241 565 214 136 150 178 
240 566 213 144 156 181 
240 567 213 145 158 182 
240 567 214 128 147 177 
241 566 214 132 149 179 
241 566 215 130 152 182 
241 567 214 125 146 178 
241 567 215 134 155 184 
242 564 213 138 150 177 
242 564 214 142 157 183 
242 565 214 143 158 184 
242 565 215 138 158 186 
243 564 215 137 159 187 
243 565 215 137 160 189 
242 566 214 138 155 183 
242 566 215 137 158 187 
242 567 215 137 158 186 
244 560 214 123 150 182 
244 561 214 125 152 184 
244 561 215 139 162 190 
245 560 214 125 155 187 
245 560 215 140 163 191 
245 561 215 141 164 191 
244 562 215 142 162 189 
244 563 215 149 167 193 
243 564 216 144 164 190 
243 565 216 153 169 193 
242 566 216 156 172 195 
242 567 216 156 171 194 
242 567 217 161 173 194 
243 566 216 157 171 194 
243 566 217 161 171 191 
243 567 217 159 171 191 
243 567 218 148 163 185 
245 560 216 145 166 193 
245 561 216 154 171 195 
245 561 217 162 175 195 
244 562 216 163 177 198 
244 563 216 158 172 194 
244 563 217 163 173 192 
245 562 216 166 176 195 
245 562 217 168 177 194 
245 563 217 162 172 191 
245 562 218 144 162 185 
245 563 218 138 158 183 
246 560 216 146 167 194 
246 560 217 141 163 188 
246 561 217 155 171 193 
246 560 218 138 160 187 
246 561 218 138 159 185 
246 561 219 143 163 187 
247 560 218 143 164 189 
247 560 219 151 168 190 
247 561 219 149 166 189 
246 562 218 132 155 181 
246 562 219 141 161 186 
246 563 218 127 152 180 
246 563 219 139 159 184 
247 560 220 152 170 193 
247 561 220 148 166 189 
247 561 221 144 162 186 
246 562 220 150 166 187 
246 563 220 155 168 187 
247 562 220 149 166 188 
247 562 221 148 164 186 
247 563 220 156 169 188 
247 563 221 155 168 188 
247 562 222 143 161 185 
247 563 222 148 164 186 
244 564 216 153 168 191 
244 564 217 155 166 187 
244 565 217 150 163 184 
245 564 217 135 154 178 
244 564 218 133 152 177 
244 565 218 136 156 182 
245 564 218 126 150 178 
245 564 219 134 156 182 
245 565 218 130 152 179 
245 565 219 138 158 183 
244 566 217 151 164 185 
244 566 218 139 157 182 
244 566 219 135 156 183 
244 567 218 139 156 180 
244 567 219 138 158 183 
245 566 218 134 155 181 
245 566 219 138 158 185 
246 564 219 144 161 185 
245 565 220 152 167 189 
244 567 220 145 164 189 
245 566 220 153 168 190 
245 567 220 151 168 191 
245 567 221 160 173 194 
246 564 220 156 168 188 
246 564 221 165 175 192 
246 565 220 157 169 189 
246 565 221 169 176 192 
247 564 221 162 173 192 
247 565 221 173 180 195 
247 564 222 153 166 187 
247 565 222 157 168 186 
246 566 220 160 172 192 
246 566 221 165 173 190 
246 567 221 162 172 191 
247 566 221 168 175 191 
246 566 222 165 173 190 
246 567 222 160 169 187 
247 566 222 160 171 188 
247 566 223 152 166 186 
247 567 222 162 170 188 
247 567 223 157 168 187 
240 568 214 138 157 184 
240 568 215 132 155 184 
240 569 215 133 156 186 
241 568 215 134 156 185 
240 569 216 141 162 190 
241 568 216 151 168 193 
241 569 216 150 167 193 
241 569 217 148 164 188 
240 570 216 149 166 192 
240 570 217 148 162 185 
240 571 217 146 156 178 
241 570 217 146 161 184 
240 571 218 140 148 172 
241 570 218 137 150 173 
241 571 218 136 148 173 
241 571 219 132 151 179 
242 568 216 160 174 196 
242 568 217 155 169 191 
242 569 217 147 162 185 
242 568 218 146 160 183 
242 569 218 143 156 179 
243 568 218 148 162 184 
243 568 219 138 156 180 
243 569 218 148 162 184 
243 569 219 142 159 183 
242 570 218 138 152 174 
242 570 219 139 157 183 
242 571 219 132 156 184 
243 570 219 140 159 184 
243 569 220 142 161 186 
242 570 220 139 161 188 
242 571 220 139 161 188 
243 570 220 144 164 189 
243 570 221 156 170 191 
243 571 221 159 171 191 
243 571 222 174 177 189 
240 572 218 137 146 174 
240 572 219 132 151 179 
240 573 219 136 153 180 
241 572 219 131 154 183 
240 573 220 138 158 184 
240 573 221 147 164 188 
241 572 220 138 160 187 
241 573 220 143 163 188 
241 573 221 150 166 189 
241 573 222 155 167 187 
240 574 221 144 162 185 
240 574 222 149 163 183 
240 575 222 151 163 182 
240 575 223 157 164 178 
241 574 222 154 166 185 
241 574 223 165 170 182 
241 575 223 175 176 185 
242 572 220 141 162 188 
242 572 221 152 168 190 
242 573 221 155 168 189 
243 572 221 160 170 189 
242 572 222 168 174 189 
242 573 222 165 172 187 
242 573 223 169 170 182 
243 572 222 181 182 191 
243 572 223 195 190 194 
243 573 223 186 182 187 
242 574 223 172 173 183 
244 568 219 140 158 183 
244 568 220 147 165 190 
244 569 220 148 166 191 
244 569 221 158 171 192 
245 568 220 153 169 192 
245 568 221 159 172 194 
245 569 221 160 172 192 
245 568 222 165 175 193 
245 569 222 178 182 195 
244 570 221 163 174 192 
244 570 222 187 187 196 
244 571 222 192 189 194 
245 570 222 194 192 198 
245 570 223 202 194 196 
245 571 223 201 192 194 
246 568 221 162 172 191 
246 568 222 170 176 191 
246 568 223 179 182 194 
246 569 222 190 190 200 
246 569 223 195 192 199 
247 568 223 170 177 191 
247 569 223 188 188 197 
246 570 223 199 193 197 
244 572 222 197 191 195 
244 572 223 200 191 194 
244 573 223 197 190 193 
248 560 221 142 163 190 
248 561 221 140 159 183 
248 560 222 138 160 187 
248 561 222 137 158 183 
249 560 223 163 174 193 
249 561 223 164 177 197 
248 562 222 140 159 184 
248 562 223 139 159 184 
248 563 222 142 160 183 
248 563 223 132 153 178 
249 562 223 141 161 188 
249 563 223 128 149 174 
248 564 222 142 159 182 
248 564 223 127 149 176 
248 565 222 142 158 181 
248 565 223 135 154 179 
248 566 223 146 162 185 
255 549 224 198 202 214 
255 549 225 191 196 210 
254 550 224 155 169 196 
254 551 224 85 116 174 
254 551 225 69 98 171 
255 550 224 172 181 201 
255 550 225 147 160 191 
255 551 225 101 124 175 
255 550 226 122 131 178 
255 551 226 94 110 169 
255 551 227 136 140 182 
255 551 228 148 152 189 
251 555 224 172 182 201 
249 559 224 146 164 187 
250 557 224 156 170 191 
250 557 225 173 179 193 
251 556 224 187 192 205 
251 556 225 198 196 203 
251 557 224 175 182 197 
251 557 225 194 192 199 
251 556 226 199 195 199 
251 557 226 199 193 197 
250 558 224 140 160 185 
250 558 225 166 174 190 
250 559 224 140 159 184 
250 559 225 150 165 187 
251 558 225 173 178 191 
250 559 226 166 176 194 
251 558 226 194 193 201 
251 558 227 185 186 197 
251 559 226 173 180 196 
251 559 227 126 141 164 
252 553 224 50 96 158 
253 552 224 55 92 168 
253 553 224 61 100 162 
253 553 225 77 109 160 
253 553 226 168 178 196 
252 554 224 124 148 177 
252 554 225 194 197 210 
252 555 224 182 190 205 
252 555 225 200 199 208 
253 554 225 161 173 193 
252 555 226 204 199 202 
253 554 226 198 200 210 
253 554 227 198 198 208 
253 555 226 206 201 205 
253 555 227 202 200 205 
254 552 224 61 90 176 
254 552 225 55 84 167 
254 552 226 75 96 160 
254 552 227 119 130 171 
254 553 226 117 132 174 
254 553 227 165 173 195 
255 552 227 122 131 176 
254 554 227 185 188 202 
253 554 228 181 184 194 
253 555 228 173 179 192 
253 555 229 125 138 170 
254 553 228 146 154 178 
255 552 228 144 151 187 
255 552 229 148 154 189 
255 553 228 145 153 184 
255 553 229 146 149 183 
255 553 230 138 143 179 
255 553 231 125 137 174 
254 554 228 147 156 175 
254 554 229 139 142 178 
254 555 228 134 146 172 
254 555 229 132 141 175 
254 554 230 132 137 178 
254 554 231 129 138 176 
254 555 230 134 143 173 
254 555 231 131 141 171 
255 554 230 134 138 180 
255 554 231 124 134 173 
252 556 225 201 196 201 
252 556 226 202 196 199 
252 556 227 202 196 198 
252 557 227 196 193 197 
253 556 227 203 198 200 
252 558 227 174 178 191 
252 559 227 115 132 156 
252 556 228 199 195 200 
252 557 228 179 185 198 
253 556 228 179 182 193 
253 556 229 132 147 173 
253 557 228 176 184 200 
253 557 229 134 151 174 
253 556 230 130 142 167 
253 557 230 125 137 161 
253 557 231 128 137 163 
252 558 228 140 154 175 
252 558 229 122 142 167 
252 559 228 94 121 151 
252 559 229 98 123 155 
253 558 229 126 144 167 
252 559 230 89 110 152 
253 558 230 120 133 160 
253 558 231 127 136 162 
253 559 230 108 122 159 
253 559 231 114 126 159 
254 556 230 135 146 168 
254 556 231 128 139 165 
254 557 231 125 135 163 
255 553 232 130 144 174 
254 555 232 116 130 163 
255 554 232 124 138 173 
255 554 233 138 149 178 
255 555 232 117 131 168 
255 555 233 128 141 174 
255 554 234 135 146 171 
255 555 234 132 145 172 
255 555 235 129 147 174 
253 558 232 118 129 163 
253 559 232 114 126 160 
254 556 232 108 123 160 
254 556 233 113 127 165 
254 557 232 106 119 158 
254 557 233 108 123 162 
255 556 233 119 131 169 
254 557 234 117 132 164 
255 556 234 123 137 168 
255 556 235 122 141 166 
255 557 234 123 137 166 
255 557 235 119 134 159 
254 558 232 107 120 160 
254 558 233 99 116 154 
254 559 232 108 123 160 
254 559 233 100 119 153 
254 558 234 110 127 157 
254 558 235 114 130 156 
254 559 234 107 125 154 
254 559 235 117 132 158 
255 558 235 115 130 157 
255 559 235 116 131 156 
255 556 236 125 146 172 
255 556 237 118 140 167 
255 557 236 113 133 160 
255 557 237 108 129 157 
255 558 236 111 130 155 
255 558 237 113 131 154 
255 559 236 107 126 151 
255 559 237 103 122 145 
255 558 238 131 143 161 
255 559 238 133 142 157 
247 567 224 153 166 186 
240 575 224 173 174 183 
241 575 224 180 180 188 
241 575 225 175 175 185 
241 575 226 163 166 177 
241 575 227 165 168 180 
243 573 224 188 182 186 
243 573 225 183 178 185 
242 574 224 180 177 184 
242 574 225 166 166 175 
242 575 224 179 178 185 
242 575 225 169 170 179 
243 574 224 179 174 180 
243 574 225 172 170 178 
242 575 226 154 158 170 
242 575 227 154 159 172 
243 574 226 159 161 173 
243 574 227 151 156 170 
243 575 226 150 154 167 
243 575 227 147 153 168 
243 575 228 163 164 176 
243 575 229 166 167 176 
245 571 224 198 190 191 
247 568 224 164 173 189 
247 569 224 181 184 195 
247 569 225 164 171 187 
246 570 224 196 191 195 
246 570 225 191 187 193 
246 571 224 196 189 191 
246 571 225 191 186 191 
247 570 224 188 188 196 
247 570 225 176 180 191 
247 571 225 183 183 191 
246 571 226 185 184 192 
247 570 226 160 169 185 
247 570 227 149 163 183 
247 571 226 171 176 189 
247 571 227 159 168 184 
247 571 228 149 162 182 
244 572 224 197 189 191 
244 573 224 195 188 191 
244 573 225 191 185 189 
245 572 224 198 190 191 
245 572 225 197 189 191 
245 573 225 195 188 190 
244 573 226 172 172 181 
245 572 226 195 189 192 
245 573 226 184 182 189 
245 573 227 167 171 182 
244 574 226 167 168 179 
244 574 227 147 152 166 
245 574 227 140 147 160 
246 572 225 194 188 191 
246 572 226 188 185 191 
246 572 227 171 175 188 
246 573 227 173 175 187 
247 572 227 158 168 184 
245 573 228 134 143 159 
244 574 228 144 148 160 
244 575 228 166 167 178 
244 575 229 176 174 183 
245 574 228 153 157 169 
245 574 229 184 183 192 
245 575 229 183 181 187 
244 575 230 174 172 180 
244 575 231 177 174 180 
245 574 230 187 184 190 
245 575 230 183 179 185 
245 575 231 179 176 182 
246 573 228 152 161 177 
246 573 229 168 175 190 
247 572 228 153 165 183 
247 572 229 143 158 179 
247 573 229 150 163 182 
247 573 230 153 163 181 
247 573 231 154 163 179 
246 574 229 183 184 195 
246 574 230 178 179 189 
246 574 231 166 169 181 
246 575 231 180 178 185 
247 574 231 151 161 178 
245 575 232 175 173 181 
245 575 233 169 170 179 
245 575 234 166 170 182 
246 574 232 165 168 179 
246 575 232 169 170 180 
246 575 233 163 167 179 
247 574 232 152 161 178 
247 574 233 146 157 175 
247 575 233 152 160 176 
246 575 234 157 165 179 
246 575 235 153 163 180 
247 575 234 147 157 175 
247 575 235 146 159 177 
247 575 236 132 150 172 
249 560 224 161 172 191 
249 561 224 168 180 200 
249 562 224 145 165 192 
249 562 225 140 160 187 
249 563 224 115 141 171 
249 563 225 114 138 170 
250 560 224 145 162 184 
250 560 225 135 155 180 
250 561 225 146 165 189 
250 560 226 140 157 181 
250 561 226 129 151 180 
251 560 226 134 151 175 
251 560 227 114 133 160 
251 561 226 134 155 183 
251 561 227 139 156 180 
250 562 225 142 161 188 
250 563 225 132 151 179 
250 562 226 134 155 184 
250 563 226 143 159 181 
251 562 226 125 148 179 
251 562 227 128 149 177 
251 563 227 130 150 175 
251 560 228 102 126 155 
251 561 228 122 141 166 
251 562 228 131 150 175 
251 562 229 134 152 176 
251 563 228 146 162 184 
251 563 229 166 176 195 
248 565 224 129 150 175 
249 564 224 116 141 169 
249 564 225 111 136 166 
249 565 224 123 145 171 
249 565 225 136 153 176 
249 565 226 161 171 189 
248 566 224 144 161 183 
248 566 225 147 162 183 
248 567 224 147 162 184 
248 567 225 147 161 182 
249 566 225 148 161 181 
249 567 225 148 161 180 
249 566 226 161 168 182 
249 567 226 156 164 180 
249 567 227 173 177 189 
250 564 226 143 159 182 
250 564 227 145 158 178 
250 565 226 176 182 197 
250 565 227 162 169 183 
251 564 227 132 148 171 
250 566 226 173 176 188 
250 566 227 175 178 189 
250 567 227 177 180 192 
251 564 228 132 148 170 
251 564 229 163 170 185 
251 565 228 136 150 171 
251 565 229 134 148 168 
250 566 228 171 176 190 
250 567 228 175 179 191 
250 567 229 177 181 193 
251 566 228 156 166 183 
251 566 229 136 152 174 
251 567 229 158 167 184 
251 566 230 126 145 170 
251 567 230 132 150 173 
252 560 228 73 105 139 
252 560 229 41 87 130 
252 561 228 86 113 143 
252 561 229 96 124 152 
252 560 230 84 106 151 
252 561 230 120 139 168 
252 561 231 128 142 169 
253 560 230 92 107 155 
253 560 231 109 121 156 
253 561 231 115 128 155 
252 562 229 128 147 171 
252 563 229 162 172 189 
252 562 230 130 147 169 
252 562 231 116 133 156 
252 563 230 148 159 177 
252 563 231 127 142 161 
252 564 229 168 172 185 
252 564 230 185 186 196 
252 564 231 144 154 171 
252 565 230 170 173 185 
252 565 231 161 168 183 
252 566 230 138 152 172 
252 566 231 154 162 179 
252 567 230 121 142 166 
252 567 231 123 142 168 
253 560 232 114 126 156 
253 560 233 110 125 156 
253 561 232 119 130 155 
253 561 233 113 126 154 
252 563 232 103 121 146 
253 562 232 117 128 152 
253 562 233 110 123 149 
253 563 232 109 123 147 
253 563 233 113 126 148 
254 560 233 100 118 152 
254 561 233 102 118 150 
254 560 234 98 119 149 
254 560 235 112 129 155 
254 561 234 90 111 143 
254 561 235 102 120 148 
254 562 234 91 112 143 
254 562 235 100 118 145 
254 563 234 96 115 143 
254 563 235 99 118 143 
254 560 236 111 127 152 
254 561 236 110 126 151 
255 560 236 109 128 153 
255 560 237 105 123 146 
255 561 236 102 122 148 
255 561 237 102 122 146 
255 560 238 124 135 152 
255 561 238 107 123 143 
254 563 236 107 123 145 
255 562 236 102 121 145 
255 562 237 96 118 143 
255 563 236 105 122 145 
255 563 237 97 117 142 
255 562 238 106 124 146 
255 563 238 106 123 145 
253 564 232 108 122 148 
253 564 233 114 126 147 
253 565 232 108 129 156 
253 565 233 112 127 147 
253 564 234 106 122 146 
253 565 234 112 126 150 
252 566 232 121 138 163 
252 567 232 109 132 162 
253 566 232 112 130 158 
253 566 233 117 131 154 
253 567 232 103 123 154 
253 567 233 109 127 154 
253 566 234 118 132 153 
253 567 234 120 134 157 
253 567 235 118 133 155 
254 564 234 95 114 143 
254 564 235 95 113 141 
254 565 234 102 118 148 
254 565 235 98 115 146 
254 566 235 110 127 149 
254 567 235 121 136 159 
254 564 236 108 123 145 
254 565 236 107 123 147 
255 564 236 107 123 146 
255 564 237 102 120 143 
255 565 236 108 123 146 
255 565 237 105 122 145 
255 564 238 105 120 141 
255 564 239 96 111 130 
255 565 238 107 121 141 
255 565 239 108 122 141 
254 566 236 115 131 152 
254 566 237 115 132 154 
254 567 236 118 133 154 
254 567 237 118 134 155 
255 566 237 111 128 152 
255 566 238 112 127 148 
255 566 239 125 136 155 
255 567 238 118 133 154 
255 567 239 119 132 153 
248 568 224 155 167 186 
248 568 225 150 163 183 
248 569 225 153 165 184 
248 568 226 151 162 182 
248 569 226 151 163 182 
248 569 227 149 161 181 
249 568 226 154 163 181 
249 568 227 167 172 186 
249 569 227 155 164 182 
248 570 226 148 161 181 
248 570 227 147 161 183 
248 571 227 145 160 181 
249 568 228 175 179 192 
249 569 228 163 171 190 
248 570 228 137 156 180 
248 571 228 140 157 180 
248 571 229 129 149 175 
249 570 228 140 157 180 
249 570 229 116 140 167 
248 571 230 123 144 170 
249 570 230 96 121 157 
249 571 230 105 128 159 
249 571 231 106 126 153 
250 568 228 177 180 192 
250 568 229 162 170 186 
250 569 228 171 178 194 
250 569 229 138 154 177 
251 568 229 175 180 192 
250 569 230 120 139 163 
251 568 230 146 159 179 
251 569 230 130 146 169 
251 569 231 139 154 176 
250 570 230 90 115 148 
250 570 231 104 122 150 
250 571 231 122 136 160 
251 570 231 132 146 168 
248 572 229 142 158 180 
248 572 230 132 149 172 
248 572 231 130 146 168 
248 573 230 143 156 175 
248 573 231 137 153 174 
249 572 230 126 143 167 
249 572 231 129 144 168 
252 568 230 126 147 172 
252 568 231 117 142 171 
252 569 231 129 149 173 
250 571 232 147 157 175 
251 570 232 141 153 173 
251 570 233 147 158 174 
251 571 232 152 160 177 
251 571 233 145 157 175 
251 571 234 135 151 172 
248 573 232 137 152 173 
248 573 233 139 152 172 
249 572 232 139 154 174 
249 573 232 143 157 178 
249 573 233 145 157 175 
249 573 234 147 155 172 
248 574 232 141 156 177 
248 574 233 142 154 174 
248 574 234 144 156 175 
248 574 235 148 160 180 
248 575 234 141 154 173 
248 575 235 138 154 175 
249 574 234 153 161 177 
249 574 235 148 160 179 
250 572 232 136 150 170 
250 572 233 142 156 175 
250 573 233 135 149 168 
250 572 234 140 153 172 
250 573 234 142 153 171 
250 573 235 135 147 166 
251 572 234 136 152 174 
251 572 235 126 144 167 
250 574 235 151 160 178 
248 575 236 123 144 168 
248 575 237 119 141 168 
249 574 236 135 153 177 
249 574 237 99 126 155 
249 575 236 116 139 165 
249 575 237 106 131 161 
248 575 238 118 139 165 
249 575 238 113 133 161 
249 575 239 116 136 162 
250 573 236 118 135 161 
251 572 236 115 139 164 
251 572 237 108 130 158 
251 573 236 120 139 164 
251 573 237 109 130 157 
251 573 238 111 131 158 
250 574 236 124 142 166 
250 574 237 106 128 156 
250 575 237 103 127 158 
250 574 238 106 128 157 
250 574 239 108 129 158 
250 575 238 103 126 156 
250 575 239 108 128 157 
251 574 238 109 130 158 
251 574 239 110 130 157 
252 568 232 111 135 164 
252 569 232 126 146 171 
252 569 233 118 140 166 
253 568 233 102 124 153 
253 569 233 113 134 160 
253 568 234 117 130 153 
253 568 235 114 127 154 
253 569 234 120 135 158 
253 569 235 114 126 152 
252 570 232 136 151 173 
252 570 233 131 148 171 
252 570 234 122 142 166 
252 570 235 116 136 161 
252 571 234 126 145 167 
252 571 235 113 135 161 
253 570 234 126 142 166 
253 570 235 113 129 155 
254 568 235 120 133 160 
253 569 236 99 115 145 
253 569 237 92 114 142 
252 571 236 106 128 156 
253 570 236 93 113 146 
253 570 237 90 113 143 
253 571 236 99 121 154 
253 571 237 95 118 149 
253 570 238 107 126 153 
253 571 238 98 120 148 
253 571 239 110 128 155 
254 568 236 111 123 149 
254 568 237 117 130 152 
254 569 236 98 112 139 
254 569 237 106 123 145 
254 568 238 120 133 154 
254 569 238 111 127 151 
254 569 239 109 125 150 
255 568 238 118 132 154 
255 568 239 117 131 155 
255 569 239 109 123 151 
254 570 238 110 128 155 
254 570 239 108 125 151 
254 571 239 106 124 151 
252 572 235 124 144 169 
252 572 236 116 139 165 
252 572 237 111 136 162 
252 573 237 112 132 159 
252 572 238 110 131 158 
252 573 238 112 132 158 
252 573 239 111 131 157 
253 572 238 103 126 154 
253 572 239 107 126 153 
253 573 239 111 130 157 
255 567 240 97 113 137 
249 575 240 115 134 161 
249 575 241 107 128 156 
249 575 242 103 126 154 
250 575 240 108 127 157 
250 575 241 108 128 155 
251 574 240 108 128 154 
251 574 241 115 132 154 
251 575 240 107 126 153 
251 575 241 112 130 154 
250 575 242 107 129 156 
250 575 243 111 133 160 
251 575 242 116 135 159 
251 575 243 121 140 164 
250 575 244 121 141 165 
251 575 244 126 144 167 
251 575 245 120 139 164 
255 568 240 111 123 151 
255 569 240 104 120 147 
255 569 241 121 133 156 
254 570 240 102 120 147 
254 571 240 104 121 148 
255 570 240 106 122 147 
255 570 241 123 135 155 
255 571 241 115 129 151 
255 570 242 136 143 159 
255 571 242 137 143 159 
252 573 240 107 129 155 
253 572 240 106 123 151 
253 573 240 106 126 152 
253 573 241 115 132 155 
252 574 240 106 128 155 
252 574 241 110 129 153 
253 574 241 113 131 153 
252 574 242 124 139 160 
252 574 243 131 145 164 
252 575 243 130 145 167 
253 574 242 129 141 158 
253 574 243 135 146 163 
254 572 240 107 123 151 
254 572 241 118 131 153 
254 573 241 120 133 155 
255 572 241 127 137 156 
254 573 242 136 144 158 
254 573 243 142 147 159 
255 572 242 139 145 159 
255 572 243 137 141 155 
255 573 242 137 144 157 
254 574 243 139 146 160 
252 575 244 128 146 167 
252 575 245 120 139 163 
253 574 244 128 140 158 
253 575 244 127 143 162 
253 575 245 117 135 156 
252 575 246 117 137 162 
252 575 247 122 141 166 
253 575 246 114 133 155 
253 575 247 119 137 160 
254 573 244 135 142 156 
255 572 244 135 140 154 
255 573 244 126 134 150 
255 573 245 115 127 146 
254 574 244 126 137 153 
254 574 245 115 130 149 
255 574 244 123 133 149 
255 574 245 113 127 147 
254 574 246 113 130 151 
254 575 246 114 132 152 
