ply
format ascii 1.0
comment Created by CloudCompare v2.10.1 (Zephyrus)
comment Created 1/31/20 10:54 AM
obj_info Generated by CloudCompare!
element vertex 2069
property float x
property float y
property float z
property uchar red
property uchar green
property uchar blue
end_header
169 352 340 81 65 87 
169 353 340 85 87 107 
169 354 340 95 114 134 
169 355 340 96 122 146 
169 355 341 92 120 147 
168 356 336 99 102 108 
168 357 336 94 97 103 
169 356 336 108 112 119 
169 356 337 117 123 133 
169 357 336 105 107 114 
169 357 337 116 119 128 
169 356 338 124 133 147 
169 356 339 116 131 150 
169 357 338 131 137 149 
169 357 339 129 139 154 
168 358 336 87 91 100 
168 359 336 76 82 91 
168 359 337 93 99 108 
169 358 337 108 113 122 
169 359 337 107 112 122 
169 358 338 129 135 146 
169 358 339 137 144 156 
169 359 338 123 129 139 
169 359 339 132 138 150 
168 357 341 114 133 155 
169 356 340 107 129 151 
169 356 341 100 125 150 
169 357 340 121 136 154 
169 357 341 116 133 153 
168 359 341 92 98 109 
169 358 340 133 141 155 
169 358 341 125 134 149 
169 359 340 129 135 146 
169 359 341 114 118 127 
168 360 336 67 74 83 
168 360 337 89 95 105 
168 361 336 72 75 84 
168 361 337 78 85 95 
169 360 337 105 110 120 
168 361 338 99 105 115 
169 360 338 116 122 134 
169 360 339 126 134 146 
169 361 338 110 117 128 
169 361 339 126 134 147 
168 362 336 62 59 69 
168 362 337 76 76 88 
168 363 336 65 50 64 
168 363 337 76 66 81 
168 362 338 99 103 114 
168 363 338 99 100 110 
169 362 338 115 122 133 
169 362 339 121 130 143 
169 363 338 118 124 133 
169 363 339 127 134 146 
168 360 341 94 93 104 
168 361 341 127 120 132 
169 360 340 126 132 144 
169 360 341 117 114 125 
169 361 340 126 133 145 
169 361 341 124 121 133 
168 361 342 109 102 114 
168 362 341 126 124 133 
168 363 341 121 124 131 
169 362 340 125 132 144 
169 362 341 124 125 135 
169 363 340 125 133 145 
169 363 341 122 129 139 
168 362 342 115 104 116 
168 363 342 116 104 115 
168 364 337 78 66 79 
168 365 337 82 76 88 
168 364 338 106 109 118 
168 364 339 131 137 148 
168 365 338 105 108 117 
168 365 339 133 140 151 
169 364 339 130 137 148 
168 366 338 100 103 111 
168 366 339 128 135 145 
168 367 338 101 105 114 
168 367 339 122 128 139 
168 364 340 138 144 155 
168 364 341 133 136 144 
168 365 340 139 144 155 
168 365 341 139 142 150 
169 364 340 134 140 152 
169 364 341 129 134 144 
168 364 342 128 118 126 
168 365 342 131 123 130 
168 366 340 137 143 155 
168 366 341 137 140 147 
168 367 340 132 140 152 
168 367 341 134 138 146 
168 366 342 133 131 136 
168 367 342 128 126 132 
160 368 329 78 61 82 
160 369 329 73 68 87 
160 368 330 79 59 79 
160 369 330 69 67 85 
161 368 330 79 60 80 
161 368 331 75 65 85 
161 369 330 72 65 84 
161 369 331 70 62 82 
160 370 329 74 72 90 
160 370 330 73 67 85 
160 371 330 78 67 85 
160 371 331 77 65 83 
161 370 331 77 59 78 
161 371 331 72 64 81 
162 368 331 76 54 75 
162 369 331 75 57 77 
161 371 332 63 64 79 
162 368 332 71 52 75 
162 369 332 78 54 73 
163 368 332 67 44 69 
163 368 333 77 49 67 
163 369 333 79 52 69 
162 370 332 73 54 74 
162 370 333 68 50 72 
162 371 332 67 58 75 
162 371 333 63 52 70 
163 370 333 70 47 67 
163 371 333 63 46 68 
163 370 334 65 42 64 
163 371 334 71 51 68 
160 372 330 77 71 87 
160 372 331 73 73 88 
160 373 331 76 72 88 
161 372 331 70 69 84 
160 374 331 77 71 85 
160 375 331 70 74 88 
161 372 332 71 65 81 
161 373 332 75 65 81 
160 374 332 75 68 81 
160 375 332 74 69 82 
161 374 332 73 69 83 
161 375 332 72 72 85 
161 375 333 73 71 83 
162 372 332 71 64 80 
162 372 333 71 59 75 
162 373 333 74 63 79 
163 372 333 71 55 72 
163 373 333 73 60 76 
163 372 334 71 53 70 
163 373 334 70 58 73 
162 374 333 66 66 80 
162 375 333 63 71 83 
162 375 334 66 66 77 
163 374 334 58 61 74 
163 374 335 59 56 70 
163 375 334 72 63 73 
163 375 335 66 58 70 
164 368 333 77 51 67 
164 368 334 80 52 69 
164 369 334 74 48 68 
165 368 334 79 52 68 
165 368 335 74 48 62 
165 369 334 72 47 63 
165 369 335 71 46 58 
164 370 334 68 42 62 
164 370 335 73 48 64 
164 371 334 72 51 67 
164 371 335 70 50 66 
165 370 335 70 43 59 
165 371 335 70 47 63 
166 368 335 66 45 50 
164 372 334 70 53 69 
164 372 335 65 47 64 
164 373 335 59 49 65 
165 372 335 68 47 63 
165 373 335 60 41 59 
164 374 335 62 62 78 
164 375 335 59 49 63 
160 376 331 70 75 90 
160 377 331 69 71 87 
160 376 332 68 71 86 
160 377 332 66 68 85 
161 376 332 71 72 85 
161 376 333 72 71 83 
161 377 332 67 67 82 
161 377 333 67 68 84 
160 378 332 68 70 88 
160 378 333 68 72 87 
160 379 332 68 73 89 
160 379 333 70 73 87 
161 378 333 67 69 85 
161 379 333 70 73 87 
161 378 334 67 68 83 
161 379 334 66 69 85 
162 376 333 72 69 81 
162 376 334 69 67 79 
162 377 334 69 68 81 
162 377 335 68 70 81 
163 376 335 60 62 72 
163 377 335 65 65 75 
162 378 334 67 67 82 
162 378 335 65 62 77 
162 379 334 67 70 84 
162 379 335 65 67 81 
163 378 335 65 64 76 
163 379 335 64 65 76 
160 380 332 60 66 86 
160 380 333 64 70 85 
160 381 333 62 69 86 
161 380 333 69 74 88 
160 381 334 61 67 82 
161 380 334 65 70 85 
161 381 334 61 66 81 
161 381 335 60 63 81 
160 382 333 64 71 90 
160 383 333 67 76 94 
160 382 334 64 70 88 
160 383 334 64 72 90 
161 382 334 62 66 82 
161 382 335 61 63 79 
161 383 335 61 66 83 
162 380 335 61 65 80 
162 381 335 61 63 78 
162 382 335 59 60 75 
162 383 335 58 61 74 
164 376 335 56 54 65 
165 369 336 57 68 79 
165 370 336 60 54 68 
165 371 336 65 44 58 
166 368 336 63 46 51 
166 368 337 61 72 84 
166 369 336 62 62 72 
166 369 337 71 52 61 
167 368 337 67 66 70 
167 369 337 73 72 77 
167 368 338 83 84 91 
167 369 338 88 93 100 
167 369 339 102 110 120 
166 370 336 68 50 60 
166 370 337 69 61 70 
166 371 336 67 49 60 
166 371 337 69 62 73 
167 370 337 76 69 79 
167 371 337 74 69 79 
167 370 338 87 89 98 
167 370 339 106 112 122 
167 371 338 87 89 98 
167 371 339 105 113 124 
167 368 342 128 128 135 
167 369 342 130 131 140 
167 371 340 122 130 141 
167 370 342 126 129 138 
167 371 342 132 137 147 
165 372 336 60 42 56 
165 373 336 43 50 69 
165 373 337 60 43 58 
164 374 336 58 47 64 
164 375 336 54 43 59 
165 374 336 57 42 59 
165 374 337 57 43 57 
165 375 336 53 41 57 
165 375 337 47 53 71 
166 372 336 62 51 62 
166 372 337 70 62 72 
166 373 337 66 58 71 
166 372 338 77 80 89 
166 373 338 81 80 92 
166 373 339 94 99 112 
167 372 338 83 87 96 
167 372 339 105 112 122 
167 373 338 87 90 99 
167 373 339 104 111 122 
166 374 337 64 57 69 
166 374 338 78 75 88 
166 374 339 90 95 107 
166 375 338 70 68 82 
166 375 339 90 94 106 
167 374 339 104 109 118 
167 372 340 126 133 144 
167 372 341 137 142 154 
167 373 340 128 133 143 
167 373 341 139 144 155 
166 373 342 141 146 157 
167 372 342 139 145 156 
167 373 342 140 146 158 
166 375 340 107 113 124 
167 374 340 123 128 138 
167 374 341 134 140 150 
167 375 340 119 125 135 
167 375 341 128 134 145 
166 374 342 135 141 153 
166 375 342 125 132 144 
167 374 342 132 139 152 
167 375 342 122 131 145 
163 377 336 68 60 74 
163 378 336 61 65 73 
163 379 336 60 61 73 
162 381 336 59 63 76 
163 380 336 60 60 72 
163 380 337 51 59 74 
163 381 336 58 61 72 
163 381 337 56 58 70 
162 382 336 56 58 72 
162 383 336 56 58 73 
162 383 337 52 57 73 
163 382 336 56 55 67 
163 382 337 51 55 68 
163 383 337 51 53 67 
163 382 338 51 54 68 
163 383 338 50 55 71 
164 376 336 53 52 68 
164 377 336 51 61 83 
164 377 337 55 57 65 
165 376 337 47 49 67 
165 377 337 55 55 66 
165 376 338 62 55 70 
165 377 338 54 62 78 
164 378 336 58 62 69 
164 378 337 55 58 69 
164 379 337 57 55 68 
164 379 338 43 50 66 
165 378 338 50 58 73 
165 378 339 59 70 85 
165 379 338 46 55 69 
165 379 339 53 65 83 
166 376 338 67 70 85 
166 376 339 84 88 101 
166 377 338 60 64 78 
166 377 339 74 81 95 
166 378 339 69 81 95 
166 376 340 106 112 124 
166 377 340 105 113 126 
166 377 341 124 131 143 
167 376 340 120 126 137 
167 376 341 125 132 143 
167 377 341 124 131 143 
166 376 342 121 128 141 
166 377 342 120 129 142 
167 376 342 116 126 140 
167 377 342 120 129 143 
166 378 340 98 106 118 
166 378 341 121 129 141 
166 379 340 94 103 115 
166 379 341 123 130 142 
166 378 342 124 132 145 
166 379 342 129 136 149 
164 380 337 53 57 68 
164 381 337 47 57 76 
164 380 338 47 57 72 
164 381 338 54 59 71 
164 381 339 57 67 81 
165 380 338 42 52 71 
165 380 339 58 68 79 
165 381 339 59 70 85 
164 382 338 55 61 76 
164 382 339 53 63 78 
164 383 338 47 53 69 
164 383 339 56 64 78 
165 382 339 61 71 86 
165 380 340 75 86 100 
165 381 340 88 97 110 
164 383 340 55 69 87 
165 382 340 95 102 113 
165 382 341 124 130 140 
165 383 340 79 89 103 
165 383 341 114 120 131 
165 382 342 133 138 148 
165 383 342 127 132 144 
166 380 340 102 111 123 
166 380 341 131 137 148 
166 381 340 115 122 134 
166 381 341 130 136 147 
166 380 342 136 143 155 
166 381 342 138 143 154 
166 382 342 135 140 151 
168 368 338 98 103 111 
168 368 339 117 124 135 
168 369 338 99 105 112 
168 369 339 111 118 129 
168 370 339 112 119 131 
168 368 340 124 132 145 
168 368 341 129 136 147 
168 369 340 117 127 141 
168 369 341 126 134 147 
168 368 342 127 128 135 
168 370 340 118 127 141 
168 370 341 123 133 147 
168 371 340 125 133 145 
168 371 341 130 138 150 
157 384 319 59 81 119 
158 384 317 75 89 121 
159 384 316 58 75 119 
159 384 317 74 86 124 
159 385 316 60 74 119 
159 385 317 73 87 121 
158 384 318 69 87 120 
158 384 319 63 82 119 
158 385 318 81 95 123 
158 385 319 68 85 119 
159 385 318 81 93 119 
159 386 317 76 90 120 
158 386 319 73 88 120 
159 386 318 79 93 119 
159 386 319 78 93 120 
159 387 318 79 94 119 
159 387 319 77 92 118 
159 388 319 73 91 117 
159 389 319 63 85 113 
165 384 300 38 79 111 
165 384 301 44 86 115 
165 385 300 51 87 115 
165 385 301 49 88 117 
164 384 302 34 78 108 
164 384 303 34 75 106 
164 385 303 32 76 108 
165 384 302 42 84 113 
165 385 302 43 84 114 
165 385 303 35 77 109 
165 386 300 55 88 115 
165 386 301 49 84 113 
165 387 301 49 82 112 
164 386 303 43 79 111 
165 386 302 40 80 111 
165 386 303 39 77 110 
165 387 302 46 80 112 
165 387 303 31 71 108 
166 385 300 46 82 110 
165 388 301 39 75 108 
165 389 301 29 70 108 
165 388 302 38 75 109 
165 388 303 31 67 108 
165 389 302 26 69 108 
165 389 303 32 66 109 
165 390 301 37 72 113 
165 390 302 34 69 111 
165 390 303 36 68 111 
165 391 302 34 67 112 
165 391 303 38 69 112 
165 392 303 54 81 115 
165 393 303 62 87 116 
163 384 305 37 68 104 
163 384 306 38 67 108 
163 384 307 45 71 111 
163 385 306 37 70 110 
163 385 307 47 76 112 
163 386 307 46 76 111 
163 384 308 59 79 112 
163 384 309 70 88 115 
163 385 308 67 87 116 
163 385 309 77 93 117 
162 384 310 85 100 120 
162 384 311 91 104 124 
162 385 310 86 100 120 
162 385 311 79 94 118 
163 384 310 83 98 118 
163 385 310 83 98 117 
163 386 308 60 83 113 
163 386 309 86 100 120 
163 387 308 74 91 117 
163 387 309 101 111 126 
162 386 310 84 100 120 
162 386 311 74 91 116 
162 387 311 74 91 118 
163 386 310 82 98 116 
163 387 310 97 108 122 
163 387 311 82 98 117 
163 388 308 82 96 119 
163 388 309 101 111 125 
163 389 308 87 98 119 
163 389 309 98 108 123 
163 388 310 100 110 124 
163 388 311 84 98 121 
163 389 310 95 105 121 
163 389 311 80 96 120 
163 390 309 94 105 120 
163 390 310 87 100 118 
163 390 311 74 91 117 
163 391 310 79 95 116 
163 391 311 73 89 116 
164 384 304 35 72 104 
164 384 305 35 70 103 
164 385 304 31 72 106 
164 385 305 34 69 104 
164 385 306 37 70 108 
164 386 304 38 76 110 
164 386 305 38 74 108 
164 387 304 35 73 110 
164 387 305 39 74 110 
165 387 304 33 72 110 
164 386 306 37 72 109 
164 386 307 42 74 110 
164 387 306 35 71 109 
164 387 307 53 79 112 
164 388 304 35 72 111 
164 388 305 35 70 110 
164 389 305 41 72 112 
165 388 304 34 69 111 
165 389 304 35 66 111 
165 389 305 39 70 112 
164 388 306 43 74 112 
164 388 307 61 83 115 
164 389 306 42 73 112 
164 389 307 64 85 117 
165 390 304 38 67 112 
165 390 305 41 69 113 
165 391 304 43 71 112 
165 391 305 43 70 113 
164 390 306 40 71 112 
164 390 307 61 83 116 
164 391 306 46 74 114 
164 391 307 61 84 118 
165 391 306 44 73 114 
164 388 308 73 90 117 
164 389 308 81 95 120 
164 390 308 81 95 121 
164 390 309 91 102 123 
164 391 308 77 93 121 
164 391 309 85 98 120 
164 391 310 77 93 115 
161 384 312 81 96 116 
161 384 313 78 91 115 
161 385 313 76 89 118 
160 384 314 70 84 119 
160 384 315 59 75 118 
160 385 315 64 78 120 
161 384 314 75 87 119 
161 385 314 71 84 119 
161 386 313 70 83 118 
161 387 313 63 77 117 
160 386 315 64 78 117 
161 386 314 65 79 117 
161 386 315 62 77 116 
161 387 314 60 77 115 
161 387 315 63 80 114 
162 384 312 89 101 122 
162 385 312 80 94 119 
162 386 312 72 86 117 
162 386 313 72 84 121 
162 387 312 72 87 118 
162 387 313 61 77 115 
160 384 316 55 70 118 
160 385 316 63 77 120 
160 386 316 69 83 118 
160 386 317 73 88 118 
160 387 316 72 86 116 
160 387 317 82 95 120 
161 387 316 75 90 117 
160 387 318 81 95 120 
161 388 314 59 81 113 
161 388 315 68 88 116 
161 389 315 70 92 116 
162 388 312 69 86 118 
162 388 313 60 77 113 
162 389 312 61 81 116 
162 389 313 63 79 114 
163 389 312 63 82 116 
162 388 314 56 76 110 
162 389 314 59 79 111 
162 389 315 75 93 118 
162 390 313 64 79 114 
163 390 312 63 82 115 
163 390 313 65 80 115 
163 391 312 68 84 116 
163 391 313 69 82 117 
162 390 314 66 81 115 
162 390 315 74 92 118 
162 391 314 75 87 121 
162 391 315 74 90 120 
163 391 314 71 83 121 
160 388 317 86 100 123 
161 388 316 85 101 123 
161 388 317 87 102 125 
161 389 316 85 103 124 
161 389 317 82 100 123 
160 388 318 79 94 119 
160 388 319 71 89 115 
160 389 318 70 88 116 
160 389 319 65 85 114 
161 389 318 68 87 116 
161 390 316 73 94 119 
161 390 317 66 88 117 
161 391 317 59 84 116 
160 390 318 51 73 108 
160 390 319 53 77 110 
160 391 319 53 77 111 
161 390 318 49 74 108 
161 391 318 44 73 110 
161 391 319 50 75 111 
162 390 316 76 95 120 
162 391 316 71 91 119 
162 391 317 60 85 116 
163 392 311 74 90 118 
165 392 304 51 77 113 
165 392 305 51 76 114 
165 393 304 57 83 114 
165 393 305 55 80 112 
164 392 307 52 78 116 
164 393 307 43 72 114 
165 392 306 45 74 114 
165 393 306 43 73 114 
165 393 307 40 71 116 
165 394 304 63 87 114 
165 394 305 63 86 115 
165 395 304 62 86 113 
165 395 305 67 88 116 
164 394 307 47 73 115 
165 394 306 46 75 113 
165 394 307 46 73 117 
165 395 306 49 75 112 
165 395 307 48 72 117 
164 392 308 61 84 115 
164 392 309 72 89 115 
164 393 308 56 79 113 
164 393 309 80 95 119 
164 392 310 75 91 116 
164 392 311 77 92 118 
164 393 310 79 93 117 
164 393 311 72 88 115 
164 394 308 56 78 114 
164 394 309 73 89 115 
164 395 308 58 79 113 
164 395 309 61 82 112 
165 395 308 55 76 114 
164 394 310 84 95 115 
164 394 311 77 92 116 
164 395 310 80 93 115 
164 395 311 88 101 121 
165 396 305 63 85 116 
165 397 305 55 79 115 
165 396 306 50 76 111 
165 396 307 43 68 114 
165 397 306 48 75 114 
165 397 307 42 68 114 
165 398 306 46 73 116 
165 398 307 37 68 114 
165 399 307 35 68 113 
166 396 305 64 87 114 
166 398 306 47 75 116 
164 396 309 67 86 113 
165 396 308 49 72 112 
165 396 309 58 80 109 
165 397 308 52 73 115 
165 397 309 55 78 109 
164 396 310 85 99 121 
164 396 311 93 105 122 
164 397 310 82 96 121 
164 397 311 92 104 124 
165 396 310 76 91 118 
165 397 310 75 90 117 
165 398 308 60 78 117 
165 398 309 65 82 112 
165 399 308 56 76 115 
165 399 309 74 88 116 
164 398 311 80 96 119 
164 399 311 66 87 116 
165 398 310 72 87 116 
165 398 311 76 90 118 
165 399 310 78 92 120 
165 399 311 77 91 119 
163 392 312 69 84 115 
163 392 313 68 81 115 
163 393 312 72 85 115 
163 393 313 72 85 116 
162 392 314 70 85 120 
162 392 315 65 83 117 
162 393 315 59 79 116 
163 392 314 68 83 119 
163 392 315 65 83 118 
163 393 314 64 82 117 
163 393 315 59 78 116 
163 394 312 74 86 116 
163 394 313 71 86 115 
163 395 313 63 81 114 
162 394 315 54 75 113 
163 394 314 61 81 113 
163 394 315 57 78 113 
163 395 314 60 80 114 
163 395 315 60 78 114 
161 392 317 61 84 118 
161 392 318 58 82 118 
161 392 319 60 82 118 
161 393 318 62 85 121 
161 393 319 66 87 121 
162 392 316 61 84 116 
162 392 317 58 81 115 
162 393 316 57 80 115 
162 393 317 64 85 118 
162 393 318 67 88 121 
162 393 319 63 87 120 
162 394 316 61 81 116 
162 394 317 66 86 118 
162 395 316 65 79 117 
162 395 317 68 82 119 
163 395 316 62 77 115 
162 394 318 68 89 119 
162 394 319 66 87 119 
162 395 318 61 82 119 
162 395 319 58 80 119 
163 396 314 63 82 116 
163 396 315 58 77 114 
163 397 314 58 78 114 
163 397 315 60 77 114 
163 398 315 64 78 115 
163 399 315 63 77 112 
162 396 316 66 78 117 
162 396 317 66 80 118 
162 397 317 50 70 111 
163 396 316 62 77 115 
163 397 316 59 76 113 
163 397 317 58 74 113 
162 396 318 59 79 117 
162 396 319 54 76 119 
162 397 318 52 73 114 
162 397 319 56 78 118 
163 398 316 68 84 116 
163 398 317 68 83 117 
163 399 316 61 79 110 
163 399 317 73 89 119 
162 398 318 56 76 116 
162 398 319 56 78 117 
162 399 318 69 86 120 
162 399 319 54 78 116 
164 393 312 69 82 114 
164 394 312 77 91 117 
164 395 312 83 97 120 
164 395 313 70 87 115 
164 396 312 82 96 119 
164 396 313 68 86 114 
164 397 312 88 100 122 
164 397 313 65 82 114 
164 396 314 66 83 117 
164 397 314 61 78 114 
164 398 312 75 90 118 
164 398 313 63 78 115 
164 399 312 50 75 110 
164 399 313 49 64 111 
164 398 314 61 75 113 
164 399 314 64 74 113 
164 399 315 66 78 113 
165 400 307 32 66 112 
165 401 307 29 64 111 
165 402 307 32 64 111 
166 400 307 31 66 113 
165 400 308 52 75 114 
165 400 309 74 88 116 
165 401 308 46 72 113 
165 401 309 64 82 116 
164 400 311 61 83 116 
164 401 311 47 71 111 
165 400 310 77 92 121 
165 401 310 67 85 118 
165 402 308 43 69 113 
165 402 309 58 78 118 
165 403 308 40 67 113 
165 403 309 48 71 117 
164 402 311 45 70 112 
164 403 311 45 67 114 
165 402 310 61 81 117 
165 403 310 51 74 117 
165 403 311 43 68 114 
165 404 309 39 69 113 
165 404 310 38 66 114 
165 404 311 41 66 113 
165 405 310 42 69 115 
165 405 311 46 71 115 
165 406 310 41 69 115 
165 406 311 48 73 116 
165 407 311 47 74 116 
166 404 309 41 71 112 
166 405 309 47 74 113 
166 405 310 45 70 115 
166 406 310 40 67 114 
166 407 310 34 64 112 
166 407 311 40 70 114 
163 400 315 69 81 112 
163 401 315 70 83 113 
163 402 315 77 91 116 
163 403 315 81 95 119 
163 400 316 70 85 113 
163 400 317 72 90 118 
163 401 316 78 91 116 
163 401 317 71 89 117 
162 400 318 68 89 120 
162 400 319 55 79 118 
162 401 318 62 85 118 
162 401 319 53 78 117 
163 400 318 70 91 120 
163 401 318 68 89 118 
163 402 316 83 96 120 
163 402 317 79 95 121 
163 403 316 79 94 118 
163 403 317 73 90 117 
162 402 318 64 85 118 
162 402 319 54 78 116 
162 403 318 63 84 118 
162 403 319 56 78 116 
163 402 318 75 93 122 
163 403 318 70 88 119 
163 404 315 70 86 114 
163 405 315 72 90 117 
163 404 316 71 90 115 
163 404 317 68 87 115 
163 405 316 71 89 116 
163 405 317 70 88 116 
162 404 318 58 79 114 
162 404 319 51 73 113 
162 405 319 48 69 112 
163 404 318 64 83 115 
163 404 319 52 72 112 
163 405 318 63 81 114 
163 405 319 56 74 113 
163 406 316 64 83 112 
163 406 317 68 85 116 
163 407 316 68 86 115 
163 407 317 64 81 115 
163 406 318 59 78 114 
163 406 319 54 71 112 
163 407 318 54 74 114 
163 407 319 52 70 110 
164 400 312 53 75 113 
164 400 313 50 65 111 
164 401 312 45 69 111 
164 401 313 46 64 107 
164 400 314 63 72 112 
164 400 315 71 81 113 
164 401 314 65 76 109 
164 401 315 70 82 111 
164 402 312 53 73 114 
164 402 313 54 71 108 
164 403 312 58 75 118 
164 403 313 66 82 115 
164 402 314 66 81 109 
164 402 315 75 87 114 
164 403 314 72 87 113 
164 403 315 76 91 115 
164 404 312 52 71 115 
164 404 313 61 77 114 
164 405 312 51 71 113 
164 405 313 58 76 113 
165 404 312 47 68 114 
165 405 312 54 74 115 
164 404 314 66 84 112 
164 404 315 69 86 113 
164 405 314 65 84 114 
164 405 315 69 87 115 
164 406 313 63 79 115 
164 407 313 65 81 117 
165 406 312 56 77 117 
165 407 312 51 76 115 
165 407 313 63 81 117 
164 406 314 61 80 113 
164 406 315 60 81 112 
164 407 314 65 81 114 
164 407 315 61 82 113 
166 408 311 40 68 111 
166 409 311 41 66 109 
163 408 316 63 83 114 
163 408 317 57 78 114 
163 409 317 49 75 112 
163 408 318 51 72 115 
163 408 319 52 71 110 
163 409 318 49 73 115 
163 409 319 56 73 111 
163 410 317 48 74 112 
163 410 318 44 71 113 
163 410 319 52 73 112 
163 411 318 45 69 111 
163 411 319 50 72 111 
163 412 318 45 66 109 
163 412 319 49 70 109 
163 413 318 46 67 108 
163 413 319 49 69 108 
163 414 319 54 74 111 
163 415 319 57 78 112 
165 408 312 46 71 112 
165 408 313 53 75 114 
165 409 312 44 67 111 
165 409 313 44 69 111 
164 408 314 59 78 113 
164 408 315 59 80 114 
164 409 314 47 72 110 
164 409 315 57 80 116 
165 408 314 50 72 111 
165 409 314 46 71 110 
165 410 313 44 69 110 
165 411 313 45 70 110 
164 410 314 54 78 113 
164 410 315 63 84 118 
164 411 315 61 83 117 
165 410 314 48 72 110 
165 411 314 50 74 110 
165 411 315 53 77 111 
166 408 312 45 71 113 
166 409 312 41 66 110 
166 410 312 38 63 108 
166 410 313 48 70 111 
166 411 313 45 66 108 
166 411 314 49 71 109 
164 408 316 60 81 114 
164 409 316 54 78 113 
164 409 317 50 76 112 
164 410 316 59 81 116 
164 410 317 51 76 113 
164 411 316 67 86 120 
164 411 317 58 77 116 
164 411 318 48 70 112 
165 412 315 54 78 111 
165 413 315 63 85 113 
166 412 313 45 66 105 
166 412 314 45 67 105 
166 412 315 54 77 109 
166 413 314 49 73 106 
166 413 315 54 78 108 
167 412 314 41 65 103 
166 414 315 52 78 107 
167 414 315 47 72 103 
164 412 316 63 83 118 
164 412 317 61 79 118 
164 413 316 61 84 118 
164 413 317 56 78 117 
165 412 316 56 81 113 
165 413 316 64 87 116 
164 412 318 54 72 114 
164 413 318 52 71 112 
164 414 317 53 77 116 
165 414 316 64 87 115 
165 415 317 57 81 114 
164 414 318 52 72 112 
164 414 319 49 69 109 
164 415 318 53 73 111 
164 415 319 48 70 109 
165 415 318 58 79 116 
166 414 316 56 81 109 
166 415 316 57 82 108 
166 415 317 55 81 108 
167 415 316 58 81 107 
164 416 319 53 74 111 
164 417 319 54 75 111 
165 416 318 56 77 113 
165 417 318 49 72 110 
165 417 319 52 73 110 
165 418 319 48 72 109 
166 416 317 52 78 109 
166 417 317 48 75 109 
167 416 316 59 82 107 
167 416 317 53 77 104 
167 417 317 46 71 102 
166 417 318 46 72 108 
167 417 318 45 71 105 
166 418 318 45 71 108 
166 418 319 42 69 106 
166 419 319 43 69 105 
167 418 318 46 71 103 
167 418 319 43 69 103 
167 419 319 37 66 100 
168 419 319 43 69 97 
154 384 323 58 79 115 
154 385 323 66 82 118 
155 384 322 65 82 115 
155 384 323 66 83 117 
155 385 322 59 78 113 
155 385 323 59 76 114 
153 384 324 58 79 113 
153 384 325 65 83 115 
153 384 326 72 86 114 
154 384 324 60 80 115 
154 385 324 63 81 116 
154 385 325 60 79 115 
155 385 324 61 79 116 
154 384 326 74 88 116 
154 384 327 75 86 114 
154 385 326 73 85 117 
154 385 327 71 84 114 
154 386 325 63 80 118 
155 386 324 57 75 115 
155 386 325 58 77 116 
155 387 324 55 74 117 
155 387 325 52 72 114 
154 386 326 71 84 118 
154 386 327 68 80 115 
154 387 326 51 73 111 
154 387 327 59 75 111 
155 386 326 62 79 116 
155 387 326 47 70 111 
153 388 327 62 82 113 
153 389 327 76 92 120 
153 390 326 79 93 121 
153 390 327 79 93 120 
153 391 326 82 95 122 
153 391 327 85 97 123 
155 388 325 53 72 115 
155 389 325 51 73 113 
154 388 326 53 75 111 
154 388 327 58 78 110 
154 389 326 64 83 116 
154 389 327 69 86 118 
155 388 326 49 70 111 
155 389 326 57 78 114 
155 390 325 60 82 116 
155 391 325 67 87 118 
154 390 326 75 92 122 
154 391 326 77 92 121 
155 390 326 69 88 119 
155 391 326 69 89 119 
156 384 321 68 87 120 
156 385 321 53 75 114 
157 384 320 59 82 119 
157 384 321 53 78 115 
157 385 320 57 79 117 
157 385 321 52 75 115 
156 384 322 61 81 115 
156 385 322 54 75 112 
156 385 323 55 73 111 
157 386 321 54 76 116 
157 387 321 58 79 118 
156 386 322 52 74 111 
156 386 323 52 70 110 
156 387 323 49 70 112 
157 386 322 57 79 116 
157 387 322 54 76 115 
157 387 323 45 68 112 
158 385 320 62 81 118 
158 386 320 55 76 115 
158 386 321 41 66 112 
158 387 320 59 79 114 
158 387 321 54 75 115 
159 387 320 65 83 114 
156 386 324 55 72 115 
156 387 324 52 72 116 
156 387 325 61 77 119 
156 388 323 51 71 116 
157 388 322 54 76 116 
157 388 323 47 69 114 
157 389 322 56 76 116 
157 389 323 46 67 113 
157 390 323 51 69 114 
157 391 323 58 76 115 
158 388 321 57 79 117 
158 389 321 51 76 116 
159 388 320 64 84 114 
159 389 320 61 82 114 
159 389 321 55 77 115 
158 389 322 55 75 117 
158 390 321 50 74 116 
159 390 320 60 83 115 
159 390 321 50 74 116 
159 391 321 49 74 119 
158 390 322 52 74 117 
158 390 323 43 66 112 
158 391 322 51 73 117 
158 391 323 54 72 116 
159 390 322 52 75 119 
159 391 322 54 75 119 
156 388 324 55 74 117 
156 389 324 50 69 114 
156 389 325 46 68 112 
157 389 324 51 68 114 
156 390 324 50 70 112 
156 390 325 53 74 112 
156 391 324 65 82 115 
156 391 325 64 84 116 
157 390 324 53 71 114 
157 391 324 63 79 116 
154 384 328 78 88 113 
154 385 328 71 83 111 
155 384 328 79 89 112 
155 384 329 79 88 112 
155 385 328 69 82 110 
155 385 329 73 85 111 
155 385 330 73 83 109 
154 386 328 66 79 111 
154 387 328 64 80 112 
154 387 329 69 82 111 
155 386 328 62 76 109 
155 386 329 67 80 108 
155 387 329 69 81 110 
155 386 330 68 81 107 
155 386 331 66 80 108 
155 387 330 60 76 105 
155 387 331 66 80 107 
153 388 328 70 89 116 
153 389 328 75 92 119 
153 389 329 69 89 116 
153 390 328 79 94 119 
153 390 329 78 94 118 
153 391 328 86 99 122 
153 391 329 84 96 119 
154 388 328 56 77 108 
154 388 329 62 82 110 
154 389 329 69 89 114 
154 388 330 67 83 109 
154 389 330 69 87 110 
155 388 330 60 77 106 
155 388 331 61 78 106 
155 389 330 60 79 105 
155 389 331 69 84 108 
154 390 329 72 90 114 
154 390 330 76 91 114 
154 390 331 80 96 116 
154 391 330 79 93 116 
154 391 331 78 93 115 
155 390 331 77 93 113 
155 391 331 73 90 112 
155 390 332 75 90 111 
155 391 332 71 87 110 
156 384 329 77 87 112 
156 384 330 78 88 112 
156 385 330 79 89 111 
156 385 331 80 89 110 
157 384 330 78 89 111 
157 384 331 75 87 109 
157 385 331 76 86 107 
156 386 331 71 83 107 
156 387 331 64 78 106 
157 385 332 71 82 104 
156 387 332 66 80 107 
157 386 332 67 80 105 
157 387 332 68 81 109 
157 387 333 64 79 105 
158 384 332 71 81 102 
158 385 332 68 78 101 
158 385 333 70 79 101 
159 384 332 72 82 100 
159 384 333 70 79 98 
159 385 333 64 75 99 
159 385 334 61 73 100 
158 386 333 63 75 103 
158 387 333 69 81 104 
158 387 334 74 82 100 
159 386 334 67 75 99 
159 387 334 72 80 99 
159 387 335 73 79 96 
156 388 331 59 73 102 
156 389 331 61 77 104 
156 388 332 56 70 99 
156 389 332 62 77 103 
157 388 332 54 68 98 
157 388 333 58 72 99 
157 389 332 57 71 99 
157 389 333 61 76 103 
156 390 332 69 84 107 
156 390 333 67 82 105 
156 391 332 70 85 108 
156 391 333 71 86 108 
157 390 333 64 77 103 
157 391 333 73 86 108 
157 391 334 76 87 108 
158 388 333 63 76 101 
158 389 333 59 74 100 
158 388 334 68 79 102 
158 389 334 56 70 100 
159 388 334 66 77 99 
159 388 335 54 70 97 
159 389 335 59 71 100 
158 390 334 61 73 101 
158 391 334 76 85 107 
158 391 335 80 88 107 
159 390 335 61 71 100 
159 391 335 72 82 104 
153 392 327 91 103 126 
155 392 325 68 88 118 
154 392 326 79 94 121 
154 392 327 85 98 122 
154 393 327 89 101 123 
155 392 326 74 92 119 
155 392 327 80 95 119 
155 393 326 76 91 116 
155 393 327 82 95 118 
154 394 327 77 92 118 
155 394 326 74 88 113 
155 394 327 84 94 117 
155 395 327 78 92 118 
155 396 327 72 89 118 
158 392 323 57 76 116 
158 393 323 66 82 118 
159 392 322 53 75 118 
159 392 323 58 78 117 
159 393 322 61 80 119 
159 393 323 61 79 117 
159 394 323 63 81 116 
159 395 323 62 81 117 
156 392 325 77 94 121 
156 393 325 84 99 122 
157 392 324 74 90 120 
157 393 324 70 88 118 
157 393 325 80 96 122 
156 392 326 74 92 118 
156 393 326 75 91 116 
157 394 324 77 95 122 
157 394 325 79 98 122 
157 395 325 74 93 120 
156 394 326 79 92 118 
156 395 326 81 96 122 
156 395 327 82 96 121 
157 395 326 76 93 121 
158 392 324 68 83 118 
158 393 324 74 90 121 
158 394 324 72 90 121 
158 395 324 67 88 120 
158 395 325 71 92 121 
159 394 324 71 87 119 
159 395 324 62 82 117 
157 396 325 76 92 121 
156 396 327 78 96 122 
156 397 327 71 91 122 
157 396 326 74 92 120 
157 396 327 74 94 121 
157 397 326 72 93 122 
157 397 327 70 91 122 
157 398 327 71 92 124 
158 396 324 67 88 120 
158 396 325 73 92 121 
158 397 325 71 91 121 
159 396 324 60 80 117 
159 397 324 56 78 116 
159 397 325 60 81 115 
158 397 326 76 94 124 
158 398 325 68 88 120 
159 398 324 70 90 123 
159 398 325 64 86 118 
159 399 325 64 85 120 
158 398 326 69 90 122 
158 398 327 70 91 124 
158 399 326 65 87 121 
158 399 327 62 83 122 
159 399 326 63 84 121 
153 392 328 91 102 124 
153 392 329 90 101 122 
154 392 328 92 103 125 
154 392 329 94 105 124 
154 393 328 98 109 129 
154 393 329 91 102 124 
154 392 330 83 96 118 
154 392 331 80 94 113 
154 393 330 89 101 122 
154 393 331 93 104 124 
155 392 331 80 93 116 
155 393 331 100 111 128 
154 394 328 88 102 124 
154 394 329 93 107 127 
154 395 328 77 94 121 
154 395 329 81 98 124 
155 395 328 67 85 115 
154 394 330 88 102 124 
154 395 330 81 98 124 
154 395 331 79 95 122 
155 394 331 84 97 121 
155 395 331 83 97 120 
155 392 332 72 87 111 
155 393 332 91 102 122 
155 394 332 87 100 122 
155 395 332 85 100 126 
154 396 329 74 93 123 
155 396 328 67 87 119 
155 396 329 72 92 124 
155 397 328 65 88 121 
155 397 329 69 89 124 
154 396 330 76 95 125 
154 396 331 74 90 122 
154 397 330 72 91 125 
154 397 331 69 88 122 
155 396 331 73 88 121 
155 397 330 69 89 124 
155 397 331 64 84 120 
155 398 330 64 85 121 
155 398 331 65 85 121 
155 399 330 63 84 117 
155 399 331 71 88 118 
155 396 332 70 87 121 
155 396 333 73 88 119 
155 397 332 64 83 118 
155 397 333 67 87 118 
155 398 332 69 87 121 
155 398 333 75 91 121 
155 399 332 76 91 120 
155 399 333 79 92 121 
156 392 332 73 86 110 
156 392 333 74 86 109 
156 393 332 86 97 120 
156 393 333 79 91 116 
157 392 333 82 93 113 
157 392 334 85 96 114 
157 393 334 72 85 110 
156 394 333 80 93 118 
156 395 332 83 97 124 
156 395 333 87 99 122 
156 394 334 80 93 119 
157 394 334 74 86 111 
157 394 335 77 88 112 
157 395 334 92 103 126 
157 395 335 78 91 118 
158 392 334 88 97 114 
158 392 335 76 88 107 
158 393 335 57 74 100 
158 394 335 68 82 111 
158 395 335 81 92 117 
156 397 328 67 88 122 
156 397 329 63 86 122 
156 398 328 65 85 122 
156 398 329 60 83 120 
156 399 329 62 83 121 
157 398 328 68 86 123 
157 398 329 62 81 121 
157 399 329 60 81 119 
156 398 330 63 85 122 
156 399 330 67 87 120 
158 399 328 67 86 124 
158 399 329 63 82 121 
156 396 332 78 93 120 
156 396 333 77 92 117 
156 397 333 75 92 119 
156 396 334 76 91 119 
156 397 334 67 82 115 
157 396 334 72 87 119 
157 396 335 68 82 114 
157 397 334 69 83 114 
157 397 335 69 83 114 
156 398 333 71 87 118 
156 399 333 79 92 120 
156 398 334 76 89 118 
156 399 334 72 89 117 
157 398 334 76 89 117 
157 398 335 73 88 118 
157 399 335 82 94 118 
158 396 335 73 85 117 
159 389 336 67 77 101 
159 390 336 76 83 105 
159 391 336 68 79 102 
158 393 336 57 74 104 
159 392 336 58 72 97 
159 393 336 57 73 98 
158 394 336 65 78 108 
158 395 336 67 80 109 
159 394 336 63 77 106 
159 394 337 52 68 94 
159 395 337 60 75 102 
157 398 336 84 94 120 
157 399 336 73 86 114 
158 396 336 73 84 110 
158 397 336 66 82 112 
158 397 337 60 78 108 
159 396 337 59 75 103 
159 397 337 57 72 103 
159 397 338 53 67 97 
158 398 336 76 88 115 
158 398 337 61 74 107 
158 399 336 67 81 111 
158 399 337 64 78 111 
159 398 337 47 63 100 
159 399 337 62 74 108 
159 398 338 65 78 108 
159 399 338 78 88 113 
159 400 324 62 83 122 
159 400 325 60 80 121 
159 401 325 58 78 120 
158 400 327 52 75 118 
158 401 327 48 73 115 
159 400 326 58 79 120 
159 400 327 52 75 117 
159 401 326 58 79 120 
159 401 327 51 75 117 
159 402 325 59 80 120 
159 403 325 62 82 120 
158 402 327 69 88 122 
158 403 327 81 98 126 
159 402 326 64 82 121 
159 402 327 67 86 123 
159 403 326 73 89 123 
159 403 327 80 95 127 
159 404 325 71 90 123 
159 405 325 76 95 123 
158 404 327 84 100 126 
158 405 327 83 98 123 
159 404 326 79 96 125 
159 404 327 83 98 127 
159 405 326 82 99 125 
159 405 327 81 97 123 
159 406 326 86 102 126 
159 406 327 81 98 122 
159 407 326 85 101 125 
159 407 327 83 99 123 
155 400 331 86 97 123 
155 401 331 95 103 127 
155 402 331 93 103 128 
155 403 331 80 95 121 
155 400 332 91 101 125 
155 400 333 98 106 127 
155 401 332 96 105 128 
155 401 333 98 107 129 
155 401 334 94 106 126 
155 402 332 92 103 128 
155 402 333 92 103 127 
155 403 332 84 99 124 
155 403 333 86 101 126 
155 402 334 91 105 127 
155 403 334 85 100 125 
155 404 332 86 101 125 
155 404 333 91 104 127 
155 404 334 91 105 127 
157 400 329 61 82 118 
157 401 329 70 86 120 
156 400 330 79 94 124 
156 400 331 77 92 121 
156 401 330 85 99 126 
156 401 331 92 102 127 
157 400 330 67 87 122 
157 402 329 87 97 126 
157 403 328 90 99 127 
157 403 329 94 101 127 
156 402 330 90 101 126 
156 403 330 86 98 122 
156 403 331 79 94 119 
158 400 328 58 79 120 
158 400 329 59 79 119 
158 401 328 55 77 116 
158 401 329 56 76 115 
158 402 328 69 85 119 
158 403 328 82 97 125 
156 400 333 91 100 123 
156 400 334 90 100 122 
156 400 335 86 98 120 
156 401 334 90 103 125 
156 401 335 80 95 118 
157 400 335 81 93 116 
156 402 335 77 95 122 
156 403 334 88 104 126 
156 403 335 85 102 127 
157 404 329 92 102 126 
157 405 329 87 100 125 
156 404 330 89 101 124 
156 404 331 87 101 124 
156 405 330 95 107 129 
156 405 331 100 112 132 
157 404 330 91 102 124 
157 405 330 93 105 127 
157 405 331 98 109 130 
157 406 329 88 103 126 
157 406 330 99 109 131 
157 406 331 103 113 133 
157 407 330 102 110 133 
157 407 331 101 109 132 
158 404 328 83 97 124 
158 405 328 77 93 119 
158 405 329 81 96 121 
158 406 328 79 95 120 
158 406 329 88 101 126 
158 407 328 84 100 124 
158 407 329 92 106 130 
159 406 328 78 95 120 
159 407 328 81 98 123 
158 407 330 95 106 130 
156 404 332 89 104 128 
156 405 332 104 115 135 
156 405 333 105 114 133 
157 405 332 113 122 139 
156 404 334 92 105 126 
156 404 335 89 104 126 
156 405 334 105 114 132 
156 405 335 100 111 130 
156 406 332 108 118 136 
156 406 333 104 114 135 
156 407 332 96 108 129 
156 407 333 91 104 128 
157 407 332 92 104 127 
156 406 334 104 115 133 
156 406 335 103 114 132 
156 407 334 99 111 131 
156 407 335 89 103 128 
159 408 327 77 95 121 
159 409 327 77 94 120 
155 409 335 68 88 122 
155 410 334 70 90 124 
155 410 335 71 90 123 
155 411 334 71 92 126 
155 411 335 72 93 126 
157 408 330 91 102 129 
157 408 331 95 104 129 
157 409 331 79 93 123 
157 410 331 71 91 124 
157 411 331 72 89 127 
158 408 329 87 102 127 
158 409 329 72 90 123 
159 408 328 81 98 125 
159 409 328 64 85 118 
159 409 329 63 83 119 
158 408 330 85 98 125 
158 409 330 78 92 124 
158 409 331 75 91 122 
158 410 329 66 86 123 
158 411 329 57 79 121 
159 410 328 40 71 117 
159 410 329 45 72 119 
159 411 328 48 73 119 
159 411 329 50 74 121 
158 410 330 75 91 124 
158 410 331 73 91 124 
158 411 330 66 84 123 
158 411 331 74 89 126 
156 408 333 84 99 126 
156 409 333 74 91 124 
157 408 332 81 96 122 
157 408 333 82 97 126 
157 409 332 76 92 123 
157 409 333 76 92 124 
156 408 334 86 101 126 
156 408 335 77 94 124 
156 409 334 74 92 124 
156 409 335 69 89 121 
156 410 333 71 89 126 
156 411 333 70 89 126 
157 410 332 70 90 125 
157 410 333 73 92 126 
157 411 332 70 89 126 
157 411 333 71 89 126 
156 410 334 68 89 124 
156 410 335 69 89 122 
156 411 334 72 92 127 
156 411 335 70 93 126 
159 412 329 55 78 123 
159 413 329 58 82 124 
158 412 330 60 80 122 
158 412 331 72 87 127 
158 413 330 63 85 124 
158 413 331 67 85 125 
159 412 330 57 79 123 
159 413 330 64 86 125 
159 414 329 60 83 123 
159 415 329 61 82 123 
158 414 330 69 90 125 
158 414 331 69 88 126 
158 415 330 68 88 124 
158 415 331 67 86 125 
159 414 330 67 88 125 
159 415 330 64 86 123 
156 412 333 71 90 127 
157 412 332 72 88 127 
157 412 333 72 89 127 
157 413 332 72 89 126 
157 413 333 71 90 126 
156 412 334 71 92 128 
156 412 335 69 92 128 
156 413 334 69 88 127 
156 413 335 66 87 127 
157 413 334 70 90 127 
157 414 333 69 90 126 
157 415 333 68 90 125 
156 414 335 62 83 124 
156 415 335 63 86 124 
157 414 334 67 88 126 
157 414 335 67 86 126 
157 415 334 60 85 122 
157 415 335 68 89 126 
158 413 332 71 87 126 
158 414 332 71 89 126 
158 415 332 68 85 125 
158 415 333 68 88 125 
156 401 336 73 92 114 
157 400 336 72 86 111 
157 401 336 82 96 115 
157 401 337 82 97 116 
156 402 336 84 100 122 
156 403 336 91 104 126 
157 402 336 80 97 119 
157 402 337 84 98 119 
157 403 337 87 101 123 
158 400 337 81 93 116 
158 401 337 80 94 114 
159 400 337 86 95 117 
159 400 338 66 81 108 
159 400 339 53 72 103 
159 401 338 68 84 107 
159 401 339 63 79 105 
158 402 337 85 98 118 
158 403 337 93 104 124 
158 402 338 88 99 116 
158 403 338 93 104 123 
159 402 338 85 96 115 
159 402 339 80 93 111 
159 403 338 88 100 118 
159 403 339 73 91 116 
156 404 336 91 105 126 
156 405 336 98 111 129 
157 404 337 88 102 123 
157 405 336 93 105 126 
157 405 337 88 101 124 
156 406 336 90 104 126 
156 407 336 81 97 125 
156 407 337 72 90 121 
157 406 336 85 98 123 
157 406 337 87 102 125 
157 407 337 73 90 122 
157 406 338 74 91 121 
157 407 338 68 86 119 
158 404 337 89 102 122 
158 405 337 84 98 121 
158 404 338 80 96 119 
158 405 338 76 93 119 
158 405 339 72 91 117 
159 404 338 78 93 117 
159 404 339 68 87 115 
159 405 339 64 85 113 
158 406 338 76 93 121 
158 406 339 69 87 118 
158 407 339 71 87 118 
159 406 339 66 85 115 
159 405 340 59 81 110 
158 407 340 61 81 115 
159 406 340 64 85 114 
159 406 341 62 81 112 
159 407 340 61 81 112 
159 407 341 56 78 112 
155 410 336 68 89 122 
155 411 336 65 89 123 
156 408 336 72 90 123 
156 408 337 65 84 119 
156 409 336 67 87 121 
156 409 337 65 87 122 
157 408 337 62 83 117 
157 408 338 66 84 118 
157 408 339 57 77 113 
157 409 338 66 84 120 
157 409 339 65 82 117 
156 410 336 66 87 122 
156 410 337 68 88 124 
156 411 336 71 93 125 
156 411 337 68 91 125 
156 410 338 66 85 117 
156 411 338 72 91 123 
157 410 338 63 82 116 
157 410 339 66 86 120 
157 411 338 70 90 123 
157 411 339 69 88 122 
158 408 339 61 79 113 
158 409 339 65 84 117 
158 410 339 63 81 119 
158 411 339 60 81 121 
158 408 340 54 77 110 
158 409 340 63 83 116 
159 408 340 56 79 112 
159 409 340 60 78 114 
159 409 341 57 78 112 
158 410 340 62 80 117 
158 411 340 59 80 118 
159 410 340 56 75 113 
159 410 341 57 74 108 
159 411 340 65 83 116 
159 411 341 61 79 113 
156 412 336 70 93 128 
156 412 337 66 90 125 
156 413 336 61 87 124 
156 413 337 63 88 124 
157 412 338 71 93 126 
157 412 339 70 92 124 
157 413 338 72 94 126 
157 413 339 62 85 122 
156 414 336 62 84 124 
156 414 337 73 92 128 
156 415 336 70 91 127 
156 415 337 73 93 128 
157 414 338 71 92 126 
157 414 339 58 84 122 
157 415 338 63 88 123 
157 415 339 57 85 120 
158 412 339 59 83 122 
158 413 339 55 80 120 
158 412 340 60 84 119 
158 413 340 57 82 118 
159 412 340 65 86 118 
159 412 341 51 74 113 
159 413 340 65 85 119 
159 413 341 56 78 116 
159 413 342 71 90 121 
158 414 340 62 86 121 
158 414 341 62 86 121 
158 415 340 64 86 121 
158 415 341 64 88 122 
159 414 341 64 89 122 
159 415 341 69 92 122 
159 414 342 74 94 122 
159 415 342 60 87 117 
159 416 329 62 81 119 
159 417 329 61 80 114 
158 416 330 67 86 121 
158 416 331 69 84 123 
158 417 330 72 89 121 
158 417 331 80 91 124 
159 416 330 63 83 120 
159 417 330 69 86 117 
159 417 331 82 96 123 
159 418 329 62 79 111 
159 419 329 70 85 113 
159 418 330 71 87 115 
159 418 331 89 100 125 
159 419 330 75 90 116 
159 419 331 93 105 126 
157 416 334 61 86 122 
157 416 335 73 95 128 
157 417 335 80 99 129 
157 418 335 78 95 125 
158 416 332 66 82 123 
158 416 333 63 83 121 
158 417 332 79 89 125 
158 417 333 73 87 123 
158 416 334 68 90 124 
158 417 334 74 90 124 
158 417 335 84 98 130 
158 418 332 86 95 125 
158 418 333 79 90 123 
158 419 333 74 85 120 
159 418 332 85 95 124 
159 418 333 81 92 124 
159 419 332 84 96 124 
159 419 333 80 91 124 
158 418 334 78 87 123 
158 418 335 81 94 126 
158 419 334 77 87 121 
158 419 335 81 92 123 
156 416 336 73 95 130 
156 416 337 77 98 131 
156 417 337 77 96 130 
157 416 336 72 96 129 
157 417 336 73 97 126 
157 417 337 78 97 129 
156 416 338 65 90 125 
156 417 338 70 92 126 
157 416 338 61 89 124 
157 416 339 68 94 128 
157 417 338 68 92 126 
157 417 339 69 93 126 
157 418 336 73 92 121 
157 418 337 75 92 124 
157 419 336 82 96 125 
157 419 337 80 92 123 
156 418 338 79 96 127 
157 418 338 72 91 124 
157 418 339 68 87 122 
157 419 338 76 89 122 
157 419 339 76 89 122 
158 419 336 79 92 122 
157 416 340 63 86 123 
157 417 340 64 89 124 
157 418 340 70 88 122 
157 419 340 87 99 129 
158 416 340 68 91 125 
158 416 341 70 90 124 
158 417 340 62 85 120 
158 417 341 68 90 121 
159 416 341 69 89 122 
159 416 342 71 91 122 
159 417 342 75 91 122 
158 418 340 75 91 124 
158 418 341 78 93 125 
158 419 341 89 100 129 
158 418 342 85 97 125 
158 419 342 85 97 125 
159 418 342 84 95 124 
159 419 342 89 102 129 
160 390 320 59 82 115 
160 391 320 61 83 118 
160 391 321 51 76 119 
160 384 334 64 73 94 
160 384 335 59 68 90 
160 385 334 64 74 96 
160 385 335 60 68 89 
161 384 335 59 67 85 
161 385 335 61 68 86 
160 386 335 64 70 95 
160 387 335 64 73 99 
160 388 335 58 72 99 
160 392 320 64 84 121 
160 392 321 51 75 118 
160 393 321 50 74 118 
161 392 320 64 83 120 
161 392 321 58 80 120 
161 393 320 64 83 120 
161 393 321 55 77 118 
160 392 322 47 73 117 
160 393 322 57 79 120 
161 394 320 61 80 118 
161 394 321 53 75 117 
161 395 320 55 75 116 
161 395 321 52 74 117 
160 394 322 60 80 120 
160 394 323 67 84 121 
160 395 322 57 77 118 
160 395 323 64 82 119 
161 394 322 61 81 121 
161 395 322 61 80 121 
162 394 320 64 84 120 
162 395 320 59 78 119 
161 396 321 57 76 116 
161 397 321 62 80 117 
160 396 323 64 82 120 
160 397 323 65 85 123 
161 396 322 58 77 117 
161 397 322 58 77 114 
161 397 323 61 80 118 
161 398 321 60 79 116 
161 399 321 58 77 117 
160 398 323 63 84 123 
160 399 323 64 84 124 
161 398 322 55 75 113 
161 398 323 56 77 116 
161 399 322 53 72 113 
162 396 320 55 75 119 
162 396 321 55 74 117 
162 397 320 49 73 117 
162 397 321 54 75 116 
162 398 320 47 73 115 
162 398 321 59 79 118 
162 399 320 46 73 116 
162 399 321 61 81 118 
160 396 324 65 83 119 
160 397 324 60 81 117 
160 398 324 68 88 122 
160 399 324 69 88 124 
161 385 336 50 60 87 
160 386 336 61 69 98 
160 387 336 62 70 95 
161 386 336 59 65 90 
161 387 336 65 69 92 
161 387 337 56 60 82 
162 384 336 57 60 76 
162 384 337 51 60 79 
162 385 336 49 60 86 
162 385 337 53 61 81 
163 384 337 47 55 75 
163 384 338 50 58 78 
163 385 338 53 61 76 
163 385 339 59 68 82 
162 386 337 53 58 78 
162 387 337 57 61 83 
162 386 338 52 58 75 
162 387 338 57 62 81 
163 386 338 52 60 79 
163 386 339 56 66 84 
163 387 338 54 61 84 
163 387 339 57 64 80 
163 387 340 62 72 89 
160 388 336 58 70 95 
160 389 336 70 79 100 
161 388 336 56 64 87 
161 388 337 51 59 85 
161 389 336 62 70 92 
161 389 337 56 66 88 
161 389 338 53 64 86 
160 390 336 67 76 101 
160 390 337 49 61 89 
160 391 336 47 62 92 
160 391 337 38 56 88 
161 390 337 49 62 88 
161 391 337 59 70 96 
161 390 338 61 72 93 
161 391 338 63 72 94 
162 388 337 52 59 82 
162 388 338 54 60 81 
162 389 338 51 61 82 
162 389 339 52 63 82 
163 388 339 59 66 83 
163 389 339 55 65 82 
162 390 338 65 75 95 
162 390 339 55 67 87 
162 391 339 47 63 87 
163 388 340 66 77 94 
163 389 340 62 74 89 
163 389 341 80 90 104 
162 390 340 57 72 93 
162 391 340 51 66 86 
163 390 340 59 70 86 
163 390 341 83 92 105 
163 391 340 52 67 86 
163 391 341 76 87 102 
163 391 342 100 108 119 
164 384 339 58 67 80 
164 385 339 62 73 90 
164 384 340 66 76 91 
164 385 340 72 82 97 
164 385 341 92 102 116 
165 384 340 69 81 97 
165 384 341 108 115 128 
165 385 341 108 117 130 
165 384 342 124 131 142 
165 385 342 125 132 145 
164 386 340 67 78 96 
164 386 341 94 103 117 
164 387 340 68 79 95 
164 387 341 93 103 117 
165 386 341 112 121 134 
165 386 342 125 131 144 
165 387 342 127 133 144 
164 388 340 70 81 97 
164 388 341 95 105 118 
164 389 341 95 104 117 
164 388 342 130 135 145 
164 389 342 126 131 142 
164 390 341 100 108 120 
164 390 342 120 125 135 
164 391 342 115 120 130 
160 392 336 54 68 94 
160 392 337 62 73 97 
160 393 337 50 66 91 
160 393 338 40 60 85 
161 392 338 53 65 92 
161 392 339 42 55 84 
161 393 338 42 60 88 
161 393 339 41 58 88 
160 394 337 50 66 90 
160 395 337 52 71 102 
160 394 338 55 70 96 
160 395 338 52 71 98 
161 394 338 57 71 96 
161 394 339 46 65 91 
161 395 339 42 63 87 
162 392 339 47 59 87 
162 393 339 40 55 89 
161 394 340 42 64 90 
161 395 340 43 64 86 
162 392 340 50 63 87 
162 393 340 44 61 88 
163 392 341 67 79 98 
163 393 340 48 64 90 
163 393 341 61 76 97 
163 392 342 105 113 125 
163 393 342 90 101 116 
162 394 340 43 65 90 
162 394 341 54 74 96 
162 395 340 42 66 90 
162 395 341 57 76 95 
163 394 341 63 80 100 
163 394 342 86 99 115 
163 395 342 84 97 112 
160 396 338 58 73 98 
160 396 339 55 73 98 
160 397 338 54 72 101 
160 397 339 63 81 107 
161 396 339 46 68 94 
160 398 338 72 84 110 
160 398 339 64 80 108 
160 399 339 49 65 101 
161 396 340 50 72 97 
161 397 340 59 77 98 
161 397 341 61 77 96 
160 399 340 41 61 94 
161 398 340 56 74 97 
161 399 340 67 81 102 
161 399 341 65 79 98 
162 396 340 49 69 88 
162 396 341 60 77 95 
162 397 341 69 85 103 
162 396 342 79 91 106 
162 397 342 83 95 109 
163 396 342 92 102 116 
162 398 341 69 84 102 
162 399 341 55 72 91 
162 398 342 83 94 108 
162 399 342 69 85 102 
161 400 321 58 76 116 
161 401 321 60 76 115 
160 400 323 60 81 122 
160 401 323 57 79 121 
161 400 322 58 76 117 
161 401 322 60 78 117 
161 401 323 58 79 119 
161 402 321 53 70 112 
161 403 321 53 71 112 
160 402 323 56 80 122 
160 403 323 53 78 121 
161 402 322 60 77 117 
161 402 323 57 78 119 
161 403 322 58 76 117 
161 403 323 57 78 119 
162 400 320 47 72 115 
162 400 321 54 74 114 
162 401 320 46 70 113 
162 401 321 59 75 114 
162 402 320 46 70 114 
162 402 321 62 76 115 
162 403 320 48 70 114 
162 403 321 60 76 116 
160 400 324 63 85 123 
160 401 324 57 80 122 
160 402 324 57 80 122 
160 403 324 56 80 123 
161 404 321 55 74 115 
160 404 323 51 77 120 
160 405 323 57 80 120 
161 404 322 58 77 117 
161 404 323 51 74 117 
161 405 322 62 81 120 
161 405 323 52 75 117 
161 406 322 62 83 120 
161 406 323 58 79 118 
161 407 322 60 81 118 
161 407 323 59 79 118 
162 404 320 49 71 114 
162 404 321 54 74 116 
162 405 320 45 68 113 
162 405 321 42 69 114 
162 406 320 48 70 114 
162 406 321 44 70 115 
162 407 320 52 71 112 
162 407 321 50 73 115 
162 406 322 61 84 121 
162 407 322 58 81 119 
160 404 324 51 78 122 
160 404 325 64 86 124 
160 405 324 60 85 123 
160 405 325 69 92 124 
160 406 324 70 90 124 
160 406 325 78 97 124 
160 407 324 73 90 123 
160 407 325 79 96 123 
161 407 324 71 89 123 
160 407 326 79 96 122 
161 408 323 57 77 117 
161 409 323 59 78 117 
161 410 323 54 77 115 
161 411 323 52 77 114 
162 408 320 53 72 109 
162 408 321 53 77 114 
162 409 320 57 75 111 
162 409 321 56 78 114 
163 408 320 51 69 107 
163 409 320 53 71 108 
162 408 322 62 84 120 
162 408 323 61 82 121 
162 409 322 53 77 117 
162 410 321 63 81 118 
162 411 321 63 82 118 
163 410 320 55 73 112 
163 411 320 56 75 112 
162 410 322 54 76 116 
162 410 323 48 73 113 
162 411 322 57 79 117 
162 411 323 50 75 113 
160 408 324 76 91 122 
160 408 325 78 93 122 
160 409 325 75 91 119 
161 408 324 69 86 119 
161 409 324 70 87 119 
161 409 325 69 87 117 
160 408 326 81 97 122 
160 408 327 69 88 116 
160 409 326 83 98 124 
160 409 327 73 91 120 
161 410 324 69 86 120 
161 410 325 71 90 120 
161 411 324 63 83 117 
161 411 325 71 90 121 
160 410 326 77 95 121 
160 410 327 75 93 121 
160 411 326 75 93 121 
160 411 327 67 86 117 
161 411 326 74 93 122 
161 412 323 55 78 113 
162 412 321 60 82 117 
163 412 320 55 74 111 
163 412 321 62 82 117 
163 413 320 58 78 113 
163 413 321 61 84 117 
162 412 322 49 76 113 
162 412 323 49 76 112 
162 413 322 46 74 111 
162 413 323 50 75 113 
163 414 320 59 78 113 
163 414 321 61 83 116 
163 415 320 55 77 112 
163 415 321 55 77 114 
162 414 322 49 74 112 
162 414 323 45 71 111 
162 415 322 44 68 110 
162 415 323 45 69 112 
163 414 322 50 76 113 
163 415 322 51 73 112 
161 412 324 59 80 115 
